ply
format ascii 1.0
comment Created by Open3D
element vertex 468
property double x
property double y
property double z
end_header
0.0564338 0.371264 3.75958
0.0627042 0.455317 3.83146
0.0619976 0.423957 3.76587
0.0405085 0.535947 3.79049
0.0623592 0.48233 3.8378
0.0611524 0.515595 3.82474
0.0610957 0.588363 3.7509
-0.113008 0.588531 3.64505
0.0603252 0.638572 3.7296
0.0596777 0.669323 3.73252
0.0577607 0.783704 3.69891
0.0553505 0.359367 3.7568
0.0542036 0.351618 3.75016
0.05368 0.349831 3.73945
0.0565895 0.286355 3.72717
0.0561869 0.2761 3.73298
0.0550241 0.264251 3.7393
0.0553818 0.249349 3.73519
0.0567895 0.223919 3.71428
0.0616901 0.440841 3.81918
0.0376767 0.439731 3.78173
-0.207065 0.655342 3.52903
-0.0415475 0.573087 3.67232
-0.0663639 0.571495 3.67085
-0.0910835 0.570641 3.66439
-0.125879 0.57893 3.64216
-0.0207408 0.576954 3.66977
-0.0798518 0.62633 3.67559
-0.0525752 0.624965 3.67484
-0.104074 0.621642 3.66832
-0.120285 0.612563 3.65859
-0.146484 0.560207 3.6306
-0.0434293 0.192377 3.67546
-0.123913 0.591595 3.63677
-0.222847 0.549655 3.52003
-0.17512 0.568459 3.60516
-0.0741411 0.472986 3.70039
0.0153743 0.376066 3.75387
0.0162616 0.352872 3.74334
-0.0268595 0.371545 3.73388
-0.0526388 0.363581 3.70568
-0.0140393 0.353092 3.7278
-0.0358188 0.350837 3.7019
-0.0804495 0.306402 3.65503
0.0408884 0.455773 3.82775
0.0375992 0.482348 3.83349
-0.157374 0.63159 3.65486
-0.0156087 0.532931 3.70378
-0.0239344 0.462492 3.76028
-0.0257439 0.475867 3.75063
-0.1528 0.475318 3.66772
0.0388677 0.512434 3.81703
-0.0965791 0.660026 3.69576
-0.131987 0.651022 3.67841
-0.180607 0.703538 3.57507
0.010296 0.642364 3.72028
-0.0278727 0.61705 3.66822
-0.101569 0.342659 3.65103
-0.210367 0.298117 3.46389
-0.00420111 0.446395 3.75136
0.0179025 0.437524 3.75472
-0.0833178 0.341703 3.65059
-0.0702933 0.340736 3.65659
-0.145149 0.664268 3.66559
-0.0269685 0.452259 3.74541
-0.0494645 0.658709 3.70987
-0.0544957 0.678614 3.71425
-0.0810547 0.769943 3.66532
-0.162319 0.685262 3.62448
-0.0643096 0.726546 3.69068
-0.172231 0.638919 3.63307
-0.189049 0.645697 3.58252
0.0147776 0.361967 3.75114
-0.019752 0.360057 3.73127
-0.0444212 0.357085 3.70503
0.00192864 0.441497 3.74642
-0.0771669 0.341402 3.65366
-0.0619824 0.318253 3.66766
-0.0660301 0.340551 3.65765
0.0111383 0.454423 3.79033
-0.0318003 0.353256 3.69791
-0.0090984 0.352952 3.71822
0.018697 0.351559 3.73338
0.0127937 0.227989 3.70797
0.0126242 0.254298 3.72868
0.014559 0.268794 3.73165
0.0180013 0.280465 3.72554
0.0211463 0.289109 3.72113
-0.0313684 0.307335 3.6877
-0.0367606 0.304859 3.68976
-0.0441054 0.299336 3.6909
-0.0489133 0.291394 3.68595
-0.0658588 0.386284 3.69849
-0.227305 0.424624 3.42601
0.0637284 0.431745 3.7852
-0.0466774 0.318157 3.66989
-0.0547555 0.31919 3.66967
0.0264099 0.425612 3.75634
-0.018875 0.435358 3.72559
0.0223647 0.431475 3.75682
-0.0429212 0.520403 3.69554
-0.087392 0.505654 3.68915
-0.0315205 0.464563 3.73582
-0.140867 0.742967 3.62162
-0.122239 0.713124 3.65845
-0.104811 0.678075 3.69013
-0.0574508 0.274291 3.67164
0.00203124 0.673924 3.72732
-0.00622377 0.730267 3.70891
-0.0171606 0.782214 3.69003
-0.113048 0.572922 3.65335
-0.175667 0.540687 3.61658
-0.00747073 0.581194 3.66693
-0.146357 0.601561 3.63943
0.00301 0.547844 3.71338
-0.0055719 0.471212 3.78659
-0.205823 0.518587 3.59004
-0.158293 0.530525 3.64
-0.126005 0.526372 3.66279
-0.0768565 0.530703 3.67624
-0.0399696 0.539463 3.68126
-0.0142946 0.54978 3.68827
0.0376786 0.580817 3.74109
-0.209216 0.470831 3.59849
-0.168076 0.602371 3.62848
0.0480837 0.44172 3.81714
-0.0156187 0.509811 3.71608
-0.227608 0.539943 3.44257
0.00544767 0.561343 3.69243
-0.033418 0.460809 3.70784
-0.13287 0.588538 3.63248
-0.00741888 0.487669 3.77493
-0.225027 0.363088 3.43825
-0.00892899 0.588231 3.6601
0.0152213 0.502915 3.80101
-0.157455 0.252085 3.58242
-0.155084 0.211126 3.54854
-0.231739 0.443698 3.51098
-0.191623 0.285383 3.55674
-0.205733 0.601039 3.54484
-0.0465422 0.159414 3.66633
0.0535963 0.432748 3.78271
-0.0406539 0.492942 3.70591
-0.198085 0.559172 3.58064
-0.0857336 0.585681 3.66024
-0.0643664 0.585211 3.667
-0.0684005 0.315975 3.66373
-0.211292 0.416398 3.58977
0.00346315 0.117752 3.66976
-0.0781727 0.153265 3.61459
-0.113913 0.177406 3.58434
0.059056 0.729407 3.71623
0.0602961 0.114401 3.67886
-0.0446582 0.586178 3.66803
-0.0252774 0.587918 3.66519
-0.0135169 0.58777 3.6611
-0.186625 0.603332 3.60326
-0.0331348 0.604636 3.66565
-0.0560633 0.611455 3.66876
-0.0771764 0.612494 3.66753
-0.0979553 0.607973 3.66196
-0.111032 0.600915 3.65406
-0.22063 0.603244 3.48031
-0.10122 0.58693 3.65238
0.0604678 0.406213 3.75737
-0.0379493 0.400689 3.72128
-0.00389207 0.450129 3.76148
0.0188074 0.406113 3.75153
0.0605411 0.613744 3.73006
-0.118875 0.216739 3.60471
-0.0843255 0.187493 3.6329
0.00126161 0.14167 3.69512
-0.185456 0.24769 3.50746
-0.016842 0.594773 3.6632
0.0205132 0.543145 3.74977
0.0592447 0.136932 3.70328
-0.041118 0.132171 3.64705
-0.230002 0.385924 3.51522
-0.0074019 0.296828 3.7063
-0.0126438 0.290803 3.70923
-0.0180856 0.281468 3.71163
-0.0214277 0.268154 3.70758
-0.0282609 0.246733 3.69216
-0.0577644 0.34886 3.67764
-0.0655989 0.351823 3.67649
-0.0730327 0.356135 3.67633
-0.0898622 0.368025 3.67355
-0.179662 0.412635 3.6393
0.021338 0.565184 3.72541
0.0109567 0.603637 3.67618
-0.00547309 0.601092 3.66734
-0.051141 0.351384 3.6755
-0.183802 0.338187 3.59959
0.0298739 0.607835 3.71081
-0.0360672 0.22291 3.68128
0.061216 0.54064 3.79845
0.0384874 0.55735 3.76776
0.0612928 0.563291 3.77361
0.000767417 0.506315 3.75083
0.0585855 0.167272 3.71331
0.057918 0.199378 3.71195
0.00915007 0.203112 3.70217
-0.0954674 0.290555 3.64416
-0.0565559 0.440306 3.70005
-0.0692485 0.252641 3.65972
-0.119527 0.441772 3.68763
-0.0842321 0.414358 3.6895
-0.144005 0.398113 3.66286
0.00344825 0.172053 3.70396
-0.0164745 0.492541 3.73161
-0.11277 0.258565 3.62695
-0.0785717 0.222905 3.64621
-0.118054 0.331794 3.64565
-0.207175 0.367584 3.57997
-0.149806 0.314706 3.62558
-0.217632 0.331738 3.52647
-0.109799 0.38514 3.67255
0.0032235 0.526227 3.73172
0.00242712 0.459482 3.79421
-0.0158049 0.45354 3.76349
0.0152064 0.477381 3.8128
-0.00848295 0.622185 3.68199
-0.0491535 0.63497 3.68513
-0.0848422 0.637798 3.68349
-0.114327 0.633428 3.67358
-0.135445 0.621773 3.65908
-0.150714 0.578972 3.62301
-0.22971 0.497644 3.51452
-0.131934 0.553736 3.64352
-0.105491 0.549652 3.65934
-0.0716143 0.551649 3.66995
-0.0396513 0.556708 3.67343
-0.0157634 0.563448 3.67524
0.000702709 0.569854 3.67657
-0.227148 0.482137 3.42679
-0.0161669 0.447378 3.75069
0.0205688 0.523301 3.7722
0.0220912 0.458296 3.81488
0.0348078 0.445176 3.80489
0.0213512 0.453258 3.80264
-0.0102923 0.439536 3.74147
0.0397601 0.443281 3.8123
0.0443276 0.435093 3.78212
0.000611551 0.586522 3.66407
0.0131627 0.581822 3.67959
0.0197953 0.579369 3.69913
-0.118633 0.595639 3.6467
-0.132035 0.602144 3.64482
0.0821031 0.535832 3.78964
0.227192 0.592125 3.64494
0.0867347 0.44006 3.78447
0.30119 0.648796 3.52744
0.155495 0.573548 3.66806
0.17837 0.572564 3.66756
0.201852 0.571654 3.6626
0.235217 0.581777 3.64202
0.137468 0.577584 3.66723
0.190403 0.627515 3.67408
0.164498 0.625412 3.6745
0.214885 0.623836 3.66777
0.230519 0.615431 3.65937
0.25372 0.56094 3.63308
0.156982 0.199302 3.68138
0.237054 0.595757 3.63725
0.320133 0.548188 3.52345
0.278457 0.569072 3.60886
0.184649 0.472869 3.70684
0.0947786 0.376159 3.75741
0.0881844 0.352809 3.74622
0.132176 0.371922 3.74067
0.155084 0.363079 3.713
0.115575 0.352661 3.73173
0.137287 0.349388 3.70693
0.185478 0.30709 3.66336
0.0830795 0.45631 3.83024
0.0848132 0.482746 3.83573
0.261651 0.634657 3.65605
0.131393 0.532439 3.70457
0.141509 0.463079 3.76632
0.141976 0.476221 3.75662
0.255327 0.475311 3.67479
0.0834913 0.512362 3.817
0.207684 0.661805 3.69923
0.239871 0.653792 3.68075
0.277665 0.69603 3.57389
0.107825 0.642016 3.72093
0.143677 0.616963 3.6674
0.204969 0.342227 3.65903
0.309878 0.308375 3.47009
0.125639 0.447214 3.75737
0.104859 0.437952 3.76154
0.187013 0.339116 3.65824
0.172536 0.337906 3.66414
0.251362 0.666326 3.66801
0.143796 0.452645 3.7532
0.164227 0.659234 3.71318
0.168112 0.678861 3.71857
0.188389 0.76386 3.66696
0.26339 0.682352 3.62628
0.176549 0.723486 3.69364
0.274577 0.640648 3.63449
0.28761 0.643234 3.58359
0.0918726 0.362016 3.75429
0.123269 0.36009 3.73637
0.146418 0.356283 3.71172
0.1202 0.44234 3.75385
0.18026 0.338732 3.66192
0.165531 0.316746 3.67631
0.166993 0.337779 3.66429
0.109743 0.45526 3.79195
0.131291 0.351335 3.70248
0.110451 0.351875 3.72115
0.0849284 0.350894 3.73509
0.0984843 0.229053 3.71269
0.0952506 0.254712 3.73211
0.093521 0.268903 3.73402
0.0919087 0.28029 3.7275
0.0889097 0.288908 3.72241
0.136109 0.306487 3.69273
0.140822 0.304199 3.69697
0.147329 0.298993 3.69934
0.153438 0.291616 3.69482
0.174977 0.386063 3.70775
0.329965 0.427476 3.42918
0.150533 0.316144 3.67427
0.158488 0.317392 3.67701
0.0963829 0.425583 3.76028
0.138493 0.435574 3.73591
0.10039 0.431612 3.76245
0.156608 0.519813 3.69666
0.196887 0.504851 3.69277
0.147532 0.46488 3.743
0.242179 0.735582 3.62351
0.22882 0.710284 3.66195
0.215551 0.679222 3.69387
0.164655 0.276193 3.67884
0.114841 0.672982 3.72985
0.122084 0.728209 3.71131
0.128772 0.778691 3.69293
0.222765 0.574854 3.65226
0.279244 0.540499 3.6215
0.127428 0.58165 3.66353
0.253591 0.604631 3.64079
0.114462 0.54745 3.71272
0.124569 0.472032 3.79109
0.305646 0.51878 3.59515
0.263607 0.529868 3.64348
0.233751 0.525382 3.66573
0.188638 0.529884 3.67658
0.154765 0.538973 3.68054
0.130578 0.549492 3.68756
0.0835431 0.580525 3.7406
0.309439 0.471931 3.60485
0.270618 0.603881 3.63026
0.0742725 0.441995 3.81755
0.132678 0.509283 3.71809
0.327384 0.536534 3.44213
0.113886 0.561035 3.69118
0.152341 0.461033 3.71642
0.243879 0.592179 3.63285
0.12448 0.488103 3.77944
0.326095 0.369965 3.44439
0.129666 0.58905 3.6559
0.10364 0.503058 3.80275
0.260077 0.26414 3.59145
0.257129 0.225905 3.55553
0.333375 0.447087 3.51793
0.289879 0.296643 3.56588
0.304647 0.598121 3.54599
0.161274 0.16849 3.67189
0.0742973 0.432659 3.78389
0.154916 0.492708 3.71053
0.297918 0.559267 3.58428
0.201228 0.587748 3.65776
0.179951 0.586674 3.66294
0.172273 0.314855 3.67246
0.310832 0.42056 3.59926
0.116206 0.123071 3.67172
0.192239 0.165587 3.6189
0.222393 0.191921 3.58981
0.160247 0.587148 3.66406
0.143206 0.588661 3.66038
0.133793 0.588364 3.65591
0.286347 0.603503 3.60512
0.148131 0.605661 3.66242
0.166771 0.613015 3.66721
0.18771 0.615088 3.66654
0.209235 0.611558 3.66171
0.222621 0.604903 3.65479
0.318425 0.597628 3.47908
0.216277 0.589634 3.65102
0.151062 0.40075 3.72957
0.125062 0.451346 3.76823
0.0987102 0.406326 3.75521
0.227434 0.229201 3.61265
0.195307 0.199287 3.64017
0.115291 0.146585 3.69783
0.28483 0.260396 3.5126
0.135651 0.595648 3.65859
0.0997154 0.542955 3.75028
0.158501 0.141646 3.65035
0.329132 0.392658 3.52518
0.114887 0.29635 3.70938
0.119745 0.29053 3.71369
0.124376 0.281342 3.71673
0.128857 0.268418 3.71336
0.137086 0.24842 3.69757
0.157875 0.346492 3.68401
0.166771 0.349687 3.68305
0.174244 0.354209 3.68379
0.195203 0.367253 3.68183
0.278489 0.415657 3.64917
0.098829 0.56475 3.72454
0.110741 0.603748 3.67587
0.125259 0.601162 3.66419
0.150484 0.34861 3.68046
0.282951 0.345184 3.61048
0.0906236 0.60738 3.71105
0.146593 0.227767 3.6879
0.0827224 0.557455 3.76803
0.117481 0.506443 3.75395
0.104642 0.205861 3.70681
0.202782 0.294862 3.65266
0.171002 0.440385 3.70869
0.177536 0.257834 3.66773
0.224161 0.442853 3.69709
0.193561 0.414676 3.69836
0.245776 0.400626 3.67263
0.112039 0.175702 3.70668
0.133151 0.492529 3.73615
0.221007 0.267304 3.63543
0.189351 0.231758 3.65449
0.222643 0.334451 3.65216
0.305458 0.3743 3.59108
0.251209 0.321606 3.63517
0.31581 0.341122 3.53547
0.21374 0.385282 3.68055
0.115529 0.525977 3.73265
0.116885 0.460634 3.7974
0.134403 0.454622 3.77067
0.106067 0.477988 3.81484
0.12763 0.622491 3.68129
0.164155 0.636168 3.6864
0.197706 0.639389 3.68488
0.225648 0.635402 3.67533
0.244059 0.624673 3.66109
0.257805 0.581075 3.62513
0.32946 0.498096 3.51837
0.240706 0.554438 3.64496
0.21532 0.549656 3.65988
0.183318 0.551618 3.66892
0.153976 0.556864 3.67131
0.132611 0.563701 3.67408
0.118629 0.570116 3.67543
0.328889 0.481256 3.42631
0.134677 0.448231 3.75845
0.100811 0.523149 3.77264
0.100024 0.459491 3.81776
0.0859109 0.446237 3.80774
0.0997377 0.454603 3.80528
0.12945 0.439936 3.7505
0.0816055 0.44407 3.81463
0.0816941 0.435584 3.78451
0.121154 0.587243 3.66174
0.107432 0.581849 3.67898
0.100436 0.579109 3.69886
0.230604 0.599798 3.64764
0.241836 0.605679 3.64645
