ply
format ascii 1.0
comment Created by Open3D
element vertex 468
property double x
property double y
property double z
end_header
-0.000669885 0.336306 3.69325
-0.00297831 0.419138 3.76154
-0.00190709 0.38048 3.69801
-0.0239493 0.498873 3.72155
-0.00303991 0.44573 3.7667
-0.00296861 0.479223 3.75266
-0.00195854 0.554406 3.68338
-0.176638 0.552746 3.58913
-0.00174783 0.627834 3.65547
-0.00159983 0.667354 3.6585
-0.000736893 0.783782 3.63895
-0.000308149 0.325942 3.69003
-0.00013048 0.318244 3.682
-7.89237e-05 0.313863 3.67025
0.000333853 0.306148 3.66611
0.000264658 0.297904 3.67004
0.000199277 0.288433 3.6749
0.000177487 0.275444 3.67193
0.000137727 0.248074 3.65136
-0.00284377 0.405823 3.74987
-0.0272309 0.400088 3.71464
-0.269738 0.628801 3.47874
-0.0991354 0.538057 3.61622
-0.124395 0.53573 3.61427
-0.149593 0.534809 3.60749
-0.183388 0.544622 3.58376
-0.0793714 0.540638 3.61272
-0.14596 0.604193 3.61284
-0.117367 0.602401 3.61568
-0.169952 0.597204 3.60482
-0.184762 0.585721 3.59769
-0.202146 0.524833 3.57316
-0.087426 0.208639 3.61684
-0.187418 0.558145 3.57965
-0.272839 0.514381 3.46867
-0.230809 0.538647 3.54817
-0.125243 0.434917 3.64085
-0.0334089 0.340576 3.68957
-0.0281875 0.319548 3.67781
-0.064995 0.336597 3.67305
-0.0830567 0.330547 3.65238
-0.0514389 0.320285 3.66655
-0.068489 0.317306 3.64765
-0.111017 0.292746 3.6076
-0.0241924 0.420857 3.75895
-0.0272387 0.446722 3.76342
-0.223181 0.615857 3.58716
-0.075615 0.496225 3.64151
-0.0817514 0.423973 3.69563
-0.0819368 0.436951 3.68617
-0.197028 0.437213 3.60777
-0.0258994 0.475825 3.74622
-0.174378 0.652473 3.62305
-0.204258 0.639406 3.60549
-0.251138 0.685187 3.52331
-0.0626267 0.633981 3.64766
-0.0916018 0.589968 3.61188
-0.13067 0.312348 3.60343
-0.233885 0.273251 3.39264
-0.0646811 0.406518 3.68879
-0.0441536 0.39496 3.6893
-0.106134 0.312133 3.60621
-0.0951812 0.312739 3.61348
-0.218666 0.655011 3.59496
-0.0817031 0.412707 3.68139
-0.129778 0.653518 3.63704
-0.135311 0.67706 3.64133
-0.155669 0.764949 3.60959
-0.235576 0.670908 3.56479
-0.142738 0.719431 3.63029
-0.238695 0.623865 3.56792
-0.25422 0.625608 3.52874
-0.0312877 0.328987 3.68679
-0.0574036 0.326511 3.67102
-0.0755261 0.323903 3.65156
-0.0586041 0.400072 3.68361
-0.100372 0.312539 3.61018
-0.0888655 0.307949 3.62367
-0.0924482 0.313399 3.61388
-0.0519631 0.418872 3.72376
-0.063647 0.317723 3.64229
-0.0462919 0.316981 3.65597
-0.0248514 0.315372 3.66653
-0.032361 0.250959 3.64807
-0.0310086 0.278636 3.66866
-0.0300323 0.291472 3.67117
-0.0282052 0.300342 3.66641
-0.0259613 0.307084 3.66264
-0.0669618 0.31075 3.63964
-0.0705433 0.308991 3.64181
-0.0752128 0.304706 3.64329
-0.0792836 0.29671 3.63916
-0.105069 0.350508 3.64541
-0.262897 0.381917 3.36647
-0.00268917 0.390219 3.71723
-0.07836 0.310003 3.62518
-0.0834223 0.30971 3.62552
-0.0345289 0.382106 3.68986
-0.0740816 0.392518 3.66457
-0.0392191 0.388533 3.69076
-0.0994038 0.481921 3.63235
-0.139618 0.465462 3.62602
-0.0851241 0.424883 3.67264
-0.21686 0.731959 3.56796
-0.20172 0.703324 3.59743
-0.185187 0.674013 3.62008
-0.0905349 0.275993 3.62267
-0.0717798 0.671429 3.65422
-0.0773123 0.723054 3.64989
-0.0857376 0.781275 3.63305
-0.17139 0.537303 3.59582
-0.228363 0.504853 3.56165
-0.0677166 0.54372 3.61078
-0.207237 0.576019 3.57942
-0.0591828 0.511335 3.64925
-0.067384 0.434594 3.72034
-0.252756 0.482721 3.53356
-0.211461 0.492008 3.58339
-0.180057 0.487569 3.60608
-0.132475 0.49171 3.61535
-0.0982978 0.502122 3.62017
-0.0752205 0.513434 3.62679
-0.0255219 0.546737 3.67538
-0.248695 0.433558 3.54051
-0.228433 0.581201 3.56809
-0.0157625 0.40716 3.74781
-0.0738724 0.471195 3.65388
-0.277496 0.497784 3.39003
-0.0573712 0.524488 3.63195
-0.0870968 0.418471 3.64933
-0.192827 0.555903 3.57426
-0.0675614 0.450877 3.70878
-0.252601 0.326976 3.37337
-0.0699034 0.551235 3.60678
-0.0474133 0.466922 3.73154
-0.18769 0.246705 3.52401
-0.182163 0.210434 3.47808
-0.266536 0.405645 3.45497
-0.217096 0.272143 3.49374
-0.264449 0.57152 3.4932
-0.0912183 0.179204 3.60174
-0.0130795 0.390845 3.71517
-0.0950066 0.453884 3.64484
-0.251012 0.529349 3.52579
-0.148494 0.546836 3.60535
-0.125357 0.546914 3.61151
-0.094575 0.304522 3.61905
-0.243091 0.383243 3.53044
-0.0485197 0.141905 3.5965
-0.116732 0.16929 3.54674
-0.146317 0.18708 3.51714
-0.00119256 0.723138 3.65518
0.000223444 0.138067 3.60422
-0.103839 0.548859 3.61204
-0.0840452 0.550935 3.60874
-0.0731967 0.550415 3.60585
-0.24625 0.581575 3.54402
-0.094763 0.577594 3.60895
-0.11906 0.589092 3.60845
-0.143378 0.590229 3.60648
-0.165709 0.58367 3.60158
-0.177727 0.573799 3.59623
-0.278527 0.566516 3.42975
-0.164813 0.549086 3.59685
-0.0013111 0.365601 3.69052
-0.0845002 0.361977 3.66154
-0.0656056 0.411942 3.69952
-0.0367091 0.366074 3.68649
-0.00162337 0.590623 3.66122
-0.154203 0.219532 3.54586
-0.12358 0.198838 3.57115
-0.0501616 0.166427 3.62641
-0.20968 0.235736 3.43274
-0.0777732 0.56111 3.60866
-0.0430648 0.506809 3.68568
0.000292327 0.160843 3.63321
-0.0855399 0.153912 3.57715
-0.256716 0.354629 3.45611
-0.0486241 0.308818 3.65259
-0.0521381 0.30476 3.656
-0.055285 0.29795 3.65897
-0.0577162 0.28558 3.65655
-0.0648058 0.261943 3.63861
-0.0841479 0.315823 3.62968
-0.091279 0.318516 3.62879
-0.098177 0.323262 3.62877
-0.122483 0.334426 3.62632
-0.213909 0.381572 3.58018
-0.0422793 0.529167 3.66074
-0.054424 0.573649 3.62086
-0.0681878 0.568317 3.61307
-0.0786264 0.316212 3.62617
-0.212572 0.31684 3.54169
-0.0347264 0.583334 3.64768
-0.0767451 0.236604 3.62593
-0.00261609 0.503967 3.72888
-0.0254766 0.522565 3.70282
-0.00236229 0.52761 3.70724
-0.0602756 0.469145 3.68727
0.000229147 0.189177 3.64647
0.000271179 0.219921 3.64707
-0.0390319 0.223328 3.64087
-0.132333 0.278517 3.59467
-0.107408 0.401039 3.64271
-0.10685 0.255157 3.6082
-0.164345 0.407328 3.63003
-0.129767 0.379022 3.6355
-0.183141 0.368514 3.60905
-0.0467257 0.194239 3.63918
-0.0738329 0.454062 3.66903
-0.15068 0.252812 3.57311
-0.118968 0.227844 3.59017
-0.153535 0.306892 3.59374
-0.234707 0.341039 3.51996
-0.182733 0.298329 3.57251
-0.241988 0.308183 3.46237
-0.147989 0.351935 3.62072
-0.0584099 0.488855 3.66831
-0.0598723 0.42473 3.7283
-0.0750255 0.415455 3.69924
-0.0488668 0.440675 3.74275
-0.0779612 0.600997 3.6244
-0.121282 0.617547 3.62364
-0.156235 0.619192 3.61829
-0.183159 0.612538 3.60745
-0.199898 0.599015 3.59518
-0.208442 0.548494 3.56494
-0.272345 0.459391 3.46066
-0.188013 0.517164 3.58645
-0.162102 0.512631 3.6017
-0.12831 0.514679 3.61041
-0.0976689 0.521407 3.61549
-0.0757902 0.527337 3.61631
-0.0609784 0.533195 3.61877
-0.269657 0.438427 3.37159
-0.0738035 0.407995 3.68726
-0.0433018 0.485925 3.7056
-0.0420007 0.423731 3.74738
-0.0284725 0.410418 3.73669
-0.0420776 0.418787 3.73553
-0.0671575 0.398409 3.67893
-0.0237215 0.408542 3.74354
-0.0213323 0.394687 3.71526
-0.0614183 0.54916 3.6102
-0.049301 0.546618 3.62325
-0.0429961 0.544376 3.63741
-0.183769 0.565725 3.58933
-0.19374 0.573598 3.58584
0.0188949 0.498751 3.72142
0.176775 0.550391 3.58819
0.0216809 0.399633 3.71442
0.273295 0.62745 3.47684
0.0977555 0.536653 3.61554
0.123494 0.534113 3.6134
0.149024 0.533087 3.60669
0.183803 0.542407 3.58279
0.0776737 0.539528 3.61232
0.145154 0.602973 3.61209
0.115994 0.601291 3.61486
0.169813 0.595632 3.60393
0.185021 0.583857 3.59699
0.202821 0.523136 3.57179
0.0884407 0.20878 3.61611
0.187886 0.555628 3.57855
0.276707 0.512951 3.46607
0.232783 0.536829 3.54621
0.12334 0.434586 3.63943
0.03236 0.340745 3.68923
0.0284671 0.319814 3.67757
0.0648628 0.337031 3.67226
0.0839899 0.331331 3.65106
0.0522199 0.32096 3.66573
0.0697502 0.31837 3.64647
0.112946 0.293646 3.60637
0.0181402 0.420524 3.75882
0.0214102 0.446591 3.76332
0.224707 0.614394 3.58565
0.0729056 0.495841 3.64095
0.0770941 0.423208 3.6946
0.0778824 0.436394 3.68518
0.196718 0.436415 3.6059
0.0202213 0.475582 3.74601
0.173843 0.651626 3.62135
0.204784 0.638063 3.60419
0.254466 0.68385 3.52162
0.0595772 0.633877 3.64708
0.0901952 0.588915 3.61141
0.13261 0.313331 3.60188
0.237635 0.271665 3.39083
0.0598566 0.405699 3.68853
0.0392803 0.394733 3.68899
0.108563 0.313565 3.60468
0.0972837 0.314348 3.61215
0.220026 0.653942 3.59338
0.0774626 0.412111 3.68039
0.12779 0.653259 3.63598
0.133404 0.677065 3.64021
0.155479 0.764364 3.60852
0.237881 0.669946 3.56354
0.141888 0.719194 3.62922
0.240482 0.622542 3.56619
0.257152 0.624341 3.52699
0.031085 0.329204 3.68649
0.0577896 0.32702 3.67029
0.0767746 0.324675 3.65037
0.0539815 0.399303 3.68292
0.102753 0.31419 3.60869
0.0909376 0.309295 3.62227
0.0945941 0.315058 3.61257
0.0462951 0.417844 3.72335
0.0651136 0.318915 3.64123
0.047098 0.317732 3.65527
0.0253698 0.315728 3.66632
0.0330827 0.251208 3.64773
0.0316351 0.278905 3.66819
0.0307767 0.291617 3.67072
0.029181 0.300547 3.66599
0.0269599 0.30722 3.66222
0.0687323 0.311736 3.63857
0.0721338 0.310009 3.64078
0.0767191 0.305745 3.64213
0.0809332 0.297593 3.63785
0.104545 0.350971 3.6439
0.266482 0.380144 3.36374
0.0804833 0.31143 3.624
0.0854302 0.310904 3.6242
0.0302237 0.382053 3.68938
0.0701484 0.392257 3.66357
0.0344738 0.388398 3.69059
0.0971175 0.481385 3.6313
0.138168 0.464935 3.62493
0.0813241 0.424376 3.67158
0.218434 0.73106 3.5666
0.202721 0.702703 3.59599
0.184958 0.673507 3.6187
0.0920466 0.276761 3.6216
0.0688764 0.671284 3.65329
0.0752345 0.722784 3.64914
0.0843211 0.780811 3.63236
0.171303 0.535246 3.59488
0.229668 0.503301 3.55965
0.0658077 0.542618 3.61044
0.208481 0.574062 3.57818
0.0561414 0.511008 3.64877
0.0620861 0.433786 3.71978
0.254769 0.481181 3.53121
0.211781 0.490714 3.58161
0.179572 0.486629 3.60461
0.131085 0.49082 3.61404
0.0963497 0.501346 3.61921
0.0728947 0.512654 3.62606
0.022068 0.546453 3.67519
0.249839 0.432289 3.53829
0.230024 0.579604 3.56633
0.0100558 0.40682 3.74773
0.0708632 0.470767 3.65303
0.281454 0.496383 3.3874
0.0546249 0.523775 3.63136
0.0834047 0.418126 3.64796
0.193712 0.553511 3.57316
0.0627171 0.450337 3.70813
0.256423 0.325023 3.37116
0.0680842 0.549894 3.60626
0.0423405 0.466635 3.73103
0.190066 0.246066 3.52277
0.184986 0.209982 3.47662
0.269334 0.404175 3.45282
0.220031 0.271392 3.49227
0.267724 0.570066 3.4908
0.092164 0.1795 3.60102
0.00761198 0.390846 3.71505
0.0922528 0.453579 3.64372
0.253806 0.527736 3.52368
0.147771 0.544685 3.60451
0.124308 0.544887 3.61061
0.0967585 0.305934 3.61751
0.244465 0.381992 3.52835
0.0492611 0.141886 3.5959
0.118041 0.169349 3.54572
0.148369 0.186839 3.51597
0.10262 0.547376 3.61143
0.0825001 0.549622 3.60827
0.0715158 0.549193 3.60552
0.24844 0.580062 3.54203
0.0938322 0.576237 3.60866
0.118366 0.587601 3.60809
0.142982 0.588558 3.6061
0.165395 0.581434 3.601
0.177816 0.571644 3.59563
0.282053 0.565117 3.4274
0.164515 0.546734 3.59583
0.0824334 0.362291 3.66036
0.0605319 0.41108 3.69911
0.0339401 0.366171 3.686
0.156181 0.219314 3.54504
0.124921 0.198839 3.5703
0.05108 0.166532 3.62598
0.21306 0.23478 3.43104
0.0762224 0.559898 3.60839
0.0390634 0.506566 3.68528
0.0864203 0.154075 3.57628
0.259638 0.352977 3.45374
0.0499562 0.309392 3.65183
0.0534396 0.305359 3.65504
0.0565117 0.298484 3.65811
0.0587554 0.286213 3.65568
0.0659486 0.262466 3.63776
0.0862189 0.317167 3.62823
0.0932729 0.319918 3.6276
0.100249 0.324502 3.62734
0.123464 0.335252 3.62459
0.214685 0.380829 3.57857
0.0388327 0.528953 3.66053
0.0520731 0.573043 3.62055
0.0662217 0.567246 3.61251
0.0805087 0.317803 3.62499
0.214639 0.316074 3.53999
0.0316961 0.583078 3.64749
0.0778748 0.237029 3.62513
0.0212477 0.522269 3.70254
0.0561281 0.468834 3.68656
0.0398945 0.223535 3.64048
0.133861 0.278826 3.59351
0.10481 0.400987 3.64132
0.108261 0.255303 3.60729
0.163739 0.406982 3.62852
0.128672 0.379056 3.63402
0.183667 0.368262 3.60777
0.047763 0.19435 3.63865
0.0700204 0.453585 3.66808
0.152189 0.252824 3.57212
0.120352 0.227841 3.58907
0.154954 0.307412 3.5926
0.236714 0.339851 3.51799
0.184454 0.297931 3.57137
0.245223 0.306806 3.46054
0.148469 0.352437 3.6196
0.0549135 0.48834 3.66765
0.0543037 0.423813 3.72799
0.0702348 0.414531 3.69852
0.0432866 0.440187 3.74268
0.0758136 0.600468 3.6241
0.119409 0.616656 3.62293
0.155227 0.617967 3.61729
0.183063 0.610859 3.60649
0.200621 0.59704 3.59415
0.209783 0.54661 3.56353
0.275572 0.457768 3.45818
0.188026 0.515585 3.58523
0.161526 0.511354 3.60053
0.127163 0.513344 3.60951
0.0959391 0.520314 3.61464
0.073853 0.526289 3.6155
0.0587163 0.532222 3.61818
0.273519 0.436837 3.36903
0.0691228 0.407124 3.6866
0.0387272 0.485606 3.70512
0.0362027 0.422999 3.74706
0.0227046 0.409994 3.73674
0.036253 0.418082 3.73546
0.0627898 0.397746 3.67816
0.018105 0.40813 3.74356
0.0159115 0.394425 3.7152
0.0594858 0.547976 3.60965
0.0468661 0.54582 3.62268
0.0402742 0.543884 3.63695
0.184059 0.563364 3.58846
0.19443 0.571474 3.58487
