ply
format ascii 1.0
comment Created by Open3D
element vertex 468
property double x
property double y
property double z
end_header
-0.00976929 0.347154 4.10606
-0.00928497 0.428151 4.15696
-0.0105271 0.403998 4.09975
-0.0293741 0.507462 4.12254
-0.00906878 0.452901 4.16451
-0.0085582 0.48455 4.15393
-0.0100307 0.562664 4.0866
-0.176027 0.568541 3.99539
-0.010679 0.625929 4.06855
-0.0109899 0.659032 4.07139
-0.0125515 0.771963 4.03852
-0.00975122 0.33454 4.10385
-0.00977377 0.323819 4.09588
-0.00959368 0.318103 4.0853
-0.0104647 0.295891 4.07982
-0.0105674 0.282919 4.0832
-0.0103172 0.267218 4.08658
-0.0104852 0.252205 4.08032
-0.0106526 0.235523 4.05469
-0.00888532 0.415313 4.14518
-0.0294087 0.416917 4.11447
-0.257723 0.661697 3.87547
-0.109495 0.545993 4.01909
-0.132273 0.543927 4.01763
-0.154197 0.545494 4.01139
-0.183268 0.559647 3.99201
-0.0907433 0.552962 4.01686
-0.137834 0.612933 4.02735
-0.113071 0.611106 4.02749
-0.161626 0.608973 4.02012
-0.177522 0.5998 4.01084
-0.201825 0.543696 3.98126
-0.0935539 0.21277 4.03351
-0.183978 0.574976 3.98755
-0.26781 0.559528 3.87501
-0.226566 0.562005 3.95651
-0.12337 0.445379 4.04844
-0.0364926 0.350473 4.10229
-0.0313516 0.323271 4.09199
-0.0634636 0.340346 4.08889
-0.0796765 0.327547 4.07196
-0.0497133 0.320078 4.08249
-0.0639405 0.315306 4.06693
-0.10864 0.28491 4.03758
-0.027488 0.428515 4.15549
-0.0307614 0.451922 4.16222
-0.211022 0.623903 4.00025
-0.07911 0.507114 4.04788
-0.0788088 0.43304 4.09777
-0.0809048 0.445607 4.09069
-0.190631 0.446722 4.01831
-0.0300339 0.481999 4.14634
-0.15836 0.650857 4.04166
-0.189442 0.641976 4.02258
-0.235071 0.703397 3.92032
-0.0600693 0.631742 4.06187
-0.0924905 0.602547 4.02072
-0.124093 0.309864 4.03214
-0.239237 0.338202 3.82575
-0.0621062 0.420164 4.08931
-0.0436283 0.412889 4.09336
-0.0986274 0.306032 4.03453
-0.0852526 0.307225 4.04123
-0.201941 0.657557 4.01042
-0.0785383 0.421456 4.08564
-0.116766 0.649542 4.05595
-0.120889 0.66843 4.05962
-0.144156 0.758394 4.00986
-0.217875 0.680637 3.97199
-0.13069 0.714497 4.03608
-0.22515 0.634497 3.9789
-0.241357 0.646793 3.93056
-0.0344151 0.335326 4.09997
-0.0561958 0.328551 4.08691
-0.0720272 0.321196 4.07175
-0.0564132 0.415645 4.08502
-0.0920004 0.305831 4.03824
-0.0844088 0.298606 4.05255
-0.0817857 0.309348 4.0418
-0.0509808 0.429063 4.12001
-0.05801 0.315956 4.06332
-0.0445459 0.317829 4.0736
-0.0280399 0.31828 4.08212
-0.0409024 0.237371 4.05559
-0.0395587 0.255538 4.07964
-0.0377254 0.270846 4.08424
-0.0351918 0.286816 4.08013
-0.0323357 0.297406 4.07656
-0.0639722 0.302033 4.05936
-0.0680842 0.29767 4.06379
-0.0744823 0.290145 4.06755
-0.0805628 0.281954 4.06343
-0.10017 0.35622 4.06418
-0.268868 0.458709 3.78471
-0.010413 0.411387 4.11565
-0.0724693 0.304313 4.04851
-0.0779889 0.301977 4.05183
-0.0370759 0.402523 4.09422
-0.0714798 0.406831 4.06988
-0.0401729 0.407329 4.09412
-0.103265 0.492443 4.04078
-0.140151 0.475776 4.03484
-0.0841354 0.434453 4.07782
-0.198937 0.736171 3.96909
-0.183166 0.704302 4.00686
-0.166923 0.669468 4.03643
-0.091917 0.267594 4.0464
-0.0673529 0.663158 4.0702
-0.0752867 0.715524 4.05275
-0.0836948 0.768522 4.03417
-0.172705 0.550361 4.00135
-0.225877 0.526439 3.96944
-0.0787151 0.560467 4.01314
-0.201984 0.591553 3.98913
-0.0630575 0.52354 4.05555
-0.0658675 0.442893 4.12025
-0.249352 0.510958 3.94415
-0.210765 0.507882 3.9916
-0.181151 0.498158 4.01365
-0.13756 0.50259 4.02342
-0.105465 0.513118 4.02823
-0.0810775 0.525029 4.03395
-0.0324371 0.556566 4.07765
-0.244749 0.459078 3.95305
-0.219966 0.595334 3.97683
-0.0196509 0.416303 4.14394
-0.0764554 0.483412 4.05928
-0.276215 0.563699 3.79517
-0.0635881 0.539047 4.03639
-0.0874831 0.433153 4.05518
-0.191425 0.574346 3.9829
-0.0670148 0.458005 4.11102
-0.259209 0.400332 3.79884
-0.0784406 0.570406 4.00603
-0.0490432 0.472644 4.13285
-0.187312 0.273285 3.95163
-0.186963 0.249765 3.9106
-0.268057 0.458544 3.86941
-0.215367 0.307435 3.922
-0.256063 0.606643 3.8955
-0.0982473 0.191005 4.021
-0.0189987 0.412199 4.11438
-0.0961971 0.464809 4.052
-0.245995 0.558295 3.93272
-0.153526 0.560046 4.00928
-0.133371 0.557667 4.01447
-0.0911307 0.29453 4.04885
-0.237227 0.41127 3.94918
-0.0579026 0.156067 4.01436
-0.125851 0.194841 3.96953
-0.154162 0.217646 3.94396
-0.0121057 0.714893 4.0568
-0.00852904 0.148052 4.02028
-0.114065 0.559014 4.01532
-0.0962512 0.563557 4.01173
-0.0847448 0.567204 4.00645
-0.236587 0.600477 3.95249
-0.096054 0.58531 4.01513
-0.114664 0.591113 4.01924
-0.134786 0.592568 4.01847
-0.155415 0.588901 4.01307
-0.168893 0.582941 4.00565
-0.271734 0.618194 3.82977
-0.166928 0.564106 4.00186
-0.0106167 0.386067 4.09552
-0.0814584 0.371791 4.07437
-0.0627388 0.424222 4.09787
-0.0402797 0.382224 4.09389
-0.0101112 0.594572 4.06831
-0.158358 0.241789 3.97477
-0.129427 0.217257 3.99696
-0.0583009 0.170322 4.04179
-0.214134 0.287201 3.8662
-0.0838756 0.576561 4.00917
-0.047339 0.517606 4.08774
-0.00853022 0.163177 4.04635
-0.0948816 0.173072 3.99629
-0.258014 0.405122 3.87637
-0.0503336 0.299907 4.06858
-0.0544725 0.29224 4.07296
-0.0593026 0.280338 4.0764
-0.0636104 0.266801 4.07247
-0.069949 0.250451 4.05385
-0.0759473 0.311224 4.05293
-0.0844729 0.313324 4.05319
-0.09184 0.31712 4.05325
-0.115326 0.334972 4.04826
-0.204248 0.395494 3.99695
-0.0475634 0.541891 4.06505
-0.060594 0.588955 4.02413
-0.0741148 0.584942 4.01387
-0.0698743 0.314604 4.0508
-0.204779 0.338817 3.96499
-0.040074 0.590482 4.05321
-0.0824867 0.233067 4.04178
-0.00903954 0.511148 4.13071
-0.0313155 0.530422 4.10234
-0.0097813 0.535891 4.10763
-0.0623898 0.479142 4.08954
-0.00888707 0.185953 4.05725
-0.00988052 0.213174 4.05557
-0.0479382 0.216978 4.05239
-0.1313 0.279605 4.02394
-0.105509 0.413014 4.05033
-0.109485 0.253499 4.03259
-0.156237 0.41582 4.04081
-0.124932 0.388125 4.0482
-0.171974 0.376419 4.02457
-0.0550362 0.191949 4.05207
-0.0750788 0.464751 4.07378
-0.151103 0.265058 4.00184
-0.123078 0.238314 4.01579
-0.148015 0.31004 4.02094
-0.22836 0.37032 3.94325
-0.175739 0.309183 3.99752
-0.242338 0.354825 3.88917
-0.139485 0.354559 4.0389
-0.0616734 0.500952 4.0723
-0.0577672 0.432585 4.12488
-0.0715114 0.425456 4.10111
-0.0495524 0.449045 4.14179
-0.0785393 0.611397 4.03082
-0.114567 0.625121 4.03507
-0.146621 0.626922 4.03321
-0.173488 0.622123 4.02359
-0.192129 0.610588 4.0088
-0.206217 0.568056 3.97336
-0.271365 0.509759 3.87092
-0.189932 0.532801 3.99404
-0.1665 0.525434 4.00822
-0.135976 0.525222 4.01772
-0.106999 0.531018 4.02182
-0.0846843 0.539874 4.02222
-0.0694474 0.548737 4.02348
-0.273141 0.512031 3.78127
-0.0704262 0.418641 4.08961
-0.0472663 0.496026 4.10691
-0.0426851 0.431986 4.14373
-0.0297167 0.420073 4.135
-0.0421689 0.428123 4.13225
-0.063977 0.411091 4.08232
-0.0261234 0.417869 4.14112
-0.0253267 0.413491 4.11441
-0.0703259 0.569282 4.01057
-0.0571224 0.56305 4.02543
-0.0498323 0.558956 4.04223
-0.176984 0.578566 3.99781
-0.189214 0.589215 3.99743
0.0106805 0.507312 4.12315
0.160065 0.57029 3.99417
0.0102991 0.4169 4.11363
0.247364 0.665139 3.87458
0.0944953 0.547117 4.02011
0.118244 0.545254 4.01801
0.140788 0.54658 4.01101
0.170089 0.560977 3.99115
0.073484 0.553951 4.01737
0.123697 0.616011 4.0277
0.0974021 0.613992 4.02699
0.147958 0.611899 4.01962
0.164305 0.6024 4.00927
0.189767 0.544157 3.97884
0.0794401 0.207721 4.02963
0.167877 0.577044 3.98612
0.25883 0.559486 3.87248
0.215499 0.562682 3.95353
0.108673 0.444561 4.04504
0.0176661 0.350515 4.10246
0.0130684 0.323101 4.0925
0.0461696 0.339701 4.08887
0.0629007 0.326917 4.07307
0.033022 0.319524 4.08438
0.0471043 0.315014 4.06913
0.0933745 0.282677 4.03546
0.00988384 0.428676 4.15426
0.0134866 0.452048 4.16072
0.200397 0.626606 3.9979
0.0623427 0.507121 4.0474
0.0623399 0.432697 4.09617
0.0650267 0.445181 4.08886
0.180533 0.445549 4.01518
0.0125707 0.481925 4.14649
0.142874 0.654842 4.03744
0.176226 0.645401 4.01912
0.222665 0.708311 3.91896
0.039565 0.633217 4.0603
0.0746775 0.604863 4.02083
0.108339 0.308009 4.03144
0.231672 0.330893 3.82419
0.0436247 0.420004 4.08775
0.0244189 0.412716 4.09042
0.0801177 0.30503 4.03727
0.0692083 0.306727 4.04387
0.189242 0.661344 4.00629
0.0622229 0.420869 4.08344
0.0982756 0.652874 4.05175
0.102554 0.672188 4.05503
0.124935 0.762913 4.00802
0.20626 0.684944 3.96902
0.110914 0.718625 4.03347
0.214457 0.637305 3.97621
0.231191 0.649859 3.92835
0.0159929 0.335351 4.10029
0.0389563 0.327957 4.08819
0.0553143 0.320774 4.0733
0.0371407 0.415432 4.08276
0.0743136 0.305176 4.04052
0.067801 0.297829 4.05278
0.0670358 0.308701 4.04466
0.0338414 0.429041 4.12061
0.0426213 0.315868 4.06608
0.0279817 0.317498 4.0759
0.0103158 0.318374 4.08352
0.0215421 0.236333 4.05319
0.0201746 0.254646 4.07873
0.0180596 0.270154 4.08384
0.0147121 0.28614 4.08064
0.0122665 0.29679 4.07738
0.0470461 0.301448 4.06065
0.0516232 0.297005 4.06367
0.0584561 0.289138 4.06613
0.0640576 0.280621 4.06154
0.0841898 0.355326 4.06249
0.256477 0.454805 3.78312
0.0563214 0.303558 4.05087
0.0615803 0.301197 4.05314
0.0174325 0.40231 4.09287
0.0527313 0.406204 4.06663
0.0206468 0.407247 4.09196
0.0877037 0.492247 4.03998
0.126015 0.475321 4.03249
0.0678421 0.433785 4.0759
0.184154 0.741793 3.96663
0.168172 0.709113 4.00307
0.151119 0.674084 4.03215
0.0767399 0.264887 4.04461
0.0470201 0.665204 4.06761
0.0531291 0.717769 4.05078
0.0616683 0.771294 4.03195
0.15966 0.55163 4.00037
0.215627 0.52624 3.96555
0.0593707 0.561394 4.01442
0.189859 0.593131 3.98758
0.0453983 0.523489 4.056
0.0494459 0.442823 4.11877
0.241015 0.509992 3.94092
0.199895 0.507617 3.98849
0.169026 0.497919 4.0109
0.122763 0.502523 4.02237
0.0893366 0.513335 4.02779
0.0639286 0.52526 4.03392
0.0126633 0.556719 4.07784
0.236317 0.456955 3.95078
0.210016 0.596947 3.97502
0.00237077 0.416211 4.14391
0.0593536 0.483217 4.05892
0.263343 0.563652 3.79423
0.044629 0.539457 4.03705
0.0689583 0.432509 4.05247
0.176836 0.576208 3.9817
0.0515253 0.45791 4.10941
0.24906 0.394711 3.79662
0.0585962 0.571351 4.00849
0.0328548 0.472559 4.13225
0.179039 0.265957 3.94788
0.180022 0.240705 3.90769
0.257738 0.45525 3.86655
0.208466 0.300632 3.91856
0.245595 0.608373 3.89356
0.0849984 0.184828 4.01758
-0.00193636 0.41231 4.11401
0.0804799 0.464408 4.05001
0.236378 0.558507 3.92973
0.137516 0.561744 4.00871
0.117581 0.559437 4.01491
0.0744 0.293429 4.04887
0.229279 0.407783 3.94641
0.0416249 0.152084 4.013
0.113678 0.186175 3.96743
0.144486 0.208404 3.94155
0.097718 0.560748 4.01606
0.0783876 0.565016 4.01336
0.0651875 0.568216 4.0088
0.227387 0.602279 3.95033
0.0793848 0.586793 4.01688
0.100184 0.593016 4.02006
0.120279 0.594592 4.01861
0.14084 0.591172 4.01246
0.153941 0.585131 4.00455
0.259462 0.620106 3.82843
0.150844 0.565842 4.00107
0.0643257 0.370878 4.07241
0.0445842 0.424369 4.09546
0.0207296 0.382154 4.09295
0.148067 0.233793 3.97021
0.117885 0.209391 3.99233
0.0430464 0.166654 4.03975
0.207328 0.278771 3.86465
0.0649015 0.577501 4.0122
0.028753 0.517529 4.08762
0.0805788 0.166315 3.99466
0.249675 0.400335 3.87273
0.0314988 0.299086 4.06994
0.0359481 0.29136 4.07323
0.0413631 0.279169 4.07577
0.045288 0.265387 4.07118
0.0533808 0.248097 4.05218
0.0599305 0.310929 4.05578
0.0674842 0.312761 4.05589
0.0749834 0.316435 4.05529
0.0993533 0.333504 4.04816
0.195917 0.392954 3.99322
0.0284358 0.542063 4.06542
0.0395013 0.589981 4.02376
0.0539753 0.586274 4.01568
0.0548859 0.314281 4.05412
0.196144 0.334463 3.96132
0.0199306 0.59102 4.05284
0.067406 0.229295 4.03804
0.0120525 0.530466 4.10194
0.0450729 0.478983 4.0882
0.0300665 0.214829 4.04985
0.118139 0.275604 4.01979
0.0886437 0.412166 4.0469
0.0963036 0.249148 4.02806
0.144124 0.414485 4.03602
0.109828 0.386767 4.04468
0.161645 0.374112 4.02016
0.0390026 0.189092 4.05012
0.0587201 0.464434 4.07233
0.13957 0.258996 3.99704
0.110242 0.232127 4.0104
0.134827 0.306873 4.01842
0.220722 0.365971 3.93969
0.166238 0.304718 3.99332
0.235091 0.348779 3.8861
0.125689 0.352749 4.03599
0.0437682 0.500819 4.07242
0.0416387 0.432413 4.12422
0.0548435 0.425357 4.09879
0.032707 0.448964 4.1408
0.0581781 0.613015 4.03055
0.0966787 0.628133 4.0332
0.130717 0.630459 4.03122
0.15934 0.625191 4.02169
0.179481 0.613251 4.00656
0.193876 0.56926 3.97145
0.261835 0.50799 3.86883
0.177281 0.533294 3.99159
0.153167 0.5258 4.00616
0.121577 0.525843 4.01674
0.0915195 0.53164 4.02167
0.0674797 0.540456 4.02208
0.0506739 0.549393 4.02385
0.259897 0.509991 3.78073
0.053161 0.418252 4.08718
0.0287311 0.49586 4.10705
0.0256774 0.431917 4.14258
0.0132806 0.420005 4.13378
0.0253189 0.428003 4.13154
0.0460222 0.410546 4.0795
0.00941772 0.41782 4.14014
0.00547547 0.413407 4.11359
0.0496147 0.570325 4.01172
0.037176 0.563737 4.02581
0.0301191 0.559453 4.04223
0.161592 0.580819 3.99615
0.176057 0.591499 3.99537
