ply
format ascii 1.0
comment Created by Open3D
element vertex 468
property double x
property double y
property double z
end_header
0.0227151 0.344734 4.29428
0.0240067 0.427149 4.35411
0.0222537 0.40229 4.29113
0.0040919 0.513097 4.31243
0.0258346 0.45341 4.36182
0.0288623 0.487203 4.3483
0.0245244 0.573205 4.27466
-0.157557 0.589844 4.16621
0.0219929 0.641028 4.25414
0.0206719 0.675865 4.25722
0.0156466 0.800226 4.22317
0.0227447 0.331823 4.29084
0.0232339 0.32179 4.28224
0.0238881 0.317606 4.27018
0.0224217 0.303493 4.26752
0.0221298 0.293046 4.27202
0.0240689 0.279198 4.27663
0.0250891 0.264465 4.2731
0.0253434 0.241453 4.24886
0.0259279 0.412694 4.33922
0.00194234 0.415823 4.30698
-0.25167 0.688936 4.02864
-0.0832755 0.562322 4.1896
-0.107691 0.561117 4.18795
-0.131496 0.563619 4.18173
-0.162765 0.58087 4.16032
-0.0639701 0.568996 4.1904
-0.113265 0.632383 4.19959
-0.086637 0.629152 4.20173
-0.138901 0.629644 4.19224
-0.155777 0.620944 4.18214
-0.182191 0.56325 4.14939
-0.0596673 0.20987 4.22023
-0.166299 0.597229 4.15733
-0.25649 0.583679 4.02681
-0.206947 0.583067 4.12039
-0.0983879 0.454243 4.23116
-0.0074047 0.348832 4.29016
-0.002122 0.322771 4.2764
-0.0386733 0.342678 4.27321
-0.0598655 0.333058 4.25183
-0.0245307 0.322465 4.26291
-0.044458 0.320852 4.24479
-0.0874226 0.293767 4.21464
0.00602539 0.4276 4.35198
0.00451281 0.452585 4.3592
-0.187972 0.643824 4.16882
-0.0504008 0.518562 4.22759
-0.049925 0.437964 4.28621
-0.0509212 0.452031 4.27734
-0.172723 0.46032 4.1938
0.00466153 0.48517 4.33922
-0.130403 0.668749 4.22087
-0.164857 0.661445 4.19683
-0.223997 0.730746 4.07916
-0.0294342 0.646612 4.2461
-0.0668967 0.620394 4.19505
-0.10906 0.319796 4.2073
-0.232388 0.347107 3.97678
-0.034478 0.423631 4.2787
-0.0123507 0.413884 4.28623
-0.0879252 0.318599 4.20742
-0.0716298 0.318861 4.21376
-0.177966 0.677595 4.18277
-0.0497282 0.42708 4.27305
-0.0865018 0.665391 4.23933
-0.0904857 0.684784 4.24351
-0.12184 0.783789 4.18327
-0.198626 0.703558 4.13843
-0.105767 0.735716 4.21521
-0.204911 0.655195 4.14492
-0.227944 0.670033 4.09073
-0.00546474 0.333621 4.28565
-0.0318607 0.330567 4.26911
-0.0518355 0.326445 4.25107
-0.0282941 0.418883 4.27575
-0.0797565 0.318247 4.21168
-0.0647158 0.31034 4.23016
-0.0664634 0.32001 4.21369
-0.0217119 0.43018 4.30955
-0.0368956 0.322052 4.23951
-0.0192784 0.321394 4.25253
0.000984497 0.319374 4.26388
-0.00491209 0.24408 4.24935
-0.00450266 0.268937 4.27044
-0.0046884 0.28398 4.27272
-0.00532875 0.297457 4.26647
-0.00317982 0.306064 4.26151
-0.0417194 0.311818 4.23874
-0.0435042 0.308371 4.24511
-0.0469148 0.301567 4.25031
-0.05314 0.293706 4.2458
-0.0796233 0.361763 4.24595
-0.267829 0.478623 3.93193
0.0211946 0.408969 4.30921
-0.0548625 0.31473 4.22323
-0.0592545 0.313392 4.22881
-0.00626697 0.402645 4.28548
-0.043965 0.412303 4.2602
-0.0089959 0.407823 4.28653
-0.0764312 0.504381 4.21937
-0.116657 0.488065 4.21394
-0.0554024 0.441389 4.2641
-0.180332 0.762157 4.1351
-0.158685 0.726483 4.1801
-0.140124 0.688279 4.21479
-0.0651552 0.27526 4.22689
-0.0363257 0.678743 4.25579
-0.0485608 0.737305 4.23622
-0.0573441 0.794361 4.21541
-0.151298 0.569956 4.17062
-0.206648 0.545406 4.13559
-0.0539855 0.577285 4.18704
-0.181366 0.612538 4.15643
-0.0333332 0.534953 4.23617
-0.0347649 0.445876 4.31115
-0.2343 0.529815 4.10589
-0.191392 0.525602 4.16094
-0.159507 0.514164 4.1872
-0.114178 0.517203 4.19873
-0.0794395 0.526976 4.20418
-0.0529424 0.538654 4.21116
-0.000323713 0.567558 4.26336
-0.234679 0.475921 4.11755
-0.199027 0.616027 4.14118
0.0142031 0.413963 4.33727
-0.0485071 0.492898 4.24098
-0.275319 0.590909 3.94089
-0.0361215 0.552823 4.21483
-0.0615947 0.441243 4.24146
-0.173381 0.596785 4.15117
-0.0343723 0.462768 4.30016
-0.255303 0.415041 3.94862
-0.055957 0.588325 4.17812
-0.014783 0.476509 4.3238
-0.168832 0.275719 4.1203
-0.168061 0.248957 4.07373
-0.263479 0.476167 4.02552
-0.202624 0.312453 4.08575
-0.245694 0.631051 4.05093
-0.064794 0.185053 4.20672
0.0119313 0.410208 4.30816
-0.0685033 0.474326 4.23367
-0.22807 0.580005 4.09178
-0.132729 0.57917 4.18118
-0.111031 0.575643 4.18547
-0.0720141 0.305878 4.22551
-0.228117 0.424335 4.1156
-0.0228499 0.145572 4.20251
-0.0989832 0.188617 4.14511
-0.130887 0.213699 4.11284
0.0168239 0.738225 4.24254
0.0291404 0.134154 4.2094
-0.0895072 0.576175 4.18675
-0.0723384 0.580969 4.18337
-0.0624691 0.585042 4.17847
-0.217322 0.621741 4.11328
-0.0715464 0.603634 4.18518
-0.089245 0.609841 4.18932
-0.111162 0.612482 4.18927
-0.133985 0.609796 4.18443
-0.148461 0.604518 4.17706
-0.270276 0.646077 3.97963
-0.1478 0.584328 4.17333
0.0215355 0.3842 4.28633
-0.0565085 0.376138 4.26055
-0.0339847 0.426967 4.28874
-0.0106267 0.381899 4.2842
0.0241727 0.607898 4.25355
-0.132848 0.241155 4.1488
-0.09904 0.213401 4.17716
-0.0212925 0.161905 4.23266
-0.202401 0.290919 4.02169
-0.0614691 0.594908 4.18014
-0.0159942 0.526055 4.27369
0.0302567 0.152141 4.23919
-0.064475 0.165077 4.17806
-0.251385 0.418424 4.03458
-0.0249685 0.309294 4.25092
-0.0271294 0.302981 4.2568
-0.0291636 0.292948 4.26151
-0.0324469 0.279807 4.25827
-0.0381731 0.257966 4.23932
-0.0606876 0.320041 4.22748
-0.0702943 0.322164 4.22803
-0.0775652 0.326012 4.22824
-0.100421 0.342952 4.22515
-0.189904 0.406182 4.17048
-0.0167271 0.553025 4.24827
-0.0337335 0.605811 4.20244
-0.0503306 0.603139 4.18749
-0.0532121 0.323165 4.22385
-0.19239 0.346111 4.13507
-0.00854459 0.604773 4.23596
-0.048001 0.234291 4.22892
0.0275148 0.516088 4.32277
0.00247568 0.538311 4.29132
0.0251936 0.543409 4.29776
-0.0311875 0.485902 4.27618
0.0299079 0.179047 4.25171
0.0279202 0.212658 4.25077
-0.0103782 0.217105 4.24643
-0.106843 0.284792 4.20137
-0.0809219 0.420656 4.23539
-0.0785602 0.256222 4.21415
-0.134424 0.424653 4.22364
-0.103562 0.394961 4.23096
-0.154244 0.384782 4.20305
-0.0180418 0.186907 4.24409
-0.045188 0.472342 4.2583
-0.12604 0.267795 4.17823
-0.0920518 0.237725 4.19791
-0.130331 0.317539 4.19549
-0.21861 0.379929 4.11018
-0.157309 0.315053 4.17043
-0.233968 0.363919 4.04858
-0.122217 0.362226 4.21758
-0.0321041 0.509922 4.25554
-0.0273531 0.434049 4.31507
-0.0418067 0.428924 4.2912
-0.0175249 0.450854 4.33535
-0.0521972 0.629104 4.20835
-0.0880995 0.643178 4.21329
-0.121024 0.646055 4.21019
-0.150315 0.642044 4.1977
-0.170213 0.631071 4.17938
-0.186724 0.589265 4.13936
-0.264557 0.530891 4.0234
-0.169648 0.551521 4.16417
-0.144565 0.542417 4.18056
-0.111606 0.541079 4.19045
-0.0804123 0.546214 4.19499
-0.0571594 0.554763 4.19775
-0.0424576 0.563808 4.2
-0.273035 0.536232 3.9257
-0.0413502 0.422683 4.27901
-0.0158494 0.502174 4.29501
-0.0107546 0.432008 4.33812
0.00490962 0.418264 4.32794
-0.010201 0.427803 4.32467
-0.034881 0.415208 4.2725
0.0085119 0.415451 4.33476
0.00605396 0.411766 4.30808
-0.0461428 0.586658 4.18574
-0.0296463 0.578508 4.20335
-0.0202304 0.572708 4.22305
-0.157845 0.600333 4.16848
-0.168252 0.610906 4.16732
0.048732 0.51209 4.31618
0.214574 0.590654 4.1667
0.0457841 0.414083 4.30441
0.318281 0.701479 4.02937
0.14262 0.562533 4.19751
0.170078 0.560998 4.19395
0.195802 0.562999 4.18473
0.229987 0.581019 4.16107
0.116554 0.569703 4.19509
0.175677 0.639331 4.20702
0.1437 0.636123 4.20598
0.203679 0.636638 4.19613
0.222549 0.627494 4.18231
0.250997 0.562837 4.14376
0.128653 0.192983 4.20918
0.22351 0.599171 4.15766
0.330189 0.582228 4.0233
0.279258 0.583502 4.11492
0.15994 0.450118 4.22095
0.0561576 0.346652 4.28908
0.0531114 0.320184 4.27672
0.0923096 0.336216 4.27121
0.115757 0.325358 4.25102
0.0807962 0.316489 4.26514
0.0996835 0.313902 4.24626
0.150123 0.281688 4.20581
0.0452229 0.427026 4.34872
0.0504462 0.452401 4.35551
0.262759 0.65227 4.16809
0.105666 0.517065 4.22808
0.10696 0.433644 4.2813
0.110245 0.448113 4.27294
0.247638 0.45316 4.18057
0.0516996 0.484069 4.34131
0.1909 0.680433 4.21597
0.231442 0.672316 4.19354
0.285525 0.747068 4.08179
0.0751299 0.650641 4.2447
0.116516 0.625862 4.20072
0.170372 0.307498 4.20146
0.317107 0.319185 3.9628
0.0841848 0.419783 4.27367
0.0606007 0.411885 4.27582
0.139814 0.308195 4.21026
0.130602 0.3096 4.21475
0.24551 0.690287 4.17891
0.107868 0.422176 4.26567
0.138959 0.674695 4.2334
0.143172 0.695561 4.2371
0.168832 0.798373 4.18661
0.265249 0.717848 4.13662
0.151361 0.748343 4.21507
0.278042 0.664693 4.14365
0.29675 0.680913 4.08858
0.0551859 0.331 4.28567
0.0853361 0.324387 4.27029
0.107326 0.318978 4.25096
0.0757773 0.415348 4.26756
0.13414 0.308803 4.21239
0.123854 0.302168 4.22598
0.129639 0.310443 4.21462
0.0748892 0.426553 4.31188
0.0978281 0.315466 4.24194
0.0767387 0.316177 4.25585
0.0521968 0.316826 4.26716
0.0619517 0.240181 4.24242
0.0597162 0.265264 4.26807
0.0575228 0.280667 4.2727
0.0536489 0.293927 4.2684
0.0515151 0.302865 4.26379
0.0995003 0.305311 4.23774
0.103683 0.301912 4.24081
0.11009 0.294886 4.24327
0.114498 0.286096 4.23909
0.136857 0.354001 4.23777
0.333623 0.464451 3.92496
0.114178 0.306577 4.22556
0.118336 0.305326 4.22724
0.0537492 0.400016 4.28142
0.0940195 0.407572 4.24722
0.0568206 0.405609 4.27874
0.135082 0.501955 4.21818
0.179101 0.48478 4.20713
0.113822 0.436711 4.25754
0.238195 0.780256 4.13637
0.218063 0.741983 4.17721
0.199207 0.701499 4.2104
0.12889 0.263591 4.2204
0.0822292 0.68504 4.25226
0.086998 0.74417 4.23524
0.0970184 0.803666 4.2132
0.218005 0.569689 4.17167
0.280869 0.543196 4.12604
0.0998982 0.577325 4.19512
0.251782 0.616669 4.15656
0.0864138 0.533804 4.23922
0.0917457 0.442895 4.30747
0.314021 0.525172 4.09619
0.26402 0.522401 4.15317
0.228011 0.511138 4.17976
0.174163 0.515001 4.19752
0.135607 0.525719 4.20532
0.106843 0.53774 4.2132
0.0486647 0.567459 4.26571
0.314124 0.465693 4.10611
0.274943 0.620232 4.14102
0.0392187 0.413178 4.33798
0.102623 0.490328 4.24161
0.336309 0.589209 3.94011
0.0836885 0.552377 4.21905
0.11212 0.436738 4.23216
0.235986 0.599136 4.15147
0.0947577 0.460295 4.296
0.33027 0.394106 3.93539
0.0991889 0.587776 4.18998
0.0745393 0.474777 4.3237
0.253698 0.247253 4.10134
0.256107 0.215946 4.05692
0.335023 0.463763 4.01392
0.292321 0.285203 4.06556
0.31367 0.636356 4.04941
0.134857 0.164732 4.19682
0.030035 0.409926 4.30697
0.127033 0.471131 4.22886
0.30404 0.579179 4.0872
0.189008 0.579644 4.18423
0.166946 0.576544 4.19238
0.130219 0.297255 4.2216
0.310966 0.40946 4.09787
0.0846519 0.132866 4.19843
0.169387 0.160302 4.13663
0.208942 0.181631 4.10137
0.144062 0.577525 4.19398
0.122271 0.581644 4.19273
0.106642 0.584621 4.19
0.294408 0.626727 4.1123
0.124301 0.604973 4.197
0.14794 0.612832 4.19789
0.170708 0.615498 4.19608
0.193999 0.612905 4.18797
0.208352 0.607547 4.17792
0.331076 0.652743 3.97784
0.204002 0.584825 4.17526
0.111173 0.369551 4.25232
0.0839816 0.424027 4.28107
0.0580477 0.379334 4.28113
0.211828 0.213198 4.13105
0.174461 0.187636 4.16166
0.0873475 0.15044 4.22714
0.290714 0.258851 4.00732
0.107048 0.594238 4.19409
0.0668908 0.525212 4.27519
0.129673 0.14278 4.17371
0.331866 0.400221 4.01667
0.0772428 0.303973 4.2526
0.0817503 0.297677 4.25617
0.0870664 0.286968 4.25994
0.0897745 0.273387 4.25616
0.100537 0.24892 4.235
0.119267 0.311731 4.22871
0.125829 0.313504 4.22996
0.133547 0.316864 4.22915
0.158399 0.332892 4.22008
0.272727 0.393255 4.15062
0.0661772 0.552814 4.25097
0.0746107 0.607531 4.20525
0.0931606 0.604481 4.1977
0.115524 0.314971 4.22696
0.276486 0.326306 4.11425
0.055768 0.606081 4.23726
0.115918 0.22133 4.21861
0.048413 0.538061 4.29105
0.0858533 0.484243 4.27352
0.0723481 0.210385 4.23941
0.17652 0.26854 4.18634
0.136215 0.414994 4.22371
0.149563 0.240186 4.19991
0.20477 0.417721 4.20563
0.163797 0.387484 4.21797
0.230812 0.37313 4.18336
0.0832615 0.1773 4.23949
0.102174 0.469553 4.25471
0.201009 0.245511 4.16058
0.164237 0.217048 4.18121
0.199648 0.301811 4.18505
0.304983 0.361109 4.0888
0.23822 0.295141 4.15131
0.320832 0.340127 4.02997
0.187556 0.351797 4.2048
0.0845507 0.508232 4.25787
0.0837293 0.430824 4.31404
0.0973981 0.42522 4.28353
0.0720954 0.448696 4.33396
0.0962032 0.632331 4.21286
0.139538 0.650087 4.21384
0.179142 0.65502 4.20977
0.214016 0.651057 4.19804
0.238977 0.638681 4.17917
0.255227 0.590925 4.1371
0.336647 0.52367 4.01857
0.237058 0.550631 4.15917
0.208652 0.541356 4.17711
0.172584 0.540373 4.19125
0.138249 0.54591 4.19858
0.109576 0.554943 4.19988
0.0901937 0.563739 4.20359
0.334452 0.527896 3.92529
0.0958982 0.418667 4.27051
0.0677313 0.50077 4.29748
0.0639866 0.429772 4.33513
0.0511886 0.416625 4.32431
0.0641952 0.425093 4.32245
0.0873075 0.410906 4.26141
0.0466916 0.414599 4.33209
0.0389267 0.410511 4.3051
0.0871034 0.586871 4.19308
0.0740074 0.579009 4.20658
0.0667378 0.573237 4.22483
0.216515 0.603093 4.16886
0.235768 0.615869 4.16537
