ply
format ascii 1.0
comment Created by Open3D
element vertex 468
property double x
property double y
property double z
end_header
0.0962854 0.338403 3.84229
0.0952897 0.420353 3.89655
0.0962407 0.396574 3.83777
0.070949 0.499193 3.86069
0.0938592 0.444587 3.90406
0.0908702 0.475688 3.89166
0.0939993 0.553726 3.82347
-0.0884719 0.568471 3.71799
0.0940185 0.606438 3.80409
0.0944547 0.637184 3.80683
0.0999554 0.756807 3.77425
0.0965403 0.325862 3.83937
0.0963351 0.315415 3.83047
0.0956787 0.310631 3.81923
0.0979849 0.294689 3.81456
0.0985304 0.283299 3.81842
0.097307 0.268631 3.82161
0.0968167 0.253826 3.81658
0.0966837 0.232565 3.791
0.0931643 0.406871 3.88266
0.0725425 0.409072 3.84917
-0.182109 0.668732 3.59225
-0.0197105 0.544513 3.74722
-0.0449153 0.542193 3.744
-0.068967 0.543294 3.73548
-0.102775 0.559073 3.7128
0.00330589 0.551184 3.74552
-0.0520176 0.608335 3.75638
-0.0227278 0.606272 3.75545
-0.0781821 0.606525 3.74668
-0.0957539 0.599705 3.73336
-0.120487 0.541914 3.69816
-0.00417874 0.190676 3.75311
-0.0974762 0.576041 3.70991
-0.191791 0.560072 3.58792
-0.147183 0.56038 3.67143
-0.0326162 0.439577 3.76892
0.0657673 0.341674 3.83735
0.0698988 0.314191 3.82603
0.0321833 0.329998 3.82046
0.0123567 0.316766 3.80282
0.0443793 0.310231 3.81525
0.0280237 0.30553 3.79906
-0.0205846 0.273258 3.75955
0.0744083 0.421072 3.89118
0.0693045 0.444086 3.89706
-0.134229 0.620299 3.72061
0.0154368 0.502197 3.77685
0.0128144 0.426894 3.82497
0.0097979 0.439575 3.81684
-0.11229 0.440666 3.73288
0.068586 0.473416 3.88382
-0.066779 0.642626 3.76675
-0.105642 0.636468 3.74577
-0.152927 0.709982 3.64084
0.0440574 0.615554 3.79446
0.00273469 0.598496 3.7503
-0.0384809 0.297102 3.75621
-0.177614 0.317478 3.53223
0.0351484 0.414592 3.81824
0.0572676 0.406406 3.82149
-0.00740664 0.295804 3.76709
0.00147974 0.297071 3.7716
-0.118489 0.653493 3.7315
0.012055 0.41524 3.81047
-0.0171842 0.636836 3.78325
-0.0215773 0.656211 3.78647
-0.04521 0.756132 3.73849
-0.13552 0.681852 3.69172
-0.0292344 0.708967 3.7653
-0.148005 0.632008 3.69792
-0.163651 0.649029 3.64698
0.0671473 0.325808 3.83458
0.0395376 0.317993 3.82017
0.0206116 0.310701 3.80305
0.0426027 0.409813 3.81318
-0.00185515 0.296011 3.76945
0.00659947 0.291468 3.78113
0.00212517 0.298743 3.77163
0.0444817 0.421514 3.85491
0.0299975 0.306579 3.79492
0.0483679 0.308908 3.80703
0.0708522 0.310184 3.8167
0.0626851 0.232559 3.78511
0.0640722 0.255468 3.81205
0.0666224 0.27068 3.81793
0.0701673 0.285661 3.8154
0.072043 0.294998 3.81176
0.0293818 0.296608 3.79046
0.0254089 0.292927 3.79274
0.0189049 0.285536 3.79389
0.0138159 0.276956 3.78951
-0.0104306 0.3459 3.78906
-0.193255 0.451878 3.49695
0.0974343 0.403469 3.85463
0.0161278 0.296791 3.78074
0.012398 0.294947 3.78219
0.064573 0.394824 3.82737
0.0256275 0.401106 3.79365
0.0612958 0.400285 3.82452
-0.0114374 0.487725 3.76726
-0.0510197 0.471089 3.75701
0.00696906 0.428584 3.80278
-0.109541 0.739865 3.69171
-0.0916677 0.703262 3.72982
-0.0741764 0.662431 3.76072
-0.00111327 0.256591 3.77057
0.0363013 0.646735 3.80153
0.0314257 0.705994 3.78462
0.0228397 0.760836 3.76404
-0.0906641 0.548603 3.72299
-0.146644 0.524261 3.68199
0.0180407 0.558135 3.74547
-0.123539 0.590366 3.7092
0.0333187 0.517924 3.78802
0.0281414 0.436301 3.85016
-0.176397 0.507283 3.65577
-0.130586 0.504691 3.70695
-0.0967003 0.494491 3.73148
-0.0474918 0.498895 3.74824
-0.0125826 0.509436 3.75559
0.0138136 0.520884 3.76333
0.0703983 0.548697 3.8141
-0.174317 0.451994 3.66472
-0.144028 0.592613 3.69506
0.0802562 0.407692 3.88081
0.0183969 0.478172 3.78818
-0.196119 0.56665 3.51064
0.0355219 0.534391 3.76914
0.00903411 0.42842 3.77867
-0.10914 0.575629 3.70412
0.0252419 0.451617 3.83924
-0.190287 0.387301 3.5069
0.0181412 0.567538 3.74001
0.0455853 0.4649 3.86624
-0.120417 0.247254 3.65672
-0.123926 0.217919 3.61516
-0.193944 0.451337 3.57949
-0.153744 0.28475 3.62579
-0.177547 0.609107 3.61156
-0.0117308 0.162518 3.73983
0.0882299 0.404782 3.85219
-0.00392025 0.459494 3.7759
-0.16878 0.556638 3.6462
-0.0635664 0.559519 3.73449
-0.0426498 0.557093 3.74261
0.000405081 0.286837 3.77668
-0.169869 0.400283 3.65739
0.0366709 0.128061 3.74051
-0.0464807 0.159494 3.68439
-0.0828844 0.182651 3.65382
0.0983611 0.699626 3.79276
0.0924439 0.127869 3.7527
-0.0220113 0.558627 3.74428
-0.00246945 0.562343 3.74321
0.0113567 0.565243 3.74036
-0.161181 0.598764 3.66896
-0.00436689 0.579796 3.74625
-0.0261796 0.585152 3.74751
-0.0469491 0.587335 3.74556
-0.0689548 0.585617 3.73823
-0.0826014 0.581898 3.72864
-0.192473 0.624735 3.54564
-0.0780556 0.563442 3.72617
0.0971335 0.378387 3.83363
0.0112306 0.362747 3.80062
0.0353523 0.419036 3.82528
0.0618536 0.37403 3.82808
0.0938371 0.580889 3.80364
-0.0846687 0.213019 3.68214
-0.0502613 0.186605 3.70879
0.0351412 0.146898 3.76799
-0.154153 0.260003 3.57188
0.0107229 0.572237 3.74363
0.0526405 0.511008 3.82162
0.0922677 0.146154 3.7804
-0.00802747 0.140118 3.71766
-0.190216 0.392681 3.58206
0.0492533 0.296322 3.80261
0.045036 0.289225 3.80541
0.0396123 0.277891 3.80717
0.0362293 0.264102 3.80253
0.0253874 0.241924 3.78116
0.0119095 0.300839 3.78449
0.00519911 0.30274 3.78532
-0.00246955 0.306275 3.78451
-0.0279797 0.323265 3.77431
-0.133759 0.385124 3.70584
0.0530289 0.53539 3.79987
0.0434335 0.582913 3.75578
0.0242324 0.58104 3.74801
0.0149939 0.304118 3.78246
-0.137603 0.322158 3.67179
0.06339 0.579988 3.78638
0.00962416 0.217297 3.76354
0.0917255 0.502642 3.86785
0.0706203 0.523115 3.83741
0.0936197 0.52783 3.84449
0.0343313 0.473104 3.81876
0.0928453 0.173243 3.79294
0.0947755 0.205607 3.79195
0.0517755 0.205422 3.78122
-0.048808 0.262735 3.73835
-0.0121874 0.406882 3.77155
-0.0233769 0.236142 3.7487
-0.0719138 0.408953 3.75502
-0.0355855 0.379756 3.76824
-0.0950809 0.36581 3.7349
0.0402672 0.173984 3.78072
0.0184299 0.459285 3.80018
-0.0736898 0.242839 3.71182
-0.0389139 0.214534 3.72882
-0.0684835 0.294387 3.7378
-0.163522 0.355417 3.64855
-0.104336 0.290919 3.70468
-0.179732 0.336787 3.5943
-0.0558852 0.343271 3.75717
0.0355742 0.495063 3.80448
0.0360941 0.425279 3.85657
0.0220498 0.419528 3.82738
0.0473228 0.441343 3.8766
0.0230506 0.602943 3.76275
-0.0182362 0.617605 3.76374
-0.0560007 0.622023 3.76052
-0.0886469 0.619212 3.74917
-0.11221 0.609176 3.73109
-0.125842 0.567369 3.69129
-0.196951 0.506599 3.58379
-0.106979 0.530703 3.71186
-0.0801778 0.522542 3.72878
-0.0471586 0.52247 3.74248
-0.0152647 0.528312 3.74871
0.0105977 0.536909 3.75056
0.0288734 0.54504 3.75417
-0.194001 0.510295 3.4969
0.0235039 0.412712 3.81527
0.0521378 0.488695 3.84235
0.0556172 0.424153 3.87758
0.0680519 0.411399 3.86764
0.0552399 0.419994 3.86575
0.031812 0.404979 3.80693
0.0727407 0.409392 3.87532
0.0795096 0.405789 3.84998
0.0298732 0.566712 3.7433
0.0439329 0.55865 3.75705
0.0516322 0.553069 3.77518
-0.0908576 0.578674 3.72006
-0.10857 0.590125 3.71722
0.114282 0.499808 3.85872
0.26064 0.560562 3.72121
0.11618 0.408413 3.85274
0.348016 0.651548 3.59405
0.192999 0.539639 3.74268
0.214547 0.537254 3.74101
0.236285 0.53866 3.73507
0.264803 0.55177 3.71547
0.175363 0.546501 3.74453
0.220627 0.595509 3.75373
0.196613 0.594588 3.75551
0.243653 0.592427 3.74682
0.258917 0.585203 3.73691
0.281255 0.536267 3.70525
0.176522 0.203817 3.76745
0.268755 0.56605 3.71342
0.349625 0.555524 3.59104
0.304957 0.553359 3.6785
0.206348 0.440442 3.77985
0.124129 0.342054 3.83826
0.11868 0.315345 3.82477
0.152328 0.33312 3.82238
0.170586 0.320938 3.80189
0.138464 0.313447 3.81219
0.155142 0.309836 3.7956
0.195563 0.280379 3.76742
0.112998 0.419819 3.89524
0.114748 0.443164 3.90199
0.288992 0.604062 3.72575
0.163597 0.501504 3.77933
0.166972 0.42706 3.83413
0.16757 0.440243 3.82589
0.269954 0.443067 3.74386
0.114503 0.473686 3.88362
0.233471 0.624638 3.77419
0.266263 0.618022 3.75284
0.323035 0.689077 3.64174
0.14 0.609334 3.796
0.178849 0.589653 3.74932
0.214775 0.304647 3.76021
0.327188 0.336928 3.54451
0.152074 0.414238 3.82615
0.130177 0.405628 3.83374
0.192929 0.302054 3.76079
0.177572 0.303087 3.76646
0.278954 0.633197 3.73901
0.166235 0.416494 3.82157
0.191929 0.622908 3.78991
0.195595 0.641255 3.79343
0.227139 0.739147 3.73802
0.298491 0.661628 3.69708
0.21118 0.693446 3.76711
0.30449 0.615209 3.70278
0.32601 0.631891 3.65173
0.12188 0.326786 3.83396
0.145562 0.321389 3.81858
0.162644 0.314578 3.80159
0.145251 0.409789 3.82358
0.18508 0.301817 3.76454
0.172896 0.296125 3.78184
0.172866 0.30514 3.76665
0.139674 0.421309 3.85504
0.147871 0.310893 3.79035
0.133198 0.312036 3.80219
0.115503 0.311515 3.81297
0.124436 0.235101 3.79234
0.123842 0.257347 3.81524
0.12341 0.272613 3.81868
0.123158 0.287147 3.81376
0.120729 0.296636 3.80912
0.153141 0.300327 3.78899
0.154936 0.296188 3.79474
0.158747 0.288699 3.79924
0.165419 0.280866 3.79518
0.188859 0.350125 3.79699
0.359639 0.459208 3.50221
0.163754 0.302113 3.77527
0.16768 0.299798 3.78038
0.124201 0.39552 3.83302
0.159465 0.402704 3.80897
0.126984 0.400205 3.83378
0.186503 0.487246 3.7712
0.221135 0.470656 3.76473
0.17129 0.429867 3.81324
0.281611 0.718137 3.69354
0.260665 0.682866 3.73502
0.242657 0.64336 3.7677
0.176479 0.264484 3.77728
0.145669 0.637819 3.80486
0.158176 0.697333 3.78663
0.167485 0.750087 3.76771
0.254334 0.543168 3.72503
0.303053 0.52042 3.69132
0.166789 0.554529 3.74168
0.282579 0.578678 3.71363
0.148083 0.517291 3.78762
0.152491 0.435312 3.85717
0.327697 0.506044 3.66354
0.28886 0.502724 3.71459
0.260183 0.493036 3.73933
0.219221 0.497176 3.75132
0.188701 0.507772 3.75718
0.165094 0.519386 3.7642
0.117865 0.547979 3.81344
0.326363 0.456416 3.67318
0.298981 0.581518 3.69894
0.104433 0.40749 3.88059
0.163092 0.478426 3.7915
0.366562 0.562655 3.51041
0.150198 0.533068 3.76778
0.175959 0.429715 3.79163
0.275053 0.565248 3.70762
0.152295 0.451327 3.84683
0.348499 0.400339 3.51769
0.169007 0.56423 3.7335
0.132969 0.464881 3.86902
0.272667 0.268294 3.67762
0.272496 0.243495 3.63438
0.353997 0.456917 3.58888
0.300608 0.304349 3.64408
0.341059 0.598116 3.61419
0.182858 0.179119 3.75477
0.106525 0.404114 3.85385
0.180409 0.460012 3.78359
0.324054 0.550934 3.65136
0.237641 0.55266 3.7345
0.21741 0.550584 3.73888
0.179634 0.291734 3.77771
0.319732 0.408541 3.67084
0.143733 0.138932 3.74862
0.213767 0.183025 3.69986
0.241615 0.208621 3.67124
0.198496 0.552316 3.74034
0.183066 0.557486 3.73802
0.174607 0.561614 3.73371
0.315483 0.587063 3.67261
0.183175 0.574885 3.73948
0.198713 0.577762 3.74359
0.218183 0.57891 3.74311
0.238556 0.576349 3.7383
0.251772 0.571714 3.73113
0.363223 0.613212 3.54719
0.251426 0.556704 3.72741
0.169612 0.366256 3.8103
0.151694 0.417457 3.8358
0.12752 0.375098 3.83226
0.242929 0.234295 3.7051
0.213333 0.207085 3.72953
0.142051 0.156203 3.77672
0.300955 0.283783 3.58614
0.173952 0.569316 3.73547
0.132624 0.510506 3.82263
0.182733 0.158919 3.72812
0.34316 0.403432 3.59662
0.139452 0.298968 3.79992
0.142034 0.291901 3.80503
0.14462 0.280857 3.80897
0.148816 0.267837 3.80541
0.153418 0.248182 3.78656
0.168237 0.306433 3.77925
0.177296 0.307907 3.77972
0.184493 0.311415 3.78012
0.20651 0.32926 3.77737
0.284647 0.39192 3.72152
0.132998 0.534424 3.79937
0.147555 0.579052 3.75595
0.163388 0.576747 3.74212
0.161294 0.3099 3.77603
0.289548 0.335556 3.68929
0.124821 0.577739 3.78692
0.164132 0.227104 3.77566
0.115365 0.522495 3.83888
0.147741 0.473002 3.82445
0.130396 0.210522 3.78933
0.215835 0.273594 3.75526
0.192462 0.409278 3.78559
0.191156 0.247474 3.76498
0.23688 0.411091 3.77118
0.210979 0.383347 3.78124
0.254624 0.37178 3.75205
0.138354 0.181547 3.78767
0.161167 0.45964 3.80781
0.23536 0.258886 3.73312
0.205727 0.230307 3.74912
0.235799 0.304509 3.74911
0.312044 0.367143 3.66592
0.260309 0.304314 3.72421
0.327747 0.3531 3.60963
0.226714 0.349146 3.76835
0.147758 0.495018 3.80567
0.145189 0.4246 3.86069
0.159262 0.418631 3.83879
0.135887 0.440884 3.88025
0.163452 0.59682 3.76076
0.195437 0.606007 3.76595
0.225856 0.606934 3.76404
0.253117 0.602912 3.75289
0.272159 0.593755 3.73587
0.286825 0.559023 3.69687
0.3557 0.507043 3.58731
0.27021 0.526205 3.71833
0.247147 0.519114 3.73437
0.217682 0.51898 3.74435
0.189995 0.525014 3.74811
0.168991 0.533613 3.75165
0.15542 0.542426 3.7539
0.364251 0.51241 3.49631
0.158573 0.412793 3.82683
0.133062 0.489174 3.84235
0.129195 0.423267 3.88193
0.113472 0.410725 3.87204
0.12838 0.419307 3.8693
0.151501 0.40564 3.82056
0.110052 0.408294 3.87868
0.112223 0.405106 3.85363
0.159909 0.56302 3.74054
0.144135 0.555909 3.75705
0.135502 0.550935 3.77599
0.260724 0.56847 3.72365
0.270591 0.576898 3.72304
