ply
format ascii 1.0
comment Created by Open3D
element vertex 468
property double x
property double y
property double z
end_header
0.135323 0.335631 3.67748
0.136403 0.424896 3.7408
0.13643 0.3943 3.67607
0.109994 0.505919 3.70084
0.135718 0.451155 3.74738
0.132421 0.483964 3.73357
0.130755 0.562713 3.66159
-0.0606317 0.57391 3.54713
0.131052 0.628573 3.63956
0.131293 0.664165 3.64348
0.133047 0.797474 3.61164
0.134864 0.322624 3.67422
0.133778 0.312291 3.66619
0.13291 0.307614 3.65472
0.137438 0.288978 3.64957
0.137633 0.277461 3.65446
0.135444 0.263961 3.65975
0.134058 0.249273 3.65597
0.132523 0.23045 3.63179
0.134153 0.410878 3.72739
0.11103 0.40716 3.68987
-0.163711 0.678729 3.42002
0.0143962 0.551386 3.5814
-0.0121586 0.549415 3.57804
-0.0377149 0.549665 3.56914
-0.0732147 0.565915 3.54225
0.0387182 0.556113 3.57934
-0.025107 0.630055 3.57835
0.00790673 0.62585 3.58115
-0.0533135 0.625291 3.56691
-0.0719352 0.614172 3.55526
-0.0911175 0.546338 3.52855
0.0354805 0.197154 3.59003
-0.0713106 0.582572 3.53652
-0.165222 0.558681 3.41425
-0.119723 0.564837 3.50022
-0.00163143 0.440684 3.60421
0.100197 0.338185 3.67121
0.102254 0.311085 3.65989
0.0623919 0.327947 3.65241
0.0390172 0.317504 3.63065
0.073823 0.308343 3.64738
0.0550554 0.30459 3.62676
0.00806487 0.274714 3.58305
0.114665 0.4248 3.73558
0.10964 0.450024 3.74084
-0.108832 0.637491 3.54805
0.0497262 0.506672 3.61172
0.0476067 0.427268 3.66493
0.0440447 0.44133 3.65525
-0.0833749 0.44375 3.56628
0.109018 0.480829 3.72569
-0.0399949 0.666082 3.59217
-0.0799782 0.657776 3.57139
-0.135579 0.728263 3.4685
0.0760846 0.637458 3.62666
0.0360145 0.612697 3.57849
-0.0110406 0.299615 3.57833
-0.131681 0.311673 3.35924
0.0700663 0.411111 3.65858
0.0939328 0.402166 3.66078
0.014996 0.297551 3.58536
0.0254978 0.298515 3.591
-0.0939788 0.675096 3.5583
0.046235 0.415356 3.64983
0.0114297 0.660925 3.61113
0.00674357 0.683199 3.61528
-0.0220961 0.791309 3.56893
-0.11399 0.7016 3.51889
-0.0026182 0.737721 3.59571
-0.12412 0.648692 3.52571
-0.142917 0.661639 3.4755
0.10042 0.322751 3.6687
0.0690958 0.316027 3.65157
0.0471564 0.310805 3.63083
0.0778394 0.405296 3.65309
0.0208433 0.297593 3.58818
0.0326641 0.28976 3.60173
0.0275461 0.300093 3.59179
0.0813855 0.421996 3.69769
0.0582746 0.306405 3.62212
0.0786537 0.307054 3.63772
0.103434 0.307521 3.64976
0.0957636 0.229919 3.62459
0.0974025 0.250454 3.64952
0.100591 0.265416 3.65394
0.105013 0.27946 3.64953
0.107186 0.289035 3.64512
0.0581978 0.292279 3.61746
0.0538601 0.288684 3.6196
0.0470309 0.281769 3.62012
0.0420772 0.273348 3.61568
0.0203674 0.34572 3.61851
-0.156656 0.439739 3.32041
0.138809 0.402217 3.69559
0.0441754 0.29466 3.60399
0.0392475 0.292797 3.604
0.102346 0.391986 3.66531
0.059007 0.397552 3.63164
0.0981957 0.396752 3.66369
0.0225866 0.492666 3.60135
-0.0191947 0.474959 3.59096
0.0406503 0.429164 3.64062
-0.0902119 0.766787 3.51927
-0.0682575 0.728218 3.55675
-0.0487185 0.687417 3.58781
0.0305877 0.256949 3.59872
0.0683026 0.673542 3.63356
0.0617157 0.736205 3.61895
0.0505559 0.80008 3.5975
-0.0606885 0.554793 3.55509
-0.11835 0.526438 3.51273
0.054615 0.561586 3.57885
-0.0968125 0.601013 3.5363
0.068479 0.522676 3.62241
0.0641455 0.438147 3.69168
-0.147139 0.508751 3.48489
-0.101064 0.508259 3.5387
-0.066195 0.499172 3.56481
-0.0141062 0.504222 3.58156
0.0221824 0.514849 3.58868
0.0482324 0.526002 3.59656
0.106351 0.556311 3.65163
-0.143891 0.453189 3.49526
-0.118428 0.604124 3.52414
0.120241 0.411263 3.72517
0.052552 0.480816 3.6241
-0.169639 0.559952 3.33523
0.0701002 0.538361 3.60277
0.0417568 0.426071 3.61485
-0.0815148 0.582476 3.53094
0.0606186 0.455154 3.67933
-0.148551 0.376938 3.33209
0.0539918 0.570447 3.57313
0.0835974 0.471071 3.70709
-0.0754045 0.249327 3.49089
-0.0739859 0.22182 3.44981
-0.161003 0.444408 3.40697
-0.110651 0.284361 3.45794
-0.155075 0.613513 3.43886
0.0322456 0.17374 3.57765
0.12857 0.402687 3.69247
0.0291897 0.462004 3.61166
-0.142402 0.559389 3.4755
-0.032576 0.564337 3.56624
-0.0100255 0.563113 3.575
0.0258056 0.285909 3.59701
-0.137454 0.399735 3.48697
0.0793515 0.144305 3.5766
0.00230538 0.17055 3.52326
-0.0326728 0.190419 3.49176
0.133199 0.731121 3.63005
0.130208 0.143766 3.58512
0.0118772 0.564814 3.57689
0.0333043 0.567922 3.57612
0.0479662 0.569091 3.57373
-0.136591 0.609111 3.49723
0.0269662 0.593841 3.57612
0.00192981 0.605037 3.57434
-0.0221037 0.607463 3.57072
-0.0455472 0.602896 3.56259
-0.0588331 0.594814 3.55391
-0.171178 0.624574 3.37143
-0.0485866 0.568208 3.55641
0.136269 0.374473 3.67087
0.0437962 0.361202 3.63471
0.0700017 0.415634 3.66728
0.0977756 0.370253 3.66456
0.12983 0.596148 3.64054
-0.0375067 0.217471 3.51705
-0.00357079 0.194758 3.54503
0.0755014 0.159694 3.60518
-0.106244 0.259574 3.40355
0.0452318 0.578841 3.57611
0.0888631 0.51541 3.65962
0.12899 0.159326 3.61418
0.0380366 0.154618 3.55609
-0.153465 0.386494 3.41089
0.0811748 0.290333 3.6331
0.0763148 0.283372 3.63629
0.0705831 0.272807 3.63862
0.0670026 0.259252 3.63503
0.0579086 0.241146 3.61512
0.0359962 0.302043 3.60776
0.0285126 0.304409 3.60776
0.0207998 0.308736 3.60686
-6.42245e-05 0.324924 3.59969
-0.103636 0.386327 3.5381
0.0888055 0.540737 3.63538
0.0771227 0.589905 3.58873
0.0583563 0.588184 3.58005
0.0413703 0.305103 3.60528
-0.102014 0.321748 3.50303
0.097364 0.592432 3.62173
0.0452902 0.220181 3.59928
0.131951 0.510066 3.70848
0.107766 0.529346 3.67763
0.131785 0.534562 3.68472
0.0690333 0.475778 3.65735
0.129052 0.181822 3.62801
0.130925 0.208159 3.62873
0.0873539 0.207429 3.61824
-0.013138 0.26491 3.56651
0.0191427 0.405279 3.60747
0.0128061 0.238953 3.58041
-0.0429164 0.408753 3.58965
-0.00493131 0.378679 3.60125
-0.0651522 0.366122 3.5681
0.0782163 0.181866 3.61758
0.052437 0.461229 3.6375
-0.0321955 0.245299 3.54365
0.00257964 0.219078 3.56215
-0.0354436 0.297091 3.56525
-0.128205 0.354199 3.47852
-0.068367 0.292685 3.53686
-0.138913 0.333105 3.42355
-0.0265506 0.344917 3.58808
0.0708569 0.498296 3.64087
0.0725008 0.426575 3.70024
0.0570572 0.41836 3.66807
0.0860046 0.445167 3.71888
0.0557597 0.616615 3.59359
0.0116883 0.636089 3.59138
-0.0284283 0.64144 3.58391
-0.0621745 0.637015 3.57152
-0.0862866 0.62402 3.55551
-0.0978308 0.573547 3.5198
-0.166551 0.50201 3.41037
-0.0769663 0.5352 3.54368
-0.0486103 0.527479 3.56218
-0.0134053 0.528527 3.57573
0.019184 0.534496 3.58193
0.0453557 0.541572 3.58374
0.0640012 0.548556 3.58715
-0.163023 0.499975 3.32105
0.0579232 0.410836 3.6556
0.0893075 0.49341 3.68138
0.0940317 0.426276 3.72149
0.10625 0.412934 3.71117
0.0927988 0.421107 3.70909
0.0659903 0.402106 3.64684
0.111962 0.411682 3.71893
0.11858 0.403544 3.69072
0.0656063 0.568667 3.57659
0.0787582 0.562371 3.59093
0.0865897 0.558364 3.60905
-0.0659628 0.588397 3.54609
-0.0827008 0.600575 3.54178
0.154204 0.505065 3.69942
0.301238 0.562343 3.55738
0.160259 0.409572 3.69534
0.381154 0.650244 3.43045
0.226426 0.542187 3.57961
0.250124 0.539767 3.57855
0.27417 0.540397 3.57285
0.305253 0.55428 3.55098
0.208881 0.548157 3.57961
0.264403 0.612643 3.5865
0.235994 0.610702 3.58802
0.289794 0.607319 3.57995
0.30492 0.596514 3.57152
0.321471 0.536617 3.54074
0.212206 0.208975 3.59703
0.310397 0.568883 3.54879
0.381359 0.542405 3.42041
0.343214 0.552569 3.51282
0.249175 0.441725 3.61925
0.165781 0.340604 3.67458
0.159534 0.313133 3.66175
0.196065 0.333963 3.65847
0.215542 0.324077 3.63662
0.181855 0.312593 3.64944
0.200567 0.309075 3.63055
0.242078 0.283129 3.595
0.154788 0.425906 3.73968
0.156752 0.450803 3.74551
0.331645 0.615543 3.5632
0.202405 0.504652 3.61624
0.210032 0.43064 3.67621
0.210185 0.443777 3.66645
0.313945 0.443638 3.58212
0.155812 0.480592 3.726
0.280483 0.644027 3.61294
0.31125 0.634661 3.59084
0.358917 0.698448 3.48085
0.182737 0.629364 3.6347
0.215216 0.600384 3.58168
0.261186 0.307391 3.58829
0.357169 0.319512 3.35569
0.196147 0.41516 3.66899
0.175666 0.405925 3.67463
0.243417 0.302842 3.59081
0.22844 0.303491 3.59682
0.322316 0.649438 3.57731
0.210283 0.419068 3.6633
0.239381 0.644579 3.62916
0.242857 0.665629 3.63393
0.268913 0.770862 3.58045
0.338764 0.675266 3.53532
0.254849 0.719446 3.60896
0.345702 0.62527 3.54088
0.363197 0.636537 3.49008
0.163194 0.325124 3.6709
0.189133 0.321337 3.65495
0.208277 0.316654 3.63595
0.190323 0.409713 3.66615
0.235949 0.302892 3.59504
0.223917 0.295461 3.6112
0.223424 0.304913 3.5964
0.182784 0.424948 3.70054
0.193472 0.309685 3.62444
0.176431 0.309734 3.63835
0.155876 0.308864 3.64932
0.162939 0.234183 3.63178
0.164528 0.253817 3.65425
0.165166 0.268248 3.65652
0.165171 0.281555 3.65007
0.162705 0.2908 3.64473
0.199841 0.296708 3.62218
0.202883 0.293748 3.62751
0.207571 0.287925 3.63194
0.213485 0.279812 3.62752
0.234156 0.351615 3.63047
0.387949 0.432683 3.31912
0.211997 0.298616 3.60643
0.217689 0.297818 3.61069
0.168842 0.394519 3.67268
0.20519 0.402225 3.64978
0.171985 0.399999 3.67486
0.226226 0.490252 3.60762
0.262564 0.47301 3.60264
0.214422 0.432224 3.65353
0.322443 0.739683 3.53433
0.304058 0.703535 3.57453
0.288843 0.663854 3.60738
0.220378 0.265269 3.60737
0.189575 0.662804 3.64463
0.198946 0.726845 3.62745
0.20725 0.789478 3.60824
0.293775 0.544725 3.56225
0.342109 0.518302 3.52648
0.199916 0.554047 3.57619
0.324796 0.584479 3.54907
0.186588 0.520376 3.62406
0.195463 0.440536 3.70068
0.364765 0.500617 3.49566
0.329455 0.5019 3.5508
0.300858 0.494371 3.57635
0.257947 0.499451 3.58754
0.226329 0.510529 3.59247
0.202794 0.522349 3.59972
0.154545 0.554545 3.65171
0.365945 0.450505 3.50564
0.339618 0.586832 3.53553
0.146053 0.411863 3.7259
0.203084 0.480055 3.62932
0.394985 0.539943 3.33629
0.18713 0.53479 3.6038
0.219148 0.429179 3.63016
0.316222 0.568128 3.54252
0.194418 0.456835 3.68892
0.377307 0.377515 3.33137
0.201721 0.562543 3.56844
0.174846 0.471515 3.71133
0.304164 0.265264 3.49603
0.301007 0.238683 3.44891
0.386957 0.439873 3.41297
0.333563 0.296898 3.46284
0.376294 0.592234 3.44874
0.215255 0.187163 3.58081
0.14909 0.403296 3.69502
0.221829 0.461986 3.62174
0.359736 0.546271 3.48505
0.276207 0.553491 3.57161
0.253578 0.551857 3.57581
0.230218 0.29193 3.60706
0.361019 0.402172 3.50013
0.177351 0.152268 3.57652
0.242466 0.187105 3.52067
0.268528 0.208443 3.48836
0.232313 0.554133 3.57636
0.215361 0.558158 3.57266
0.206498 0.560262 3.56815
0.354802 0.590328 3.50885
0.217091 0.583401 3.57356
0.23504 0.592687 3.57714
0.258479 0.59474 3.57733
0.281652 0.589948 3.57358
0.295194 0.581475 3.56706
0.394851 0.599366 3.37886
0.291458 0.557307 3.56401
0.214752 0.366561 3.64734
0.195384 0.41989 3.68006
0.169987 0.373118 3.67022
0.273868 0.235318 3.52261
0.245223 0.211854 3.54996
0.17596 0.167667 3.60727
0.330581 0.272388 3.39938
0.207035 0.570414 3.57021
0.171406 0.514394 3.66184
0.213106 0.167642 3.55308
0.377294 0.38853 3.41847
0.183642 0.29351 3.63481
0.186799 0.287347 3.63995
0.189742 0.277389 3.64454
0.192628 0.264402 3.64151
0.194888 0.247649 3.62112
0.216587 0.306588 3.61217
0.225726 0.309567 3.61231
0.232384 0.314352 3.61242
0.25187 0.331242 3.60873
0.32845 0.390726 3.55555
0.170815 0.538446 3.63643
0.184207 0.583652 3.59092
0.19795 0.579746 3.57734
0.209298 0.308743 3.60769
0.328065 0.331576 3.51546
0.16194 0.588879 3.62379
0.202758 0.229983 3.60777
0.153389 0.528548 3.67962
0.188328 0.476367 3.66488
0.168039 0.213072 3.62463
0.256547 0.276839 3.57924
0.236304 0.40889 3.62424
0.230874 0.251241 3.59209
0.281481 0.411962 3.60987
0.254756 0.383073 3.61726
0.298113 0.372317 3.58728
0.173731 0.1886 3.6208
0.202514 0.462234 3.64715
0.271214 0.260655 3.5541
0.241727 0.234214 3.57237
0.277312 0.30684 3.57567
0.351283 0.361085 3.49159
0.2989 0.304993 3.55001
0.361653 0.340627 3.42821
0.269347 0.350922 3.60179
0.187414 0.497322 3.64381
0.188085 0.429841 3.70628
0.203097 0.422523 3.68141
0.178363 0.446877 3.72384
0.202996 0.607261 3.59648
0.239127 0.621747 3.60182
0.272253 0.623406 3.59952
0.299827 0.617336 3.58806
0.316948 0.604454 3.57163
0.326587 0.560531 3.53186
0.387093 0.490851 3.41335
0.310017 0.526661 3.55458
0.285754 0.520484 3.57088
0.25447 0.521483 3.58003
0.225538 0.527809 3.58357
0.204591 0.536122 3.58678
0.191167 0.543616 3.5887
0.391657 0.485811 3.31795
0.202662 0.415137 3.66961
0.173426 0.492952 3.68289
0.171652 0.429002 3.72738
0.157044 0.415773 3.71713
0.171638 0.424319 3.7148
0.196927 0.406583 3.66287
0.152807 0.413593 3.72372
0.155653 0.405296 3.6957
0.193554 0.561635 3.57511
0.179567 0.557461 3.59259
0.172363 0.554927 3.61151
0.303346 0.574921 3.55961
0.314403 0.584328 3.55765
