ply
format ascii 1.0
comment Created by Open3D
element vertex 468
property double x
property double y
property double z
end_header
-0.0266863 0.356789 4.09818
-0.0301998 0.428975 4.15482
-0.0278746 0.40316 4.09853
-0.0448803 0.504177 4.11502
-0.0292599 0.453343 4.16079
-0.0264789 0.483298 4.14838
-0.0232133 0.555474 4.07564
-0.183412 0.555376 3.98409
-0.0208198 0.611075 4.05203
-0.0199272 0.642404 4.05194
-0.0198324 0.754795 4.01678
-0.0258507 0.345493 4.09638
-0.0242637 0.336882 4.09032
-0.0230414 0.333795 4.08158
-0.0217335 0.255022 4.05374
-0.0221645 0.243009 4.05825
-0.0214736 0.229332 4.06227
-0.0221145 0.214967 4.05579
-0.0236014 0.197422 4.03481
-0.0290003 0.415096 4.14393
-0.049926 0.416012 4.1138
-0.255532 0.634469 3.86622
-0.114961 0.538326 4.00564
-0.13661 0.535743 4.00486
-0.158918 0.536019 3.99953
-0.190615 0.547438 3.98145
-0.0981536 0.543928 4.0039
-0.148506 0.601774 4.0112
-0.123449 0.599705 4.01077
-0.172248 0.597229 4.00531
-0.187916 0.586851 3.99751
-0.205451 0.532414 3.97213
-0.112842 0.1882 4.0131
-0.192749 0.560638 3.97683
-0.26087 0.537509 3.86806
-0.226755 0.545943 3.94768
-0.140715 0.447032 4.04436
-0.062383 0.361317 4.09571
-0.0554222 0.3377 4.08644
-0.0966334 0.355474 4.08052
-0.116578 0.34654 4.05437
-0.0806159 0.336995 4.07269
-0.0991293 0.333805 4.0496
-0.139689 0.288202 4.00548
-0.0483426 0.429315 4.15388
-0.0497796 0.452604 4.15908
-0.213614 0.605989 3.9891
-0.0923175 0.503632 4.0387
-0.100975 0.436986 4.09754
-0.101431 0.448901 4.08916
-0.204299 0.450067 4.0143
-0.0475909 0.480735 4.14098
-0.162173 0.632025 4.02732
-0.192684 0.624088 4.01019
-0.233972 0.676695 3.90674
-0.0678124 0.613922 4.04681
-0.103425 0.590947 4.00403
-0.155821 0.324718 4.00461
-0.233593 0.318064 3.83071
-0.0851058 0.423626 4.08926
-0.0659201 0.414019 4.09381
-0.141197 0.32129 4.00419
-0.12669 0.319265 4.00908
-0.203497 0.637426 3.9974
-0.101602 0.42692 4.08604
-0.121457 0.630626 4.04031
-0.124422 0.648658 4.04345
-0.147049 0.736564 3.99015
-0.218016 0.657415 3.95729
-0.134303 0.694729 4.01697
-0.225903 0.614932 3.96773
-0.240695 0.622908 3.91887
-0.0598062 0.347828 4.09322
-0.0886924 0.344674 4.07689
-0.108473 0.340358 4.0539
-0.0797822 0.418727 4.08571
-0.134592 0.32012 4.00713
-0.121972 0.293871 4.01573
-0.121105 0.319486 4.00871
-0.0720092 0.429845 4.11899
-0.0926013 0.335087 4.04672
-0.0745658 0.336496 4.06442
-0.0513894 0.33495 4.07707
-0.0628955 0.202975 4.03463
-0.0607931 0.221034 4.05338
-0.0590585 0.235075 4.05719
-0.0563065 0.249095 4.05255
-0.0524723 0.259124 4.04852
-0.0939386 0.281241 4.02519
-0.0992004 0.277421 4.02912
-0.106668 0.27146 4.0325
-0.113397 0.264669 4.02795
-0.130696 0.366729 4.04813
-0.260611 0.434115 3.78844
-0.0302245 0.409328 4.11475
-0.106391 0.294312 4.01171
-0.114624 0.294553 4.01531
-0.0593356 0.40338 4.09397
-0.0963677 0.41281 4.07127
-0.0624633 0.408347 4.09478
-0.116002 0.491645 4.03322
-0.152893 0.477423 4.02998
-0.105866 0.438728 4.07713
-0.199194 0.711619 3.95112
-0.183907 0.68231 3.98983
-0.169181 0.649292 4.0211
-0.121721 0.255136 4.01379
-0.0735993 0.643624 4.05257
-0.0816639 0.698339 4.03235
-0.0889822 0.749587 4.01311
-0.17899 0.539533 3.9904
-0.226279 0.516942 3.96104
-0.0884108 0.550017 4
-0.207597 0.575557 3.97784
-0.0755556 0.517551 4.0454
-0.0860536 0.44486 4.11899
-0.247735 0.499586 3.93709
-0.213499 0.504155 3.98306
-0.187319 0.49776 4.00482
-0.146048 0.50106 4.01437
-0.114439 0.509532 4.0178
-0.0912606 0.519662 4.02272
-0.0450989 0.548609 4.06705
-0.250032 0.454326 3.94903
-0.221924 0.577705 3.96603
-0.0397617 0.41599 4.1428
-0.0931831 0.482169 4.05296
-0.268414 0.536814 3.79422
-0.0751935 0.531468 4.02494
-0.110202 0.437553 4.05383
-0.199671 0.560288 3.97259
-0.0860498 0.459542 4.10871
-0.251821 0.378368 3.80459
-0.0898627 0.557831 3.99246
-0.066319 0.472384 4.12895
-0.192955 0.262866 3.93975
-0.187302 0.231849 3.90759
-0.266687 0.44197 3.86908
-0.218219 0.295893 3.91695
-0.252813 0.58317 3.88636
-0.114496 0.162708 4.00539
-0.0393454 0.410171 4.11384
-0.113584 0.465994 4.04748
-0.242598 0.540177 3.92447
-0.158464 0.549287 3.99696
-0.137843 0.548614 4.00119
-0.128816 0.292892 4.01335
-0.247475 0.406655 3.94661
-0.0749027 0.119145 4.00455
-0.138223 0.168372 3.96012
-0.160945 0.196472 3.93593
-0.0207823 0.700257 4.03554
-0.0245584 0.108396 4.0092
-0.119513 0.550432 4.00164
-0.103387 0.553795 3.99797
-0.0942139 0.556165 3.9928
-0.235382 0.581125 3.9421
-0.106365 0.571958 3.99884
-0.123986 0.577386 4.00314
-0.143718 0.578544 4.00287
-0.164065 0.574996 3.99885
-0.17749 0.568881 3.99276
-0.267434 0.590701 3.82478
-0.172958 0.551865 3.9902
-0.0272878 0.387317 4.09238
-0.10999 0.379786 4.06726
-0.0853996 0.427038 4.09789
-0.0629507 0.385959 4.09015
-0.0217786 0.582842 4.0552
-0.167496 0.227287 3.95767
-0.141555 0.196838 3.97973
-0.0753131 0.136473 4.02613
-0.210608 0.268264 3.86951
-0.0952411 0.56325 3.99454
-0.0613783 0.512352 4.07897
-0.0241074 0.125183 4.02905
-0.110926 0.140904 3.98647
-0.259082 0.389741 3.87755
-0.0757755 0.268475 4.03801
-0.0814722 0.261567 4.04128
-0.0871409 0.250754 4.04356
-0.0919254 0.238265 4.03985
-0.0979651 0.224851 4.02499
-0.115378 0.329287 4.02769
-0.12476 0.333098 4.02704
-0.13196 0.337387 4.02774
-0.147342 0.349304 4.02431
-0.219574 0.396588 3.99172
-0.0601422 0.534079 4.05432
-0.0720555 0.575916 4.00959
-0.0859579 0.572732 3.99894
-0.108075 0.331586 4.02551
-0.217387 0.335013 3.95707
-0.0518286 0.577663 4.03995
-0.104904 0.211004 4.01775
-0.0249794 0.507741 4.12271
-0.0448395 0.52505 4.0929
-0.024383 0.530342 4.09769
-0.0793805 0.477755 4.08462
-0.0241966 0.1503 4.03627
-0.023949 0.177778 4.0343
-0.0679869 0.185897 4.03141
-0.152325 0.280158 3.99515
-0.127342 0.417404 4.046
-0.131481 0.243037 4.00468
-0.17456 0.41814 4.03549
-0.146599 0.392818 4.03717
-0.190557 0.37974 4.01432
-0.0736856 0.16061 4.03233
-0.0937809 0.465616 4.06999
-0.165903 0.257878 3.97908
-0.139232 0.223349 3.99333
-0.169006 0.318589 3.99668
-0.238647 0.364435 3.93979
-0.191639 0.308978 3.97969
-0.243191 0.340542 3.88886
-0.161971 0.364782 4.02149
-0.0770787 0.497082 4.06456
-0.0789817 0.434077 4.12421
-0.0938923 0.429107 4.10159
-0.0693414 0.449811 4.13957
-0.088232 0.597082 4.01372
-0.12275 0.611268 4.01846
-0.154279 0.613655 4.01801
-0.180994 0.607987 4.00916
-0.199337 0.595413 3.99594
-0.210079 0.553212 3.96372
-0.266011 0.490294 3.86666
-0.194405 0.52428 3.98436
-0.171059 0.518874 3.99777
-0.141566 0.5194 4.00649
-0.11359 0.524619 4.0095
-0.093288 0.532223 4.01033
-0.0797908 0.539606 4.01127
-0.265023 0.486011 3.78248
-0.093433 0.423339 4.09029
-0.0632413 0.493003 4.10058
-0.0631274 0.43252 4.14252
-0.0497589 0.419345 4.13378
-0.0625966 0.428271 4.13108
-0.0881743 0.415867 4.08351
-0.0459343 0.417254 4.14011
-0.0457576 0.411966 4.11381
-0.0817907 0.557505 3.99765
-0.0690081 0.552377 4.01319
-0.0618707 0.549109 4.03091
-0.185946 0.56423 3.98591
-0.19812 0.574979 3.98529
-0.00507011 0.504202 4.11515
0.154794 0.559863 3.97682
-0.00588093 0.415262 4.11105
0.238627 0.646622 3.86097
0.0823963 0.540675 4.00499
0.10618 0.538672 4.00283
0.130015 0.539015 3.99582
0.165626 0.552332 3.97421
0.0627733 0.546071 4.00191
0.118407 0.609461 4.00608
0.090754 0.60585 4.00569
0.14435 0.605704 3.99816
0.162107 0.595616 3.98815
0.180527 0.536723 3.96381
0.0762813 0.18243 4.00447
0.164989 0.566394 3.96795
0.246824 0.543709 3.86151
0.205613 0.551751 3.93832
0.103607 0.447848 4.03542
0.0145644 0.360764 4.09256
0.0127392 0.337188 4.08453
0.0570086 0.352764 4.07388
0.0819469 0.343516 4.04809
0.0430499 0.334858 4.07025
0.0644871 0.331529 4.0462
0.112092 0.284921 3.99646
-0.00971556 0.429186 4.15144
-0.00548782 0.452467 4.15635
0.194233 0.616388 3.97927
0.0508459 0.504307 4.03613
0.0544225 0.436266 4.09119
0.0571606 0.448733 4.08269
0.177838 0.451446 4.00395
-0.00501177 0.480727 4.14089
0.135352 0.64321 4.01605
0.169905 0.635143 3.99882
0.214769 0.690192 3.90062
0.0309237 0.618512 4.04174
0.0675006 0.595246 4.00055
0.130219 0.321398 3.99605
0.223939 0.310157 3.82653
0.0346804 0.422351 4.08441
0.0136381 0.413656 4.08738
0.11307 0.318779 3.99684
0.100672 0.316976 4.00286
0.18226 0.649818 3.98644
0.0573016 0.426184 4.07878
0.0901849 0.639431 4.03088
0.0947359 0.658372 4.03359
0.117583 0.746781 3.98396
0.197887 0.669981 3.94787
0.102317 0.704209 4.00945
0.207341 0.625851 3.95856
0.222102 0.634327 3.9109
0.0144028 0.346865 4.09048
0.0495081 0.34219 4.0727
0.0735505 0.337583 4.04866
0.0289436 0.417677 4.07903
0.107317 0.317812 3.99985
0.0938548 0.292107 4.00824
0.0963699 0.316936 4.00379
0.019786 0.428632 4.11734
0.0606874 0.33346 4.04395
0.037902 0.335176 4.06277
0.0108195 0.334937 4.07664
0.0205891 0.202504 4.02986
0.0220563 0.220795 4.05082
0.0199075 0.234592 4.05605
0.0163079 0.248319 4.05226
0.0131847 0.257948 4.0493
0.0633765 0.279261 4.02251
0.0690875 0.275901 4.02438
0.0774793 0.270244 4.02501
0.0829238 0.263545 4.02007
0.095532 0.365162 4.03965
0.245687 0.434412 3.78529
0.0779531 0.292041 4.00957
0.086329 0.292692 4.00978
0.00645279 0.403024 4.08988
0.0500972 0.411999 4.06158
0.00965712 0.407928 4.08934
0.0768089 0.492715 4.02939
0.118011 0.479047 4.02284
0.0625843 0.438452 4.07004
0.17622 0.724615 3.94332
0.159619 0.694481 3.97987
0.143404 0.661159 4.01039
0.0906631 0.252782 4.00664
0.0388868 0.650153 4.04643
0.044596 0.703709 4.02698
0.0544721 0.755261 4.00788
0.152446 0.543426 3.9845
0.204445 0.520779 3.95162
0.0503013 0.552072 3.99943
0.184374 0.583277 3.96848
0.0335843 0.518468 4.04415
0.0366133 0.444281 4.11407
0.230109 0.503024 3.92879
0.18837 0.507303 3.97467
0.157726 0.500606 3.99747
0.110962 0.503103 4.00966
0.0764095 0.510941 4.01507
0.0516709 0.520736 4.02068
-0.000151621 0.549123 4.06645
0.229728 0.455618 3.93983
0.202017 0.585639 3.95748
-0.0164864 0.415811 4.14218
0.0496139 0.482579 4.04984
0.252644 0.543531 3.79101
0.0328881 0.53252 4.02356
0.0644831 0.437564 4.04509
0.173853 0.566488 3.96372
0.0394667 0.459189 4.10371
0.239417 0.375 3.79997
0.0520045 0.559752 3.9923
0.0179281 0.471956 4.12641
0.177133 0.250651 3.92925
0.175249 0.217245 3.90037
0.249143 0.442703 3.86103
0.206889 0.285359 3.90744
0.234543 0.592295 3.87984
0.0780949 0.154727 3.9972
-0.0208576 0.410108 4.11259
0.0727273 0.466792 4.04129
0.224928 0.54604 3.91617
0.127319 0.552726 3.99208
0.105705 0.551863 3.99904
0.100796 0.291004 4.00519
0.228936 0.405294 3.93555
0.029981 0.114069 4.00094
0.106828 0.156403 3.95321
0.13895 0.182298 3.92913
0.0865269 0.553316 4.00041
0.0683563 0.556536 3.99782
0.056798 0.558226 3.99308
0.217994 0.589536 3.93398
0.0740829 0.574933 3.99783
0.0950551 0.581596 4.00042
0.115032 0.583539 3.99906
0.136143 0.580655 3.99264
0.15025 0.574658 3.98479
0.249281 0.600707 3.8206
0.142904 0.55569 3.98417
0.069271 0.378675 4.05952
0.0341745 0.425833 4.09121
0.013633 0.385241 4.08673
0.143956 0.215383 3.94716
0.113158 0.185783 3.97033
0.032246 0.132118 4.02149
0.201867 0.256407 3.86511
0.0590825 0.565491 3.99492
0.0155067 0.512722 4.07718
0.0722271 0.132281 3.98091
0.244993 0.387164 3.86783
0.0406144 0.266821 4.03733
0.0462326 0.260098 4.03917
0.0522915 0.24992 4.04027
0.0563036 0.237961 4.03523
0.0619833 0.223458 4.01999
0.0865722 0.326735 4.02311
0.0944422 0.330096 4.02195
0.101754 0.334357 4.02133
0.11702 0.346886 4.01694
0.19888 0.394938 3.98096
0.0160957 0.534982 4.05386
0.030709 0.578066 4.00692
0.0468984 0.575267 3.9979
0.080459 0.329543 4.02226
0.200704 0.32864 3.94615
0.00982208 0.579333 4.03806
0.0699353 0.206896 4.00982
-0.00235346 0.525286 4.09174
0.0331228 0.477843 4.08027
0.0253778 0.183906 4.02546
0.125881 0.274637 3.98571
0.0861275 0.417356 4.03713
0.101897 0.237732 3.99507
0.144417 0.418315 4.02366
0.111824 0.391956 4.02817
0.165388 0.377587 4.0028
0.0307986 0.157684 4.0278
0.0493089 0.465776 4.0647
0.140367 0.249696 3.96843
0.109638 0.215061 3.98266
0.145135 0.313818 3.98929
0.223217 0.359944 3.92854
0.172164 0.301916 3.96904
0.231889 0.333918 3.88058
0.135038 0.362651 4.01333
0.031996 0.497598 4.06261
0.0280565 0.433017 4.12029
0.0459923 0.428044 4.09428
0.0161783 0.44913 4.13733
0.0498894 0.600627 4.01124
0.0887597 0.617704 4.01187
0.124135 0.622185 4.00874
0.154124 0.617339 3.99943
0.175303 0.6047 3.98531
0.186569 0.558798 3.95451
0.250253 0.493781 3.86077
0.167408 0.528224 3.97669
0.140995 0.521919 3.99174
0.108846 0.521854 4.00262
0.0786395 0.52667 4.00727
0.0558881 0.533802 4.00745
0.0401811 0.541046 4.00914
0.249007 0.489459 3.78121
0.0464182 0.422201 4.08304
0.014366 0.493153 4.09915
0.00852831 0.431732 4.13912
-0.0036747 0.418761 4.1311
0.00920721 0.42722 4.12837
0.0410322 0.414952 4.07504
-0.00857899 0.41696 4.13796
-0.0122044 0.411463 4.11153
0.0418894 0.559458 3.99621
0.0279548 0.553892 4.01041
0.0197971 0.550424 4.02839
0.158832 0.569945 3.97731
0.173495 0.582664 3.97496
