ply
format ascii 1.0
comment Created by Open3D
element vertex 468
property double x
property double y
property double z
end_header
-0.022648 0.36829 4.11319
-0.0181915 0.448102 4.17028
-0.0214237 0.419297 4.10762
-0.0392231 0.524621 4.12786
-0.0175941 0.473758 4.17623
-0.0157524 0.504853 4.16229
-0.0184192 0.578403 4.08913
-0.197325 0.577378 3.98745
-0.02017 0.644256 4.06693
-0.0210151 0.679196 4.06995
-0.0265363 0.803793 4.03666
-0.0223989 0.356149 4.11145
-0.0213898 0.344869 4.10389
-0.0200808 0.338332 4.09267
-0.0311748 0.274103 4.07567
-0.0318877 0.260455 4.08015
-0.0311131 0.244921 4.0831
-0.0317528 0.229802 4.07447
-0.0320994 0.219521 4.04411
-0.0163383 0.434186 4.15782
-0.0418577 0.433299 4.12544
-0.288031 0.660966 3.85873
-0.121439 0.558451 4.01111
-0.145499 0.556008 4.01017
-0.169992 0.556847 4.00419
-0.203476 0.569814 3.98242
-0.103033 0.564956 4.01109
-0.157264 0.627082 4.01758
-0.128886 0.625231 4.0192
-0.18378 0.622379 4.01048
-0.200403 0.612049 4.00155
-0.221428 0.552741 3.97322
-0.104836 0.220399 4.01487
-0.206742 0.582615 3.97882
-0.289651 0.558121 3.85372
-0.245814 0.568398 3.9452
-0.139695 0.462311 4.05038
-0.0527267 0.372011 4.10889
-0.0454041 0.344774 4.0987
-0.0814658 0.363042 4.09277
-0.0984329 0.349253 4.07037
-0.0654729 0.341718 4.08539
-0.0811341 0.335139 4.06534
-0.126242 0.295238 4.02443
-0.0364824 0.448847 4.16897
-0.0388387 0.473126 4.17432
-0.231977 0.632272 3.99103
-0.0930838 0.522195 4.04723
-0.0925288 0.452992 4.10576
-0.0942906 0.465373 4.09647
-0.208129 0.462632 4.01687
-0.0391813 0.501552 4.15445
-0.176699 0.662221 4.03971
-0.209687 0.652121 4.01738
-0.264245 0.708241 3.90746
-0.0733561 0.646384 4.06199
-0.107952 0.615376 4.01263
-0.140807 0.324933 4.01925
-0.249841 0.338774 3.79309
-0.077504 0.438084 4.09809
-0.0571202 0.429995 4.10428
-0.120445 0.317536 4.02318
-0.103844 0.317992 4.02869
-0.223046 0.666525 4.0037
-0.0924458 0.441903 4.09282
-0.132817 0.662438 4.05569
-0.137045 0.682342 4.05993
-0.167856 0.778757 4.00608
-0.242123 0.688357 3.96192
-0.15156 0.731522 4.03509
-0.247941 0.641057 3.968
-0.26818 0.649771 3.91762
-0.0499504 0.357547 4.10677
-0.074049 0.350987 4.09051
-0.0903284 0.342461 4.07068
-0.0716603 0.433323 4.09509
-0.112208 0.317181 4.02703
-0.105525 0.300639 4.04112
-0.0986926 0.319953 4.02774
-0.0645967 0.447361 4.12984
-0.0732063 0.335326 4.05985
-0.0592359 0.338605 4.07475
-0.0415005 0.338995 4.08643
-0.0635429 0.225781 4.04625
-0.0639776 0.237394 4.07394
-0.0625157 0.251514 4.07946
-0.0599498 0.26698 4.07493
-0.0560484 0.277733 4.06983
-0.0846095 0.293953 4.04801
-0.0893586 0.290496 4.05299
-0.0965519 0.284716 4.05734
-0.103475 0.278207 4.05349
-0.116845 0.375111 4.06301
-0.290765 0.451205 3.754
-0.0215523 0.426432 4.12671
-0.0919767 0.302689 4.03514
-0.0990434 0.301823 4.03935
-0.0511873 0.41969 4.10235
-0.0876201 0.426117 4.07857
-0.053802 0.424552 4.1044
-0.117928 0.508585 4.03968
-0.156375 0.491931 4.03526
-0.0984318 0.453935 4.08355
-0.225336 0.748436 3.96059
-0.20513 0.716582 4.00119
-0.186294 0.681052 4.03379
-0.111366 0.271241 4.03323
-0.0811178 0.679189 4.0707
-0.092864 0.73792 4.05346
-0.102882 0.796245 4.03336
-0.190937 0.561113 3.99325
-0.244078 0.535334 3.96041
-0.0932715 0.571166 4.00699
-0.224071 0.600263 3.97886
-0.07617 0.537672 4.05439
-0.0782005 0.462816 4.12986
-0.268208 0.51782 3.93062
-0.229284 0.519518 3.98503
-0.198338 0.512302 4.01032
-0.153371 0.517105 4.02055
-0.119826 0.527576 4.02475
-0.0947125 0.539122 4.03098
-0.0426641 0.571076 4.07967
-0.265406 0.468974 3.94129
-0.240971 0.602841 3.96536
-0.0285147 0.434979 4.15604
-0.0912763 0.499341 4.06049
-0.303807 0.55475 3.76873
-0.0778511 0.551725 4.03431
-0.104057 0.450757 4.0601
-0.214817 0.583264 3.973
-0.0783584 0.47798 4.11861
-0.276084 0.397205 3.76797
-0.0946146 0.579358 3.99885
-0.0587197 0.49258 4.14036
-0.190786 0.283753 3.92594
-0.189071 0.257792 3.8817
-0.290333 0.458542 3.84907
-0.221172 0.315622 3.89606
-0.282898 0.606379 3.87891
-0.107235 0.200336 3.99947
-0.031274 0.427394 4.12567
-0.111051 0.482124 4.05344
-0.265081 0.562399 3.91784
-0.1711 0.570147 4.00216
-0.148234 0.568297 4.00694
-0.112653 0.298779 4.03783
-0.255674 0.421511 3.93624
-0.071029 0.161983 3.99533
-0.133884 0.203837 3.94546
-0.158449 0.227013 3.91738
-0.0249808 0.741444 4.05629
-0.0226628 0.150649 4.00258
-0.126993 0.570166 4.0078
-0.110044 0.57466 4.00399
-0.10043 0.577051 3.99895
-0.258428 0.605834 3.93859
-0.109954 0.593648 4.00546
-0.128099 0.599384 4.00971
-0.151192 0.600721 4.00929
-0.174287 0.597072 4.00438
-0.188917 0.591176 3.99759
-0.303258 0.61225 3.80882
-0.186828 0.573501 3.99428
-0.0225992 0.402238 4.10237
-0.0984456 0.391493 4.07843
-0.0771101 0.442641 4.10901
-0.055637 0.400368 4.10039
-0.0183687 0.611334 4.06829
-0.162513 0.253264 3.94939
-0.135041 0.228269 3.97261
-0.0699785 0.176609 4.02358
-0.219113 0.291004 3.83559
-0.0999002 0.585115 4.00111
-0.0587238 0.532752 4.09071
-0.0226955 0.165187 4.0292
-0.106233 0.180974 3.9743
-0.275802 0.407908 3.85535
-0.0733427 0.284946 4.05978
-0.0784798 0.277672 4.06463
-0.0843238 0.266627 4.0683
-0.088816 0.254533 4.06463
-0.0917549 0.246221 4.04205
-0.0936034 0.328034 4.04545
-0.103644 0.331073 4.04593
-0.11133 0.335733 4.0462
-0.131958 0.352167 4.04099
-0.219123 0.410269 3.98937
-0.0595346 0.555567 4.06558
-0.0757635 0.600331 4.02092
-0.0901152 0.596117 4.0075
-0.0861978 0.330766 4.04122
-0.215124 0.350568 3.94743
-0.051664 0.604934 4.0524
-0.0978593 0.236737 4.02641
-0.0166799 0.529372 4.13695
-0.0400789 0.546408 4.10757
-0.0180502 0.552079 4.11249
-0.0747508 0.496273 4.09509
-0.0248707 0.185106 4.04035
-0.0289349 0.205174 4.04067
-0.0661088 0.213363 4.03754
-0.142974 0.292171 4.00777
-0.122053 0.430885 4.05377
-0.122405 0.263238 4.01599
-0.171619 0.431918 4.04098
-0.140256 0.404729 4.04821
-0.184718 0.392099 4.0182
-0.0690897 0.195238 4.03443
-0.0888388 0.482388 4.07771
-0.158955 0.277415 3.98144
-0.131891 0.249109 3.9951
-0.160184 0.324873 4.0058
-0.242313 0.380681 3.92678
-0.183975 0.3231 3.98027
-0.254177 0.359666 3.86451
-0.152129 0.37144 4.03242
-0.0750955 0.515952 4.074
-0.0703354 0.452117 4.13527
-0.0850469 0.445308 4.11074
-0.0605554 0.469065 4.15257
-0.0946888 0.624343 4.02589
-0.132661 0.63866 4.03076
-0.16682 0.640366 4.02831
-0.195872 0.634147 4.01649
-0.214969 0.620693 4.00003
-0.227236 0.576197 3.96321
-0.293579 0.508396 3.84892
-0.208981 0.543322 3.98731
-0.183342 0.537301 4.0032
-0.150322 0.538174 4.01212
-0.119775 0.544363 4.01571
-0.0976457 0.552813 4.01807
-0.0834433 0.560686 4.01963
-0.297911 0.50247 3.75173
-0.0843681 0.438169 4.09867
-0.0589835 0.512677 4.1121
-0.0535108 0.451601 4.15635
-0.0393952 0.438593 4.14715
-0.0536929 0.446771 4.14415
-0.0786118 0.430386 4.09207
-0.0351279 0.436535 4.15395
-0.0375207 0.429289 4.12617
-0.0857545 0.579256 4.00539
-0.0707691 0.574535 4.02311
-0.062543 0.57161 4.0414
-0.19838 0.586734 3.98985
-0.21195 0.599689 3.98769
0.00463156 0.525147 4.12989
0.1702 0.587167 3.98092
0.00403727 0.431026 4.1222
0.272642 0.686174 3.84868
0.096748 0.564566 4.01503
0.123797 0.5629 4.01132
0.149562 0.563911 4.00239
0.184071 0.579296 3.97653
0.0719676 0.570072 4.01206
0.134593 0.642801 4.01364
0.102188 0.638665 4.01506
0.16263 0.63861 4.00241
0.180775 0.627552 3.99037
0.204541 0.560227 3.9625
0.0720676 0.205724 4.00901
0.179904 0.594399 3.97087
0.279889 0.570327 3.84656
0.232709 0.578453 3.93343
0.112912 0.459773 4.03903
0.0113922 0.368831 4.10707
0.00793743 0.342088 4.09938
0.0469315 0.354716 4.09119
0.0666717 0.339366 4.07229
0.0332422 0.33542 4.08938
0.0488552 0.327533 4.07094
0.0961528 0.282263 4.02021
0.00307579 0.447778 4.16565
0.00725482 0.472569 4.17049
0.219383 0.652247 3.97778
0.0621549 0.523262 4.04476
0.0635397 0.449327 4.09986
0.066696 0.462561 4.09054
0.196751 0.460133 4.00425
0.00712295 0.501679 4.15491
0.151312 0.682813 4.02094
0.190652 0.673481 4.00023
0.24435 0.735569 3.8957
0.035211 0.653687 4.05464
0.0744921 0.626252 4.01169
0.113914 0.312356 4.01887
0.248094 0.325774 3.79787
0.0410732 0.434184 4.0933
0.0178362 0.426397 4.09464
0.0855178 0.307006 4.02935
0.0739415 0.308562 4.03602
0.204628 0.689886 3.9859
0.0637378 0.437479 4.08568
0.099849 0.677796 4.03955
0.104289 0.699096 4.04318
0.130355 0.798342 3.99551
0.223752 0.712552 3.94665
0.112374 0.749311 4.02253
0.23451 0.662306 3.95453
0.252787 0.672252 3.90424
0.010426 0.354113 4.10655
0.0394321 0.343518 4.0921
0.0580675 0.333324 4.07351
0.0327799 0.428962 4.08743
0.0790776 0.307132 4.03301
0.0688956 0.291113 4.04138
0.0712588 0.311058 4.03604
0.0328668 0.444388 4.12972
0.0446487 0.329325 4.06712
0.0278423 0.333865 4.08064
0.00612267 0.337115 4.09034
0.00796801 0.220384 4.03868
0.00760842 0.232459 4.06937
0.00511847 0.247182 4.07753
0.00106944 0.263164 4.07632
-0.00183442 0.274687 4.07257
0.0421279 0.286979 4.05279
0.047318 0.282777 4.05344
0.0557212 0.275862 4.05308
0.0624635 0.268261 4.04768
0.0875138 0.366634 4.05833
0.272662 0.453007 3.75508
0.0554828 0.295267 4.04403
0.0614227 0.29335 4.04352
0.0100781 0.416787 4.09778
0.0504481 0.420578 4.06657
0.0139259 0.42138 4.09703
0.089683 0.509405 4.03565
0.132223 0.491836 4.02595
0.0698453 0.450273 4.07651
0.199025 0.774141 3.94628
0.178602 0.739887 3.98393
0.159957 0.703144 4.01566
0.076237 0.259272 4.02852
0.0424284 0.688817 4.06057
0.0473499 0.746992 4.04564
0.057303 0.806621 4.02364
0.172048 0.569059 3.98871
0.233384 0.540718 3.94728
0.0559656 0.576371 4.01117
0.207062 0.614931 3.96876
0.0432516 0.539201 4.05422
0.049387 0.460071 4.12456
0.263337 0.522602 3.91964
0.216259 0.523156 3.97418
0.181177 0.514705 4.00024
0.127674 0.519558 4.01599
0.0904001 0.530085 4.02262
0.063147 0.541415 4.02956
0.00583298 0.572325 4.08011
0.260405 0.467814 3.9323
0.229222 0.618069 3.95551
-0.0031401 0.434343 4.15599
0.0592286 0.499329 4.05815
0.282645 0.569718 3.7659
0.0413018 0.55429 4.03448
0.0682783 0.446976 4.0507
0.191534 0.595192 3.96464
0.052251 0.476234 4.11249
0.265859 0.391657 3.76794
0.0559992 0.584958 4.00564
0.0310774 0.491986 4.13815
0.186985 0.262012 3.92449
0.189613 0.234235 3.88442
0.279789 0.458639 3.84217
0.223161 0.297555 3.89548
0.266595 0.624495 3.86903
0.0775237 0.183533 3.99666
-0.0119798 0.426836 4.12397
0.0822778 0.480806 4.04692
0.256105 0.572676 3.9079
0.143587 0.578466 3.99982
0.121129 0.576477 4.00847
0.07705 0.288443 4.03724
0.252996 0.415102 3.92658
0.031013 0.151872 3.99452
0.111819 0.182157 3.94705
0.147876 0.203001 3.92063
0.0989796 0.577737 4.01055
0.0772104 0.581082 4.00889
0.062371 0.582951 4.00591
0.248229 0.622103 3.92808
0.0818434 0.602454 4.01082
0.106613 0.610472 4.01063
0.129528 0.612241 4.00757
0.152249 0.608963 3.99973
0.165966 0.603203 3.99035
0.281754 0.63325 3.80082
0.159162 0.582415 3.99024
0.0654704 0.384501 4.07124
0.0420406 0.438402 4.1011
0.0140999 0.397085 4.09682
0.149184 0.23024 3.94581
0.114598 0.206517 3.96871
0.0321207 0.167004 4.021
0.221547 0.272162 3.84196
0.0643124 0.591349 4.00908
0.0243329 0.53335 4.0899
0.0745298 0.164338 3.97563
0.272187 0.400883 3.84782
0.0222393 0.279534 4.06419
0.0275411 0.271378 4.06573
0.0347029 0.259593 4.06651
0.0393466 0.246812 4.06038
0.0486818 0.236879 4.03735
0.0644292 0.319644 4.05313
0.0727212 0.321458 4.05245
0.0808776 0.325266 4.05111
0.104335 0.342178 4.04116
0.214835 0.402699 3.97781
0.0235516 0.557204 4.06536
0.0342151 0.605524 4.01993
0.0514835 0.603117 4.01193
0.058843 0.32349 4.05104
0.212024 0.336513 3.942
0.014298 0.607882 4.05105
0.0614175 0.223957 4.0188
0.00561273 0.546822 4.10609
0.0437896 0.495609 4.09011
0.0163602 0.206478 4.03152
0.120252 0.276092 3.99974
0.0898986 0.425948 4.04313
0.0951221 0.247129 4.00633
0.151908 0.426804 4.02576
0.11278 0.398286 4.03809
0.171851 0.3835 4.0065
0.0268601 0.187165 4.03168
0.0592514 0.481023 4.07207
0.141683 0.257773 3.97413
0.106852 0.22981 3.98633
0.141096 0.311042 4.00286
0.242162 0.369489 3.91839
0.176431 0.306533 3.9737
0.255125 0.346871 3.86199
0.131454 0.362545 4.02708
0.0415941 0.516614 4.07316
0.0414812 0.448877 4.13237
0.0543001 0.440827 4.10272
0.0295365 0.467364 4.14996
0.0553897 0.632484 4.02464
0.0993562 0.651637 4.02222
0.139164 0.656866 4.01526
0.172707 0.651906 4.00347
0.19617 0.638472 3.98731
0.209564 0.586962 3.95299
0.283621 0.514809 3.84424
0.190652 0.549786 3.97776
0.162625 0.542176 3.99575
0.12652 0.542674 4.00932
0.0927695 0.548666 4.01555
0.0657949 0.556342 4.01649
0.0473286 0.56401 4.01951
0.277259 0.511202 3.75354
0.0525515 0.433505 4.09076
0.0248241 0.512887 4.11203
0.022336 0.449158 4.15239
0.00964767 0.436255 4.14272
0.0228759 0.44396 4.14057
0.043992 0.425358 4.08181
0.00487638 0.434961 4.15016
-0.00274907 0.427584 4.12272
0.0447755 0.584378 4.00892
0.0322923 0.578116 4.02261
0.025025 0.574255 4.03971
0.173987 0.598642 3.98165
0.192121 0.613932 3.97595
