ply
format ascii 1.0
comment Created by Open3D
element vertex 468
property double x
property double y
property double z
end_header
0.000983663 0.327791 3.98844
-0.000244366 0.407973 4.04984
5.12967e-05 0.382165 3.99004
-0.020434 0.487546 4.01732
-0.000487437 0.433233 4.05816
-0.000834392 0.465348 4.0487
-0.000783689 0.541728 3.98205
-0.17105 0.541864 3.88637
-0.00115628 0.600878 3.96428
-0.00119107 0.633857 3.96874
-0.00033792 0.744046 3.94162
0.00108111 0.316358 3.98477
0.00106981 0.309139 3.97694
0.000989792 0.307773 3.96679
0.000844251 0.309361 3.9701
0.000957104 0.302109 3.97487
0.000757307 0.291597 3.98148
0.000435726 0.278739 3.9814
-0.000275348 0.250697 3.96247
-0.000428119 0.394451 4.03727
-0.0207404 0.396524 4.0049
-0.251399 0.630204 3.76887
-0.10324 0.519479 3.91185
-0.127381 0.517626 3.90952
-0.149757 0.5197 3.90254
-0.179391 0.532659 3.88219
-0.0823678 0.526556 3.9088
-0.132381 0.579818 3.9209
-0.108024 0.578178 3.92023
-0.155605 0.576757 3.91254
-0.171593 0.5687 3.90211
-0.197824 0.518255 3.86901
-0.0899568 0.202667 3.92945
-0.178584 0.547881 3.87809
-0.262616 0.526939 3.76053
-0.222749 0.534375 3.84395
-0.120552 0.426268 3.93641
-0.0300245 0.331609 3.98549
-0.0273141 0.310159 3.97298
-0.0623304 0.32621 3.97034
-0.0848611 0.319666 3.95141
-0.0513461 0.310197 3.96262
-0.0713834 0.310077 3.94524
-0.1134 0.287454 3.91716
-0.019758 0.408461 4.04737
-0.0228173 0.432623 4.05503
-0.209994 0.59858 3.8929
-0.0709268 0.484937 3.93828
-0.0737696 0.414361 3.9883
-0.0753654 0.426906 3.98112
-0.194483 0.428889 3.90259
-0.0217451 0.462658 4.04102
-0.154782 0.626903 3.93444
-0.187422 0.617677 3.91506
-0.229561 0.674656 3.81663
-0.0511959 0.606653 3.95687
-0.0859234 0.571068 3.91346
-0.133689 0.309473 3.90994
-0.239843 0.301695 3.70048
-0.0566054 0.401513 3.9794
-0.0367444 0.393708 3.98172
-0.109848 0.312555 3.91122
-0.10033 0.31312 3.91779
-0.200876 0.634377 3.90346
-0.075043 0.404054 3.97506
-0.110475 0.62505 3.94919
-0.114921 0.645692 3.95414
-0.135788 0.732435 3.9106
-0.215126 0.655179 3.86635
-0.12308 0.691091 3.93369
-0.223961 0.609218 3.87199
-0.237754 0.618356 3.8237
-0.0291239 0.318183 3.98171
-0.0559119 0.316002 3.96734
-0.0776907 0.314333 3.95038
-0.0505121 0.397261 3.97408
-0.104868 0.313015 3.91446
-0.0923828 0.308828 3.93188
-0.0977602 0.313104 3.91851
-0.0440567 0.409044 4.01253
-0.0676416 0.312033 3.94172
-0.0472408 0.310384 3.95349
-0.0246505 0.308707 3.96324
-0.0323671 0.250376 3.95988
-0.0294534 0.279924 3.97866
-0.0282213 0.293735 3.97891
-0.0268848 0.303608 3.9714
-0.0253504 0.309833 3.9667
-0.0702943 0.311211 3.94394
-0.0731044 0.309366 3.94892
-0.0769953 0.303981 3.95362
-0.0806027 0.295939 3.94953
-0.10399 0.344294 3.94387
-0.262202 0.419389 3.66275
4.52651e-05 0.389721 4.00628
-0.0832824 0.311269 3.92927
-0.0875312 0.311266 3.93234
-0.0290071 0.382576 3.98393
-0.0669668 0.390085 3.95813
-0.03266 0.387964 3.98308
-0.0967472 0.470815 3.92994
-0.136966 0.455862 3.92217
-0.0794775 0.416557 3.96753
-0.193308 0.709596 3.86693
-0.179172 0.680766 3.90245
-0.163513 0.647107 3.93035
-0.0918589 0.271952 3.93304
-0.0590298 0.639742 3.9662
-0.0654854 0.691467 3.95166
-0.0734791 0.742197 3.93593
-0.16891 0.524133 3.8916
-0.222544 0.501445 3.8552
-0.069093 0.533842 3.9059
-0.198136 0.563429 3.88014
-0.0541262 0.501241 3.94717
-0.0593083 0.423301 4.01203
-0.2469 0.484186 3.82838
-0.20722 0.48568 3.87771
-0.177289 0.477633 3.90033
-0.132157 0.480576 3.9116
-0.0979591 0.489795 3.91751
-0.0722667 0.501428 3.92424
-0.0229396 0.535075 3.97241
-0.245907 0.434944 3.83518
-0.217515 0.567947 3.86795
-0.0118293 0.395668 4.03589
-0.0683564 0.462474 3.94955
-0.26712 0.526911 3.67978
-0.0534551 0.515629 3.92788
-0.081728 0.41514 3.9434
-0.185579 0.545879 3.87309
-0.0603586 0.43839 4.00286
-0.25511 0.361128 3.67481
-0.0689559 0.543121 3.9
-0.0414824 0.452924 4.02655
-0.192887 0.251456 3.83158
-0.188397 0.222367 3.78873
-0.264114 0.425865 3.74885
-0.22329 0.281447 3.79974
-0.250246 0.576071 3.78517
-0.0937246 0.17789 3.91636
-0.0087967 0.39088 4.00453
-0.090398 0.444719 3.941
-0.242025 0.529176 3.81954
-0.148457 0.533783 3.90103
-0.127907 0.531184 3.90709
-0.0974837 0.303827 3.92753
-0.243441 0.386501 3.82844
-0.049537 0.147792 3.91229
-0.119865 0.174277 3.85846
-0.151073 0.193381 3.82735
-0.00069544 0.68942 3.95726
-0.00175194 0.144683 3.92037
-0.107313 0.532419 3.90819
-0.0879638 0.536799 3.90508
-0.0753367 0.540059 3.90003
-0.233923 0.572627 3.84326
-0.0898661 0.558585 3.90909
-0.110321 0.564112 3.91286
-0.130419 0.565646 3.9119
-0.151174 0.562378 3.90558
-0.164514 0.556339 3.89761
-0.262701 0.584057 3.7187
-0.16204 0.537862 3.89308
0.000496027 0.364781 3.98447
-0.0796664 0.35677 3.95876
-0.0569734 0.405103 3.98764
-0.0325158 0.362868 3.98256
-0.0010178 0.570927 3.96425
-0.158738 0.22197 3.85768
-0.127263 0.199408 3.88583
-0.0519254 0.163554 3.94249
-0.216551 0.255658 3.74186
-0.0752278 0.549853 3.90357
-0.0383222 0.49678 3.98056
-0.00174019 0.161713 3.9497
-0.0871466 0.15849 3.89071
-0.257714 0.37261 3.75382
-0.0494206 0.311039 3.95648
-0.0524347 0.30656 3.96186
-0.0549042 0.298713 3.96773
-0.0569685 0.286581 3.96539
-0.0652194 0.259269 3.94911
-0.0895117 0.311338 3.92992
-0.0957408 0.312969 3.92991
-0.102217 0.316068 3.93014
-0.124874 0.328618 3.92594
-0.215106 0.375832 3.87777
-0.037954 0.519811 3.95799
-0.0503698 0.562486 3.91662
-0.0647708 0.556305 3.90743
-0.0845825 0.313655 3.9282
-0.21649 0.317664 3.84383
-0.0305976 0.566056 3.94785
-0.0786919 0.230122 3.9384
-0.0008349 0.491467 4.02559
-0.0221674 0.509978 3.99684
-0.000729027 0.515701 4.00278
-0.0539548 0.458713 3.98082
-0.0015222 0.187 3.96331
-0.000960966 0.220112 3.96352
-0.0409864 0.219481 3.95724
-0.134024 0.272775 3.90449
-0.102333 0.395814 3.93709
-0.108123 0.247527 3.92042
-0.161938 0.398852 3.92657
-0.127692 0.372671 3.93171
-0.184035 0.360228 3.90688
-0.0492147 0.187532 3.95523
-0.0679013 0.44466 3.96408
-0.152711 0.251449 3.88347
-0.120932 0.225401 3.90389
-0.156025 0.302165 3.89984
-0.237614 0.345075 3.82116
-0.185436 0.294662 3.87651
-0.246186 0.324158 3.76587
-0.149859 0.343484 3.91922
-0.0527184 0.479775 3.96385
-0.0517069 0.412792 4.01701
-0.0668006 0.406564 3.99103
-0.0421116 0.429211 4.03413
-0.0698196 0.582358 3.92405
-0.108204 0.594853 3.92756
-0.140875 0.59735 3.92568
-0.168423 0.593668 3.91575
-0.188029 0.582876 3.90018
-0.201877 0.540413 3.86229
-0.266569 0.476907 3.75346
-0.185304 0.508246 3.88189
-0.161323 0.501569 3.89651
-0.130284 0.500783 3.90694
-0.100007 0.505758 3.91248
-0.0757516 0.514632 3.9128
-0.0595066 0.523736 3.91507
-0.264815 0.47354 3.66288
-0.0662678 0.40057 3.9791
-0.0382062 0.475728 4.00025
-0.0355955 0.41209 4.03577
-0.0225852 0.399702 4.02613
-0.0352034 0.408015 4.0242
-0.0596461 0.393652 3.97122
-0.0187871 0.397442 4.03242
-0.0158224 0.392666 4.00459
-0.0603259 0.54205 3.90343
-0.0467854 0.537786 3.91788
-0.0395892 0.535192 3.9345
-0.172438 0.55186 3.88903
-0.184149 0.559763 3.88777
0.0190353 0.487494 4.01725
0.168143 0.540336 3.88667
0.0205034 0.396302 4.0051
0.250388 0.627467 3.76829
0.100557 0.518564 3.91179
0.124756 0.51655 3.90968
0.147094 0.518696 3.90285
0.176054 0.531307 3.88241
0.0800301 0.525732 3.90888
0.129183 0.577724 3.92077
0.104992 0.576578 3.92039
0.152252 0.574322 3.9123
0.168107 0.566272 3.90237
0.194856 0.517007 3.86959
0.0861874 0.203266 3.93032
0.175667 0.546067 3.87837
0.261153 0.525601 3.76021
0.219827 0.532832 3.84438
0.118833 0.426258 3.93779
0.0316467 0.331973 3.98569
0.0290346 0.310437 3.97336
0.0636496 0.327272 3.97109
0.086162 0.321065 3.95215
0.0528953 0.310953 3.96299
0.0729149 0.311264 3.94605
0.11305 0.288709 3.9183
0.0189999 0.408503 4.04764
0.0214662 0.432539 4.05545
0.205577 0.595371 3.89336
0.0692584 0.484726 3.93848
0.0725446 0.414428 3.98871
0.0738489 0.427071 3.9817
0.191511 0.429005 3.90431
0.020277 0.462573 4.04102
0.150561 0.623895 3.93536
0.182999 0.614361 3.91585
0.22805 0.671824 3.8164
0.0484197 0.60573 3.95709
0.0835371 0.569832 3.91336
0.133581 0.310888 3.91125
0.236786 0.301834 3.70016
0.056104 0.401545 3.98002
0.036581 0.393638 3.98247
0.111494 0.31429 3.91204
0.101732 0.3149 3.91876
0.196658 0.630713 3.90421
0.0738255 0.404158 3.97572
0.106694 0.622883 3.94997
0.111306 0.643407 3.95506
0.133812 0.730454 3.91053
0.212173 0.652111 3.86701
0.12058 0.688969 3.93417
0.220087 0.605909 3.87242
0.235356 0.615464 3.82373
0.0308192 0.318487 3.9819
0.0574217 0.316969 3.96792
0.0792966 0.315816 3.95102
0.0502454 0.397336 3.9747
0.106469 0.314875 3.91556
0.0934192 0.31023 3.93291
0.0989404 0.314801 3.91937
0.0432682 0.40903 4.01246
0.0690189 0.313245 3.94269
0.0486835 0.311103 3.95397
0.0263045 0.309053 3.96357
0.0313862 0.250556 3.96059
0.0297751 0.280184 3.97875
0.0292223 0.29404 3.97891
0.0284069 0.303871 3.9714
0.0267322 0.310085 3.96653
0.0712047 0.312309 3.94466
0.073704 0.310393 3.94979
0.0773439 0.304953 3.95454
0.0808631 0.296839 3.95014
0.103939 0.345249 3.94503
0.261518 0.418527 3.66183
0.0843529 0.312686 3.92994
0.0886445 0.312728 3.93311
0.0290574 0.382645 3.98426
0.0663095 0.390381 3.95906
0.0324755 0.387861 3.98372
0.0951083 0.470626 3.93053
0.135136 0.455798 3.92341
0.0781712 0.416761 3.96807
0.191021 0.706823 3.86715
0.176065 0.677746 3.90326
0.159558 0.64396 3.93133
0.0909695 0.27297 3.93388
0.0560853 0.638501 3.96658
0.0636075 0.690337 3.95181
0.072071 0.741104 3.93615
0.165767 0.522952 3.89214
0.219545 0.500485 3.85592
0.0670385 0.533036 3.9055
0.194466 0.561001 3.88022
0.0524472 0.500927 3.94726
0.0580339 0.423218 4.01234
0.243872 0.483291 3.82868
0.204255 0.485122 3.8784
0.174682 0.477329 3.90147
0.130282 0.480272 3.91229
0.0962607 0.48934 3.91793
0.070488 0.501026 3.92447
0.0214244 0.534862 3.97239
0.242735 0.43466 3.836
0.213814 0.565772 3.8682
0.0110026 0.395592 4.03578
0.0671103 0.462307 3.9499
0.267371 0.525341 3.67889
0.0519348 0.515185 3.92779
0.0809023 0.415416 3.94417
0.182442 0.544038 3.87311
0.0585152 0.438327 4.00327
0.253421 0.360529 3.67423
0.0669054 0.542217 3.89934
0.0397507 0.452945 4.02661
0.188522 0.25253 3.83281
0.183709 0.223397 3.78926
0.262032 0.425216 3.74889
0.219059 0.282169 3.80076
0.248896 0.573965 3.78479
0.0892708 0.178604 3.91681
0.00888448 0.390832 4.00465
0.0888985 0.444694 3.94174
0.239432 0.527677 3.81989
0.145808 0.532395 3.90129
0.125258 0.529859 3.90713
0.0984696 0.305298 3.92845
0.23996 0.386446 3.82963
0.0455159 0.148027 3.91253
0.115326 0.175221 3.85843
0.146649 0.194416 3.82745
0.104671 0.531328 3.90807
0.0855796 0.535878 3.90463
0.0733031 0.539167 3.89949
0.230831 0.570352 3.84339
0.0873129 0.55738 3.90876
0.107385 0.56253 3.91286
0.127288 0.563893 3.91177
0.147883 0.560505 3.90567
0.161227 0.554576 3.8978
0.262675 0.581869 3.71792
0.159353 0.536398 3.89343
0.0794427 0.35745 3.95961
0.0565477 0.405132 3.98838
0.0328358 0.363137 3.98283
0.154518 0.222825 3.85891
0.12261 0.200262 3.88666
0.047682 0.163739 3.94296
0.212454 0.256392 3.74185
0.0730296 0.548845 3.90312
0.0368473 0.496481 3.98077
0.0827875 0.15917 3.89092
0.254863 0.372404 3.75408
0.0506913 0.311564 3.95688
0.0534927 0.307189 3.96212
0.055449 0.299354 3.96799
0.0571977 0.287121 3.96567
0.0640281 0.259773 3.94958
0.091073 0.312833 3.93099
0.0974108 0.314775 3.93089
0.103763 0.317691 3.93109
0.12489 0.329946 3.92718
0.211498 0.376155 3.88008
0.036496 0.519508 3.95807
0.0486523 0.561785 3.91672
0.0627206 0.555425 3.90701
0.0860785 0.315193 3.92913
0.212797 0.318366 3.84551
0.0286903 0.565624 3.94794
0.0757845 0.230715 3.93924
0.0206001 0.509869 3.99693
0.0525172 0.458633 3.98126
0.0384732 0.219721 3.95796
0.131937 0.273732 3.9058
0.101406 0.396222 3.93821
0.105297 0.248341 3.92166
0.159477 0.39902 3.92896
0.126719 0.373209 3.93332
0.181287 0.36078 3.90941
0.045614 0.187844 3.9556
0.0664361 0.444561 3.96447
0.149407 0.252351 3.88486
0.117306 0.226236 3.90523
0.153957 0.30321 3.90163
0.233809 0.345439 3.8227
0.181949 0.295549 3.87843
0.242695 0.324286 3.76654
0.148509 0.344391 3.92124
0.0513289 0.479606 3.96395
0.0506301 0.412688 4.01722
0.0659272 0.406706 3.99176
0.0410117 0.429089 4.03441
0.0675033 0.581261 3.92422
0.105051 0.593024 3.92793
0.137343 0.595 3.92613
0.164691 0.590888 3.91583
0.184191 0.580114 3.90036
0.198711 0.538698 3.86249
0.26476 0.475736 3.75302
0.182465 0.507259 3.88276
0.158889 0.500983 3.89728
0.128096 0.500009 3.90748
0.0976539 0.505084 3.91278
0.0738706 0.514006 3.91301
0.0577796 0.52323 3.91501
0.264655 0.472243 3.66192
0.0652659 0.400725 3.97987
0.0368595 0.47564 4.0003
0.0347648 0.411967 4.0361
0.0215153 0.399583 4.02647
0.0344075 0.407898 4.0243
0.0587973 0.39373 3.97208
0.0178687 0.397264 4.03268
0.0158376 0.392505 4.00472
0.0585896 0.541229 3.90316
0.0452276 0.53727 3.9178
0.0381649 0.534675 3.93457
0.169246 0.550036 3.88917
0.18068 0.557598 3.88819
