ply
format ascii 1.0
comment Created by Open3D
element vertex 468
property double x
property double y
property double z
end_header
0.0248345 0.379014 3.86614
0.0264197 0.449878 3.93604
0.0264753 0.423348 3.8718
0.0057105 0.530208 3.89708
0.0261938 0.476296 3.94306
0.0255073 0.509129 3.93098
0.0253796 0.584878 3.85857
-0.150179 0.589012 3.7538
0.0245033 0.640045 3.83722
0.0240571 0.673566 3.84044
0.0235934 0.808453 3.80774
0.0244904 0.367971 3.86354
0.0241695 0.361101 3.85722
0.0241018 0.360194 3.84714
0.0252177 0.317575 3.83852
0.0252999 0.309072 3.84386
0.0247286 0.298618 3.85054
0.0248719 0.285306 3.84809
0.024992 0.260804 3.82846
0.0260243 0.435974 3.92363
0.00434945 0.436769 3.88823
-0.243959 0.676253 3.63352
-0.0788605 0.567023 3.78154
-0.103994 0.566294 3.77978
-0.128023 0.567891 3.77301
-0.16139 0.57992 3.75053
-0.0574516 0.571284 3.77881
-0.112373 0.629857 3.78565
-0.0852938 0.627583 3.78543
-0.137593 0.625648 3.7778
-0.154624 0.616478 3.76795
-0.182334 0.563519 3.73809
-0.06806 0.226096 3.79432
-0.159522 0.59406 3.74508
-0.255705 0.564352 3.62579
-0.209662 0.574995 3.71213
-0.106077 0.471885 3.81171
-0.0140127 0.383659 3.86244
-0.0128566 0.362897 3.85203
-0.0542424 0.380069 3.84467
-0.0808614 0.374487 3.81816
-0.0423808 0.363641 3.83762
-0.0651817 0.363025 3.81325
-0.105812 0.327088 3.77178
0.00639577 0.450462 3.93312
0.00356564 0.476249 3.93957
-0.192456 0.636875 3.76195
-0.0486472 0.529253 3.81269
-0.0530086 0.459462 3.86953
-0.0548053 0.472702 3.86073
-0.186517 0.476359 3.77738
0.00452899 0.506174 3.92336
-0.12998 0.66354 3.80389
-0.166349 0.655325 3.78532
-0.218487 0.725303 3.68027
-0.0240641 0.643101 3.82838
-0.0617955 0.618175 3.77888
-0.127888 0.358756 3.76747
-0.230753 0.320461 3.57189
-0.0348723 0.444467 3.86013
-0.0139033 0.436079 3.86328
-0.111526 0.360965 3.76544
-0.0993012 0.359609 3.77116
-0.180274 0.671292 3.77236
-0.0559624 0.450476 3.85543
-0.0830377 0.66093 3.81876
-0.0878903 0.682682 3.8234
-0.118123 0.793267 3.77397
-0.198511 0.699728 3.73136
-0.0997962 0.741234 3.79978
-0.207997 0.647086 3.73973
-0.225733 0.660807 3.68857
-0.0142149 0.370787 3.85939
-0.0475919 0.369818 3.84157
-0.0729514 0.368723 3.8174
-0.0293757 0.440181 3.85514
-0.10602 0.360733 3.76824
-0.0900006 0.342117 3.78338
-0.0948453 0.358425 3.77229
-0.0205647 0.450238 3.89664
-0.0612344 0.365489 3.80973
-0.0378276 0.364151 3.82835
-0.01026 0.362004 3.84228
-0.0152045 0.262497 3.82431
-0.0138877 0.288757 3.84334
-0.0126991 0.302583 3.84492
-0.0108235 0.312676 3.83795
-0.00843751 0.319899 3.83314
-0.060941 0.333907 3.80169
-0.0655052 0.332152 3.80518
-0.0713425 0.327221 3.808
-0.0750409 0.319339 3.80303
-0.0950973 0.393358 3.81071
-0.25579 0.443772 3.53098
0.0270057 0.429103 3.89031
-0.0763078 0.341684 3.78308
-0.0835305 0.343209 3.78467
-0.00619764 0.425301 3.86437
-0.0492381 0.43613 3.83622
-0.00978541 0.430474 3.86485
-0.0768708 0.517134 3.80465
-0.121505 0.5038 3.79828
-0.0605645 0.462786 3.84628
-0.178549 0.765241 3.72916
-0.158086 0.727611 3.76716
-0.138595 0.684075 3.79868
-0.0825075 0.300349 3.78822
-0.0325479 0.677642 3.83639
-0.0418016 0.745471 3.81858
-0.0532201 0.806474 3.79985
-0.149186 0.572019 3.7616
-0.210429 0.54566 3.7242
-0.0436427 0.576623 3.77564
-0.181619 0.605843 3.74696
-0.0302604 0.544322 3.82168
-0.0362753 0.466824 3.89461
-0.238098 0.525926 3.69726
-0.193792 0.53302 3.74785
-0.161464 0.526714 3.77117
-0.112555 0.52849 3.78421
-0.0755994 0.535837 3.7897
-0.0489981 0.545885 3.7969
0.00276944 0.577593 3.84865
-0.240406 0.476943 3.70647
-0.202564 0.6077 3.73577
0.0140432 0.4371 3.92197
-0.0474423 0.50653 3.82554
-0.262181 0.560692 3.54556
-0.0293592 0.558384 3.80055
-0.0638432 0.460616 3.81926
-0.168219 0.591272 3.74031
-0.0375957 0.483089 3.88378
-0.247993 0.382576 3.54505
-0.0437209 0.585219 3.76872
-0.0166832 0.497107 3.90831
-0.176175 0.277528 3.69757
-0.169912 0.242049 3.6598
-0.259648 0.457184 3.61795
-0.213221 0.306107 3.66921
-0.241302 0.616065 3.65031
-0.0676075 0.200954 3.78422
0.0178046 0.430198 3.88823
-0.072345 0.490681 3.81653
-0.231644 0.568232 3.68733
-0.124733 0.582286 3.7695
-0.103308 0.580026 3.77616
-0.0957355 0.339023 3.77949
-0.240837 0.424384 3.70019
-0.0214412 0.169858 3.78426
-0.0929394 0.195942 3.72849
-0.126946 0.21437 3.69732
0.0239603 0.744634 3.82545
0.0256487 0.166658 3.79213
-0.0825505 0.580379 3.77727
-0.0623056 0.582297 3.77397
-0.0494817 0.583237 3.76939
-0.221301 0.611661 3.7102
-0.0666669 0.606464 3.77536
-0.0885367 0.615946 3.7786
-0.109863 0.618256 3.77725
-0.13156 0.613808 3.77122
-0.145362 0.605818 3.7633
-0.256787 0.624316 3.58374
-0.139519 0.585494 3.76128
0.0260795 0.407972 3.86369
-0.0667121 0.404966 3.83186
-0.0347822 0.447441 3.86992
-0.0125175 0.408342 3.86026
0.0249469 0.613311 3.83807
-0.13593 0.247431 3.72155
-0.102202 0.22424 3.75078
-0.0250741 0.185637 3.81216
-0.203278 0.27351 3.61542
-0.0508303 0.593401 3.7718
-0.013112 0.538862 3.85761
0.0253163 0.183355 3.81894
-0.0595062 0.180417 3.7616
-0.254643 0.400505 3.62425
-0.0369316 0.325816 3.81907
-0.0412327 0.321034 3.8232
-0.0448591 0.312815 3.82696
-0.047002 0.300366 3.82341
-0.0535441 0.277702 3.8083
-0.0873401 0.363116 3.79045
-0.0948116 0.365964 3.78958
-0.101757 0.369856 3.78976
-0.118777 0.379325 3.78723
-0.211359 0.417649 3.75115
-0.0127709 0.5621 3.83316
-0.0251556 0.603692 3.78522
-0.0404159 0.599723 3.77592
-0.080845 0.365372 3.78862
-0.209999 0.351277 3.71334
-0.00533466 0.607637 3.81957
-0.0618736 0.252954 3.79991
0.0255157 0.534433 3.90527
0.00413091 0.552364 3.87501
0.0255622 0.558118 3.88077
-0.031141 0.502132 3.8595
0.0251057 0.206817 3.83037
0.0249964 0.236004 3.82911
-0.0204487 0.236821 3.82149
-0.118407 0.310926 3.76199
-0.0862959 0.441439 3.81167
-0.0920407 0.278053 3.77847
-0.152303 0.443349 3.80037
-0.114898 0.417695 3.80184
-0.175433 0.403573 3.77711
-0.0252751 0.208057 3.8224
-0.0469274 0.489316 3.84151
-0.132989 0.283141 3.74475
-0.0998727 0.253337 3.76555
-0.143053 0.346484 3.76171
-0.234101 0.378755 3.69203
-0.173045 0.331245 3.74163
-0.240599 0.348887 3.63678
-0.13977 0.39228 3.78612
-0.0293931 0.522384 3.84028
-0.0285367 0.455039 3.90114
-0.0455105 0.450696 3.87263
-0.0169134 0.472039 3.91884
-0.0438038 0.623237 3.79126
-0.0832026 0.637242 3.79455
-0.118639 0.640824 3.79262
-0.148817 0.636821 3.78238
-0.170584 0.625669 3.76743
-0.185938 0.583281 3.73006
-0.260287 0.511192 3.62034
-0.168231 0.555213 3.75144
-0.141692 0.549164 3.76705
-0.108165 0.548447 3.778
-0.0763115 0.552086 3.78248
-0.0517135 0.558933 3.78407
-0.0351288 0.566481 3.78555
-0.259369 0.502209 3.52989
-0.0458976 0.445564 3.86012
-0.0130492 0.51833 3.8795
-0.0103923 0.453485 3.92092
0.00221307 0.44103 3.91105
-0.0108597 0.449058 3.90876
-0.0406063 0.438843 3.85118
0.00654047 0.438819 3.91801
0.00998652 0.432464 3.88817
-0.0351629 0.583556 3.77263
-0.0225168 0.579736 3.78837
-0.0152859 0.577356 3.80747
-0.15346 0.599519 3.75548
-0.167135 0.605534 3.75403
0.0452609 0.530019 3.89657
0.195737 0.588469 3.75502
0.0480624 0.436534 3.889
0.283344 0.671013 3.63474
0.125181 0.566331 3.78092
0.149626 0.565664 3.77969
0.173109 0.567154 3.77355
0.205226 0.578969 3.75182
0.105082 0.570797 3.7786
0.156712 0.629071 3.78544
0.130399 0.626889 3.78571
0.181719 0.624538 3.77825
0.198388 0.615236 3.76932
0.22606 0.561875 3.7404
0.116333 0.227465 3.79562
0.20486 0.59338 3.74649
0.296265 0.560792 3.62864
0.251899 0.572879 3.71512
0.152575 0.470661 3.81487
0.0624036 0.383242 3.86353
0.0597329 0.362303 3.85309
0.100823 0.379204 3.84691
0.126506 0.372845 3.82113
0.0879759 0.362555 3.83925
0.110873 0.361288 3.81557
0.152714 0.325616 3.77455
0.0456972 0.450456 3.93404
0.0476787 0.476261 3.94026
0.233386 0.63545 3.76347
0.0972111 0.528579 3.81313
0.102528 0.45885 3.87129
0.10359 0.472033 3.86246
0.229682 0.474556 3.78155
0.0465033 0.506043 3.92301
0.173773 0.662891 3.8056
0.208677 0.654425 3.78706
0.258754 0.720037 3.6817
0.0715983 0.643027 3.82834
0.108759 0.6176 3.77875
0.173808 0.356715 3.7702
0.271337 0.320944 3.57321
0.0862759 0.443974 3.86216
0.065977 0.435484 3.86554
0.158671 0.357944 3.76842
0.145795 0.356589 3.77457
0.221931 0.669819 3.77424
0.105386 0.449631 3.85795
0.128526 0.660593 3.82011
0.132687 0.682265 3.82497
0.161441 0.789905 3.77553
0.239219 0.696658 3.73379
0.144693 0.739426 3.80136
0.248299 0.645027 3.74187
0.265828 0.657097 3.69091
0.0616077 0.370279 3.86044
0.093856 0.3689 3.84345
0.118795 0.367089 3.8201
0.0810973 0.439676 3.85781
0.152813 0.357685 3.77183
0.137056 0.339828 3.78684
0.140534 0.355538 3.77515
0.0713861 0.45 3.89678
0.10603 0.363558 3.81199
0.0835303 0.362831 3.8295
0.0570159 0.361301 3.84297
0.0640744 0.262202 3.82589
0.062272 0.28817 3.84432
0.0614537 0.301952 3.84546
0.0601449 0.311992 3.83851
0.0576237 0.319216 3.83349
0.10821 0.332257 3.80384
0.112418 0.330537 3.80818
0.117884 0.325409 3.81125
0.122264 0.317673 3.80628
0.142247 0.392128 3.81422
0.298096 0.441424 3.53258
0.123257 0.339483 3.78511
0.130637 0.340857 3.78765
0.0584649 0.424812 3.86561
0.100012 0.435144 3.83997
0.0618979 0.429885 3.86663
0.124567 0.5162 3.80559
0.167713 0.502346 3.8006
0.109524 0.461867 3.84862
0.219798 0.760789 3.73123
0.200597 0.725066 3.76957
0.182063 0.683276 3.80047
0.130076 0.299592 3.7908
0.0791135 0.67719 3.83706
0.0885468 0.744356 3.81954
0.0983665 0.804569 3.80151
0.193625 0.571182 3.76251
0.253052 0.543489 3.72765
0.0925053 0.576071 3.77479
0.224259 0.604578 3.74884
0.07922 0.543853 3.82143
0.0861453 0.466462 3.89585
0.27918 0.523436 3.70065
0.237289 0.530874 3.75079
0.206583 0.524988 3.77372
0.159476 0.52726 3.78537
0.123481 0.535017 3.79009
0.0973063 0.545362 3.79694
0.0476251 0.577388 3.84838
0.281882 0.474803 3.71014
0.24364 0.605853 3.73772
0.0376741 0.436994 3.922
0.096531 0.505719 3.8262
0.303931 0.556085 3.54667
0.0789592 0.557959 3.80029
0.114046 0.459719 3.82221
0.212642 0.590254 3.74154
0.0865465 0.48262 3.88504
0.289279 0.381606 3.54685
0.0928616 0.584864 3.76714
0.0663653 0.496884 3.90863
0.21896 0.27972 3.69994
0.212001 0.245242 3.66069
0.301519 0.455131 3.62122
0.253923 0.307437 3.67223
0.282263 0.612217 3.65239
0.116148 0.203257 3.78461
0.036367 0.430072 3.88861
0.120415 0.489737 3.81856
0.27269 0.565679 3.69014
0.171088 0.581664 3.76986
0.149969 0.579346 3.77568
0.142878 0.336671 3.7829
0.281806 0.42303 3.70458
0.0721622 0.171183 3.78349
0.140848 0.199081 3.72752
0.172371 0.21803 3.69666
0.129485 0.579624 3.77652
0.110237 0.581758 3.77273
0.0984486 0.582778 3.7678
0.261653 0.609183 3.71251
0.113184 0.606318 3.77444
0.133355 0.615751 3.7783
0.154329 0.618107 3.77748
0.176094 0.613656 3.77206
0.189843 0.605517 3.76444
0.298108 0.618943 3.58473
0.185664 0.584879 3.76189
0.115206 0.404039 3.83464
0.0860348 0.447117 3.87199
0.0630579 0.407979 3.86132
0.181403 0.250191 3.72293
0.148712 0.227068 3.75181
0.0743782 0.186745 3.81223
0.244172 0.27537 3.61599
0.0991148 0.59313 3.77023
0.0633357 0.538527 3.85764
0.109081 0.182829 3.76072
0.295255 0.399455 3.62825
0.0852315 0.32469 3.82047
0.0894189 0.319828 3.82495
0.0928111 0.311458 3.82864
0.0954218 0.299121 3.82513
0.101581 0.277121 3.80989
0.132747 0.360537 3.79353
0.14065 0.363425 3.79257
0.147478 0.367295 3.79302
0.164979 0.37747 3.79048
0.252448 0.41644 3.75639
0.0627999 0.561742 3.83274
0.075012 0.603475 3.7852
0.0892912 0.599404 3.77473
0.125761 0.362702 3.79119
0.251488 0.351407 3.71785
0.0548717 0.607354 3.8199
0.109524 0.253703 3.80171
0.04634 0.552289 3.87488
0.0806175 0.501696 3.86039
0.0694412 0.237181 3.82301
0.164801 0.310827 3.76433
0.134844 0.440357 3.81491
0.138942 0.278558 3.78064
0.19623 0.44216 3.80542
0.161516 0.416582 3.80558
0.218174 0.402712 3.78197
0.0743566 0.208855 3.82278
0.0959644 0.488612 3.84298
0.178917 0.284751 3.7467
0.146913 0.255108 3.76755
0.188231 0.345891 3.76372
0.274583 0.37826 3.69697
0.215969 0.331862 3.74486
0.280932 0.348973 3.6399
0.184423 0.390859 3.78963
0.0790146 0.521914 3.84039
0.0787112 0.454768 3.90188
0.0957048 0.450248 3.875
0.0678177 0.471813 3.91939
0.0920603 0.623143 3.79119
0.129403 0.637075 3.79536
0.16365 0.640066 3.79358
0.192796 0.635619 3.78378
0.213456 0.624405 3.7693
0.229155 0.581815 3.73239
0.301542 0.50827 3.62278
0.212724 0.553741 3.75339
0.187182 0.548049 3.76859
0.154468 0.547447 3.77873
0.12345 0.551448 3.78255
0.0999393 0.558319 3.78415
0.0843257 0.566117 3.78541
0.301723 0.498546 3.53064
0.0961212 0.444928 3.86265
0.0637362 0.517961 3.87953
0.0617401 0.453527 3.92169
0.0485379 0.441018 3.91191
0.0617355 0.449028 3.90953
0.091217 0.437961 3.85442
0.044723 0.438766 3.91862
0.0432962 0.432351 3.88897
0.0847297 0.583331 3.77216
0.0720747 0.579424 3.78833
0.0650422 0.577024 3.8074
0.19815 0.59903 3.7568
0.210732 0.604427 3.75585
