ply
format ascii 1.0
comment Created by Open3D
element vertex 468
property double x
property double y
property double z
end_header
-0.0152322 0.35514 4.04041
-0.0194279 0.428013 4.10226
-0.0194892 0.404549 4.03986
-0.0397142 0.508864 4.06683
-0.0193451 0.453479 4.1103
-0.0188858 0.486358 4.0996
-0.0198561 0.562983 4.03226
-0.190112 0.574824 3.93101
-0.0196653 0.61718 4.01429
-0.0194875 0.648812 4.01866
-0.0187809 0.776551 3.98746
-0.0146035 0.343854 4.03744
-0.0142066 0.335645 4.02944
-0.0140239 0.332379 4.01869
-0.0137485 0.327002 4.01886
-0.0134841 0.31797 4.0231
-0.0125961 0.305862 4.02873
-0.0124476 0.291867 4.02594
-0.0132981 0.264062 4.00293
-0.0186495 0.415405 4.08969
-0.0405563 0.417426 4.05652
-0.273907 0.662561 3.81079
-0.118811 0.553012 3.95499
-0.142658 0.551641 3.9539
-0.166024 0.552663 3.94752
-0.198001 0.565784 3.92749
-0.0998747 0.558255 3.95337
-0.149815 0.610046 3.96393
-0.124584 0.607657 3.9644
-0.174088 0.607596 3.95652
-0.190288 0.600399 3.94688
-0.217832 0.549174 3.91632
-0.103441 0.221933 3.97608
-0.198814 0.580191 3.92296
-0.286788 0.558063 3.80494
-0.243367 0.564112 3.89146
-0.138391 0.452659 3.98522
-0.0443102 0.358837 4.03716
-0.0393043 0.335938 4.02572
-0.0738564 0.352542 4.02303
-0.0929332 0.343727 4.0044
-0.060476 0.335147 4.01519
-0.0779033 0.332919 3.99829
-0.120608 0.307534 3.9688
-0.038435 0.428961 4.10081
-0.0412325 0.453471 4.1079
-0.226166 0.623682 3.94031
-0.0896773 0.511822 3.98611
-0.0910011 0.437856 4.03902
-0.092147 0.451075 4.03091
-0.212145 0.455898 3.95389
-0.0403846 0.483839 4.09149
-0.169549 0.646321 3.98491
-0.20317 0.639905 3.96515
-0.249076 0.70598 3.85957
-0.0677402 0.622745 4.00569
-0.103642 0.600126 3.95691
-0.140998 0.329855 3.96195
-0.267725 0.32932 3.74641
-0.0746519 0.423784 4.02983
-0.0551432 0.416059 4.03404
-0.114791 0.330441 3.96275
-0.102235 0.331627 3.96931
-0.216016 0.656172 3.95252
-0.0911469 0.428126 4.02573
-0.12509 0.641807 3.99895
-0.129338 0.661987 4.00432
-0.154533 0.763082 3.95532
-0.23138 0.682225 3.9126
-0.139987 0.715104 3.9813
-0.241048 0.634117 3.91829
-0.257209 0.647459 3.8682
-0.0421301 0.345445 4.0342
-0.0664932 0.341821 4.0203
-0.085241 0.338032 4.00359
-0.0686844 0.419739 4.0259
-0.108339 0.330965 3.96633
-0.0965717 0.32683 3.98315
-0.098678 0.332471 3.97019
-0.0629963 0.42989 4.06328
-0.0724826 0.334225 3.99401
-0.0559193 0.334113 4.00556
-0.0363535 0.332995 4.0148
-0.0441809 0.265825 4.0023
-0.0407045 0.294348 4.02392
-0.0396542 0.308754 4.02584
-0.0390331 0.320443 4.01962
-0.0373577 0.327742 4.01482
-0.0752144 0.329882 3.99394
-0.0780648 0.327463 3.99889
-0.0821937 0.321757 4.00307
-0.0871087 0.313339 3.99858
-0.11648 0.368421 3.9974
-0.294184 0.449634 3.7059
-0.0204308 0.410551 4.05748
-0.0864362 0.330142 3.97963
-0.0910086 0.329578 3.98296
-0.0476148 0.405599 4.03402
-0.0843798 0.413737 4.00914
-0.0512277 0.410496 4.03468
-0.114622 0.498627 3.97767
-0.15491 0.483377 3.97198
-0.0959956 0.440997 4.01728
-0.211189 0.740065 3.91118
-0.194352 0.706111 3.9497
-0.178082 0.666158 3.97987
-0.100904 0.291262 3.98192
-0.0751683 0.654646 4.0161
-0.0837268 0.716553 3.99972
-0.0922764 0.77412 3.98192
-0.186392 0.557208 3.93738
-0.243499 0.531378 3.90337
-0.0884435 0.564179 3.94962
-0.216951 0.593572 3.92613
-0.0732698 0.526872 3.99485
-0.0774531 0.44534 4.06326
-0.269369 0.514285 3.87609
-0.227672 0.514999 3.92593
-0.196333 0.506121 3.94871
-0.150055 0.509585 3.95948
-0.115897 0.519108 3.96449
-0.0908837 0.529778 3.97153
-0.0425141 0.557054 4.02182
-0.268566 0.463829 3.88459
-0.235698 0.596121 3.91448
-0.0303335 0.416686 4.08832
-0.0874321 0.487884 3.99719
-0.296389 0.558224 3.7207
-0.0735751 0.542083 3.97481
-0.0996785 0.439516 3.99262
-0.206075 0.578594 3.9182
-0.0778879 0.461544 4.05324
-0.285944 0.390759 3.71978
-0.0893163 0.573149 3.94244
-0.059495 0.47523 4.07677
-0.212167 0.274621 3.88171
-0.211043 0.245043 3.83765
-0.29272 0.455519 3.79579
-0.244739 0.306676 3.84952
-0.27328 0.606109 3.82944
-0.108762 0.195193 3.96268
-0.029763 0.411598 4.05603
-0.108138 0.471023 3.98898
-0.263431 0.55903 3.86623
-0.165573 0.567811 3.94524
-0.143979 0.565614 3.95072
-0.102604 0.322139 3.97897
-0.265244 0.414627 3.87911
-0.0650115 0.159304 3.95706
-0.139403 0.192388 3.90548
-0.172083 0.213795 3.87544
-0.0193245 0.715248 4.00473
-0.0140694 0.152908 3.96435
-0.123577 0.566476 3.95168
-0.105525 0.569546 3.94776
-0.0946755 0.571381 3.94279
-0.253041 0.600628 3.88905
-0.10729 0.587994 3.95109
-0.126418 0.594004 3.95577
-0.147452 0.596161 3.95499
-0.169074 0.593224 3.94954
-0.183094 0.587616 3.9419
-0.289759 0.615966 3.75986
-0.180184 0.57119 3.93766
-0.0183976 0.389021 4.03389
-0.0945953 0.381571 4.01057
-0.0753261 0.426981 4.03967
-0.0496035 0.387869 4.03241
-0.0194729 0.591416 4.01339
-0.176415 0.243812 3.90744
-0.143612 0.219242 3.93412
-0.0653469 0.178138 3.98763
-0.241742 0.280493 3.78956
-0.0948953 0.579318 3.94567
-0.0575969 0.519471 4.02985
-0.0134507 0.172035 3.99337
-0.104882 0.173445 3.93612
-0.285126 0.401697 3.80195
-0.0582316 0.329134 4.00554
-0.0609819 0.323934 4.0107
-0.0635823 0.315158 4.01506
-0.0665229 0.302117 4.01215
-0.0755269 0.27654 3.99471
-0.0924211 0.332032 3.98282
-0.100237 0.333872 3.98292
-0.107446 0.337186 3.98322
-0.134164 0.351039 3.97974
-0.232011 0.402811 3.93027
-0.0577964 0.543437 4.00642
-0.070285 0.587696 3.96242
-0.0846746 0.585018 3.95121
-0.0867135 0.334696 3.97989
-0.234158 0.34351 3.89542
-0.0496494 0.587952 3.99527
-0.0906711 0.249253 3.98419
-0.0193366 0.512501 4.07602
-0.0412696 0.531603 4.04734
-0.0197825 0.536692 4.05324
-0.072916 0.482321 4.03054
-0.0134181 0.199536 4.00639
-0.0136293 0.233513 4.00464
-0.0530826 0.236273 4.00012
-0.145276 0.294887 3.95637
-0.119456 0.420994 3.98729
-0.119693 0.268674 3.96956
-0.177557 0.424871 3.97764
-0.142776 0.397826 3.9835
-0.197764 0.385998 3.95885
-0.0616229 0.204331 3.99964
-0.0859493 0.469294 4.01294
-0.167545 0.273665 3.93455
-0.13542 0.24607 3.95272
-0.167024 0.324617 3.95219
-0.258166 0.372596 3.87234
-0.199341 0.318612 3.92901
-0.271182 0.351768 3.81467
-0.161285 0.367596 3.97263
-0.0722451 0.503934 4.01204
-0.0699042 0.434099 4.06855
-0.0840089 0.429474 4.04274
-0.0608298 0.450218 4.08655
-0.0878944 0.606368 3.96929
-0.125031 0.619391 3.97458
-0.158103 0.622963 3.97299
-0.186552 0.620264 3.96275
-0.206233 0.611037 3.94746
-0.221885 0.571595 3.90881
-0.293302 0.507365 3.79845
-0.204876 0.539216 3.92889
-0.179453 0.532042 3.94375
-0.147028 0.532113 3.95364
-0.116781 0.537202 3.95732
-0.0940466 0.544729 3.95908
-0.0791241 0.552164 3.96049
-0.295798 0.504114 3.70424
-0.0830259 0.423901 4.03044
-0.0578863 0.49791 4.04966
-0.0542184 0.432481 4.08854
-0.0409736 0.421019 4.07876
-0.05396 0.428819 4.07632
-0.0767357 0.41697 4.02268
-0.0371545 0.418461 4.08532
-0.036255 0.413657 4.05638
-0.0808329 0.571081 3.94751
-0.0669838 0.564626 3.96374
-0.0596571 0.56008 3.98252
-0.191608 0.5835 3.93371
-0.203269 0.591758 3.93303
0.000827634 0.508372 4.06785
0.156473 0.568181 3.93068
0.00273781 0.416363 4.05538
0.25056 0.661269 3.80986
0.08677 0.549899 3.95839
0.111895 0.547816 3.95633
0.135774 0.54826 3.94908
0.168109 0.559304 3.92729
0.0649372 0.555571 3.95579
0.119859 0.604213 3.96564
0.0935142 0.603423 3.96501
0.143527 0.600485 3.9575
0.159717 0.592881 3.94667
0.18926 0.543922 3.91451
0.0776764 0.215436 3.97264
0.165438 0.572797 3.92255
0.263143 0.553246 3.80168
0.216731 0.558189 3.88831
0.107745 0.450417 3.98246
0.0151927 0.358559 4.03689
0.0129364 0.335783 4.02578
0.0478732 0.351991 4.02233
0.0698871 0.343656 4.0042
0.0369106 0.334859 4.01626
0.0552818 0.333163 3.99908
0.0992946 0.305232 3.96732
0.00088162 0.428325 4.09923
0.00372105 0.453124 4.10638
0.197636 0.614957 3.93875
0.0559415 0.510387 3.98687
0.0575943 0.436555 4.03667
0.0593963 0.449792 4.02896
0.186873 0.451676 3.9503
0.00260734 0.483475 4.09204
0.135532 0.638626 3.98257
0.171508 0.631198 3.96295
0.223891 0.705328 3.85835
0.0295566 0.620023 4.00593
0.0696983 0.597096 3.95817
0.118653 0.327824 3.9616
0.246823 0.317889 3.74077
0.0389155 0.422566 4.0276
0.0181966 0.415277 4.03033
0.092107 0.330856 3.96502
0.0820394 0.33239 3.97101
0.184773 0.647409 3.94971
0.058551 0.427076 4.02273
0.0886028 0.636247 3.99684
0.0932958 0.656801 4.00124
0.122615 0.763728 3.95381
0.203688 0.67785 3.91017
0.104371 0.713072 3.97928
0.213217 0.626329 3.91631
0.23172 0.642846 3.86593
0.0148586 0.345025 4.03413
0.0415151 0.341415 4.02056
0.0624409 0.338075 4.00367
0.0323016 0.418636 4.02264
0.0867507 0.331569 3.96807
0.0761493 0.326755 3.98285
0.0798074 0.332928 3.97183
0.0278195 0.428531 4.06332
0.0514315 0.334941 3.99512
0.0324217 0.334102 4.00682
0.0105524 0.333081 4.01614
0.0190081 0.264403 4.00072
0.0172654 0.293389 4.02365
0.0156716 0.308003 4.02604
0.0131625 0.319752 4.02007
0.0111908 0.327249 4.01563
0.0535799 0.329645 3.99395
0.0572533 0.327009 3.99779
0.0624832 0.320823 4.00106
0.0664401 0.311937 3.99684
0.0889044 0.367282 3.99452
0.267279 0.442196 3.70189
0.0658102 0.330204 3.98127
0.0704843 0.329643 3.98332
0.0101753 0.405129 4.03252
0.0491029 0.412985 4.00439
0.013946 0.409981 4.03214
0.0827538 0.497007 3.97842
0.124989 0.480858 3.97086
0.063363 0.439878 4.01472
0.183386 0.740243 3.90922
0.162957 0.702179 3.94657
0.143681 0.658896 3.97701
0.0787817 0.288096 3.98063
0.0375142 0.651881 4.01452
0.0463238 0.715719 3.99804
0.0578074 0.774646 3.97938
0.156407 0.551544 3.93769
0.217161 0.526462 3.89952
0.0507913 0.561358 3.95269
0.187791 0.586066 3.92523
0.037879 0.525571 3.99639
0.0428894 0.443883 4.06157
0.24586 0.508701 3.87229
0.200287 0.510653 3.9231
0.168062 0.502849 3.9471
0.119109 0.507144 3.96009
0.0831556 0.517038 3.96594
0.0569333 0.528063 3.97271
0.00338522 0.556486 4.02269
0.245287 0.457613 3.88066
0.209452 0.589193 3.91263
-0.00623225 0.416189 4.08805
0.0529029 0.486567 3.99753
0.269245 0.5545 3.71897
0.0366071 0.54066 3.97651
0.0647267 0.438601 3.98909
0.174285 0.571238 3.91806
0.0444371 0.460335 4.05153
0.262145 0.38092 3.71426
0.0510518 0.569865 3.94645
0.0242789 0.474392 4.07639
0.191856 0.263224 3.87518
0.191278 0.231872 3.8318
0.26736 0.447788 3.79076
0.225523 0.295305 3.84234
0.247952 0.602166 3.8269
0.0830691 0.187352 3.95947
-0.0111265 0.411393 4.05545
0.0759344 0.469557 3.9877
0.238997 0.553395 3.86284
0.13154 0.562567 3.94622
0.110434 0.561433 3.95316
0.0818245 0.321705 3.97893
0.243198 0.407207 3.87315
0.036968 0.154717 3.9559
0.113983 0.181459 3.90261
0.149464 0.201196 3.87151
0.089806 0.563049 3.9545
0.069922 0.566553 3.95153
0.056953 0.568239 3.947
0.228362 0.594471 3.88656
0.0741891 0.583845 3.95481
0.0966459 0.588935 3.95814
0.117329 0.589618 3.95653
0.138077 0.58591 3.95022
0.151257 0.58017 3.94172
0.263673 0.613887 3.75838
0.146095 0.565176 3.93798
0.0638397 0.380704 4.00779
0.0398514 0.425619 4.03645
0.0151804 0.387472 4.03139
0.154002 0.2326 3.90172
0.119742 0.208922 3.92889
0.0388618 0.173711 3.98602
0.221776 0.267978 3.78415
0.058177 0.575594 3.95045
0.0200089 0.518573 4.03035
0.0776001 0.165408 3.93474
0.262656 0.392328 3.79512
0.0339327 0.328552 4.00605
0.037679 0.323227 4.01065
0.0414235 0.313906 4.0149
0.043828 0.300538 4.01175
0.0522647 0.273899 3.99398
0.0722775 0.332664 3.9841
0.0789443 0.334322 3.98448
0.0861749 0.337597 3.98418
0.109427 0.349794 3.97839
0.210122 0.396639 3.92444
0.0199308 0.542493 4.0077
0.0308857 0.585562 3.96297
0.0468104 0.582262 3.95446
0.0673007 0.335458 3.98184
0.21347 0.33505 3.88866
0.0110521 0.586762 3.99579
0.0661003 0.244618 3.98122
0.00255005 0.531137 4.04725
0.0375701 0.481295 4.02939
0.0270293 0.233544 3.99805
0.122621 0.289381 3.95276
0.0872458 0.419612 3.98346
0.0969033 0.262991 3.96567
0.151006 0.421127 3.97229
0.113992 0.395295 3.97938
0.174611 0.380925 3.95291
0.0351936 0.200788 3.99818
0.052393 0.468196 4.01157
0.144638 0.265054 3.92965
0.111229 0.237887 3.94759
0.144054 0.319908 3.95004
0.237716 0.363786 3.86491
0.178607 0.310639 3.92344
0.251172 0.341118 3.80761
0.136585 0.364666 3.96904
0.0360748 0.502872 4.01288
0.0356617 0.432498 4.06752
0.0503292 0.428095 4.03936
0.0245478 0.449008 4.08579
0.0502778 0.602784 3.97044
0.0899638 0.614044 3.97404
0.12481 0.616544 3.97248
0.154222 0.613003 3.96208
0.17589 0.603284 3.94614
0.192985 0.564926 3.90725
0.26853 0.501039 3.79509
0.175596 0.534361 3.92762
0.149722 0.528401 3.94344
0.116379 0.529062 3.95455
0.0843112 0.534692 3.95927
0.0594533 0.542464 3.96034
0.0422384 0.55019 3.9621
0.26805 0.498806 3.70225
0.0491305 0.422646 4.02703
0.0198611 0.497105 4.0502
0.0182554 0.431203 4.08694
0.00587773 0.419825 4.07728
0.0186101 0.427168 4.07507
0.0419459 0.415949 4.01867
0.00147285 0.417722 4.08402
-0.00288984 0.412776 4.05515
0.0415086 0.568255 3.94977
0.0286809 0.562765 3.96495
0.0217521 0.558901 3.98312
0.15915 0.576037 3.93325
0.172709 0.584228 3.93177
