ply
format ascii 1.0
comment Created by Open3D
element vertex 468
property double x
property double y
property double z
end_header
0.0239755 0.419306 3.93337
0.0271055 0.47874 3.99327
0.0269534 0.458574 3.9344
0.00580086 0.559497 3.95748
0.0269527 0.503716 4.00064
0.0262451 0.536413 3.98976
0.0273061 0.613972 3.91838
-0.149366 0.616385 3.82203
0.0279548 0.676732 3.8966
0.0283638 0.708808 3.89829
0.0305447 0.804985 3.86767
0.023501 0.40864 3.93038
0.0228242 0.400612 3.9235
0.0222332 0.397939 3.91405
0.0244839 0.363107 3.90544
0.0242509 0.352791 3.91006
0.0232868 0.339754 3.91577
0.0229624 0.325642 3.91237
0.022805 0.300666 3.89184
0.026493 0.465748 3.98129
0.00371816 0.468637 3.94848
-0.228312 0.699155 3.70425
-0.0786886 0.600014 3.84937
-0.102797 0.597698 3.84698
-0.12613 0.598045 3.83954
-0.159911 0.608861 3.81853
-0.0583662 0.605725 3.84552
-0.112493 0.660622 3.85463
-0.086275 0.658877 3.85341
-0.137374 0.656633 3.84637
-0.154326 0.646903 3.83601
-0.176535 0.595004 3.80664
-0.0734776 0.26704 3.85818
-0.158784 0.621385 3.8134
-0.24068 0.602143 3.70076
-0.201128 0.609951 3.78102
-0.103777 0.507619 3.87631
-0.0135531 0.422777 3.9291
-0.0113167 0.400772 3.91855
-0.052242 0.416995 3.91273
-0.0750904 0.410503 3.89051
-0.0392134 0.400555 3.90647
-0.0585754 0.399532 3.88618
-0.101199 0.366621 3.84897
0.00602214 0.478927 3.99025
0.00282899 0.503562 3.99684
-0.188562 0.6741 3.82529
-0.0490087 0.562706 3.87724
-0.0543455 0.490589 3.93074
-0.0563518 0.503956 3.92312
-0.178271 0.512766 3.84319
0.00420171 0.533944 3.98202
-0.132179 0.703977 3.86374
-0.165101 0.693814 3.84528
-0.204877 0.74061 3.74766
-0.0261142 0.684615 3.88797
-0.0632226 0.650492 3.84744
-0.12105 0.395705 3.84552
-0.219432 0.383917 3.65201
-0.0355588 0.477255 3.92263
-0.0146496 0.469612 3.92426
-0.0991996 0.396732 3.8464
-0.0866793 0.39617 3.85244
-0.177716 0.708426 3.83322
-0.0566788 0.482305 3.91764
-0.0871568 0.703386 3.87869
-0.0911439 0.7215 3.8827
-0.108475 0.794863 3.83646
-0.191514 0.723919 3.79557
-0.0965932 0.758239 3.85999
-0.201607 0.683508 3.80432
-0.214618 0.689152 3.75637
-0.0133094 0.409935 3.92619
-0.0450744 0.406961 3.91026
-0.066913 0.404811 3.8899
-0.0295625 0.473679 3.91662
-0.0929404 0.396511 3.84916
-0.0803496 0.380976 3.86219
-0.0831973 0.396094 3.85299
-0.0213034 0.480238 3.95599
-0.0543045 0.401397 3.88321
-0.0343193 0.400478 3.89832
-0.00898544 0.39878 3.9099
-0.016319 0.303428 3.88793
-0.0145602 0.328931 3.9079
-0.0125672 0.343402 3.91061
-0.00953598 0.356084 3.90481
-0.00675487 0.364549 3.90076
-0.0537467 0.376194 3.87541
-0.0586829 0.373134 3.87872
-0.0652471 0.366799 3.88184
-0.0700219 0.358874 3.87711
-0.0918119 0.430327 3.88225
-0.23911 0.500429 3.61315
0.0277643 0.462117 3.95066
-0.0669218 0.382783 3.86115
-0.0735718 0.383017 3.86301
-0.00674321 0.459718 3.9271
-0.0491199 0.469985 3.9001
-0.0104635 0.464153 3.92603
-0.0759737 0.550899 3.86964
-0.118188 0.538068 3.86204
-0.0613722 0.49481 3.90957
-0.167488 0.773468 3.79394
-0.154483 0.748399 3.8294
-0.140328 0.72132 3.85907
-0.0808481 0.340724 3.86193
-0.0329391 0.715435 3.89493
-0.0371824 0.757754 3.8778
-0.0444961 0.803708 3.86087
-0.14746 0.601464 3.82852
-0.201243 0.579798 3.79378
-0.0455293 0.612024 3.84257
-0.178291 0.638645 3.81438
-0.030876 0.576858 3.88573
-0.0376914 0.496535 3.95417
-0.226541 0.563015 3.76878
-0.186519 0.566549 3.81687
-0.157079 0.559673 3.83959
-0.110529 0.562008 3.85097
-0.0751797 0.56976 3.85676
-0.0491575 0.579537 3.86249
0.00367192 0.607799 3.90908
-0.227928 0.517839 3.77795
-0.196347 0.643273 3.80284
0.013629 0.466672 3.97971
-0.0479956 0.540193 3.89029
-0.244103 0.602962 3.62513
-0.0297506 0.591883 3.86554
-0.0638421 0.494969 3.885
-0.167062 0.621223 3.80876
-0.0394151 0.513038 3.94458
-0.233372 0.443908 3.62623
-0.0465988 0.619791 3.83623
-0.018144 0.525756 3.96802
-0.17595 0.329089 3.77104
-0.171626 0.298243 3.73369
-0.244317 0.506588 3.69477
-0.205628 0.361163 3.74359
-0.227459 0.648486 3.7222
-0.0767819 0.239199 3.84736
0.0179196 0.463102 3.94859
-0.0720752 0.524806 3.88166
-0.220043 0.604653 3.75791
-0.123548 0.611487 3.83754
-0.102228 0.610676 3.84396
-0.0866809 0.377705 3.85847
-0.227389 0.470395 3.77208
-0.030323 0.202434 3.84673
-0.104333 0.240158 3.79598
-0.135578 0.264497 3.7677
0.0295805 0.755317 3.88437
0.0226773 0.198272 3.85462
-0.082479 0.612286 3.84487
-0.0635616 0.615816 3.84163
-0.0518366 0.618025 3.83665
-0.211941 0.647573 3.77854
-0.0684006 0.631096 3.84417
-0.0893068 0.635372 3.84732
-0.10927 0.636436 3.8462
-0.130127 0.633255 3.8401
-0.144177 0.627903 3.83214
-0.239794 0.656285 3.65875
-0.138396 0.613568 3.82943
0.0260783 0.446223 3.92843
-0.0662648 0.440666 3.89905
-0.0353499 0.479667 3.93026
-0.0126157 0.445226 3.92468
0.0274187 0.644823 3.89878
-0.142164 0.295698 3.79287
-0.110849 0.267525 3.81857
-0.0326386 0.22021 3.87269
-0.197753 0.334911 3.69227
-0.0534008 0.624382 3.83952
-0.0135293 0.57002 3.91954
0.0226276 0.215184 3.87961
-0.0710962 0.217816 3.82585
-0.239884 0.454496 3.70051
-0.0326532 0.369742 3.88938
-0.0374449 0.363737 3.89282
-0.0421491 0.353662 3.89669
-0.0453546 0.340513 3.89307
-0.0534431 0.318281 3.87672
-0.0763135 0.399053 3.86761
-0.0840886 0.401712 3.86712
-0.0917359 0.405266 3.86722
-0.112171 0.416181 3.86291
-0.199556 0.46043 3.81896
-0.0128815 0.593558 3.89574
-0.0260348 0.638813 3.85181
-0.0416116 0.633727 3.84283
-0.0704171 0.40171 3.86637
-0.200838 0.400371 3.7852
-0.0048843 0.641084 3.88258
-0.0642969 0.294703 3.86613
0.0265462 0.56316 3.965
0.00441889 0.582328 3.93472
0.0270491 0.587421 3.94049
-0.0321517 0.533968 3.92179
0.0227254 0.241729 3.89056
0.0227457 0.273845 3.89074
-0.0226453 0.277239 3.8834
-0.119379 0.353315 3.83675
-0.0858716 0.477524 3.87751
-0.0948688 0.320308 3.84967
-0.146187 0.481402 3.86537
-0.112082 0.456187 3.87037
-0.168143 0.444677 3.8457
-0.0298935 0.246631 3.88272
-0.0481838 0.522065 3.90531
-0.13719 0.328238 3.81716
-0.105561 0.29624 3.83445
-0.140304 0.387657 3.83627
-0.221923 0.428583 3.76454
-0.170296 0.376571 3.81376
-0.228235 0.405441 3.7127
-0.134579 0.430997 3.85742
-0.0301473 0.554896 3.90399
-0.0296984 0.484514 3.95995
-0.0465176 0.482085 3.9336
-0.0182119 0.500376 3.97644
-0.0461249 0.66146 3.85724
-0.0852036 0.675655 3.85919
-0.119546 0.677612 3.85692
-0.148165 0.67201 3.84687
-0.168616 0.659337 3.83216
-0.181193 0.615833 3.79859
-0.245177 0.554794 3.69724
-0.164064 0.586705 3.82009
-0.138684 0.580973 3.8346
-0.106742 0.581121 3.84509
-0.0761481 0.585802 3.85091
-0.0522308 0.593416 3.85023
-0.0359698 0.600974 3.85216
-0.241563 0.552406 3.61149
-0.0464843 0.477751 3.92175
-0.0136489 0.548825 3.9409
-0.0114496 0.48201 3.97849
0.001186 0.470602 3.96928
-0.0116145 0.478347 3.96726
-0.0406615 0.47179 3.91348
0.00574683 0.468267 3.97588
0.00951012 0.464775 3.94829
-0.036889 0.619368 3.83973
-0.0232596 0.614046 3.85421
-0.0153054 0.610212 3.87106
-0.152665 0.623912 3.82399
-0.166128 0.635986 3.82197
0.0471983 0.559957 3.95669
0.197105 0.620199 3.82412
0.0501305 0.46919 3.94975
0.270106 0.699586 3.70317
0.125761 0.601471 3.84806
0.148395 0.599962 3.84632
0.171265 0.600681 3.8398
0.204593 0.612773 3.82045
0.108204 0.606876 3.84542
0.159548 0.660965 3.85477
0.134876 0.658653 3.85444
0.183841 0.657722 3.84736
0.20012 0.648867 3.83807
0.219548 0.598372 3.80939
0.115699 0.27357 3.86282
0.206664 0.625451 3.81594
0.280428 0.606122 3.70174
0.243146 0.613094 3.78379
0.147841 0.510913 3.88071
0.0602469 0.42432 3.93102
0.0550054 0.402372 3.92033
0.0961781 0.420571 3.9163
0.117451 0.414773 3.89422
0.0809635 0.403421 3.90861
0.10037 0.402902 3.88887
0.142799 0.371782 3.85356
0.0473462 0.479413 3.99178
0.0494984 0.504087 3.99834
0.230588 0.675072 3.82785
0.0976847 0.563963 3.87775
0.103618 0.493287 3.93374
0.104474 0.506456 3.92589
0.216476 0.517688 3.8483
0.0483616 0.534412 3.98203
0.179683 0.702129 3.86887
0.210254 0.693444 3.84928
0.249956 0.73921 3.74753
0.0800897 0.68335 3.89012
0.114311 0.650308 3.8478
0.162191 0.401224 3.84958
0.254554 0.395536 3.65268
0.0869895 0.479545 3.92566
0.0672735 0.471069 3.92838
0.142874 0.401345 3.84944
0.129154 0.400148 3.85519
0.221991 0.707415 3.83718
0.105078 0.485264 3.92153
0.138099 0.701362 3.88334
0.14211 0.719153 3.88756
0.162349 0.792358 3.83783
0.235852 0.72291 3.7982
0.150447 0.755874 3.86289
0.24331 0.684249 3.8066
0.256652 0.689761 3.75751
0.0582633 0.411533 3.92784
0.0882055 0.410229 3.91307
0.109168 0.408708 3.89355
0.0817303 0.475833 3.92057
0.136251 0.400885 3.8526
0.123606 0.384775 3.86634
0.124737 0.399951 3.85557
0.0730437 0.481837 3.95623
0.0944776 0.40451 3.88556
0.0754178 0.402838 3.89979
0.0515495 0.400096 3.91083
0.0600822 0.305352 3.89102
0.0585638 0.330386 3.91017
0.0577795 0.34468 3.91188
0.0565948 0.357279 3.90587
0.0539952 0.365646 3.90144
0.0977366 0.379159 3.8779
0.101931 0.376082 3.88248
0.107611 0.36993 3.88667
0.112904 0.362164 3.88202
0.136351 0.434899 3.88753
0.279565 0.507795 3.61269
0.110364 0.386015 3.86285
0.117128 0.386552 3.86616
0.0593179 0.460856 3.92933
0.0992834 0.472809 3.90589
0.0631344 0.465506 3.92929
0.122723 0.552982 3.871
0.161943 0.540943 3.86535
0.109302 0.497876 3.91312
0.216193 0.771034 3.79571
0.202705 0.746015 3.83326
0.188228 0.719176 3.86375
0.122899 0.34557 3.86639
0.0872271 0.713387 3.89784
0.0943744 0.756311 3.87962
0.102414 0.802049 3.8629
0.1921 0.604801 3.82956
0.241785 0.583444 3.79699
0.0977749 0.613027 3.84173
0.222024 0.641345 3.81667
0.0811654 0.577648 3.88557
0.0879618 0.498194 3.95647
0.264804 0.567768 3.77121
0.226986 0.570115 3.81942
0.198856 0.562831 3.8422
0.155712 0.564362 3.8523
0.12268 0.571409 3.85723
0.0984363 0.580701 3.86267
0.0501901 0.607836 3.90892
0.264824 0.524083 3.78082
0.23808 0.645443 3.80436
0.038676 0.467077 3.97993
0.096864 0.541651 3.89112
0.286371 0.606761 3.62332
0.0815964 0.592533 3.86513
0.11319 0.498063 3.8897
0.213374 0.625105 3.81105
0.0882088 0.514733 3.94658
0.271347 0.453549 3.62682
0.0995613 0.621121 3.83478
0.0683727 0.526693 3.96864
0.211581 0.340651 3.77568
0.206592 0.310931 3.73669
0.283426 0.514149 3.69679
0.239356 0.372844 3.74781
0.269508 0.650651 3.72219
0.119105 0.246886 3.85103
0.0376846 0.463258 3.94934
0.118565 0.527226 3.88437
0.260622 0.608258 3.75984
0.171132 0.614113 3.838
0.149973 0.612868 3.84318
0.129976 0.381856 3.86267
0.262906 0.47855 3.77667
0.074942 0.20689 3.84815
0.145605 0.250265 3.79826
0.174004 0.276508 3.77033
0.130816 0.613894 3.84405
0.114207 0.617136 3.84035
0.104443 0.619336 3.83496
0.252706 0.64961 3.77985
0.118143 0.632236 3.84342
0.136889 0.6367 3.84754
0.156499 0.638323 3.84652
0.177426 0.636151 3.84123
0.191362 0.631342 3.83427
0.282508 0.658324 3.65768
0.186201 0.61688 3.8306
0.113056 0.444642 3.90373
0.0871418 0.481707 3.93375
0.0626678 0.446807 3.92681
0.180686 0.30664 3.7977
0.150948 0.277325 3.82325
0.0758442 0.224448 3.87502
0.231765 0.347411 3.69338
0.105674 0.625804 3.83779
0.0655553 0.570639 3.91978
0.114189 0.22584 3.82783
0.27625 0.463989 3.70385
0.0783513 0.371806 3.89087
0.082519 0.365914 3.89525
0.0860154 0.355931 3.89952
0.0893965 0.34306 3.89603
0.0960809 0.321997 3.88004
0.117699 0.402909 3.87033
0.126308 0.405761 3.86994
0.133643 0.409673 3.8706
0.154773 0.421312 3.86742
0.234853 0.46761 3.82534
0.0654386 0.59382 3.89565
0.0805441 0.638788 3.8522
0.0950318 0.634285 3.84142
0.110946 0.405242 3.86837
0.23555 0.40995 3.7911
0.0588716 0.640627 3.88311
0.105935 0.299824 3.87079
0.0488323 0.582565 3.93501
0.0818511 0.53523 3.92324
0.0662266 0.279945 3.8867
0.15951 0.360028 3.84209
0.132602 0.481264 3.88255
0.135259 0.326793 3.85488
0.185925 0.486175 3.87228
0.155658 0.460531 3.87595
0.204998 0.451154 3.85275
0.0732725 0.250201 3.88519
0.0965302 0.52396 3.90749
0.176275 0.337317 3.82242
0.146399 0.304349 3.84011
0.179607 0.394475 3.84061
0.256221 0.4381 3.77024
0.206313 0.385511 3.81976
0.262896 0.41646 3.71572
0.174556 0.436438 3.86273
0.0805538 0.555967 3.90418
0.0803798 0.486242 3.96123
0.0964531 0.484666 3.93722
0.0703818 0.501543 3.97759
0.0995055 0.661008 3.85806
0.135944 0.674902 3.86146
0.168089 0.67728 3.85977
0.195049 0.672544 3.84994
0.213661 0.661008 3.8352
0.225099 0.619071 3.80115
0.284482 0.560312 3.69743
0.20742 0.590038 3.82195
0.182884 0.583799 3.83614
0.152395 0.583296 3.84569
0.123326 0.587399 3.85063
0.102004 0.59436 3.85059
0.087573 0.60172 3.85225
0.283158 0.557881 3.60939
0.0962591 0.480391 3.92569
0.0655953 0.549673 3.94087
0.0639515 0.483174 3.98018
0.0501392 0.471464 3.97107
0.0635614 0.479607 3.9686
0.0907031 0.47432 3.91839
0.0460484 0.468826 3.97718
0.0451154 0.465306 3.94967
0.0908195 0.620286 3.83924
0.076361 0.614358 3.85449
0.0684487 0.610329 3.87139
0.200017 0.627848 3.82645
0.211498 0.638896 3.82484
