ply
format ascii 1.0
comment Created by Open3D
element vertex 468
property double x
property double y
property double z
end_header
0.0294933 0.344167 3.86284
0.0313036 0.427611 3.91476
0.0324993 0.400327 3.85843
0.0118084 0.509949 3.88153
0.031278 0.454336 3.92168
0.0304766 0.487783 3.91115
0.0326713 0.565924 3.84658
-0.13576 0.567123 3.75429
0.0325368 0.629578 3.82955
0.032311 0.664131 3.83291
0.0338633 0.781733 3.80299
0.0290929 0.33127 3.86034
0.0287043 0.320567 3.85274
0.0283696 0.315728 3.84237
0.0298848 0.296511 3.83781
0.0298344 0.284663 3.84138
0.0287414 0.27 3.84548
0.0283757 0.255146 3.84071
0.0285346 0.235517 3.8177
0.0300523 0.413746 3.90322
0.0104192 0.413537 3.8715
-0.222766 0.66097 3.63881
-0.070664 0.545402 3.78139
-0.0944379 0.543107 3.77872
-0.116974 0.544103 3.77137
-0.14667 0.557994 3.75056
-0.0494074 0.552361 3.77843
-0.10172 0.61333 3.78663
-0.0760202 0.61113 3.78647
-0.124979 0.60958 3.77782
-0.140582 0.600077 3.76755
-0.165462 0.540289 3.73806
-0.0585679 0.199771 3.79004
-0.143714 0.573334 3.746
-0.233416 0.548878 3.63334
-0.190922 0.557086 3.71273
-0.0876297 0.442201 3.80268
0.000357344 0.347481 3.85877
0.0033706 0.32006 3.84902
-0.0305912 0.336687 3.84471
-0.0497097 0.32464 3.82799
-0.0190874 0.316728 3.84012
-0.0348426 0.312839 3.82422
-0.0782917 0.279983 3.78996
0.0115858 0.427773 3.91144
0.00842654 0.453282 3.91748
-0.17762 0.627114 3.75683
-0.0400173 0.506597 3.80641
-0.0431623 0.430844 3.8538
-0.0454837 0.444147 3.8463
-0.160058 0.442026 3.77224
0.00959791 0.484282 3.90396
-0.120306 0.65738 3.79598
-0.153452 0.647337 3.77763
-0.199123 0.70883 3.68246
-0.0175213 0.635337 3.82085
-0.0529932 0.602179 3.78097
-0.0945955 0.305195 3.78616
-0.208751 0.307025 3.58224
-0.0242314 0.416825 3.84585
-0.00401353 0.409327 3.84776
-0.0693871 0.304849 3.79137
-0.0596064 0.306516 3.7973
-0.166809 0.664214 3.76534
-0.0439053 0.419146 3.84088
-0.0758138 0.654894 3.81051
-0.0802052 0.676343 3.81412
-0.102383 0.770948 3.77117
-0.183238 0.686954 3.72942
-0.0878576 0.725018 3.79414
-0.191713 0.637559 3.73606
-0.207346 0.647858 3.69005
0.00123698 0.331876 3.8567
-0.0240534 0.324699 3.84386
-0.0421055 0.318394 3.82775
-0.0175163 0.412095 3.84067
-0.0639133 0.305264 3.79431
-0.055806 0.298224 3.80612
-0.0577204 0.30806 3.79778
-0.0140759 0.426107 3.87868
-0.031326 0.314258 3.82074
-0.0146152 0.315431 3.83168
0.00556177 0.315854 3.84033
-0.0034364 0.234985 3.8148
-0.00250076 0.256793 3.83815
-0.000310631 0.272399 3.84223
0.00294833 0.287203 3.8385
0.00543127 0.296907 3.83479
-0.0340623 0.300944 3.81583
-0.0382173 0.297287 3.81854
-0.0447314 0.290059 3.82053
-0.0495118 0.28109 3.81652
-0.068251 0.351996 3.81742
-0.22951 0.433215 3.54423
0.0330065 0.40796 3.87427
-0.0450412 0.302969 3.80572
-0.0499099 0.301514 3.80701
0.00330481 0.398712 3.8511
-0.0338865 0.403504 3.82402
-0.000116169 0.403702 3.84969
-0.0652351 0.491347 3.79857
-0.103624 0.47362 3.79051
-0.0489181 0.43219 3.83325
-0.161432 0.746608 3.7288
-0.145223 0.714158 3.76276
-0.128507 0.678062 3.79094
-0.0602503 0.262084 3.8005
-0.0251859 0.669603 3.82793
-0.0308518 0.725316 3.81286
-0.0395916 0.781114 3.79499
-0.136142 0.548671 3.76035
-0.191058 0.521037 3.72417
-0.0356379 0.559439 3.77662
-0.166098 0.590698 3.74674
-0.0229254 0.523693 3.81511
-0.0292841 0.441489 3.87608
-0.21699 0.502079 3.69947
-0.175582 0.50404 3.74701
-0.145368 0.495805 3.76937
-0.0992317 0.500848 3.78164
-0.0659564 0.512057 3.78745
-0.0409493 0.524611 3.79355
0.0104453 0.558801 3.8382
-0.214212 0.448387 3.70838
-0.186185 0.5942 3.73437
0.0183658 0.414447 3.90166
-0.0376498 0.48231 3.81719
-0.235867 0.54881 3.55815
-0.0215682 0.538953 3.79766
-0.0493575 0.430052 3.81024
-0.15236 0.572615 3.74163
-0.031153 0.457686 3.86643
-0.224038 0.371267 3.55615
-0.0356468 0.568165 3.77129
-0.0116591 0.473913 3.88943
-0.159176 0.250288 3.70458
-0.157951 0.220947 3.66527
-0.23336 0.438885 3.62564
-0.189488 0.282992 3.67517
-0.220172 0.601889 3.65562
-0.0628924 0.176109 3.77813
0.0242771 0.408747 3.87227
-0.0592776 0.462899 3.80798
-0.211659 0.551162 3.68951
-0.113025 0.5594 3.76946
-0.0930547 0.557241 3.77617
-0.0616568 0.293394 3.80225
-0.209387 0.39639 3.70247
-0.0206195 0.146402 3.77477
-0.0899336 0.17229 3.72827
-0.121213 0.191195 3.70085
0.0334056 0.723118 3.82011
0.0262951 0.145427 3.78233
-0.0732434 0.558742 3.77762
-0.0542237 0.563131 3.77543
-0.0415606 0.5658 3.7714
-0.20327 0.598737 3.71024
-0.0575501 0.582666 3.77834
-0.0788325 0.588231 3.78039
-0.0983128 0.589464 3.77852
-0.117989 0.586261 3.772
-0.13068 0.580849 3.76409
-0.232659 0.610594 3.59297
-0.126363 0.563049 3.7615
0.0318022 0.382363 3.85406
-0.0469609 0.367707 3.82876
-0.0247169 0.42103 3.85344
-0.000943006 0.378411 3.85097
0.0325011 0.597494 3.82937
-0.126224 0.219691 3.7274
-0.0957526 0.197221 3.75112
-0.0229504 0.16146 3.80148
-0.185454 0.256545 3.62249
-0.0423344 0.574077 3.77461
-0.00615316 0.518796 3.84629
0.0256065 0.161303 3.80839
-0.0577865 0.156603 3.75644
-0.227403 0.381961 3.63044
-0.0158883 0.298997 3.82659
-0.0202364 0.291875 3.82977
-0.0254087 0.280488 3.8329
-0.0287807 0.266617 3.82893
-0.0362576 0.246084 3.81086
-0.0498346 0.309949 3.80975
-0.0567344 0.311744 3.80975
-0.063565 0.315425 3.80961
-0.0853296 0.330756 3.80279
-0.178364 0.38511 3.74866
-0.0055741 0.54295 3.8252
-0.0163895 0.588858 3.78519
-0.0316326 0.583752 3.7781
-0.0453878 0.313197 3.80795
-0.179088 0.321705 3.71696
0.00257147 0.592329 3.81407
-0.0481374 0.223378 3.79796
0.0311848 0.514532 3.88877
0.0105631 0.533058 3.86118
0.0322818 0.539248 3.86695
-0.0237518 0.478718 3.84622
0.0262282 0.184441 3.81971
0.0276428 0.212006 3.81842
-0.0110828 0.211086 3.81195
-0.099821 0.268669 3.7751
-0.06914 0.408933 3.80431
-0.0770794 0.242399 3.78509
-0.12511 0.410628 3.79255
-0.091474 0.382801 3.80091
-0.145243 0.367852 3.77582
-0.0194443 0.184018 3.81242
-0.0380666 0.463424 3.82989
-0.119187 0.248552 3.75309
-0.0889863 0.222477 3.76817
-0.118296 0.300557 3.77375
-0.202365 0.352114 3.69522
-0.149009 0.294686 3.74828
-0.214654 0.329606 3.64293
-0.110273 0.348596 3.79162
-0.0216218 0.500865 3.83094
-0.0217646 0.430302 3.88194
-0.035496 0.422756 3.85604
-0.0113311 0.448679 3.89779
-0.0359313 0.611746 3.79115
-0.0743291 0.626656 3.79244
-0.10801 0.629811 3.78983
-0.13605 0.625162 3.7796
-0.156054 0.612675 3.76496
-0.169239 0.564887 3.73071
-0.236676 0.49426 3.62904
-0.152948 0.529953 3.75106
-0.128985 0.523109 3.76563
-0.0975606 0.52368 3.77639
-0.0676438 0.530042 3.78191
-0.0436092 0.539107 3.7826
-0.0271483 0.548079 3.78472
-0.232524 0.491146 3.54425
-0.0344401 0.415702 3.84488
-0.00635479 0.497021 3.86547
-0.00517873 0.430197 3.89977
0.00683212 0.417487 3.89115
-0.00519181 0.425438 3.88909
-0.027245 0.407857 3.83704
0.0110588 0.415678 3.8975
0.0161558 0.409889 3.8717
-0.0263375 0.567587 3.77408
-0.0141613 0.562694 3.78712
-0.00721065 0.559482 3.80278
-0.138105 0.576821 3.75638
-0.15193 0.588769 3.7537
0.051071 0.510336 3.88048
0.192686 0.570062 3.75633
0.0518535 0.414023 3.87344
0.270194 0.656826 3.64021
0.126472 0.546519 3.7792
0.148577 0.544784 3.77766
0.170157 0.546514 3.77156
0.19904 0.561089 3.7522
0.109022 0.552953 3.77747
0.155085 0.61366 3.78596
0.131019 0.610801 3.78708
0.178308 0.61062 3.77883
0.19349 0.601338 3.77025
0.216414 0.543469 3.74223
0.106454 0.210395 3.79396
0.200535 0.576283 3.74846
0.27944 0.551766 3.63719
0.239789 0.560456 3.71808
0.141312 0.445131 3.80802
0.0563797 0.348135 3.85922
0.0511846 0.320798 3.84863
0.0834158 0.339236 3.84552
0.0999921 0.327306 3.82739
0.0700865 0.318408 3.83837
0.0852574 0.314542 3.82197
0.125711 0.285404 3.7923
0.0492559 0.428217 3.91369
0.0517906 0.453715 3.91989
0.226088 0.630003 3.76176
0.0983557 0.507543 3.80717
0.100335 0.432706 3.85773
0.101746 0.445924 3.85023
0.205714 0.447136 3.77755
0.0515395 0.484803 3.90382
0.175695 0.658583 3.80315
0.205691 0.649636 3.78399
0.248723 0.702941 3.68536
0.0801837 0.635701 3.82316
0.111985 0.601568 3.78082
0.142819 0.310427 3.78639
0.250577 0.324 3.58363
0.0850326 0.418164 3.84983
0.0664925 0.410313 3.8536
0.119981 0.306902 3.78782
0.107118 0.308123 3.79406
0.217964 0.66594 3.77273
0.100458 0.421093 3.8459
0.13503 0.655666 3.8176
0.138818 0.676437 3.82169
0.160584 0.765195 3.77453
0.232687 0.684793 3.73576
0.148432 0.722151 3.79964
0.239668 0.63959 3.74111
0.255004 0.646783 3.69473
0.054204 0.332717 3.85644
0.0764287 0.32683 3.84305
0.092773 0.320731 3.82705
0.0796972 0.413426 3.84565
0.113691 0.307011 3.79152
0.104213 0.30038 3.80635
0.103443 0.309716 3.79438
0.0728035 0.42731 3.87894
0.0794827 0.315526 3.81788
0.0650883 0.316427 3.82902
0.047974 0.316327 3.83826
0.0577682 0.237584 3.81814
0.0563275 0.25862 3.83956
0.0555031 0.273885 3.8427
0.0544134 0.288265 3.83785
0.0519808 0.298042 3.83386
0.0843814 0.30279 3.81518
0.0876046 0.299403 3.8196
0.092484 0.292619 3.82359
0.0978099 0.284452 3.81935
0.120563 0.355576 3.82076
0.281417 0.442345 3.54534
0.0937529 0.304508 3.80235
0.0984863 0.303159 3.80584
0.0596104 0.399549 3.85343
0.0941091 0.405453 3.83135
0.0629435 0.404599 3.85419
0.121498 0.492925 3.79986
0.157034 0.476252 3.79394
0.105366 0.434439 3.83799
0.213667 0.739966 3.73395
0.199095 0.711319 3.77065
0.184046 0.678679 3.79866
0.10824 0.268158 3.80288
0.0869413 0.669429 3.83199
0.0946646 0.723507 3.81626
0.102342 0.777564 3.79945
0.188528 0.551564 3.76176
0.239013 0.524941 3.7303
0.0988859 0.560026 3.77396
0.21714 0.593744 3.74995
0.0830138 0.524228 3.81448
0.0867646 0.442675 3.87933
0.261505 0.507419 3.70429
0.224183 0.507713 3.7518
0.195412 0.498804 3.7735
0.15396 0.502973 3.7829
0.123223 0.513392 3.78762
0.09998 0.525295 3.79351
0.0543253 0.558944 3.83769
0.258164 0.455741 3.71254
0.233797 0.597089 3.738
0.0410446 0.414654 3.9018
0.0966162 0.483589 3.81816
0.288435 0.550252 3.55821
0.0839306 0.539284 3.79634
0.108994 0.432159 3.81606
0.207235 0.575585 3.7435
0.087313 0.459001 3.87007
0.27117 0.384456 3.55876
0.0993056 0.569242 3.76713
0.0694809 0.474826 3.89085
0.19733 0.268661 3.70889
0.195463 0.242002 3.66789
0.281274 0.448369 3.63027
0.226421 0.300349 3.67927
0.268824 0.60195 3.65897
0.109632 0.189006 3.78077
0.0417228 0.408742 3.87326
0.115325 0.464848 3.81129
0.257965 0.554835 3.69429
0.170305 0.561342 3.77005
0.150412 0.558489 3.77462
0.110396 0.295952 3.8026
0.251071 0.406331 3.7078
0.0718384 0.153834 3.77554
0.135293 0.190085 3.72859
0.162419 0.211883 3.70189
0.131256 0.559582 3.77571
0.11502 0.563737 3.77226
0.105042 0.566585 3.76731
0.249441 0.601034 3.71412
0.11467 0.583389 3.77516
0.132006 0.589015 3.77892
0.151641 0.591046 3.77793
0.171925 0.588481 3.77291
0.185148 0.583308 3.76597
0.284121 0.608723 3.59384
0.183738 0.565594 3.76268
0.102453 0.370687 3.83276
0.0851835 0.422309 3.85839
0.0613899 0.379682 3.85273
0.167286 0.238052 3.73224
0.138854 0.214279 3.75528
0.0721419 0.168761 3.8031
0.224062 0.275944 3.6237
0.104234 0.575329 3.76992
0.0680783 0.51931 3.84658
0.106283 0.170147 3.75635
0.270364 0.394775 3.63603
0.0703361 0.300523 3.8254
0.0736066 0.293775 3.8299
0.0770938 0.282883 3.8337
0.0804004 0.269566 3.83026
0.0860742 0.250832 3.81286
0.0979657 0.311421 3.8069
0.105909 0.313575 3.80688
0.112713 0.317642 3.80727
0.135555 0.334906 3.80326
0.219419 0.393604 3.75543
0.0685182 0.543273 3.82469
0.0821162 0.589247 3.78573
0.0949606 0.584012 3.77476
0.0918481 0.314438 3.80399
0.218563 0.334419 3.72268
0.0617374 0.592636 3.81439
0.0966164 0.231657 3.80189
0.0525928 0.533339 3.86171
0.0823892 0.479858 3.84875
0.063578 0.215453 3.81523
0.145326 0.278633 3.77966
0.125736 0.412022 3.8107
0.122453 0.252416 3.79022
0.173216 0.415616 3.80013
0.14391 0.386969 3.80676
0.188783 0.375418 3.78267
0.0701069 0.189818 3.81408
0.0954697 0.464877 3.83322
0.162276 0.262999 3.75826
0.134192 0.236226 3.77383
0.164068 0.309261 3.77599
0.241816 0.364367 3.70131
0.18908 0.307455 3.75377
0.254185 0.345209 3.64719
0.157943 0.354138 3.79571
0.0819801 0.501717 3.83104
0.0790728 0.43152 3.88384
0.0932842 0.424303 3.86134
0.0708802 0.449584 3.9001
0.0988568 0.612516 3.79188
0.133241 0.627453 3.79576
0.164037 0.630524 3.79353
0.19021 0.626261 3.78338
0.207913 0.614775 3.76897
0.220967 0.568406 3.73462
0.283931 0.500367 3.6319
0.204719 0.53307 3.75428
0.181626 0.525713 3.76844
0.152267 0.525654 3.77741
0.124387 0.531221 3.78163
0.103435 0.539914 3.78255
0.0893544 0.548536 3.78403
0.285465 0.496383 3.54337
0.0926865 0.417433 3.85018
0.0680415 0.497885 3.86543
0.0642474 0.431142 3.90232
0.0508689 0.418387 3.89352
0.0636828 0.426503 3.89082
0.0867359 0.409552 3.84342
0.0473505 0.416164 3.89938
0.0479398 0.410334 3.87346
0.0916337 0.568323 3.77213
0.0780769 0.56286 3.78681
0.070931 0.559646 3.80278
0.193496 0.579501 3.7584
0.204863 0.591289 3.75748
