ply
format ascii 1.0
comment Created by Open3D
element vertex 468
property double x
property double y
property double z
end_header
-0.00570723 0.343423 4.03257
-0.00457435 0.416592 4.09401
-0.00536465 0.394377 4.03395
-0.0237258 0.500475 4.0604
-0.00440433 0.442398 4.10228
-0.00399369 0.47617 4.09243
-0.00397259 0.557615 4.02513
-0.170245 0.56239 3.92734
-0.00459455 0.613488 4.0065
-0.00483519 0.645533 4.01019
-0.00576672 0.762983 3.98023
-0.00576539 0.332057 4.02906
-0.00560186 0.324583 4.02149
-0.00542865 0.323132 4.01134
-0.00531673 0.320299 4.01436
-0.00522358 0.312323 4.01931
-0.00499115 0.301111 4.02607
-0.00479924 0.287945 4.0259
-0.00449485 0.260862 4.00626
-0.00479746 0.403535 4.08135
-0.0270126 0.407031 4.04903
-0.253461 0.652609 3.80901
-0.103616 0.540771 3.95179
-0.127031 0.539112 3.95019
-0.149061 0.540668 3.94378
-0.178693 0.552855 3.92384
-0.0836317 0.547124 3.94946
-0.132678 0.595888 3.9608
-0.108952 0.595405 3.96011
-0.155266 0.592561 3.95331
-0.170733 0.585259 3.94315
-0.198216 0.538236 3.91178
-0.0937277 0.214906 3.97506
-0.178095 0.567574 3.91934
-0.265668 0.5494 3.8029
-0.223911 0.55324 3.88682
-0.123792 0.442997 3.98034
-0.0370739 0.347649 4.02979
-0.0337095 0.325799 4.01771
-0.0698007 0.342496 4.01496
-0.0918144 0.335492 3.99588
-0.0578772 0.32605 4.00715
-0.0775692 0.325657 3.98982
-0.118871 0.301303 3.96229
-0.0244535 0.417181 4.09179
-0.0268219 0.441969 4.0995
-0.207498 0.609455 3.93554
-0.0738464 0.502451 3.98092
-0.0796851 0.427125 4.03212
-0.0806341 0.440667 4.02457
-0.195479 0.447189 3.94819
-0.0252569 0.47364 4.08466
-0.152066 0.634067 3.97812
-0.184691 0.62591 3.95894
-0.230481 0.694881 3.85622
-0.0518272 0.617422 3.99892
-0.0877037 0.589639 3.95286
-0.139007 0.324457 3.95519
-0.245733 0.32271 3.74686
-0.0631915 0.413962 4.02277
-0.0435557 0.406324 4.0267
-0.116673 0.326847 3.95564
-0.10602 0.3275 3.96203
-0.197824 0.642187 3.94652
-0.0812857 0.417708 4.01907
-0.108789 0.63309 3.99189
-0.113464 0.653143 3.99644
-0.138114 0.750194 3.94923
-0.213652 0.669671 3.90759
-0.123725 0.704317 3.97393
-0.221974 0.620826 3.91385
-0.237767 0.635808 3.86434
-0.035884 0.334129 4.02608
-0.062979 0.331922 4.01183
-0.0843128 0.329971 3.99492
-0.0574472 0.410174 4.01855
-0.111257 0.327094 3.9589
-0.0985372 0.321629 3.97633
-0.10281 0.327512 3.96294
-0.0498073 0.419017 4.0559
-0.0730356 0.327657 3.98629
-0.053311 0.326252 3.99824
-0.0307401 0.324336 4.0079
-0.036652 0.260661 4.00463
-0.0346597 0.289153 4.02313
-0.0337902 0.303419 4.02343
-0.032887 0.314213 4.0157
-0.031218 0.321104 4.01071
-0.075509 0.32379 3.98803
-0.0783834 0.321447 3.9933
-0.0825029 0.315542 3.99796
-0.0863672 0.30735 3.99383
-0.109959 0.359886 3.98871
-0.269186 0.443685 3.70725
-0.00539377 0.40014 4.05018
-0.0885435 0.324791 3.97313
-0.0932934 0.324422 3.97648
-0.0356402 0.39551 4.0282
-0.0739799 0.404628 4.00251
-0.0394484 0.400629 4.02789
-0.0994877 0.488687 3.97324
-0.138975 0.473837 3.96695
-0.0853344 0.431022 4.01101
-0.194142 0.727996 3.90644
-0.177417 0.693473 3.94344
-0.160751 0.654007 3.97271
-0.0969812 0.284717 3.9778
-0.0597447 0.649202 4.00821
-0.0683439 0.706612 3.99144
-0.0775355 0.76038 3.97452
-0.168025 0.544832 3.9333
-0.223563 0.521623 3.89847
-0.0710069 0.55415 3.94595
-0.197351 0.579855 3.92191
-0.0569929 0.518365 3.98976
-0.0643925 0.434264 4.05575
-0.248709 0.504786 3.87213
-0.207956 0.505508 3.92093
-0.178214 0.496983 3.94351
-0.133676 0.499744 3.9549
-0.100013 0.50888 3.95997
-0.0746876 0.520158 3.96651
-0.0260607 0.551094 4.01527
-0.247853 0.455197 3.8799
-0.21698 0.583366 3.90976
-0.0165904 0.404829 4.07998
-0.07238 0.478714 3.99209
-0.272731 0.552073 3.72196
-0.0563897 0.533961 3.96976
-0.0881906 0.430749 3.98673
-0.185286 0.565251 3.91459
-0.0648751 0.450834 4.04634
-0.261811 0.384053 3.72051
-0.0710793 0.563676 3.93915
-0.0452484 0.464534 4.07001
-0.19696 0.268195 3.87774
-0.192955 0.239065 3.83564
-0.268787 0.448022 3.79333
-0.227198 0.299736 3.84622
-0.252439 0.596696 3.82643
-0.0975525 0.189689 3.96238
-0.0147566 0.401391 4.04866
-0.0944076 0.461453 3.98393
-0.24364 0.54892 3.86215
-0.147582 0.555427 3.94158
-0.12742 0.553124 3.94732
-0.103907 0.316715 3.972
-0.245658 0.4063 3.87435
-0.0527278 0.158349 3.95866
-0.124415 0.187398 3.90436
-0.155768 0.208066 3.87346
-0.00540086 0.705791 3.99675
-0.00383946 0.154626 3.96637
-0.107597 0.554077 3.94825
-0.0890361 0.558037 3.94486
-0.0770894 0.560948 3.93954
-0.233808 0.588871 3.88489
-0.0909929 0.57845 3.94813
-0.110665 0.583554 3.95266
-0.130308 0.584732 3.95187
-0.150591 0.581199 3.94603
-0.163813 0.575312 3.9383
-0.266904 0.608459 3.75988
-0.161088 0.558928 3.93403
-0.00538851 0.378612 4.0282
-0.086216 0.371989 4.00333
-0.0633104 0.41684 4.03158
-0.0390024 0.377226 4.02668
-0.00413354 0.586246 4.00631
-0.16307 0.237011 3.90397
-0.131513 0.212783 3.93205
-0.0548861 0.174067 3.98864
-0.221553 0.274494 3.7887
-0.077136 0.570109 3.94259
-0.0415366 0.511702 4.02339
-0.00412242 0.171855 3.9953
-0.0911778 0.170058 3.93659
-0.26227 0.393971 3.79914
-0.0550741 0.322844 4.00043
-0.0580653 0.317827 4.00608
-0.0604062 0.309204 4.01161
-0.0626702 0.296697 4.00929
-0.0699792 0.270619 3.99356
-0.0952452 0.326401 3.97449
-0.102089 0.32791 3.9744
-0.108841 0.331129 3.97455
-0.130506 0.344223 3.97073
-0.2164 0.394186 3.92439
-0.0409693 0.53643 4.00064
-0.0528846 0.580434 3.95646
-0.0672245 0.575839 3.94684
-0.0896558 0.329129 3.97263
-0.219267 0.335898 3.89022
-0.0332349 0.581936 3.98897
-0.0826971 0.242214 3.98344
-0.0038573 0.504155 4.06904
-0.0253328 0.52452 4.03991
-0.0039752 0.530148 4.04596
-0.0579246 0.472909 4.02387
-0.00440963 0.197428 4.00838
-0.00452615 0.230772 4.00788
-0.044578 0.230442 4.00225
-0.138349 0.287631 3.95026
-0.107818 0.411856 3.98118
-0.112442 0.260966 3.96582
-0.16373 0.415676 3.97213
-0.131848 0.388842 3.97638
-0.185632 0.377392 3.95262
-0.0522825 0.198466 4.00076
-0.0724564 0.459676 4.00689
-0.156758 0.266628 3.92964
-0.125376 0.239096 3.94984
-0.15978 0.317883 3.94573
-0.240309 0.364388 3.86761
-0.188244 0.311324 3.92288
-0.250566 0.344226 3.81207
-0.153359 0.359894 3.96478
-0.0563285 0.495361 4.00642
-0.0570754 0.422849 4.06057
-0.0728483 0.418716 4.03505
-0.0468303 0.43903 4.07848
-0.0711615 0.598092 3.96351
-0.108253 0.60843 3.96845
-0.140214 0.609832 3.96775
-0.167351 0.606282 3.95816
-0.18678 0.596744 3.94259
-0.201944 0.559241 3.90455
-0.270538 0.499422 3.79669
-0.185444 0.528344 3.92434
-0.161738 0.521731 3.93912
-0.131033 0.521113 3.94929
-0.101207 0.525991 3.95345
-0.0777228 0.534345 3.95449
-0.0619391 0.543102 3.95595
-0.271338 0.498467 3.70604
-0.0726307 0.413587 4.02319
-0.041742 0.489162 4.04327
-0.0407453 0.420938 4.08
-0.0278894 0.409333 4.07049
-0.0405788 0.417363 4.06806
-0.0664049 0.407317 4.0155
-0.0238469 0.40675 4.07679
-0.0221307 0.40318 4.04882
-0.0627952 0.562051 3.9432
-0.0495396 0.556681 3.95835
-0.042602 0.552984 3.97664
-0.171746 0.570969 3.93007
-0.183298 0.577309 3.92917
0.0158875 0.500496 4.06075
0.1654 0.565172 3.92702
0.0170409 0.406541 4.04877
0.248021 0.655292 3.80832
0.0982289 0.542515 3.95221
0.122059 0.54095 3.95051
0.144431 0.542586 3.94387
0.174502 0.555602 3.92352
0.0775838 0.548651 3.94976
0.126319 0.599737 3.96093
0.101692 0.598334 3.96006
0.149798 0.59669 3.95315
0.166057 0.589481 3.94313
0.193658 0.540153 3.91074
0.0853711 0.214519 3.97373
0.173309 0.570973 3.91895
0.26116 0.551374 3.80141
0.219451 0.555711 3.88556
0.116854 0.443017 3.97932
0.0258475 0.347412 4.0297
0.0231511 0.325416 4.01746
0.0589406 0.341612 4.015
0.0810324 0.334505 3.99572
0.0476649 0.325223 4.00713
0.0670621 0.324772 3.98961
0.10827 0.300383 3.96131
0.0154288 0.417107 4.09154
0.0183846 0.442029 4.09914
0.203424 0.614898 3.93463
0.0666937 0.502935 3.98102
0.0713311 0.426666 4.03163
0.0727527 0.44041 4.02431
0.190075 0.447566 3.94624
0.0172857 0.473642 4.08472
0.145327 0.639913 3.97632
0.17935 0.631886 3.95739
0.224505 0.697964 3.85542
0.0429674 0.619648 3.99804
0.0801718 0.59176 3.95303
0.128461 0.323326 3.95427
0.24072 0.322285 3.74518
0.0539688 0.413226 4.02253
0.0338392 0.405722 4.02569
0.104376 0.325444 3.95536
0.0948114 0.326249 3.96166
0.192827 0.648548 3.94489
0.0729369 0.416927 4.01843
0.100402 0.637486 3.9905
0.104898 0.657735 3.99514
0.128393 0.752508 3.94834
0.208234 0.674186 3.90652
0.11427 0.70763 3.97313
0.217712 0.626064 3.91312
0.232851 0.639613 3.86335
0.0250314 0.333684 4.02591
0.0523414 0.331192 4.01208
0.0737644 0.329049 3.99467
0.0479702 0.409423 4.01766
0.0994605 0.325974 3.95862
0.0873744 0.320879 3.97585
0.0922658 0.326504 3.96251
0.0408075 0.418641 4.05619
0.0633492 0.326896 3.98622
0.0434508 0.325582 3.99816
0.0206235 0.324027 4.00802
0.028028 0.260633 4.00376
0.0252937 0.28939 4.02279
0.0240987 0.303519 4.02319
0.0227311 0.314152 4.0157
0.0210461 0.320939 4.01063
0.065219 0.323288 3.98773
0.0681975 0.321065 3.99264
0.072314 0.315255 3.99714
0.0759038 0.30711 3.99281
0.100425 0.359174 3.98801
0.262606 0.444334 3.7056
0.078025 0.323949 3.973
0.0824558 0.323621 3.97608
0.0256104 0.395001 4.02773
0.0645528 0.40364 4.00118
0.0294493 0.400043 4.02723
0.0926645 0.489117 3.97307
0.132658 0.474356 3.96585
0.0772247 0.430497 4.01058
0.186602 0.731016 3.90548
0.170751 0.697953 3.94215
0.153902 0.660064 3.97127
0.0872317 0.284367 3.977
0.0503804 0.651817 4.0071
0.0577556 0.708122 3.99091
0.0665066 0.761598 3.97372
0.163715 0.547028 3.93331
0.219214 0.523041 3.89693
0.064461 0.555351 3.94639
0.193084 0.583765 3.92124
0.0496717 0.518845 3.99017
0.0561402 0.434186 4.05552
0.244445 0.506105 3.87045
0.203358 0.506691 3.91983
0.172866 0.497841 3.94264
0.127488 0.500551 3.9544
0.0934958 0.509709 3.95989
0.0678307 0.520861 3.96669
0.0182424 0.551466 4.01529
0.243229 0.455873 3.87846
0.212772 0.587303 3.90922
0.00728242 0.404638 4.07999
0.0648044 0.478837 3.99235
0.266275 0.553551 3.72062
0.0489477 0.534583 3.97015
0.0793187 0.430235 3.98575
0.180862 0.568696 3.91412
0.0570147 0.450753 4.04623
0.255973 0.384106 3.71875
0.0644313 0.565079 3.93981
0.0376182 0.464693 4.07009
0.190915 0.267385 3.87589
0.187904 0.238255 3.83427
0.263185 0.448808 3.79161
0.222161 0.29908 3.8442
0.247386 0.599482 3.82541
0.0895741 0.189352 3.96134
0.00402931 0.401228 4.04849
0.0870626 0.461485 3.98372
0.239476 0.551067 3.8609
0.142506 0.557651 3.94149
0.122143 0.555157 3.94747
0.0925143 0.315939 3.97153
0.240698 0.406337 3.87225
0.04509 0.157934 3.95821
0.117354 0.186735 3.90357
0.149894 0.207337 3.8724
0.102028 0.556224 3.94844
0.0830466 0.559928 3.94515
0.0706965 0.56247 3.94023
0.229866 0.592563 3.88412
0.0848615 0.580359 3.94879
0.104994 0.586104 3.95293
0.124704 0.587808 3.95201
0.145324 0.584777 3.94602
0.158772 0.578981 3.93774
0.260737 0.610449 3.75865
0.156102 0.561372 3.93364
0.076751 0.371331 4.00277
0.0542488 0.416308 4.03091
0.0285512 0.376907 4.02639
0.156259 0.236066 3.9024
0.123777 0.212062 3.93056
0.047039 0.173792 3.9879
0.216874 0.273637 3.7874
0.0706275 0.571511 3.94358
0.0337913 0.511978 4.02365
0.0836597 0.169646 3.93634
0.25706 0.394108 3.79723
0.044965 0.322442 4.00054
0.0480154 0.317645 4.00575
0.0505498 0.309212 4.01126
0.0526938 0.296784 4.00874
0.0607953 0.270343 3.99292
0.0846252 0.325322 3.97434
0.0908972 0.326897 3.97442
0.0975497 0.329914 3.9746
0.120167 0.343267 3.97017
0.21099 0.394098 3.92194
0.0332922 0.53685 4.00088
0.0447419 0.581758 3.95695
0.0596352 0.577241 3.94752
0.079709 0.328158 3.97257
0.213392 0.335306 3.88788
0.0250973 0.582863 3.98903
0.0738987 0.242043 3.98205
0.0174916 0.524758 4.03992
0.05016 0.473104 4.02394
0.0360314 0.230328 4.00133
0.129472 0.286787 3.94856
0.0995183 0.411337 3.98004
0.103423 0.26037 3.96434
0.157301 0.415609 3.97001
0.123802 0.388382 3.97523
0.17922 0.377125 3.95019
0.0441843 0.198233 3.99994
0.0647273 0.459629 4.00694
0.148971 0.265787 3.9279
0.116781 0.238453 3.94826
0.150892 0.317057 3.9444
0.235302 0.364097 3.86532
0.181302 0.310619 3.92069
0.245788 0.343877 3.81016
0.14497 0.359198 3.96329
0.0486315 0.495634 4.00687
0.0484768 0.422514 4.06061
0.0643152 0.418236 4.03453
0.0384399 0.43886 4.07847
0.0627927 0.600134 3.96402
0.100173 0.611959 3.96801
0.133271 0.614362 3.96677
0.161615 0.610919 3.95718
0.182142 0.601464 3.94187
0.19776 0.562227 3.9037
0.265443 0.500616 3.7952
0.180867 0.5301 3.92376
0.156465 0.523203 3.93859
0.125323 0.522428 3.94918
0.0951267 0.527389 3.95362
0.0713066 0.535454 3.95464
0.0549898 0.544058 3.95626
0.264579 0.499571 3.70459
0.0637864 0.412884 4.02237
0.0338162 0.489341 4.04355
0.0318841 0.420821 4.07966
0.0187451 0.409002 4.07012
0.0316129 0.417003 4.0679
0.0572631 0.406298 4.01454
0.0147202 0.406502 4.07659
0.0117842 0.402841 4.04841
0.0556911 0.563278 3.94372
0.0421339 0.557702 3.95886
0.0349492 0.553666 3.97665
0.166792 0.57456 3.92937
0.179034 0.581383 3.92882
