ply
format ascii 1.0
comment Created by Open3D
element vertex 468
property double x
property double y
property double z
end_header
0.108857 0.357668 3.70862
0.114995 0.440161 3.77996
0.114831 0.409739 3.71482
0.0913628 0.517602 3.7394
0.114248 0.46637 3.78626
0.111842 0.498023 3.77255
0.112012 0.56979 3.69924
-0.0682581 0.568795 3.5908
0.111835 0.625036 3.67692
0.111273 0.657352 3.67965
0.109749 0.779195 3.64499
0.107492 0.345988 3.70546
0.105682 0.33814 3.69823
0.104775 0.335881 3.68727
0.110441 0.286645 3.6754
0.110093 0.276798 3.68076
0.108249 0.26558 3.6866
0.108145 0.252149 3.68282
0.110031 0.232438 3.66238
0.113309 0.425815 3.76716
0.0902477 0.422991 3.7297
-0.171978 0.652069 3.46464
0.00391114 0.550476 3.62202
-0.0222559 0.548899 3.61932
-0.0472631 0.549283 3.61141
-0.0809868 0.56019 3.58684
0.0271051 0.555198 3.61932
-0.0342881 0.615896 3.62181
-0.0038452 0.613956 3.62218
-0.0604102 0.610359 3.61236
-0.0775548 0.59967 3.60164
-0.100216 0.542747 3.57323
0.0153457 0.201932 3.62453
-0.078219 0.573888 3.58112
-0.175243 0.541635 3.45809
-0.128516 0.554519 3.5455
-0.0215588 0.453167 3.6463
0.0691908 0.360812 3.70235
0.0688221 0.338056 3.69081
0.0272516 0.353887 3.68136
0.000539833 0.34524 3.65404
0.0379935 0.336478 3.67571
0.0161027 0.333659 3.65047
-0.0261809 0.294882 3.60408
0.0934516 0.44 3.77543
0.0893224 0.46569 3.78078
-0.11555 0.617962 3.59515
0.0346663 0.513338 3.65203
0.0278496 0.443725 3.70639
0.0255103 0.45677 3.69702
-0.101509 0.455139 3.61078
0.0895317 0.494713 3.76528
-0.0501413 0.647906 3.63766
-0.0880701 0.637989 3.61873
-0.144778 0.701336 3.51128
0.0606442 0.629655 3.66681
0.0229032 0.603931 3.61728
-0.0476441 0.326064 3.59957
-0.14723 0.299235 3.4065
0.0485748 0.4281 3.69839
0.0715178 0.419623 3.70114
-0.0296728 0.325134 3.59991
-0.0188658 0.324951 3.60547
-0.10219 0.652466 3.60504
0.0250185 0.433045 3.69101
-0.000894232 0.646891 3.65391
-0.00609571 0.667753 3.65752
-0.0374494 0.768447 3.60687
-0.122516 0.677929 3.56288
-0.0173877 0.720385 3.63443
-0.131137 0.627008 3.57243
-0.150299 0.637942 3.52016
0.0681542 0.347127 3.69904
0.0334345 0.343073 3.67952
0.0083621 0.339319 3.65386
0.0553739 0.423047 3.69282
-0.0244733 0.325103 3.60246
-0.00892314 0.306973 3.6167
-0.0153026 0.325142 3.60665
0.0619879 0.437089 3.7379
0.0192985 0.336021 3.64613
0.0426951 0.33647 3.66623
0.0702556 0.336378 3.6812
0.0687276 0.232858 3.65537
0.066789 0.254435 3.67643
0.0687031 0.267804 3.67973
0.0727916 0.279188 3.67435
0.0755062 0.287705 3.6698
0.0209457 0.300445 3.63644
0.0161849 0.297782 3.63846
0.00908838 0.292181 3.63926
0.00473704 0.28464 3.63481
-0.0112386 0.368311 3.64634
-0.170042 0.420975 3.36607
0.117345 0.417165 3.73472
0.00500933 0.308792 3.61981
-0.00214499 0.308616 3.61928
0.0795266 0.408953 3.70393
0.035224 0.416638 3.6711
0.0756891 0.414102 3.70346
0.00692239 0.500295 3.6432
-0.0367198 0.485043 3.63467
0.0204261 0.445428 3.68185
-0.101801 0.741403 3.56007
-0.0793005 0.706283 3.59896
-0.0589825 0.667375 3.63216
-0.00143812 0.269406 3.62146
0.0520495 0.662888 3.67286
0.043217 0.723151 3.65452
0.0306432 0.779806 3.63362
-0.0690502 0.552538 3.59879
-0.128004 0.524239 3.55759
0.0422929 0.560468 3.6179
-0.102879 0.586723 3.58151
0.0533897 0.528833 3.66213
0.0456391 0.453462 3.73306
-0.15695 0.504157 3.53008
-0.111322 0.511816 3.58287
-0.0784695 0.506442 3.60768
-0.0281557 0.510269 3.62317
0.00867693 0.519116 3.6295
0.0349221 0.529875 3.63689
0.088697 0.562681 3.68998
-0.157187 0.455024 3.53991
-0.125009 0.588521 3.56923
0.0996519 0.426317 3.76504
0.035831 0.490699 3.66453
-0.180875 0.53628 3.37965
0.055817 0.54222 3.64179
0.0204269 0.441903 3.65461
-0.0880239 0.571916 3.57601
0.0431567 0.469357 3.72119
-0.163662 0.361055 3.37882
0.0417267 0.568158 3.61162
0.0654943 0.484768 3.74815
-0.0940573 0.25231 3.52886
-0.0900739 0.217972 3.49307
-0.174502 0.434574 3.4516
-0.129196 0.283007 3.50015
-0.163392 0.59323 3.4827
0.0141566 0.17647 3.61515
0.10722 0.417752 3.73183
0.0109047 0.473392 3.65322
-0.151202 0.547126 3.5202
-0.0414697 0.562887 3.60828
-0.0198931 0.561777 3.61611
-0.0152061 0.304328 3.61277
-0.155177 0.402506 3.53164
0.0621979 0.145731 3.61714
-0.0138107 0.170428 3.56269
-0.0485687 0.18934 3.53158
0.111011 0.720523 3.66392
0.113003 0.145514 3.62475
0.00138022 0.562944 3.61784
0.0221293 0.565753 3.61603
0.0360975 0.566652 3.61249
-0.143885 0.591324 3.5428
0.0156316 0.5885 3.61546
-0.00863531 0.597453 3.61611
-0.031035 0.598856 3.61407
-0.0529345 0.593746 3.60704
-0.0657622 0.58576 3.5986
-0.180481 0.599476 3.41602
-0.0568126 0.565543 3.59941
0.113105 0.391759 3.70648
0.0160901 0.382699 3.6683
0.0491347 0.431843 3.70778
0.07208 0.389451 3.69995
0.111468 0.597371 3.67818
-0.0551909 0.221657 3.55276
-0.0213757 0.198322 3.5814
0.058192 0.163166 3.64333
-0.121786 0.251369 3.45023
0.0333877 0.575892 3.61461
0.071764 0.524579 3.69844
0.11099 0.163098 3.65103
0.0213725 0.155116 3.59557
-0.169548 0.378562 3.45612
0.0463073 0.29264 3.65544
0.0412445 0.286791 3.65816
0.0360277 0.27785 3.66092
0.0332893 0.265692 3.65719
0.0279802 0.247564 3.64155
-0.00691311 0.33097 3.62607
-0.013907 0.333505 3.62519
-0.0207081 0.337508 3.62471
-0.0353846 0.349986 3.62203
-0.12505 0.395806 3.582
0.0723527 0.546807 3.6743
0.0625774 0.587296 3.62587
0.045389 0.584151 3.61782
-0.00105685 0.333783 3.62415
-0.124372 0.327777 3.54338
0.0807231 0.591891 3.65977
0.0212493 0.226841 3.63035
0.111943 0.52205 3.74702
0.0896718 0.53872 3.71579
0.112524 0.544489 3.72222
0.0518874 0.487588 3.69797
0.11053 0.186263 3.66198
0.110651 0.212195 3.66124
0.0648247 0.211581 3.65104
-0.038987 0.281943 3.59355
-0.00325433 0.421546 3.64625
-0.011663 0.25054 3.60898
-0.0656186 0.422506 3.63187
-0.0301793 0.395993 3.63611
-0.088943 0.380538 3.60748
0.0590915 0.186014 3.65296
0.0349247 0.473704 3.67864
-0.0528758 0.256149 3.57572
-0.0183417 0.22713 3.59519
-0.0632002 0.317716 3.59397
-0.148536 0.356582 3.52227
-0.091407 0.304863 3.5718
-0.156003 0.327234 3.46887
-0.0561845 0.366369 3.61896
0.0543533 0.507554 3.68046
0.0534803 0.441981 3.74091
0.0365135 0.434948 3.7094
0.0666355 0.460257 3.75967
0.0421861 0.608782 3.63132
-0.00016228 0.623303 3.63179
-0.0381051 0.626047 3.62768
-0.069766 0.620512 3.61689
-0.0923742 0.607534 3.60138
-0.105092 0.563194 3.56487
-0.177489 0.488535 3.45448
-0.0860532 0.534966 3.58767
-0.0592846 0.529974 3.60471
-0.0252412 0.530726 3.61721
0.00742799 0.535627 3.62224
0.0328316 0.542768 3.62404
0.050575 0.55008 3.62618
-0.175011 0.478438 3.36585
0.0362896 0.428539 3.69645
0.0717055 0.505013 3.72086
0.0739177 0.441563 3.76183
0.0860399 0.42843 3.75183
0.0726776 0.436273 3.74946
0.0430608 0.420649 3.68696
0.0915269 0.427066 3.75946
0.0974298 0.419076 3.73043
0.0522943 0.567199 3.61495
0.0642295 0.563247 3.62924
0.0707484 0.561192 3.64798
-0.0729326 0.579405 3.59098
-0.0884794 0.587216 3.58772
0.133383 0.517192 3.73762
0.281097 0.568357 3.59243
0.138607 0.424619 3.73392
0.360708 0.636931 3.46673
0.20867 0.547729 3.61604
0.232124 0.546494 3.61491
0.255495 0.547316 3.60948
0.287275 0.55922 3.58749
0.190548 0.552759 3.61595
0.243134 0.612154 3.6208
0.215549 0.609721 3.6221
0.268403 0.607436 3.61453
0.284311 0.597528 3.60647
0.305207 0.54075 3.57783
0.199058 0.2142 3.62988
0.290318 0.573487 3.5839
0.368628 0.536499 3.46149
0.327842 0.551949 3.55141
0.233393 0.453887 3.6562
0.143443 0.362418 3.70644
0.136524 0.339525 3.69378
0.177324 0.357758 3.68946
0.199481 0.349243 3.66307
0.162204 0.339207 3.67937
0.183316 0.336226 3.65634
0.228419 0.30104 3.61536
0.133838 0.441103 3.77891
0.135367 0.466204 3.78446
0.312118 0.614777 3.59978
0.183673 0.512158 3.65301
0.190537 0.445534 3.71543
0.191094 0.457914 3.70553
0.302124 0.455823 3.6208
0.134337 0.494545 3.76476
0.258707 0.643923 3.64575
0.290333 0.63437 3.62543
0.336648 0.684622 3.51547
0.160072 0.627356 3.66888
0.195311 0.599931 3.61579
0.247306 0.330995 3.61002
0.348052 0.313468 3.4054
0.176056 0.430301 3.707
0.155324 0.421613 3.71273
0.230425 0.328075 3.61019
0.21586 0.32745 3.61578
0.302009 0.647348 3.6122
0.191833 0.434716 3.70247
0.216122 0.643485 3.66157
0.21941 0.663519 3.66665
0.243818 0.755395 3.61273
0.31773 0.667314 3.56987
0.230401 0.711839 3.64115
0.325782 0.621697 3.57731
0.342898 0.628138 3.52561
0.140441 0.348761 3.70243
0.169578 0.346369 3.68471
0.191488 0.342873 3.66164
0.170503 0.425457 3.70431
0.22357 0.327854 3.61403
0.210065 0.311038 3.62913
0.210147 0.32745 3.61546
0.161228 0.439166 3.73993
0.176752 0.337605 3.65141
0.157254 0.338251 3.66874
0.133028 0.337175 3.68199
0.146659 0.236997 3.66169
0.144424 0.257389 3.68008
0.143655 0.270563 3.68167
0.143429 0.281533 3.67502
0.140735 0.289712 3.66967
0.18364 0.30409 3.64282
0.187311 0.30202 3.64791
0.192711 0.297187 3.65133
0.198537 0.290288 3.64691
0.219504 0.371643 3.65859
0.376647 0.423637 3.36544
0.197086 0.311353 3.62515
0.203862 0.312003 3.62908
0.147812 0.4105 3.71032
0.186912 0.418785 3.68705
0.151267 0.415809 3.71288
0.208883 0.498994 3.64484
0.246979 0.483923 3.64041
0.196244 0.446652 3.69233
0.299155 0.725093 3.56732
0.281995 0.695874 3.60773
0.266684 0.66203 3.64007
0.207817 0.276703 3.6299
0.166856 0.659562 3.67791
0.175157 0.718287 3.65967
0.182162 0.77249 3.64027
0.275531 0.551304 3.5988
0.328222 0.52195 3.56509
0.180851 0.558126 3.61219
0.305853 0.58497 3.58529
0.166849 0.527611 3.66087
0.174845 0.454977 3.73973
0.352469 0.502733 3.53634
0.314089 0.509432 3.58865
0.284862 0.504004 3.61237
0.241078 0.508044 3.62374
0.208641 0.517114 3.62831
0.183761 0.528169 3.63581
0.135118 0.56182 3.6889
0.35522 0.45644 3.5472
0.321259 0.585311 3.5729
0.125226 0.426812 3.76566
0.184363 0.49014 3.66696
0.381184 0.528283 3.37802
0.167261 0.540612 3.63978
0.201834 0.443143 3.66697
0.297058 0.570992 3.5783
0.174203 0.470399 3.72788
0.367781 0.36993 3.38034
0.182288 0.566259 3.60405
0.153775 0.485203 3.75043
0.293733 0.271205 3.53422
0.289824 0.239867 3.49369
0.377375 0.438011 3.45739
0.324659 0.299816 3.50622
0.358558 0.584712 3.48631
0.201474 0.191169 3.61753
0.127516 0.418088 3.7338
0.205109 0.473211 3.65968
0.345906 0.544188 3.52494
0.256343 0.561217 3.60666
0.234791 0.559176 3.61142
0.216404 0.308761 3.62519
0.352887 0.408623 3.54257
0.161717 0.154387 3.61625
0.229395 0.189569 3.56062
0.256533 0.211256 3.52981
0.213979 0.559902 3.61247
0.196803 0.562616 3.60879
0.18723 0.564048 3.60406
0.336758 0.586501 3.54662
0.198671 0.58614 3.60944
0.216338 0.595176 3.61297
0.238602 0.597745 3.61271
0.261292 0.593438 3.6084
0.275025 0.58558 3.60172
0.376637 0.587115 3.41723
0.271207 0.564477 3.59904
0.197453 0.38551 3.67987
0.175238 0.434554 3.7182
0.148647 0.391103 3.70504
0.26219 0.241165 3.55773
0.231971 0.217165 3.58556
0.160548 0.171372 3.64448
0.320318 0.269815 3.44825
0.187825 0.574004 3.60593
0.151249 0.524184 3.6989
0.19909 0.170036 3.5932
0.369073 0.387338 3.46436
0.164952 0.295761 3.65788
0.16881 0.290509 3.66273
0.17247 0.28207 3.66639
0.176095 0.270462 3.66337
0.182192 0.253862 3.64702
0.202265 0.333613 3.63461
0.211474 0.336493 3.63422
0.218267 0.340831 3.63486
0.238485 0.353606 3.63273
0.320423 0.401477 3.59503
0.150917 0.545756 3.67295
0.164214 0.585418 3.62541
0.178115 0.581485 3.61244
0.194679 0.335373 3.63033
0.320173 0.339501 3.55491
0.142319 0.590791 3.66006
0.189973 0.236546 3.63712
0.133608 0.538562 3.71662
0.168328 0.488039 3.7027
0.152572 0.217299 3.65659
0.24334 0.291879 3.60301
0.219182 0.423222 3.65898
0.218186 0.261656 3.61817
0.269107 0.425468 3.64636
0.239362 0.398783 3.64879
0.288089 0.386343 3.62145
0.15866 0.193004 3.65529
0.183592 0.474091 3.68523
0.258797 0.271161 3.5834
0.228166 0.24226 3.603
0.263934 0.325261 3.60135
0.344014 0.36687 3.53412
0.288575 0.317318 3.58221
0.353205 0.340305 3.47458
0.256308 0.370075 3.63033
0.167424 0.507043 3.68097
0.167155 0.444234 3.74561
0.183381 0.437539 3.72048
0.156783 0.461553 3.763
0.181022 0.606422 3.63013
0.216731 0.620625 3.63479
0.250183 0.622663 3.63251
0.278236 0.617214 3.62198
0.29642 0.605013 3.6067
0.309299 0.561696 3.56901
0.376213 0.487315 3.45641
0.293041 0.532969 3.59079
0.268241 0.527623 3.60656
0.236644 0.528364 3.61609
0.207619 0.533279 3.61951
0.18576 0.54092 3.6228
0.171892 0.548324 3.62438
0.379532 0.475129 3.36213
0.18356 0.430847 3.7082
0.152446 0.504855 3.72083
0.15044 0.443719 3.76636
0.136123 0.430519 3.7563
0.150502 0.438664 3.75379
0.178388 0.422912 3.70102
0.131998 0.428462 3.7632
0.134136 0.420291 3.73427
0.174149 0.565313 3.6107
0.160233 0.56157 3.62816
0.152819 0.559844 3.64764
0.283353 0.579193 3.59415
0.294784 0.585998 3.59296
