ply
format ascii 1.0
comment Created by Open3D
element vertex 468
property double x
property double y
property double z
end_header
0.00966861 0.357193 3.79855
0.00975906 0.442894 3.86596
0.0100183 0.410831 3.80098
-0.0118866 0.523821 3.82869
0.00958036 0.469526 3.87272
0.00907674 0.503323 3.86094
0.00881144 0.578666 3.79253
-0.162989 0.578734 3.69121
0.00820225 0.634639 3.77374
0.00800649 0.668556 3.7784
0.00864415 0.796733 3.74817
0.00962739 0.345765 3.79535
0.00947583 0.338596 3.78735
0.0095808 0.336562 3.77581
0.0102658 0.333448 3.77557
0.01027 0.325934 3.78013
0.00986252 0.316685 3.78676
0.00973252 0.304234 3.78581
0.00965531 0.276875 3.76662
0.00945316 0.429467 3.85355
-0.0143655 0.427888 3.81736
-0.251089 0.657649 3.57786
-0.0921262 0.562614 3.71719
-0.116178 0.560957 3.71566
-0.139907 0.56043 3.70928
-0.172626 0.569239 3.68771
-0.0721765 0.566617 3.71478
-0.127992 0.61523 3.72375
-0.102218 0.614357 3.7238
-0.151067 0.610433 3.71594
-0.166517 0.60204 3.70669
-0.193138 0.551627 3.67604
-0.0818949 0.231798 3.7318
-0.172681 0.582428 3.68347
-0.264994 0.547217 3.5672
-0.221039 0.562405 3.65193
-0.117409 0.460619 3.74335
-0.0240315 0.361819 3.79528
-0.021154 0.340215 3.78283
-0.0585153 0.358261 3.77865
-0.0811652 0.352587 3.75724
-0.0467194 0.341315 3.7711
-0.0668336 0.340742 3.75107
-0.109446 0.318038 3.71596
-0.0112809 0.443953 3.86325
-0.0145333 0.469925 3.86956
-0.204166 0.624576 3.70235
-0.0649192 0.521433 3.74614
-0.070989 0.449666 3.79867
-0.0722909 0.462667 3.78987
-0.192628 0.462961 3.71076
-0.0133511 0.500068 3.85362
-0.146444 0.652884 3.74358
-0.180236 0.643399 3.7256
-0.228046 0.707865 3.62519
-0.0416041 0.637692 3.76556
-0.0792256 0.606581 3.71684
-0.130992 0.340269 3.70927
-0.240805 0.309741 3.5002
-0.0533922 0.433712 3.78988
-0.0320938 0.424643 3.79232
-0.107544 0.341265 3.71006
-0.0970754 0.341845 3.71665
-0.193479 0.658483 3.71344
-0.0727275 0.439166 3.78435
-0.101134 0.653073 3.75697
-0.106021 0.675236 3.76186
-0.133085 0.779356 3.71621
-0.210147 0.685424 3.67452
-0.11653 0.729446 3.74059
-0.219132 0.633791 3.68152
-0.235106 0.645252 3.6327
-0.0230655 0.348758 3.79208
-0.0516055 0.347574 3.77593
-0.0735889 0.346471 3.75597
-0.0473446 0.428655 3.78515
-0.102319 0.34184 3.71361
-0.088666 0.33675 3.72977
-0.0940115 0.342159 3.71765
-0.0395024 0.443338 3.82648
-0.062678 0.342514 3.74618
-0.0420986 0.340305 3.76045
-0.0183136 0.338181 3.77179
-0.0247049 0.277562 3.7636
-0.0225486 0.306239 3.78249
-0.0214287 0.319382 3.7832
-0.0198778 0.328018 3.77613
-0.0179829 0.334409 3.77157
-0.0645629 0.338069 3.74571
-0.0679717 0.336799 3.74933
-0.0724443 0.332288 3.7522
-0.0761171 0.323879 3.74794
-0.101253 0.376707 3.74907
-0.264553 0.424635 3.46555
0.0102027 0.419442 3.81932
-0.0780593 0.338439 3.72963
-0.0831427 0.338755 3.73085
-0.0229403 0.412675 3.79344
-0.0645722 0.421916 3.76623
-0.027404 0.418491 3.79383
-0.090527 0.507742 3.73714
-0.132042 0.491967 3.73077
-0.0766797 0.451384 3.77542
-0.191358 0.749641 3.67343
-0.172606 0.714008 3.70864
-0.155137 0.673315 3.73879
-0.0869055 0.301452 3.73273
-0.0497961 0.672243 3.77422
-0.0583381 0.734818 3.75878
-0.0687274 0.794078 3.74087
-0.160721 0.562819 3.69834
-0.220929 0.532402 3.66262
-0.059746 0.570685 3.71166
-0.192976 0.594024 3.6872
-0.0474942 0.53714 3.75508
-0.0551794 0.459026 3.8241
-0.24755 0.512119 3.63518
-0.204132 0.519239 3.6846
-0.17232 0.51351 3.70734
-0.124541 0.517899 3.71913
-0.0896837 0.527646 3.72411
-0.0649976 0.538754 3.73131
-0.0145018 0.571178 3.78302
-0.246821 0.462684 3.64224
-0.214217 0.596324 3.67659
-0.0033696 0.430683 3.8517
-0.0636389 0.497038 3.75701
-0.26925 0.538413 3.48622
-0.0462852 0.550842 3.73564
-0.078918 0.446974 3.7497
-0.179676 0.579158 3.67924
-0.0562838 0.475049 3.81342
-0.257043 0.367064 3.47648
-0.0609835 0.57859 3.70577
-0.035358 0.490695 3.83799
-0.189867 0.272699 3.63217
-0.184691 0.238849 3.5895
-0.266958 0.441232 3.5541
-0.223253 0.299972 3.60118
-0.250499 0.599211 3.5933
-0.0845033 0.205273 3.71798
-6.00964e-06 0.420334 3.81714
-0.0862555 0.479669 3.74759
-0.242628 0.554787 3.62779
-0.137106 0.574829 3.70566
-0.116018 0.574401 3.71194
-0.0941095 0.332388 3.72548
-0.244773 0.411636 3.63351
-0.0387107 0.173808 3.71375
-0.11083 0.196649 3.66059
-0.144265 0.21357 3.62944
0.00853315 0.734337 3.76498
0.00999378 0.171366 3.72155
-0.0961003 0.575644 3.71314
-0.077046 0.57771 3.70999
-0.0656308 0.577639 3.70599
-0.232361 0.598711 3.65161
-0.0833421 0.597987 3.71235
-0.105113 0.605987 3.71565
-0.12648 0.607017 3.71435
-0.14749 0.601878 3.70882
-0.160313 0.593836 3.70141
-0.26371 0.602869 3.52661
-0.15214 0.576552 3.69801
0.00994399 0.393101 3.79458
-0.0770855 0.389365 3.76588
-0.0537307 0.437975 3.80031
-0.0261798 0.393385 3.79167
0.00853364 0.607277 3.77322
-0.152542 0.24514 3.65761
-0.119477 0.224527 3.68573
-0.0416529 0.193234 3.74485
-0.215672 0.267584 3.54274
-0.0680459 0.586332 3.70903
-0.0309981 0.531956 3.79087
0.0096156 0.191137 3.75159
-0.0770996 0.183093 3.69274
-0.260826 0.387778 3.55763
-0.0431374 0.336181 3.76016
-0.0465206 0.332208 3.76465
-0.0493106 0.325136 3.76892
-0.0514369 0.312849 3.7667
-0.0591655 0.287593 3.75115
-0.0857701 0.34197 3.73276
-0.0925003 0.344188 3.73258
-0.0992235 0.34806 3.73287
-0.122191 0.360605 3.72928
-0.215107 0.406323 3.68414
-0.0304158 0.554997 3.76712
-0.0422276 0.595075 3.72249
-0.0576118 0.5911 3.71404
-0.0801207 0.343656 3.72969
-0.216105 0.342505 3.64706
-0.0220968 0.600731 3.75543
-0.0719149 0.259751 3.74033
0.00888224 0.528643 3.83701
-0.0137467 0.546566 3.80902
0.00896777 0.552191 3.81444
-0.0488663 0.493892 3.79085
0.00947107 0.217303 3.76584
0.00956928 0.248469 3.76537
-0.0322611 0.248628 3.75904
-0.129311 0.302893 3.70403
-0.100002 0.428342 3.74399
-0.102477 0.27779 3.7206
-0.159972 0.43237 3.73319
-0.124979 0.405105 3.73765
-0.182231 0.392386 3.71186
-0.0396468 0.218398 3.75818
-0.0638591 0.479476 3.77214
-0.147348 0.278005 3.68337
-0.114466 0.252608 3.70342
-0.152273 0.33268 3.70094
-0.238554 0.368472 3.62457
-0.182752 0.322745 3.67895
-0.248361 0.339622 3.56785
-0.147101 0.376866 3.72426
-0.0468945 0.51449 3.77261
-0.0475509 0.448262 3.8311
-0.0639048 0.4412 3.80194
-0.0360908 0.46512 3.84841
-0.0614495 0.613723 3.72992
-0.100638 0.625415 3.73436
-0.13441 0.627423 3.73219
-0.162527 0.623334 3.72205
-0.18232 0.612868 3.7075
-0.197361 0.571664 3.66976
-0.269035 0.494565 3.5591
-0.179137 0.543636 3.68852
-0.153519 0.538936 3.70403
-0.120576 0.540533 3.71378
-0.090061 0.546035 3.71781
-0.0671164 0.552929 3.71943
-0.0514295 0.559626 3.72077
-0.267145 0.480795 3.46796
-0.0635714 0.434677 3.78952
-0.0310817 0.511136 3.8109
-0.0293252 0.44721 3.85097
-0.0160057 0.43465 3.84063
-0.0297064 0.442646 3.83874
-0.057014 0.426549 3.78096
-0.0112908 0.432535 3.84749
-0.00845993 0.423156 3.81745
-0.0524775 0.576154 3.70948
-0.0391523 0.572217 3.72451
-0.0321777 0.569804 3.74248
-0.167533 0.587741 3.6939
-0.178427 0.592699 3.69289
0.0298002 0.523588 3.82846
0.179129 0.577747 3.69153
0.0336274 0.427848 3.81787
0.266859 0.653969 3.57835
0.108023 0.56163 3.71671
0.13207 0.55984 3.71514
0.155768 0.559317 3.70919
0.188063 0.56813 3.68806
0.0885496 0.565702 3.71443
0.142564 0.614667 3.7236
0.116829 0.614074 3.72401
0.166016 0.609449 3.71618
0.181603 0.600788 3.70719
0.209053 0.550225 3.67708
0.0992408 0.232783 3.73227
0.188549 0.581309 3.68381
0.280716 0.544963 3.56815
0.236789 0.560848 3.65343
0.134514 0.460141 3.74491
0.0425972 0.362139 3.79538
0.0394098 0.340422 3.78297
0.0760156 0.358947 3.779
0.0977415 0.353173 3.75727
0.0641149 0.34169 3.77103
0.0837526 0.341169 3.75098
0.125917 0.31849 3.71629
0.0303509 0.444052 3.86378
0.0330214 0.469931 3.86997
0.219009 0.623128 3.70322
0.0821726 0.52084 3.74646
0.0890081 0.449377 3.79967
0.0899481 0.462377 3.79097
0.208236 0.462043 3.71243
0.0315638 0.499855 3.85348
0.161783 0.652599 3.74453
0.195363 0.642386 3.72651
0.244232 0.704245 3.62599
0.0573361 0.637851 3.76562
0.0947716 0.606195 3.71686
0.147058 0.34044 3.7094
0.256274 0.309382 3.50006
0.0723883 0.433645 3.79111
0.0516336 0.424568 3.79375
0.124506 0.341591 3.70967
0.113477 0.342261 3.7166
0.208995 0.657271 3.71461
0.0906538 0.43895 3.78592
0.116353 0.653214 3.75788
0.121348 0.675313 3.76283
0.149047 0.777142 3.71738
0.226056 0.683193 3.67596
0.132864 0.728411 3.7417
0.234208 0.631902 3.68247
0.250848 0.64254 3.63389
0.041462 0.349015 3.79205
0.0692343 0.348018 3.7759
0.0906124 0.347005 3.75589
0.0666725 0.428664 3.78665
0.118934 0.342174 3.71337
0.105571 0.337167 3.72986
0.109982 0.342429 3.7175
0.0576756 0.443109 3.82682
0.0792164 0.342985 3.74609
0.059563 0.340624 3.7604
0.036509 0.338248 3.77172
0.0432289 0.277743 3.76394
0.0412336 0.30628 3.78237
0.0405416 0.319266 3.78286
0.0395523 0.327969 3.77588
0.0376949 0.334369 3.77132
0.0821902 0.338369 3.74581
0.0853282 0.337127 3.74972
0.0894547 0.332583 3.7526
0.0932621 0.324267 3.7484
0.118377 0.376799 3.74994
0.28148 0.422603 3.46536
0.0951727 0.338618 3.72907
0.100272 0.339091 3.73108
0.0426486 0.412599 3.79416
0.0834925 0.42195 3.76828
0.0469287 0.418557 3.79511
0.107702 0.50701 3.73746
0.148831 0.491063 3.73172
0.0944493 0.451078 3.7769
0.20711 0.746773 3.67489
0.18874 0.712409 3.71031
0.17074 0.672781 3.7399
0.103825 0.301904 3.73292
0.0654107 0.672433 3.77455
0.0748798 0.734129 3.75961
0.0850768 0.792948 3.74202
0.176297 0.561751 3.69854
0.236838 0.530835 3.66409
0.0766827 0.569891 3.71107
0.208466 0.592574 3.688
0.0648614 0.536614 3.75515
0.0729794 0.458791 3.82504
0.262925 0.510364 3.63643
0.219923 0.517797 3.68589
0.188541 0.512256 3.70845
0.141318 0.516828 3.7194
0.10674 0.526845 3.72423
0.0820933 0.538091 3.73136
0.0321757 0.571025 3.7829
0.262155 0.461318 3.64341
0.229306 0.59463 3.67752
0.0220683 0.430661 3.85172
0.0815307 0.496539 3.75743
0.286016 0.535477 3.48611
0.0638488 0.550199 3.73552
0.0975623 0.44673 3.75125
0.195396 0.577845 3.6794
0.0736826 0.474799 3.81427
0.273476 0.365653 3.47648
0.0779028 0.577801 3.70484
0.05287 0.490506 3.83851
0.204636 0.274149 3.63315
0.199395 0.240639 3.58936
0.283359 0.439743 3.55508
0.237617 0.300752 3.60197
0.266612 0.596684 3.59427
0.102093 0.206697 3.718
0.0203276 0.420297 3.81757
0.103886 0.479193 3.74849
0.258105 0.55287 3.62907
0.153554 0.573847 3.70552
0.132291 0.573228 3.71136
0.111058 0.332774 3.72547
0.259874 0.410848 3.63491
0.0579151 0.174572 3.71348
0.128028 0.198505 3.65992
0.160041 0.215479 3.62857
0.112192 0.574647 3.71257
0.0936052 0.576688 3.70906
0.082501 0.576777 3.70503
0.24733 0.596885 3.65283
0.0987824 0.597403 3.71198
0.119636 0.605494 3.71564
0.141049 0.606323 3.71447
0.162357 0.601024 3.70929
0.175385 0.593023 3.70218
0.280347 0.599426 3.52662
0.168572 0.575497 3.69792
0.0949357 0.389426 3.76683
0.0724715 0.438062 3.80175
0.0453119 0.393507 3.79206
0.168227 0.246801 3.65809
0.135703 0.226275 3.68599
0.0600001 0.193977 3.7451
0.230512 0.268342 3.54245
0.0844012 0.585562 3.70807
0.0487649 0.531632 3.79108
0.095497 0.184566 3.69212
0.276393 0.386923 3.55887
0.0619567 0.336309 3.76006
0.0650554 0.332349 3.76475
0.0675676 0.32524 3.76892
0.0695647 0.312977 3.76656
0.0768541 0.287792 3.75104
0.102128 0.342337 3.7328
0.108924 0.344597 3.73243
0.115553 0.348482 3.73263
0.138647 0.360754 3.72962
0.229922 0.405896 3.68617
0.0480846 0.554527 3.76691
0.0594452 0.594843 3.72266
0.0741634 0.590508 3.71344
0.0962908 0.343987 3.72956
0.230888 0.342799 3.6486
0.039189 0.600518 3.75555
0.0888237 0.260584 3.7406
0.0313166 0.546385 3.80915
0.0664847 0.493681 3.79164
0.0504927 0.249085 3.75951
0.145276 0.303411 3.70479
0.118047 0.428142 3.74561
0.118657 0.278566 3.72101
0.176104 0.431971 3.7353
0.142136 0.404865 3.73904
0.197577 0.392217 3.71393
0.057796 0.218685 3.75829
0.0816403 0.47911 3.77304
0.163243 0.279132 3.68413
0.130964 0.253896 3.70402
0.16807 0.333027 3.70139
0.253358 0.368184 3.62614
0.197454 0.323464 3.68011
0.263377 0.339528 3.56873
0.162809 0.376843 3.72556
0.0647365 0.51402 3.77266
0.0653227 0.448235 3.83195
0.0820571 0.441154 3.80344
0.0543313 0.465022 3.84906
0.0774591 0.613754 3.72995
0.115794 0.625404 3.73466
0.14953 0.626901 3.73263
0.177852 0.622108 3.72274
0.197482 0.611409 3.70826
0.213101 0.570185 3.67073
0.285169 0.492483 3.55974
0.195015 0.54231 3.68942
0.169701 0.537619 3.70459
0.136922 0.539355 3.71397
0.106499 0.545132 3.71761
0.083978 0.552136 3.71944
0.068663 0.558983 3.72068
0.284113 0.478312 3.46751
0.0818898 0.434552 3.7911
0.049116 0.510751 3.81106
0.0477316 0.447205 3.85166
0.0341931 0.434663 3.8412
0.0477096 0.442699 3.83944
0.0757324 0.426435 3.78276
0.0297385 0.432513 3.84807
0.0282177 0.423141 3.81798
0.0697686 0.575537 3.70911
0.0563781 0.571733 3.72451
0.0495645 0.569475 3.74248
0.182911 0.586763 3.69457
0.193776 0.591461 3.69361
