ply
format ascii 1.0
comment Created by Open3D
element vertex 468
property double x
property double y
property double z
end_header
-0.0164795 0.356478 4.008
-0.0133429 0.450203 4.06873
-0.0155358 0.421889 4.00866
-0.0320949 0.538644 4.03375
-0.0127355 0.477665 4.07625
-0.011914 0.513854 4.06564
-0.0121919 0.599933 3.99967
-0.171634 0.603411 3.90091
-0.0118098 0.653111 3.9816
-0.0116259 0.685752 3.98547
-0.0115607 0.82076 3.95256
-0.0166437 0.343424 4.00467
-0.016691 0.335225 3.99681
-0.0165686 0.333337 3.98638
-0.0174759 0.330696 3.9881
-0.0176307 0.322085 3.9929
-0.017359 0.310862 4.00014
-0.0169661 0.297744 4.00008
-0.0164627 0.273538 3.9819
-0.0135477 0.436695 4.05684
-0.0373846 0.438009 4.02398
-0.250953 0.690763 3.78829
-0.105247 0.584202 3.92341
-0.1276 0.581758 3.92282
-0.149605 0.581367 3.91747
-0.178949 0.592467 3.89819
-0.0869078 0.590308 3.92233
-0.136085 0.637802 3.93191
-0.112254 0.638325 3.93169
-0.157708 0.633023 3.92593
-0.172375 0.625255 3.91693
-0.198545 0.574058 3.88805
-0.104061 0.229957 3.95174
-0.180132 0.608046 3.89393
-0.26666 0.579594 3.78225
-0.2247 0.58687 3.86491
-0.127879 0.473102 3.95538
-0.0463494 0.361036 4.00567
-0.0428566 0.336179 3.99324
-0.0776728 0.355006 3.9915
-0.0986326 0.346181 3.97291
-0.06574 0.336002 3.98297
-0.085111 0.334718 3.96628
-0.128499 0.311069 3.94001
-0.0328206 0.450835 4.06722
-0.0354467 0.476909 4.07402
-0.205581 0.642596 3.91383
-0.0799124 0.540501 3.95522
-0.0893538 0.458358 4.00668
-0.0896433 0.473052 3.99835
-0.194195 0.475264 3.92526
-0.0336199 0.510482 4.05808
-0.151014 0.667618 3.95582
-0.182809 0.659145 3.93861
-0.227886 0.736997 3.83428
-0.0550803 0.654609 3.97368
-0.0919273 0.63294 3.92387
-0.147676 0.333934 3.93166
-0.252164 0.337211 3.72797
-0.0740963 0.443602 3.9977
-0.0545281 0.435181 4.00304
-0.125846 0.332908 3.93237
-0.114969 0.334137 3.93898
-0.194813 0.674625 3.92589
-0.090923 0.447382 3.9941
-0.108993 0.667932 3.96761
-0.113437 0.689091 3.97209
-0.139171 0.801554 3.9227
-0.21034 0.708171 3.8858
-0.124414 0.748827 3.94864
-0.219611 0.653327 3.89255
-0.235304 0.671649 3.84287
-0.0450095 0.345661 4.00215
-0.0708275 0.342786 3.98813
-0.0915496 0.339875 3.97149
-0.0684311 0.438886 3.99489
-0.120418 0.333247 3.93613
-0.107794 0.329737 3.95331
-0.111563 0.335246 3.94002
-0.0593313 0.451775 4.03063
-0.080344 0.336885 3.962
-0.0612542 0.335966 3.97338
-0.0398626 0.334411 3.98271
-0.0473738 0.272959 3.98116
-0.0460301 0.298809 3.99831
-0.0451484 0.313174 3.9978
-0.0443909 0.323874 3.98991
-0.0426367 0.331341 3.98493
-0.0848984 0.333083 3.96467
-0.0875373 0.330949 3.96949
-0.0917247 0.325305 3.9737
-0.0960652 0.317162 3.96982
-0.116561 0.37692 3.9662
-0.273583 0.463622 3.68854
-0.0153705 0.430521 4.02508
-0.0975768 0.333359 3.95045
-0.10245 0.332421 3.95335
-0.046651 0.422504 4.00347
-0.0842492 0.431056 3.97835
-0.0504628 0.428554 4.00408
-0.103253 0.525056 3.9476
-0.140178 0.506699 3.94328
-0.0942753 0.461632 3.9853
-0.192491 0.774771 3.88228
-0.174878 0.734543 3.91936
-0.159092 0.687973 3.94966
-0.106085 0.29637 3.95488
-0.0627118 0.687455 3.98287
-0.0720603 0.754978 3.9653
-0.0808938 0.815825 3.94701
-0.168202 0.584593 3.9081
-0.224054 0.554152 3.87573
-0.0758442 0.596625 3.91834
-0.197444 0.616761 3.89829
-0.063953 0.557572 3.96373
-0.0736223 0.46762 4.03018
-0.249429 0.535002 3.85012
-0.208133 0.537609 3.89725
-0.178267 0.52977 3.91889
-0.134765 0.535693 3.92996
-0.103224 0.547503 3.93381
-0.0799178 0.560211 3.94067
-0.0339761 0.592338 3.98981
-0.248087 0.481536 3.85833
-0.21652 0.617836 3.88756
-0.0254097 0.437688 4.05529
-0.0798097 0.514033 3.96548
-0.273632 0.57935 3.70318
-0.0630084 0.573908 3.94378
-0.0969821 0.459788 3.96074
-0.186274 0.604298 3.88985
-0.0736429 0.485291 4.0202
-0.267727 0.401372 3.70238
-0.0767667 0.60614 3.91104
-0.0537221 0.500634 4.04351
-0.204385 0.28163 3.85665
-0.201219 0.250999 3.81581
-0.272249 0.471019 3.77339
-0.232553 0.31472 3.82563
-0.252122 0.63008 3.80555
-0.108757 0.204079 3.93919
-0.0251434 0.431558 4.02366
-0.100106 0.494542 3.95777
-0.24459 0.58081 3.8409
-0.148351 0.59775 3.9139
-0.128139 0.596599 3.91898
-0.113414 0.324838 3.94911
-0.246045 0.429113 3.85246
-0.0655211 0.17113 3.93509
-0.135886 0.199449 3.88294
-0.166331 0.219891 3.85295
-0.0120759 0.75644 3.96994
-0.0166846 0.167355 3.9423
-0.109233 0.598504 3.92001
-0.0918059 0.602305 3.91645
-0.0814954 0.604197 3.91164
-0.233264 0.622033 3.86323
-0.0957068 0.62417 3.9186
-0.114778 0.630939 3.92355
-0.135082 0.63176 3.92304
-0.155095 0.626349 3.91838
-0.167422 0.618544 3.9112
-0.266075 0.641361 3.7404
-0.162252 0.600341 3.90695
-0.0159297 0.40108 4.00348
-0.0947491 0.392466 3.9807
-0.0737092 0.447475 4.00743
-0.0490395 0.39909 4.00264
-0.0118326 0.628067 3.98041
-0.17292 0.249898 3.88251
-0.142185 0.2264 3.90959
-0.0667926 0.188603 3.96484
-0.228902 0.287029 3.76991
-0.0827669 0.613674 3.91409
-0.0495362 0.550085 3.99737
-0.0167638 0.186646 3.97043
-0.103407 0.182597 3.91408
-0.266479 0.413903 3.7793
-0.0655762 0.332454 3.97594
-0.0683423 0.327335 3.98128
-0.0707935 0.318828 3.9862
-0.0735351 0.306467 3.98457
-0.0796838 0.283012 3.97073
-0.103066 0.334289 3.95199
-0.109812 0.336012 3.95193
-0.116191 0.339766 3.95183
-0.136869 0.356715 3.94809
-0.21547 0.417479 3.90245
-0.0486869 0.576408 3.97483
-0.0585887 0.621249 3.92886
-0.0728737 0.618296 3.91928
-0.0973786 0.3374 3.94908
-0.221873 0.353557 3.86862
-0.0398087 0.622693 3.96195
-0.0923496 0.256583 3.96054
-0.0120608 0.543474 4.0425
-0.0334893 0.56438 4.0145
-0.0122762 0.570911 4.02005
-0.066185 0.508218 3.99772
-0.0166681 0.213518 3.98338
-0.0168325 0.245741 3.98208
-0.0554876 0.245009 3.97759
-0.148225 0.299611 3.9282
-0.1154 0.438257 3.95713
-0.122242 0.274451 3.94372
-0.164749 0.441697 3.94846
-0.136891 0.411418 3.95355
-0.186753 0.398839 3.92913
-0.0634302 0.213728 3.97668
-0.0805017 0.493612 3.98052
-0.166368 0.279685 3.90767
-0.135897 0.253137 3.9269
-0.167576 0.330416 3.92298
-0.241824 0.38412 3.84592
-0.193942 0.326467 3.90104
-0.255568 0.361417 3.79191
-0.15736 0.376845 3.94254
-0.0643148 0.532326 3.9799
-0.0662458 0.456053 4.0357
-0.0827532 0.449644 4.01033
-0.0558351 0.473411 4.05396
-0.0748274 0.637549 3.93577
-0.110429 0.646669 3.94278
-0.14164 0.647146 3.94283
-0.168236 0.643206 3.93404
-0.186693 0.633473 3.91974
-0.202422 0.595743 3.8815
-0.272836 0.526111 3.77604
-0.185558 0.564356 3.89978
-0.162151 0.558599 3.91478
-0.13188 0.560415 3.92396
-0.103731 0.5673 3.92584
-0.0820507 0.575951 3.92839
-0.0674698 0.584242 3.92865
-0.273957 0.521744 3.68749
-0.0828071 0.443151 3.9987
-0.0502574 0.525976 4.01667
-0.0496314 0.454615 4.05519
-0.0368223 0.442373 4.04583
-0.0496771 0.4507 4.04339
-0.0767312 0.435239 3.99139
-0.0326626 0.439599 4.05233
-0.0323937 0.433726 4.02401
-0.0689279 0.60363 3.91568
-0.0558539 0.597737 3.93119
-0.0494629 0.593619 3.95077
-0.174417 0.612766 3.90382
-0.184063 0.616621 3.90381
0.00755142 0.539404 4.03434
0.15159 0.614159 3.90015
0.00903719 0.438345 4.02281
0.240906 0.705776 3.7874
0.0854498 0.590972 3.92521
0.108665 0.589571 3.92412
0.131398 0.589838 3.91825
0.161667 0.603094 3.8978
0.0654871 0.595805 3.92353
0.117354 0.648247 3.93191
0.0921945 0.646988 3.93151
0.140159 0.644616 3.92546
0.155417 0.637337 3.91608
0.182107 0.583995 3.88633
0.0730473 0.229292 3.94761
0.160435 0.620012 3.89296
0.253773 0.592771 3.77992
0.209739 0.598507 3.86214
0.105704 0.476063 3.95195
0.0143553 0.361456 4.00457
0.0102791 0.33634 3.99234
0.0461513 0.355414 3.98963
0.0665506 0.346963 3.97075
0.0341302 0.336251 3.98205
0.052612 0.335398 3.96425
0.0957292 0.311709 3.93508
0.00708459 0.451359 4.06591
0.0105717 0.477799 4.07254
0.193277 0.656948 3.91164
0.0577377 0.543216 3.95525
0.0648734 0.459839 4.00395
0.066203 0.474388 3.99595
0.176748 0.480758 3.9214
0.00948608 0.511233 4.05809
0.133927 0.680587 3.95225
0.168651 0.673292 3.93504
0.216482 0.751986 3.8328
0.0322037 0.658938 3.97275
0.0698518 0.639519 3.92423
0.114633 0.335307 3.92725
0.233171 0.343181 3.72391
0.0468448 0.444487 3.99478
0.026429 0.435427 3.99915
0.08951 0.333742 3.92975
0.0810437 0.334954 3.93573
0.181742 0.689834 3.9222
0.0663038 0.448125 3.99067
0.0883284 0.677516 3.96484
0.0933724 0.699148 3.96894
0.120967 0.811282 3.92121
0.198422 0.72286 3.88313
0.104417 0.758477 3.94678
0.207784 0.668107 3.89041
0.224448 0.686196 3.84101
0.0127388 0.345813 4.00131
0.0389152 0.343077 3.98709
0.059163 0.340507 3.96953
0.0408419 0.439417 3.99128
0.0848265 0.334131 3.93299
0.0735446 0.330363 3.94958
0.0788992 0.335945 3.93687
0.0337233 0.453202 4.03037
0.0490613 0.337588 3.96015
0.0299384 0.336141 3.97229
0.00776542 0.334584 3.98252
0.0157245 0.272724 3.97863
0.0131146 0.298964 3.9967
0.0114186 0.31315 3.99687
0.00953781 0.323971 3.98926
0.00798199 0.331385 3.98451
0.0516492 0.33377 3.96215
0.0546741 0.331567 3.96617
0.0591366 0.325574 3.96954
0.062814 0.317341 3.96601
0.0867788 0.378255 3.9625
0.25544 0.473877 3.68571
0.0643347 0.33399 3.94808
0.0685764 0.333164 3.95021
0.017013 0.422626 4.00144
0.0566558 0.43135 3.97377
0.0216437 0.428853 4.00105
0.0821296 0.528479 3.94728
0.120241 0.511109 3.94113
0.0700436 0.462672 3.98247
0.178536 0.788229 3.88012
0.160035 0.74788 3.91649
0.142089 0.701778 3.94625
0.0740359 0.296534 3.95111
0.0403811 0.692934 3.98108
0.0495704 0.759755 3.96396
0.0600089 0.820909 3.9448
0.150813 0.59414 3.90788
0.208898 0.564018 3.87268
0.0527248 0.601161 3.92029
0.182226 0.629427 3.89726
0.041083 0.559924 3.96436
0.0493421 0.469173 4.02824
0.235701 0.545292 3.84732
0.191899 0.546058 3.89494
0.160477 0.536525 3.91719
0.114705 0.540936 3.92956
0.0818762 0.551871 3.93419
0.0580539 0.563565 3.94137
0.00977532 0.593677 3.99015
0.232807 0.490078 3.85523
0.203532 0.631009 3.88584
-0.00111186 0.438004 4.05518
0.0563302 0.516138 3.96522
0.258519 0.592491 3.70154
0.0393722 0.576683 3.9448
0.0707233 0.460887 3.9572
0.16811 0.616307 3.88931
0.0507748 0.48676 4.01833
0.249567 0.409516 3.69864
0.0532531 0.611121 3.91355
0.0305265 0.501912 4.04289
0.17903 0.284375 3.85074
0.177835 0.253322 3.81175
0.255315 0.480716 3.76991
0.21055 0.319357 3.81982
0.239615 0.644143 3.80362
0.0779822 0.203313 3.93568
-0.00554006 0.431788 4.02305
0.0776249 0.496934 3.956
0.230867 0.593052 3.83818
0.127946 0.607146 3.91398
0.108021 0.605232 3.92018
0.0787882 0.325318 3.94538
0.228863 0.436171 3.84797
0.0329483 0.170167 3.93363
0.106605 0.198647 3.88058
0.139329 0.220247 3.8498
0.0887298 0.606172 3.9214
0.0702851 0.608697 3.91851
0.0584907 0.609584 3.91435
0.221208 0.635737 3.86107
0.0741984 0.630772 3.92029
0.095017 0.63925 3.92398
0.11531 0.64128 3.92289
0.135649 0.637175 3.91759
0.147976 0.630015 3.90978
0.253264 0.655449 3.73872
0.141778 0.610339 3.90667
0.0660887 0.39319 3.97726
0.0473318 0.448686 4.00411
0.0185625 0.399473 4.00108
0.145057 0.250748 3.87693
0.112662 0.226049 3.90462
0.0352303 0.187774 3.96251
0.207917 0.29121 3.76613
0.0596614 0.618883 3.91703
0.0254264 0.551476 3.9974
0.0722199 0.181455 3.91227
0.24889 0.421865 3.77468
0.0313712 0.332834 3.97454
0.0345388 0.327632 3.9795
0.037611 0.319029 3.98435
0.0398948 0.306467 3.98244
0.0482544 0.28278 3.96789
0.0702739 0.335207 3.9493
0.0762076 0.336982 3.94957
0.0827283 0.340833 3.94945
0.104959 0.358399 3.9445
0.197046 0.422998 3.89628
0.0246381 0.578255 3.97525
0.0336225 0.624955 3.92947
0.0491711 0.623141 3.92142
0.0654844 0.338234 3.94678
0.199239 0.358259 3.8624
0.0157159 0.624823 3.96221
0.0613736 0.256376 3.95642
0.00919467 0.565334 4.01419
0.0423601 0.509881 3.99672
0.0235388 0.244588 3.97504
0.117704 0.300622 3.92193
0.0898072 0.439776 3.95296
0.0917178 0.274459 3.93817
0.14351 0.445604 3.94271
0.110809 0.413527 3.94896
0.164453 0.402799 3.92235
0.0318237 0.213237 3.97427
0.057143 0.495243 3.97905
0.137405 0.28086 3.90152
0.104953 0.252911 3.92124
0.138019 0.332725 3.91741
0.22228 0.390187 3.84025
0.168129 0.32956 3.8941
0.236246 0.367881 3.78675
0.129969 0.379385 3.93713
0.0403219 0.534227 3.98025
0.0416969 0.457551 4.03449
0.0577255 0.450883 4.00695
0.0313615 0.474599 4.05269
0.0509533 0.64289 3.93675
0.0890651 0.655462 3.94158
0.122779 0.658506 3.94093
0.151228 0.655539 3.93225
0.171545 0.646619 3.91801
0.186484 0.607352 3.8798
0.258073 0.537662 3.77358
0.168387 0.573384 3.89852
0.143895 0.566066 3.91373
0.112475 0.5669 3.92402
0.082858 0.572792 3.92683
0.0603514 0.580178 3.92896
0.044249 0.587849 3.92994
0.256965 0.533624 3.68567
0.0571168 0.443937 3.99505
0.0255652 0.527249 4.01687
0.0243163 0.45586 4.05382
0.0111603 0.442836 4.04451
0.0241103 0.451704 4.04199
0.0501017 0.435546 3.98735
0.00656429 0.440124 4.05123
0.00293681 0.433904 4.0227
0.0446383 0.608046 3.91741
0.0316133 0.60081 3.9322
0.0253842 0.596066 3.95087
0.155005 0.624437 3.90245
0.167224 0.629055 3.9024
