ply
format ascii 1.0
comment Created by Open3D
element vertex 468
property double x
property double y
property double z
end_header
0.00138839 0.361594 4.10967
0.00296698 0.429973 4.15842
0.00190635 0.410642 4.10192
-0.0163623 0.514016 4.12502
0.00321834 0.454905 4.1661
0.00350649 0.488643 4.15572
0.00294726 0.572341 4.08919
-0.165238 0.582356 3.99994
0.00278896 0.639515 4.071
0.00274615 0.6726 4.07396
0.000508187 0.779391 4.04011
0.00122991 0.350375 4.10769
0.00097189 0.340584 4.09968
0.00111163 0.335389 4.08927
0.000555272 0.319384 4.08365
0.000545007 0.307876 4.08718
0.000670428 0.293358 4.09066
0.000691253 0.280136 4.08507
0.00107018 0.261669 4.05954
0.00328676 0.417867 4.14661
-0.0161907 0.421259 4.1162
-0.246354 0.680348 3.87899
-0.0974049 0.559127 4.02464
-0.120656 0.557061 4.02302
-0.142815 0.558898 4.0163
-0.17186 0.573869 3.99672
-0.0782002 0.5663 4.02169
-0.127232 0.626573 4.0322
-0.101994 0.624663 4.03255
-0.151036 0.622768 4.02486
-0.16701 0.613715 4.01536
-0.189694 0.558733 3.98577
-0.079505 0.233463 4.04102
-0.173256 0.589585 3.99178
-0.256152 0.579056 3.87983
-0.215051 0.578688 3.96074
-0.107981 0.457775 4.05316
-0.0230702 0.364184 4.10572
-0.0177439 0.339775 4.09631
-0.0471799 0.35409 4.09363
-0.0615202 0.341789 4.07975
-0.0337465 0.336171 4.0884
-0.0462194 0.331321 4.07549
-0.0898749 0.303712 4.04952
-0.0150281 0.430318 4.15677
-0.0181443 0.454431 4.16358
-0.200958 0.640484 4.00309
-0.0649523 0.518739 4.05238
-0.06174 0.439201 4.0995
-0.0636001 0.452881 4.0928
-0.176125 0.461018 4.02395
-0.0173298 0.486292 4.14831
-0.149367 0.666057 4.0448
-0.180104 0.657982 4.02501
-0.224332 0.719563 3.92316
-0.0488178 0.645947 4.06463
-0.0805187 0.616123 4.02568
-0.105403 0.325794 4.0434
-0.227636 0.3625 3.83426
-0.0455444 0.426456 4.09105
-0.0286608 0.420022 4.09493
-0.0768307 0.322643 4.04712
-0.0642107 0.324398 4.05423
-0.19281 0.673996 4.01269
-0.0607996 0.429175 4.08743
-0.107322 0.664333 4.05887
-0.111634 0.682782 4.0623
-0.133401 0.768345 4.01225
-0.208379 0.696363 3.97488
-0.120623 0.725599 4.03904
-0.215197 0.652123 3.98125
-0.230759 0.664579 3.93396
-0.0209443 0.350494 4.10391
-0.0400214 0.343408 4.09243
-0.0540937 0.336032 4.07999
-0.0397779 0.422913 4.08656
-0.0702041 0.32273 4.05092
-0.0640505 0.317837 4.06518
-0.0615383 0.32675 4.05484
-0.0365452 0.432179 4.1216
-0.0405891 0.332161 4.07206
-0.028832 0.334385 4.07991
-0.0145014 0.335179 4.0867
-0.0258081 0.263518 4.06114
-0.0243447 0.282619 4.08508
-0.0229227 0.296407 4.08916
-0.020798 0.310596 4.085
-0.018369 0.320096 4.08141
-0.0461095 0.322435 4.06885
-0.0498139 0.318379 4.07323
-0.0555243 0.311367 4.07761
-0.0612493 0.303632 4.07429
-0.0829089 0.368626 4.07164
-0.255911 0.48345 3.79168
0.00209308 0.415612 4.11748
-0.0534132 0.323565 4.06092
-0.0582008 0.321233 4.06419
-0.0225121 0.410325 4.09611
-0.0539066 0.416214 4.07198
-0.0255198 0.414814 4.09571
-0.0884954 0.504453 4.04567
-0.125788 0.488562 4.03954
-0.0662713 0.442941 4.08024
-0.18907 0.749404 3.9716
-0.174186 0.717953 4.01005
-0.158288 0.684651 4.03956
-0.0741622 0.288201 4.05792
-0.0563235 0.676555 4.07287
-0.0634538 0.724823 4.05566
-0.0720106 0.776431 4.03621
-0.161344 0.564084 4.00598
-0.213474 0.541986 3.97404
-0.0657968 0.573885 4.01767
-0.191041 0.606777 3.99347
-0.049486 0.534891 4.05976
-0.0506176 0.446876 4.12178
-0.237068 0.527726 3.94935
-0.197803 0.522407 3.99657
-0.167862 0.511667 4.01927
-0.12402 0.515585 4.02887
-0.0918074 0.525885 4.03363
-0.0675872 0.537646 4.03876
-0.0193865 0.566648 4.08052
-0.231074 0.47585 3.95899
-0.209323 0.612151 3.98076
-0.00750375 0.418888 4.14537
-0.060572 0.493851 4.0633
-0.263724 0.586562 3.80019
-0.0502505 0.551465 4.0406
-0.0691075 0.443016 4.05859
-0.180315 0.589142 3.98722
-0.0513683 0.46359 4.11289
-0.247069 0.424957 3.80638
-0.0656151 0.584247 4.01076
-0.0353234 0.477611 4.13493
-0.176828 0.292658 3.96158
-0.177974 0.27086 3.91972
-0.254944 0.479137 3.87574
-0.203804 0.328106 3.931
-0.244881 0.62545 3.89982
-0.0864971 0.21048 4.02814
-0.00625641 0.416462 4.11617
-0.0798928 0.476048 4.05625
-0.234342 0.575954 3.93715
-0.14247 0.573013 4.01436
-0.122091 0.570407 4.01966
-0.070485 0.313686 4.06151
-0.22299 0.428908 3.95623
-0.046797 0.175052 4.02051
-0.116192 0.213955 3.97765
-0.145344 0.237311 3.95294
0.00142433 0.724159 4.05971
0.0034115 0.167682 4.0262
-0.102157 0.571935 4.02034
-0.0839375 0.576909 4.01653
-0.0720574 0.580827 4.01103
-0.225978 0.6184 3.95615
-0.0846002 0.599685 4.02027
-0.104049 0.605881 4.02405
-0.12469 0.607501 4.02324
-0.145523 0.603765 4.01767
-0.158728 0.597519 4.01036
-0.259801 0.639092 3.83368
-0.156092 0.577547 4.00666
0.00159314 0.39639 4.0983
-0.0646654 0.383046 4.07908
-0.0466195 0.42952 4.09932
-0.0262212 0.392854 4.09667
0.0030784 0.606517 4.07119
-0.147848 0.260785 3.98471
-0.118582 0.236005 4.00561
-0.0461397 0.19058 4.04803
-0.203626 0.310332 3.87473
-0.0714812 0.590629 4.0141
-0.0337596 0.52675 4.09108
0.00320721 0.183675 4.05226
-0.0844968 0.191962 4.00327
-0.24495 0.426321 3.8834
-0.0340654 0.321569 4.07548
-0.0376826 0.314646 4.08
-0.0417606 0.303944 4.08428
-0.0456197 0.291451 4.08113
-0.0528909 0.273753 4.06279
-0.0562151 0.327253 4.06385
-0.0643835 0.328578 4.06421
-0.0717265 0.331876 4.06389
-0.0971451 0.348661 4.05836
-0.189483 0.41179 4.0037
-0.0344056 0.552719 4.06858
-0.047621 0.602368 4.02837
-0.0612765 0.598584 4.01824
-0.0510009 0.330622 4.0622
-0.191479 0.357447 3.97338
-0.0273652 0.602997 4.05682
-0.0668121 0.25476 4.04992
0.00342155 0.517348 4.13298
-0.0183559 0.538749 4.10501
0.00308547 0.543982 4.11041
-0.047191 0.487253 4.09256
0.0029013 0.208182 4.06277
0.00200479 0.237322 4.06041
-0.0331463 0.240701 4.05772
-0.115966 0.297769 4.03515
-0.0884062 0.424729 4.05463
-0.0942416 0.273333 4.04304
-0.141161 0.429619 4.04653
-0.108731 0.401214 4.05519
-0.157247 0.391669 4.03217
-0.041199 0.214083 4.05782
-0.0583046 0.473651 4.07697
-0.138509 0.283492 4.01209
-0.109905 0.25746 4.02496
-0.132462 0.326581 4.03143
-0.214981 0.389116 3.95112
-0.162652 0.326769 4.00732
-0.229771 0.376375 3.89727
-0.123469 0.368843 4.04734
-0.0470743 0.510771 4.07618
-0.0431562 0.435531 4.12621
-0.0549733 0.431001 4.10254
-0.036045 0.451822 4.14301
-0.0665979 0.625203 4.03559
-0.103952 0.639089 4.0396
-0.136334 0.640974 4.03768
-0.16309 0.636453 4.02789
-0.181582 0.625485 4.01276
-0.194829 0.583691 3.97758
-0.259086 0.529765 3.87689
-0.177686 0.547087 3.99891
-0.154069 0.539121 4.0132
-0.123552 0.538549 4.02309
-0.0941002 0.544122 4.02766
-0.0716874 0.553001 4.02702
-0.0563003 0.561802 4.02823
-0.260098 0.536028 3.78749
-0.053348 0.425499 4.09118
-0.0335734 0.503308 4.10981
-0.0296582 0.433946 4.14503
-0.0172716 0.423073 4.13649
-0.0287831 0.430575 4.13387
-0.0468997 0.419262 4.08409
-0.0139015 0.420602 4.14264
-0.0124928 0.417904 4.11608
-0.0571202 0.582917 4.01475
-0.0438523 0.576076 4.02965
-0.036479 0.571283 4.04583
-0.166572 0.593079 4.00221
-0.178432 0.603665 4.00168
0.0232741 0.514101 4.12545
0.178353 0.587138 3.99751
0.0220983 0.421396 4.11585
0.260568 0.686411 3.87739
0.110597 0.561646 4.02466
0.134656 0.560007 4.02223
0.15722 0.56189 4.01495
0.18697 0.578349 3.99475
0.0894757 0.56848 4.02131
0.141137 0.63259 4.03143
0.114258 0.629687 4.0312
0.165912 0.62957 4.02303
0.182611 0.620553 4.01306
0.205033 0.562 3.98265
0.0899542 0.230361 4.03766
0.186266 0.595353 3.98944
0.272287 0.582989 3.87701
0.230596 0.582994 3.95727
0.119497 0.458155 4.04972
0.0265655 0.364245 4.10598
0.0208378 0.339756 4.09676
0.0520656 0.353501 4.09435
0.0663234 0.341009 4.0814
0.0384342 0.335589 4.09032
0.0506693 0.330774 4.07783
0.0969448 0.301955 4.04834
0.0220191 0.430644 4.15589
0.0254609 0.454746 4.16263
0.217646 0.648627 4.00028
0.0750103 0.51944 4.05173
0.0704248 0.439465 4.09907
0.0729995 0.453033 4.09223
0.192097 0.461507 4.0201
0.0244717 0.486425 4.14844
0.162023 0.67429 4.04007
0.194796 0.666524 4.0208
0.236966 0.726536 3.92151
0.0561116 0.648631 4.06249
0.0909866 0.619751 4.02511
0.111638 0.32417 4.04295
0.245376 0.360069 3.83182
0.0521828 0.426699 4.09099
0.0342986 0.420151 4.0932
0.0794025 0.32134 4.05033
0.0687578 0.323377 4.05706
0.207601 0.683043 4.00829
0.0694648 0.429065 4.08675
0.117228 0.670551 4.05447
0.12133 0.689291 4.05782
0.140091 0.77366 4.01029
0.222798 0.704168 3.97156
0.128126 0.731429 4.03637
0.231067 0.660033 3.97823
0.245887 0.671287 3.93143
0.0242461 0.350486 4.10439
0.0445594 0.342842 4.09398
0.058781 0.335517 4.08189
0.0457735 0.423118 4.0857
0.0733904 0.321632 4.05374
0.068377 0.317088 4.06625
0.0672689 0.325573 4.05785
0.0442544 0.432615 4.12254
0.0461685 0.331757 4.07464
0.0335543 0.334006 4.08197
0.0180117 0.335227 4.08797
0.0302611 0.262952 4.05946
0.0274504 0.282289 4.08454
0.0254349 0.296255 4.08927
0.0224843 0.310368 4.08554
0.0202814 0.319827 4.08214
0.0504708 0.32203 4.07042
0.0544991 0.317882 4.07399
0.0606242 0.310799 4.07746
0.0663746 0.303038 4.07364
0.0905379 0.368115 4.07079
0.269866 0.484245 3.78967
0.0584378 0.322696 4.06341
0.0626753 0.320463 4.06598
0.0275132 0.410343 4.09547
0.0602314 0.415929 4.07033
0.0307519 0.414895 4.0946
0.0997604 0.505265 4.04434
0.13839 0.489379 4.0364
0.0753159 0.442841 4.07954
0.199643 0.756326 3.96891
0.186172 0.725666 4.00591
0.170369 0.69335 4.03486
0.0820422 0.286498 4.05669
0.0637662 0.680085 4.0702
0.0685997 0.727844 4.05376
0.0757809 0.779428 4.03432
0.176386 0.567772 4.00423
0.229833 0.544598 3.96991
0.0755262 0.57592 4.01797
0.206724 0.613008 3.99118
0.0586341 0.535472 4.05975
0.0593825 0.447303 4.12125
0.254751 0.530021 3.94563
0.213863 0.524349 3.99309
0.182644 0.513074 4.01581
0.136522 0.516888 4.02666
0.103113 0.527081 4.03216
0.0779453 0.538544 4.03819
0.025891 0.567093 4.08051
0.248672 0.476561 3.95598
0.225839 0.618201 3.9786
0.0147037 0.41893 4.14536
0.0700386 0.494232 4.06325
0.27629 0.590157 3.79841
0.058714 0.552362 4.04076
0.0764788 0.44303 4.05701
0.194434 0.594826 3.98507
0.060869 0.464094 4.11233
0.262833 0.424246 3.80369
0.0750252 0.586323 4.01193
0.04398 0.477933 4.13461
0.192973 0.288689 3.95707
0.195961 0.265916 3.91594
0.27083 0.479986 3.87259
0.221332 0.325086 3.92708
0.25946 0.630746 3.89717
0.0977998 0.206611 4.02484
0.0103613 0.416681 4.11586
0.0905226 0.476486 4.05459
0.250669 0.580027 3.9338
0.155488 0.576826 4.01251
0.135074 0.574006 4.01876
0.0750026 0.312759 4.06268
0.240604 0.428535 3.95264
0.0551246 0.172395 4.01889
0.129439 0.208417 3.97479
0.160964 0.231754 3.94952
0.114535 0.575176 4.01987
0.0950188 0.579491 4.01676
0.0815966 0.583072 4.01189
0.242431 0.624458 3.95356
0.096489 0.602532 4.0208
0.117527 0.609707 4.02349
0.138399 0.6122 4.02206
0.159512 0.609329 4.01578
0.17274 0.603382 4.00793
0.272478 0.643978 3.83157
0.169046 0.581712 4.00459
0.0716774 0.382426 4.07798
0.0536093 0.430147 4.09812
0.0305901 0.392778 4.09628
0.162511 0.256003 3.97978
0.131829 0.231027 4.00111
0.05534 0.188192 4.04591
0.221881 0.306353 3.87241
0.0814923 0.592753 4.01568
0.0414846 0.527013 4.09102
0.095214 0.187537 4.00124
0.262006 0.425802 3.87976
0.0371931 0.321145 4.07695
0.041029 0.314392 4.08067
0.0458608 0.303517 4.08432
0.049925 0.290814 4.08065
0.0597616 0.272299 4.06171
0.060845 0.326468 4.06714
0.0683084 0.327641 4.06725
0.0759322 0.330896 4.06675
0.103925 0.347569 4.05858
0.206349 0.411468 3.99944
0.0419495 0.553314 4.0687
0.0549765 0.604087 4.02793
0.0699135 0.600741 4.0191
0.0564071 0.329911 4.06544
0.207316 0.355755 3.96937
0.0341778 0.603982 4.05619
0.0761328 0.252427 4.04698
0.0249801 0.539121 4.10459
0.0557662 0.48768 4.09177
0.0396345 0.23949 4.05615
0.126572 0.29513 4.03116
0.0970063 0.424541 4.05223
0.104902 0.270459 4.03908
0.154626 0.429779 4.04153
0.118712 0.400797 4.05218
0.171798 0.391055 4.02723
0.0496026 0.212364 4.05612
0.0677868 0.473922 4.07628
0.151393 0.279801 4.00726
0.121509 0.253565 4.0201
0.142817 0.324566 4.02849
0.232261 0.387836 3.94725
0.177154 0.32436 4.00256
0.247485 0.3745 3.89391
0.133504 0.367887 4.04453
0.0555626 0.511147 4.07622
0.0517059 0.435951 4.12614
0.0632009 0.431377 4.1016
0.0439103 0.452059 4.14258
0.0750905 0.62806 4.035
0.11457 0.64432 4.03728
0.149089 0.647818 4.03463
0.177485 0.643833 4.0251
0.197242 0.632937 4.01005
0.210159 0.588704 3.9748
0.27543 0.532051 3.87423
0.192795 0.550117 3.99581
0.168206 0.541335 4.01039
0.136629 0.54064 4.02117
0.106472 0.545936 4.02671
0.0824048 0.554571 4.02631
0.0656225 0.563142 4.02807
0.273025 0.538264 3.78593
0.0609905 0.425694 4.09021
0.0408254 0.503565 4.10997
0.0372767 0.43427 4.14446
0.0252501 0.423317 4.13565
0.0366729 0.430955 4.13334
0.0540024 0.419093 4.08275
0.0216144 0.420712 4.14191
0.0175664 0.417948 4.11551
0.0656574 0.584817 4.01514
0.0520142 0.577266 4.02957
0.0441491 0.572138 4.0455
0.180196 0.599087 3.99939
0.193868 0.610245 3.99902
