ply
format ascii 1.0
comment Created by Open3D
element vertex 468
property double x
property double y
property double z
end_header
-0.00204585 0.33891 3.83538
-0.00204572 0.438984 3.90223
-0.00280018 0.402544 3.83695
-0.0237655 0.5247 3.86496
-0.00221539 0.467911 3.90943
-0.00231584 0.503464 3.89777
-0.00240924 0.582817 3.82898
-0.179008 0.576268 3.72682
-0.00240057 0.641826 3.81147
-0.0022109 0.67879 3.81673
-0.000816953 0.816622 3.78701
-0.00194306 0.325465 3.83219
-0.00187424 0.316611 3.82404
-0.00181913 0.313772 3.81239
-0.000649079 0.310457 3.8119
-0.000628798 0.301237 3.81686
-0.000620785 0.289543 3.82385
-0.000641356 0.274265 3.82291
-0.000862977 0.243828 3.80302
-0.00243371 0.423897 3.88994
-0.0265722 0.421646 3.85374
-0.269733 0.661621 3.61111
-0.105376 0.557863 3.75257
-0.130446 0.555601 3.75105
-0.155066 0.555772 3.74444
-0.188866 0.566107 3.72248
-0.0847776 0.563551 3.75006
-0.141349 0.617437 3.76089
-0.115221 0.616368 3.761
-0.165411 0.612682 3.75247
-0.181631 0.603639 3.74267
-0.209684 0.547495 3.71022
-0.0960285 0.19444 3.76772
-0.18865 0.580553 3.71871
-0.281917 0.541571 3.59908
-0.237895 0.559804 3.68578
-0.13151 0.450804 3.77829
-0.0368544 0.344092 3.83211
-0.0339142 0.31801 3.81959
-0.0726712 0.339139 3.8148
-0.0965861 0.331261 3.79223
-0.0604048 0.318801 3.8071
-0.0815733 0.317421 3.78582
-0.125615 0.290321 3.74991
-0.0236554 0.439938 3.89996
-0.0266709 0.467547 3.90658
-0.223027 0.631992 3.73738
-0.0775628 0.517555 3.78094
-0.0857512 0.443057 3.83538
-0.0868573 0.456633 3.82647
-0.20794 0.45136 3.74448
-0.0253239 0.499639 3.89036
-0.163516 0.664219 3.78043
-0.198643 0.653688 3.76155
-0.246245 0.717601 3.66036
-0.0537854 0.644961 3.80367
-0.0920238 0.608317 3.75346
-0.147811 0.316084 3.74291
-0.254766 0.280096 3.52887
-0.0674181 0.426368 3.82628
-0.0452432 0.416554 3.82892
-0.124841 0.317172 3.74294
-0.113428 0.317642 3.74949
-0.213031 0.670915 3.74936
-0.0874733 0.430722 3.82113
-0.115896 0.66301 3.79498
-0.120981 0.687681 3.80018
-0.14682 0.796996 3.7548
-0.229075 0.696635 3.71007
-0.131186 0.745461 3.77868
-0.238409 0.641826 3.71636
-0.253984 0.651109 3.66682
-0.0358468 0.328536 3.8288
-0.0655725 0.326553 3.81183
-0.0887576 0.324263 3.7909
-0.0611038 0.420702 3.82151
-0.119269 0.31759 3.74646
-0.104685 0.311837 3.76315
-0.109926 0.3178 3.75049
-0.0522023 0.43819 3.86276
-0.0770502 0.319148 3.78095
-0.0556018 0.317347 3.79612
-0.0308673 0.315289 3.80807
-0.0370883 0.244375 3.80008
-0.0349976 0.276369 3.81937
-0.0337416 0.292385 3.81983
-0.0323856 0.303755 3.81243
-0.0303887 0.311282 3.80759
-0.0789365 0.314154 3.78007
-0.0825524 0.312455 3.78413
-0.0874101 0.306659 3.78726
-0.0914344 0.296832 3.78279
-0.116361 0.358654 3.78379
-0.280629 0.405564 3.49371
-0.00264034 0.412985 3.85534
-0.093129 0.314163 3.7626
-0.0987409 0.314425 3.76416
-0.0361562 0.403407 3.82973
-0.0790069 0.411743 3.80279
-0.0404568 0.409869 3.83042
-0.104192 0.501801 3.77156
-0.146428 0.483961 3.76484
-0.091615 0.443699 3.8119
-0.207635 0.764146 3.7104
-0.190231 0.729127 3.74569
-0.172806 0.687147 3.77578
-0.101951 0.271661 3.76697
-0.0622257 0.683035 3.81297
-0.0705687 0.750609 3.79751
-0.0799969 0.813208 3.7804
-0.176571 0.558727 3.73338
-0.237201 0.526715 3.69639
-0.0721872 0.569245 3.74701
-0.2102 0.59551 3.72172
-0.0594576 0.535307 3.79018
-0.0686706 0.45453 3.86086
-0.26348 0.503671 3.66794
-0.220116 0.512513 3.71848
-0.18756 0.50657 3.74121
-0.139106 0.511363 3.75322
-0.103239 0.522366 3.7585
-0.0772693 0.535363 3.76615
-0.0260617 0.574015 3.81916
-0.262561 0.44955 3.67457
-0.231755 0.598323 3.71091
-0.0152116 0.42496 3.88818
-0.0769829 0.492429 3.79199
-0.287011 0.530613 3.51585
-0.0581261 0.549459 3.77058
-0.0940851 0.438549 3.7853
-0.196299 0.577679 3.71382
-0.0696892 0.47105 3.85003
-0.27238 0.342658 3.50474
-0.0732816 0.57765 3.74126
-0.047728 0.488559 3.87478
-0.203786 0.241098 3.6643
-0.19741 0.20319 3.62045
-0.282839 0.425338 3.58472
-0.236727 0.270991 3.63239
-0.268481 0.599326 3.6261
-0.0986278 0.164985 3.7536
-0.012877 0.413983 3.85332
-0.100238 0.472603 3.78266
-0.259267 0.55095 3.66097
-0.152776 0.571117 3.7416
-0.130436 0.570185 3.74807
-0.110591 0.306605 3.75902
-0.260134 0.393567 3.66559
-0.0515511 0.12946 3.74922
-0.125082 0.155561 3.69422
-0.157762 0.174867 3.66163
-0.00132522 0.750444 3.80331
-0.00121897 0.126293 3.75731
-0.109476 0.571889 3.74903
-0.0899651 0.575132 3.74577
-0.0783801 0.576189 3.74144
-0.249942 0.600705 3.68569
-0.0952022 0.59613 3.74944
-0.117051 0.603073 3.7537
-0.138717 0.603925 3.7524
-0.160381 0.599048 3.74629
-0.174286 0.591511 3.73826
-0.282343 0.60166 3.55789
-0.16815 0.573528 3.73366
-0.00241817 0.38109 3.83061
-0.0912359 0.374062 3.80145
-0.0676119 0.431358 3.83665
-0.0392552 0.380571 3.82793
-0.00236767 0.612462 3.81033
-0.167143 0.210171 3.69086
-0.133778 0.187031 3.72039
-0.0544486 0.151205 3.7814
-0.228561 0.234515 3.57237
-0.0801347 0.585386 3.74486
-0.0430413 0.531919 3.82656
-0.00130116 0.148713 3.78795
-0.0909648 0.140146 3.72754
-0.275526 0.366534 3.58827
-0.0567619 0.312892 3.79542
-0.0601591 0.30789 3.80028
-0.0631696 0.298859 3.80472
-0.0658078 0.284219 3.8023
-0.0731878 0.255742 3.78624
-0.101346 0.318074 3.76657
-0.108712 0.320864 3.76617
-0.115681 0.325215 3.76654
-0.138451 0.339607 3.76308
-0.230437 0.388442 3.71778
-0.0422148 0.555817 3.80272
-0.0543709 0.597623 3.75882
-0.069677 0.591992 3.74978
-0.0953444 0.320141 3.76337
-0.231212 0.318064 3.67967
-0.0338568 0.604621 3.7923
-0.0855185 0.225446 3.77592
-0.00236144 0.530326 3.87357
-0.0253835 0.548409 3.84524
-0.00237982 0.555203 3.85087
-0.061811 0.490539 3.82682
-0.00153062 0.178153 3.80282
-0.00133742 0.212982 3.80272
-0.0448624 0.213169 3.79624
-0.144856 0.273808 3.73808
-0.11481 0.416614 3.77934
-0.117011 0.245592 3.75513
-0.174776 0.418753 3.76796
-0.140031 0.389657 3.77212
-0.197763 0.373757 3.7462
-0.0525604 0.17925 3.79527
-0.0777182 0.47435 3.80792
-0.162736 0.246582 3.71705
-0.129092 0.218245 3.73827
-0.168469 0.307326 3.73465
-0.253476 0.34604 3.65659
-0.198086 0.29621 3.71216
-0.262231 0.313971 3.59845
-0.162982 0.357115 3.75855
-0.0594268 0.512162 3.80776
-0.0604781 0.443356 3.8678
-0.0782052 0.434253 3.83875
-0.0487739 0.462193 3.88513
-0.074104 0.618074 3.76652
-0.114542 0.631311 3.77093
-0.149476 0.633997 3.76851
-0.178848 0.629614 3.7579
-0.199466 0.617356 3.74249
-0.214266 0.569857 3.70401
-0.285664 0.483636 3.59016
-0.195247 0.538455 3.72273
-0.168838 0.533422 3.73832
-0.135102 0.53476 3.74849
-0.103541 0.541036 3.75259
-0.0794464 0.549616 3.75448
-0.0632905 0.558121 3.75599
-0.284133 0.467157 3.49663
-0.0779825 0.426595 3.82618
-0.0435495 0.510197 3.84691
-0.0416702 0.443181 3.8876
-0.0276459 0.428976 3.87725
-0.0418735 0.437847 3.8752
-0.0710426 0.417314 3.81747
-0.0230232 0.426761 3.88415
-0.0208363 0.416659 3.85358
-0.0645466 0.576018 3.74514
-0.0508345 0.572577 3.76024
-0.0437186 0.570775 3.77835
-0.182479 0.585683 3.72992
-0.1948 0.593276 3.72811
0.0190891 0.524744 3.86495
0.175328 0.57686 3.72661
0.0215414 0.421829 3.85358
0.269398 0.66124 3.61033
0.101641 0.558539 3.75274
0.127056 0.556317 3.75112
0.151718 0.556398 3.74464
0.185042 0.566635 3.72265
0.0808107 0.564126 3.75033
0.137567 0.617877 3.76074
0.111393 0.616944 3.76107
0.161714 0.612942 3.75246
0.1778 0.603694 3.74257
0.206239 0.547872 3.71055
0.0919992 0.194145 3.76734
0.184633 0.580998 3.71849
0.279781 0.541785 3.59845
0.234822 0.560178 3.68581
0.128116 0.451045 3.77873
0.0327018 0.344466 3.83183
0.0300957 0.318367 3.81952
0.0686137 0.339864 3.81479
0.0926626 0.332264 3.79207
0.0568133 0.319448 3.80711
0.0781304 0.318325 3.78565
0.121704 0.290851 3.74951
0.0192016 0.44013 3.89987
0.02218 0.467791 3.90651
0.220128 0.631616 3.73721
0.073823 0.517824 3.78132
0.0809554 0.443294 3.83528
0.0821864 0.456818 3.82653
0.204777 0.451806 3.74486
0.0207601 0.499688 3.89012
0.160009 0.664342 3.77993
0.195643 0.653357 3.76114
0.246063 0.717387 3.6596
0.0492707 0.645213 3.8034
0.0882755 0.608763 3.7536
0.143476 0.316715 3.74253
0.250529 0.279732 3.52797
0.0628165 0.426669 3.82612
0.040443 0.41666 3.82879
0.121114 0.318028 3.74244
0.110077 0.318736 3.74926
0.210681 0.670497 3.74873
0.082647 0.430881 3.82126
0.11172 0.663353 3.7946
0.117082 0.688169 3.79961
0.145073 0.796997 3.7544
0.22793 0.69654 3.70964
0.128647 0.745585 3.77816
0.236223 0.641483 3.71601
0.253155 0.65084 3.66664
0.0319042 0.328839 3.82872
0.0617474 0.32723 3.81189
0.0852232 0.325165 3.79065
0.0565076 0.420909 3.82145
0.115569 0.318683 3.74609
0.101706 0.312711 3.76302
0.106555 0.318822 3.75029
0.047666 0.438632 3.86265
0.0737043 0.320147 3.78087
0.0520943 0.317947 3.79617
0.0273028 0.315625 3.80813
0.0348606 0.244439 3.79991
0.0333341 0.276672 3.81928
0.0322931 0.292597 3.81987
0.0307575 0.303893 3.8124
0.0286015 0.311486 3.80752
0.0767081 0.314929 3.78011
0.0802413 0.313119 3.7841
0.0848782 0.307239 3.7871
0.0887451 0.297427 3.78242
0.112197 0.359166 3.78368
0.277318 0.405387 3.49238
0.0904714 0.314965 3.76225
0.0960242 0.315246 3.7642
0.0311743 0.403594 3.82974
0.0743534 0.411898 3.80295
0.0355126 0.410127 3.83039
0.100788 0.502064 3.77203
0.143453 0.484301 3.76548
0.0869477 0.443795 3.81225
0.206507 0.764246 3.71013
0.188365 0.729285 3.74525
0.169606 0.687179 3.77523
0.0986119 0.27207 3.76658
0.0581814 0.683291 3.81251
0.0677735 0.750615 3.79711
0.0782551 0.813149 3.78023
0.17303 0.559285 3.73336
0.234004 0.527171 3.69637
0.068189 0.569704 3.74705
0.206887 0.595529 3.72184
0.0556346 0.535646 3.79056
0.0639479 0.45485 3.86088
0.260462 0.504013 3.66792
0.216727 0.513003 3.71861
0.184561 0.507099 3.74191
0.136044 0.511798 3.75366
0.099775 0.522752 3.75913
0.0736295 0.535613 3.76646
0.0216992 0.574233 3.81921
0.259173 0.449969 3.67438
0.228809 0.598338 3.71066
0.0103812 0.425083 3.88798
0.0731852 0.492543 3.79239
0.285107 0.530554 3.51483
0.0542671 0.549758 3.77092
0.0896414 0.438783 3.78556
0.192317 0.5779 3.71356
0.0650152 0.471302 3.85023
0.268653 0.34211 3.50344
0.0693797 0.578084 3.74099
0.0430025 0.488793 3.87488
0.199169 0.240981 3.66394
0.193031 0.202856 3.61972
0.279517 0.425286 3.58396
0.232245 0.270971 3.63177
0.266992 0.599491 3.62553
0.0949791 0.1647 3.75325
0.00759428 0.414028 3.85334
0.0965581 0.472838 3.78309
0.25629 0.551275 3.66065
0.149314 0.571823 3.7414
0.126981 0.570928 3.74782
0.107287 0.30743 3.75852
0.256535 0.393976 3.66547
0.0486705 0.129199 3.74899
0.121255 0.155051 3.69366
0.153693 0.17416 3.66098
0.105838 0.57266 3.74909
0.0861847 0.575872 3.74574
0.074564 0.576755 3.74128
0.247465 0.600802 3.68536
0.0916373 0.596593 3.74934
0.113496 0.603532 3.7538
0.134993 0.604228 3.75237
0.156541 0.599241 3.74622
0.170307 0.591915 3.7384
0.281267 0.601298 3.55678
0.164617 0.574128 3.73346
0.0867319 0.374256 3.80147
0.063052 0.431842 3.83679
0.0346458 0.380779 3.82777
0.162604 0.209872 3.69051
0.129361 0.186566 3.71986
0.0512203 0.151011 3.78136
0.224218 0.234188 3.57141
0.0762101 0.585871 3.74488
0.0388448 0.532008 3.82669
0.0877742 0.139784 3.7273
0.271664 0.366566 3.58753
0.0547497 0.313406 3.79547
0.0582962 0.308382 3.80027
0.0613621 0.299231 3.80469
0.0636586 0.284712 3.80222
0.0704964 0.256006 3.78585
0.0980652 0.319079 3.76626
0.105057 0.321797 3.76591
0.111984 0.326221 3.76613
0.134221 0.340338 3.76294
0.226692 0.388958 3.71776
0.0380659 0.555969 3.80277
0.0501636 0.597936 3.75887
0.0656052 0.592443 3.74995
0.0921073 0.321057 3.76321
0.226865 0.318259 3.67915
0.0293296 0.604744 3.79252
0.0816158 0.225505 3.77545
0.0208219 0.548546 3.84536
0.0575031 0.490781 3.82716
0.0417377 0.213125 3.79603
0.140101 0.273978 3.73788
0.110792 0.416806 3.77966
0.112575 0.245562 3.75469
0.171472 0.419134 3.76823
0.136296 0.389935 3.77224
0.194031 0.374183 3.74646
0.0490647 0.179102 3.79489
0.0734601 0.474494 3.80832
0.157928 0.246645 3.71681
0.12451 0.218007 3.73795
0.163886 0.307945 3.73437
0.249506 0.346321 3.6562
0.193278 0.296539 3.71184
0.258178 0.314089 3.5978
0.15884 0.357626 3.75868
0.0554254 0.512208 3.80797
0.0558726 0.443903 3.86782
0.0735114 0.434641 3.83888
0.0442242 0.462427 3.88514
0.0698742 0.618436 3.7666
0.110522 0.631852 3.77069
0.145751 0.634371 3.76845
0.175318 0.629404 3.75765
0.19601 0.61707 3.74229
0.210802 0.570104 3.70399
0.282865 0.483692 3.58958
0.191912 0.538936 3.72329
0.165779 0.533878 3.73862
0.131857 0.535178 3.74881
0.0998498 0.54153 3.75287
0.075826 0.55006 3.75464
0.0595177 0.558537 3.75628
0.281289 0.467075 3.49532
0.0730843 0.426743 3.82634
0.0391296 0.510236 3.84704
0.0372312 0.443613 3.88741
0.0226893 0.429227 3.87722
0.0371622 0.43832 3.87526
0.0662882 0.417415 3.8178
0.0181841 0.426952 3.88409
0.0158068 0.416901 3.85366
0.0606583 0.576486 3.74526
0.0467475 0.572907 3.76041
0.0396581 0.571024 3.77834
0.178458 0.586071 3.72993
0.190905 0.593466 3.72811
