ply
format ascii 1.0
comment Created by Open3D
element vertex 468
property double x
property double y
property double z
end_header
0.0301456 0.34696 3.91224
0.0296558 0.435748 3.97061
0.0308071 0.409855 3.90981
0.00784695 0.521661 3.93613
0.02933 0.46213 3.97865
0.0285052 0.496891 3.96807
0.0301682 0.579909 3.89972
-0.143821 0.58384 3.80185
0.0306725 0.63541 3.88211
0.0308872 0.667156 3.88545
0.0324462 0.776686 3.85293
0.0301794 0.334412 3.90868
0.029947 0.325456 3.9003
0.029529 0.322081 3.88934
0.0305467 0.315605 3.88724
0.0303546 0.305368 3.89185
0.0294188 0.292079 3.89754
0.028599 0.277469 3.89491
0.0276376 0.249637 3.87274
0.028962 0.422218 3.958
0.00593774 0.424229 3.92387
-0.241028 0.669817 3.68107
-0.0742933 0.564409 3.8278
-0.0993547 0.561525 3.82576
-0.123486 0.561499 3.81883
-0.154861 0.573674 3.79849
-0.052342 0.571853 3.8252
-0.108637 0.620317 3.83626
-0.0822897 0.620494 3.83463
-0.132219 0.616245 3.82865
-0.148125 0.608332 3.81807
-0.176564 0.555522 3.78563
-0.0738098 0.202293 3.84014
-0.152754 0.589245 3.79422
-0.253602 0.564256 3.67452
-0.206184 0.571002 3.75951
-0.0952408 0.455789 3.85142
-0.0010247 0.350342 3.90822
0.00374114 0.324975 3.89654
-0.0333053 0.340915 3.89363
-0.0530511 0.328989 3.87594
-0.0198276 0.322249 3.88698
-0.0369802 0.318448 3.87086
-0.0877046 0.288589 3.83917
0.00772861 0.436108 3.96717
0.00401479 0.461435 3.97438
-0.190213 0.631808 3.80982
-0.0449915 0.522292 3.85558
-0.0514503 0.44297 3.90489
-0.0530822 0.456752 3.8971
-0.169985 0.456729 3.82048
0.00566423 0.493998 3.96015
-0.130301 0.659329 3.85169
-0.16513 0.649548 3.83322
-0.215161 0.712964 3.72859
-0.0200524 0.642039 3.87394
-0.0578978 0.615111 3.82778
-0.105864 0.311358 3.8324
-0.241588 0.321259 3.61605
-0.0316948 0.42922 3.89567
-0.0108783 0.421391 3.89895
-0.0743078 0.310484 3.83782
-0.0638862 0.312895 3.84429
-0.179783 0.665249 3.81957
-0.0521819 0.431419 3.89106
-0.0823457 0.658918 3.86501
-0.0879095 0.678439 3.86881
-0.111937 0.767378 3.82118
-0.19774 0.689726 3.77999
-0.0971508 0.724576 3.84635
-0.205582 0.642212 3.78747
-0.223203 0.654503 3.73675
0.000805941 0.334991 3.90529
-0.025321 0.328964 3.89175
-0.0446278 0.322822 3.87561
-0.0251046 0.424636 3.89101
-0.0683619 0.311054 3.84102
-0.0594413 0.308379 3.85653
-0.0622869 0.314662 3.8452
-0.0191842 0.43732 3.93161
-0.0332296 0.320129 3.86696
-0.0150768 0.321665 3.87776
0.00638051 0.322088 3.8868
-0.00642511 0.249924 3.87037
-0.002925 0.278431 3.89254
6.92609e-06 0.293767 3.89512
0.00321454 0.306931 3.88912
0.00545633 0.315393 3.88472
-0.0365766 0.314553 3.86553
-0.0406031 0.311274 3.8696
-0.0467727 0.304276 3.87308
-0.0521225 0.29545 3.86929
-0.0760283 0.359141 3.86632
-0.257607 0.451418 3.57706
0.0310315 0.417698 3.92663
-0.048905 0.313778 3.85447
-0.0534188 0.312123 3.85687
-0.00210032 0.409185 3.9021
-0.0417879 0.415487 3.87327
-0.00636036 0.414945 3.90097
-0.0708813 0.506481 3.84746
-0.111083 0.487999 3.83991
-0.0565554 0.445053 3.88304
-0.174871 0.746514 3.77805
-0.157705 0.71447 3.81501
-0.139884 0.67852 3.84541
-0.0676352 0.273196 3.85234
-0.0285351 0.673382 3.882
-0.0360001 0.724794 3.86401
-0.0450523 0.775798 3.84544
-0.143552 0.565224 3.80811
-0.204992 0.536384 3.77104
-0.0382918 0.579031 3.82254
-0.177242 0.601258 3.79695
-0.0274714 0.539274 3.86522
-0.0357606 0.452456 3.92944
-0.233656 0.517853 3.74485
-0.187184 0.519166 3.79472
-0.154533 0.510703 3.81747
-0.106281 0.516347 3.82981
-0.0709171 0.528481 3.8352
-0.044974 0.541217 3.84191
0.00659857 0.573366 3.89016
-0.2305 0.464247 3.75312
-0.200096 0.6043 3.78416
0.0157452 0.423274 3.95646
-0.0433145 0.496963 3.86604
-0.258976 0.565285 3.59302
-0.0248277 0.555463 3.84565
-0.056948 0.443561 3.85783
-0.161589 0.587051 3.79
-0.0370769 0.469117 3.91956
-0.255103 0.388114 3.58942
-0.0388 0.58832 3.81626
-0.0167893 0.484255 3.94468
-0.189647 0.258993 3.74513
-0.191899 0.227148 3.7032
-0.255983 0.456434 3.66445
-0.218829 0.295373 3.7144
-0.238027 0.613677 3.69889
-0.0834325 0.171101 3.82629
0.0208374 0.418656 3.92436
-0.0656327 0.476999 3.85634
-0.228759 0.565496 3.73472
-0.119132 0.577674 3.81646
-0.0980668 0.576253 3.82302
-0.0656891 0.303136 3.85211
-0.227678 0.412225 3.74557
-0.0341277 0.131678 3.82244
-0.118519 0.167134 3.77057
-0.153875 0.191585 3.74069
0.0321642 0.722389 3.87032
0.0252838 0.128772 3.8318
-0.0774629 0.57842 3.82416
-0.0575176 0.583152 3.82161
-0.0446902 0.586027 3.81693
-0.218679 0.608691 3.75822
-0.0618818 0.600752 3.8242
-0.0846543 0.604068 3.82803
-0.105375 0.604117 3.82677
-0.125989 0.600283 3.82067
-0.139075 0.595187 3.81265
-0.253494 0.62412 3.63109
-0.13343 0.580664 3.80873
0.0308533 0.390243 3.90486
-0.0540045 0.375972 3.87882
-0.032186 0.433408 3.90437
-0.00472847 0.386634 3.90207
0.0302073 0.608048 3.88072
-0.156213 0.22413 3.77041
-0.122108 0.196615 3.79675
-0.0348956 0.154391 3.85231
-0.219232 0.267234 3.65801
-0.0458969 0.593851 3.81983
-0.0109126 0.532646 3.89825
0.0249526 0.151173 3.86069
-0.0800252 0.145931 3.80155
-0.251989 0.398783 3.66872
-0.017203 0.315654 3.8761
-0.0212822 0.309291 3.88082
-0.0261119 0.299043 3.88551
-0.0304021 0.285284 3.88255
-0.0412475 0.259391 3.86493
-0.0528643 0.315199 3.85673
-0.059855 0.316277 3.85713
-0.0676753 0.31957 3.85681
-0.0946151 0.336709 3.84966
-0.19241 0.399757 3.79466
-0.00969785 0.558115 3.87591
-0.0185304 0.604242 3.8319
-0.0345519 0.600647 3.8239
-0.0482039 0.318898 3.85465
-0.201096 0.33522 3.7594
4.78704e-05 0.604569 3.86362
-0.0581157 0.231771 3.85056
0.0290591 0.525993 3.94427
0.00639403 0.546649 3.91466
0.0297431 0.55248 3.92086
-0.0287005 0.491812 3.89755
0.0252636 0.182932 3.87412
0.0266269 0.219427 3.87321
-0.0166661 0.220015 3.86643
-0.117228 0.277252 3.8225
-0.0779515 0.421593 3.85242
-0.0914 0.250592 3.83569
-0.135066 0.424303 3.84121
-0.101354 0.394351 3.84939
-0.15845 0.38073 3.8219
-0.0282684 0.185336 3.86516
-0.043976 0.476989 3.87996
-0.143351 0.255858 3.79858
-0.109622 0.226675 3.81608
-0.135377 0.309064 3.81872
-0.224265 0.36713 3.73703
-0.171143 0.305297 3.79222
-0.242353 0.344887 3.68114
-0.122393 0.357686 3.83833
-0.0267678 0.515257 3.88129
-0.0277117 0.44123 3.93539
-0.0435043 0.434676 3.90745
-0.0171192 0.45811 3.95339
-0.0387479 0.623318 3.83917
-0.0801016 0.634046 3.84342
-0.115542 0.635019 3.84274
-0.144926 0.630297 3.83337
-0.165666 0.619515 3.81784
-0.181539 0.578946 3.77894
-0.258128 0.511328 3.66871
-0.16228 0.5456 3.79852
-0.137293 0.539148 3.81353
-0.103967 0.540754 3.82444
-0.0719119 0.547843 3.82873
-0.0468143 0.557323 3.82991
-0.0295889 0.566074 3.8318
-0.25767 0.509071 3.57688
-0.0425541 0.427864 3.89537
-0.0112098 0.509442 3.91823
-0.0102852 0.439837 3.95486
0.0029702 0.427526 3.94548
-0.0098764 0.43581 3.94301
-0.0348078 0.41999 3.88703
0.00764659 0.424909 3.95229
0.0119818 0.420371 3.92382
-0.0289504 0.586809 3.81926
-0.0159651 0.579898 3.83408
-0.00972032 0.575206 3.85157
-0.146812 0.591608 3.80462
-0.160727 0.599939 3.80345
0.0505764 0.521923 3.93543
0.198462 0.58525 3.80151
0.0535526 0.425022 3.92563
0.291474 0.666447 3.68112
0.12806 0.565138 3.82441
0.151749 0.562737 3.8234
0.175255 0.563138 3.81734
0.206155 0.575246 3.79794
0.10869 0.572053 3.82307
0.161347 0.619233 3.83483
0.136952 0.619225 3.83461
0.184221 0.615341 3.82768
0.199645 0.607737 3.81799
0.22632 0.55747 3.78744
0.120518 0.208931 3.84633
0.207518 0.590115 3.79389
0.30212 0.565577 3.67672
0.255058 0.572662 3.76293
0.147804 0.458826 3.85516
0.0599881 0.351862 3.90887
0.0540632 0.326328 3.89618
0.0897193 0.344269 3.89424
0.108063 0.333174 3.87592
0.0751988 0.324983 3.88592
0.0922363 0.321786 3.86972
0.138091 0.29437 3.84246
0.0502379 0.436599 3.96916
0.0528781 0.461787 3.97645
0.238407 0.631097 3.8119
0.10046 0.523298 3.85558
0.106601 0.445038 3.90805
0.107392 0.458978 3.90003
0.21608 0.461242 3.82391
0.0515724 0.494254 3.96009
0.183744 0.656746 3.85617
0.21584 0.647968 3.83688
0.267182 0.708563 3.72935
0.0800021 0.640896 3.87478
0.115484 0.613903 3.82683
0.157495 0.317639 3.83475
0.283789 0.331394 3.62106
0.0898351 0.430984 3.89923
0.0702529 0.422459 3.90411
0.130042 0.315248 3.83604
0.117391 0.317259 3.84316
0.230403 0.663033 3.824
0.10714 0.433825 3.8951
0.139394 0.65666 3.86931
0.144932 0.676006 3.87373
0.170106 0.76353 3.82239
0.248641 0.686877 3.78357
0.15645 0.721488 3.84893
0.254105 0.641181 3.78982
0.273067 0.65243 3.73854
0.0574511 0.336485 3.90523
0.0818114 0.332192 3.89115
0.0999044 0.326813 3.87526
0.084024 0.426314 3.89519
0.123444 0.315828 3.84015
0.112608 0.312291 3.85711
0.114387 0.31905 3.84396
0.075973 0.438714 3.93153
0.0865321 0.323311 3.86547
0.0700751 0.323879 3.87623
0.0505286 0.323186 3.88534
0.0590409 0.251797 3.87273
0.0575184 0.280044 3.89348
0.0566613 0.295157 3.89519
0.0557662 0.308265 3.88836
0.053804 0.3165 3.88361
0.0910526 0.317689 3.8654
0.0940995 0.314354 3.87068
0.0988424 0.30763 3.87527
0.104402 0.299063 3.87121
0.129988 0.363717 3.86957
0.308745 0.456386 3.57909
0.102169 0.317424 3.85299
0.10682 0.315828 3.85652
0.0622172 0.410412 3.90452
0.0996987 0.417985 3.87915
0.0660368 0.416162 3.9049
0.124616 0.508058 3.84776
0.162572 0.490701 3.84225
0.111482 0.447624 3.8866
0.2287 0.74175 3.78045
0.211963 0.710766 3.81953
0.194139 0.675897 3.85031
0.11738 0.278265 3.85505
0.0883186 0.67152 3.8842
0.0980834 0.723034 3.8657
0.106673 0.773549 3.84776
0.194748 0.566998 3.80747
0.252441 0.538971 3.77466
0.0975172 0.579193 3.81921
0.227028 0.601533 3.79759
0.0842452 0.539904 3.86427
0.0912052 0.453776 3.93188
0.278775 0.521226 3.74794
0.234905 0.522204 3.7968
0.203679 0.513455 3.81946
0.158786 0.518356 3.82999
0.125522 0.529691 3.83453
0.100782 0.542053 3.84101
0.0534823 0.57336 3.88978
0.274509 0.469613 3.75562
0.247938 0.604687 3.78571
0.0415661 0.423562 3.95657
0.0996158 0.498196 3.86647
0.31264 0.565759 3.5926
0.0833123 0.555828 3.844
0.114356 0.446233 3.86196
0.214697 0.587854 3.7894
0.0913119 0.470394 3.92193
0.301772 0.3957 3.59386
0.0988571 0.588392 3.81191
0.0717251 0.485103 3.94565
0.230158 0.270439 3.75473
0.231116 0.239886 3.71185
0.303955 0.462057 3.66772
0.258638 0.306184 3.72227
0.288668 0.613092 3.70013
0.129235 0.179088 3.83299
0.0412681 0.419014 3.92534
0.119882 0.479152 3.85859
0.276373 0.567162 3.73739
0.17411 0.578851 3.81496
0.152674 0.577058 3.82027
0.118933 0.307554 3.85298
0.27047 0.419094 3.75008
0.0832176 0.136446 3.82603
0.163291 0.17789 3.77741
0.195945 0.204101 3.74866
0.132606 0.578705 3.82124
0.114634 0.583322 3.81784
0.1043 0.586178 3.81244
0.266287 0.608689 3.7601
0.117666 0.600588 3.82073
0.136883 0.603774 3.82635
0.157697 0.604299 3.82537
0.178527 0.600937 3.82009
0.192124 0.595947 3.81249
0.306663 0.622178 3.63115
0.18846 0.581964 3.80778
0.109713 0.37972 3.88218
0.0899268 0.434972 3.90854
0.0641091 0.388204 3.90362
0.198715 0.23545 3.78072
0.165698 0.207121 3.80607
0.082366 0.158722 3.85622
0.258895 0.279053 3.66419
0.104831 0.594 3.81548
0.0691098 0.533178 3.89834
0.126939 0.154235 3.80675
0.296364 0.406516 3.67416
0.0744256 0.317819 3.87535
0.0774669 0.311691 3.88058
0.0804038 0.301489 3.88571
0.0839788 0.287995 3.88326
0.0912041 0.263097 3.8667
0.106583 0.319262 3.85537
0.114645 0.320774 3.85565
0.122114 0.3243 3.85562
0.147706 0.342273 3.85161
0.23536 0.406283 3.80042
0.0685825 0.558299 3.87525
0.0804158 0.603866 3.83099
0.0947296 0.600268 3.82024
0.101039 0.322558 3.85284
0.243289 0.344034 3.76662
0.0605242 0.604294 3.86335
0.105589 0.237233 3.85539
0.0525269 0.546799 3.91516
0.0847222 0.492941 3.89921
0.0669929 0.222983 3.86945
0.164274 0.284722 3.82981
0.133319 0.42504 3.85743
0.137399 0.257425 3.84227
0.183574 0.428674 3.84741
0.153926 0.398635 3.85438
0.204269 0.38693 3.82876
0.076664 0.189092 3.86833
0.0990589 0.478602 3.88205
0.187867 0.265467 3.80781
0.155151 0.235398 3.82485
0.183432 0.316575 3.82424
0.265761 0.375461 3.74368
0.213836 0.314349 3.80058
0.283732 0.35436 3.68731
0.172207 0.363419 3.84325
0.0837983 0.516144 3.88112
0.0831467 0.44265 3.93675
0.0993079 0.436607 3.91187
0.0738993 0.459067 3.95517
0.099287 0.622669 3.83811
0.137277 0.632907 3.84458
0.169762 0.633385 3.84423
0.197251 0.628805 3.83423
0.216255 0.618735 3.8186
0.231943 0.580187 3.78046
0.306321 0.51459 3.67051
0.212523 0.547708 3.79961
0.188264 0.541374 3.81458
0.156273 0.542163 3.82404
0.12611 0.548807 3.82709
0.103447 0.557795 3.82872
0.0881204 0.566264 3.82985
0.310588 0.511543 3.57645
0.0986216 0.429988 3.89982
0.0690722 0.510143 3.91807
0.0671934 0.440861 3.95692
0.0530808 0.428318 3.9475
0.066451 0.437098 3.9447
0.0919558 0.422119 3.89222
0.0490204 0.425631 3.9538
0.0487523 0.420931 3.92566
0.090254 0.586632 3.81678
0.076194 0.579723 3.83245
0.0696145 0.575074 3.85109
0.200562 0.592481 3.80465
0.212148 0.600014 3.80437
