ply
format ascii 1.0
comment Created by Open3D
element vertex 468
property double x
property double y
property double z
end_header
0.00655643 0.417226 4.06967
0.00606504 0.50762 4.12975
0.00551829 0.480007 4.0666
-0.0136512 0.593896 4.09255
0.00677903 0.534229 4.13744
0.00861998 0.569453 4.12561
0.00779125 0.653725 4.05735
-0.160556 0.653472 3.95484
0.00790129 0.709326 4.04008
0.00818102 0.742145 4.04443
0.00744061 0.867449 4.01335
0.00644518 0.404454 4.06611
0.00635446 0.395643 4.05716
0.00648559 0.392497 4.04575
0.00327543 0.393815 4.04378
0.00309745 0.384618 4.04843
0.00438923 0.37271 4.05434
0.0052258 0.358994 4.05224
0.00578391 0.332037 4.03024
0.00761561 0.494219 4.11691
-0.0181863 0.495579 4.08416
-0.244941 0.738303 3.83391
-0.0870867 0.637413 3.97651
-0.110528 0.633974 3.97545
-0.134251 0.633436 3.96995
-0.166488 0.644571 3.95001
-0.0695064 0.644357 3.97636
-0.122475 0.690454 3.9882
-0.0976751 0.690486 3.98951
-0.145487 0.686317 3.98056
-0.160578 0.67831 3.97097
-0.183813 0.627368 3.93975
-0.0826394 0.290723 4.0025
-0.169752 0.657889 3.94755
-0.252054 0.63336 3.82574
-0.209349 0.642137 3.91456
-0.108223 0.530953 4.00996
-0.022671 0.421713 4.06628
-0.017136 0.396669 4.05305
-0.0514609 0.415771 4.05135
-0.070295 0.406273 4.03251
-0.0379698 0.396512 4.04223
-0.055918 0.394232 4.02612
-0.100924 0.371684 3.99836
-0.0137502 0.508601 4.1289
-0.0157546 0.53381 4.13573
-0.194255 0.700695 3.96597
-0.0621255 0.596537 4.00995
-0.0694235 0.517029 4.06559
-0.0692701 0.531198 4.05635
-0.174298 0.532632 3.97655
-0.0147483 0.56632 4.11769
-0.141149 0.726463 4.01408
-0.172965 0.717896 3.99297
-0.221507 0.783501 3.88409
-0.0405777 0.71118 4.03338
-0.0775498 0.685144 3.98151
-0.121379 0.392296 3.98989
-0.238578 0.402015 3.76528
-0.0545265 0.502312 4.05701
-0.0342598 0.493136 4.06279
-0.0958724 0.390619 3.9911
-0.0827953 0.392564 3.99834
-0.185828 0.733292 3.98031
-0.069423 0.506182 4.05258
-0.0979536 0.725915 4.02793
-0.102648 0.746515 4.03296
-0.127814 0.846514 3.98151
-0.202469 0.760104 3.93839
-0.114177 0.798748 4.00841
-0.209401 0.710566 3.94334
-0.226981 0.723317 3.89255
-0.0200491 0.406711 4.06282
-0.0441513 0.403449 4.04789
-0.0628309 0.399552 4.03177
-0.0483824 0.49748 4.05409
-0.0889204 0.391177 3.99557
-0.076615 0.390079 4.01313
-0.0794242 0.394126 3.99927
-0.0403378 0.510271 4.08962
-0.0502285 0.395628 4.02099
-0.0333642 0.395229 4.03151
-0.014021 0.39363 4.04087
-0.0232496 0.334203 4.03046
-0.021691 0.361558 4.0508
-0.0214724 0.375681 4.05181
-0.0211923 0.386948 4.0451
-0.0193557 0.394546 4.04032
-0.0553738 0.394955 4.02241
-0.0577513 0.3928 4.02741
-0.061549 0.387045 4.0319
-0.0669601 0.378785 4.02813
-0.0922262 0.436172 4.02671
-0.261717 0.521493 3.7246
0.00412659 0.487656 4.08461
-0.0672873 0.39386 4.009
-0.0713883 0.393012 4.01266
-0.026329 0.480727 4.06199
-0.0631933 0.489555 4.03744
-0.0300736 0.486581 4.06313
-0.084795 0.581325 4.0011
-0.121668 0.563182 3.99593
-0.0732296 0.520058 4.04302
-0.183611 0.820488 3.93713
-0.166497 0.786219 3.97617
-0.150664 0.746428 4.0084
-0.0795133 0.357753 4.01148
-0.0478141 0.743016 4.04347
-0.0575113 0.803646 4.02656
-0.0657769 0.861025 4.0085
-0.154586 0.636578 3.95989
-0.207041 0.609032 3.92591
-0.0606126 0.650653 3.9728
-0.185499 0.671552 3.95006
-0.0466118 0.612774 4.01902
-0.0542443 0.525773 4.09002
-0.232423 0.590519 3.89731
-0.191412 0.592586 3.94834
-0.161043 0.584741 3.97201
-0.117575 0.590686 3.98322
-0.0856774 0.602833 3.988
-0.0625068 0.615384 3.9949
-0.0159056 0.646199 4.04723
-0.231045 0.538757 3.90497
-0.203477 0.67446 3.93788
-0.00513522 0.49534 4.11547
-0.0616408 0.570719 4.02102
-0.264275 0.631529 3.7414
-0.0465641 0.628289 3.99894
-0.0769534 0.518087 4.0188
-0.175783 0.656581 3.94214
-0.0535969 0.542979 4.07908
-0.255348 0.463053 3.73871
-0.0632776 0.658742 3.96601
-0.0342818 0.557396 4.10285
-0.186945 0.345602 3.90566
-0.186429 0.315923 3.85974
-0.258389 0.52845 3.8159
-0.214839 0.379393 3.8706
-0.241857 0.681971 3.85197
-0.091005 0.262036 3.98843
-0.00625712 0.488696 4.08376
-0.0804941 0.551779 4.01283
-0.228373 0.636232 3.88805
-0.134845 0.648054 3.96798
-0.11232 0.647428 3.97244
-0.0829899 0.385224 4.00864
-0.228467 0.488822 3.89951
-0.0492097 0.221808 3.98226
-0.122658 0.258794 3.93056
-0.152635 0.282498 3.89993
0.00717573 0.806285 4.03042
0.00431796 0.214647 3.98816
-0.0921307 0.650381 3.97362
-0.0758479 0.655145 3.97022
-0.0675579 0.657388 3.96582
-0.219978 0.678194 3.91226
-0.0796307 0.671113 3.97369
-0.0975327 0.674642 3.97925
-0.118584 0.674582 3.97867
-0.139906 0.670427 3.97368
-0.153763 0.664777 3.96637
-0.260178 0.690364 3.78219
-0.15018 0.650331 3.96073
0.00548199 0.460042 4.06226
-0.0720022 0.45158 4.04
-0.054312 0.506368 4.06782
-0.0271115 0.458361 4.06154
0.00828287 0.682582 4.03843
-0.155905 0.313332 3.93349
-0.124738 0.28738 3.95999
-0.0472722 0.243665 4.01312
-0.214141 0.3528 3.80949
-0.0686588 0.664258 3.9689
-0.0315564 0.605209 4.05524
0.00557065 0.236476 4.01815
-0.0895418 0.237658 3.96107
-0.251428 0.474638 3.82183
-0.0394333 0.39534 4.03214
-0.0418239 0.390156 4.03752
-0.0440105 0.381491 4.04251
-0.0471473 0.368826 4.04071
-0.0539608 0.344651 4.02351
-0.0711181 0.392879 4.01135
-0.0787984 0.394658 4.01127
-0.0858768 0.398512 4.01094
-0.110816 0.415435 4.00811
-0.193966 0.477663 3.9522
-0.031432 0.630685 4.03143
-0.044148 0.675028 3.98705
-0.0586426 0.671285 3.97519
-0.0656994 0.395531 4.00783
-0.202289 0.416106 3.91785
-0.0228676 0.676912 4.02072
-0.0675575 0.318482 4.01189
0.00850161 0.598588 4.10158
-0.0144639 0.619239 4.0735
0.00778208 0.625489 4.07889
-0.0471585 0.565111 4.05585
0.00599775 0.266929 4.03145
0.00595867 0.30194 4.03028
-0.0315456 0.305393 4.02626
-0.124834 0.361222 3.98564
-0.0950744 0.496862 4.01453
-0.0977888 0.336803 3.9985
-0.14372 0.500623 4.00239
-0.115645 0.47073 4.01131
-0.164765 0.458809 3.98368
-0.0412974 0.272437 4.02507
-0.0608659 0.551075 4.03764
-0.147068 0.342135 3.96199
-0.115238 0.314789 3.97992
-0.145279 0.390473 3.97921
-0.223871 0.445967 3.89322
-0.173315 0.388519 3.95439
-0.239694 0.424871 3.83427
-0.134155 0.435777 4.00005
-0.046688 0.588211 4.03631
-0.0468736 0.514658 4.09544
-0.0625961 0.508671 4.07045
-0.0373565 0.530858 4.11362
-0.0619739 0.692888 3.99429
-0.0981871 0.703168 4.00145
-0.129933 0.704229 4.00031
-0.157244 0.699494 3.98902
-0.175658 0.68891 3.97257
-0.189459 0.649758 3.93252
-0.25844 0.58119 3.81835
-0.171004 0.617569 3.952
-0.146336 0.612063 3.96798
-0.114809 0.614188 3.97691
-0.0858796 0.621663 3.9798
-0.0647825 0.630586 3.98254
-0.0510974 0.638608 3.98399
-0.262694 0.576566 3.72376
-0.061985 0.502007 4.05805
-0.0324395 0.58173 4.075
-0.0307488 0.512766 4.11638
-0.0163577 0.500098 4.10622
-0.0302533 0.5089 4.10364
-0.0553684 0.493952 4.05096
-0.0119295 0.497502 4.11309
-0.0132993 0.491052 4.08426
-0.054773 0.657411 3.9715
-0.039891 0.651703 3.98796
-0.0326702 0.647611 4.00722
-0.162349 0.66072 3.95846
-0.172689 0.669723 3.95682
0.0297292 0.594636 4.09371
0.193283 0.664452 3.95036
0.0313326 0.494932 4.08016
0.297128 0.76368 3.82824
0.117818 0.644064 3.98066
0.14425 0.64152 3.97814
0.170275 0.641446 3.97005
0.206102 0.655799 3.94648
0.0954121 0.649935 3.97838
0.158085 0.705198 3.98572
0.129092 0.702614 3.98524
0.183662 0.702415 3.97647
0.20059 0.694495 3.96521
0.225837 0.637498 3.9327
0.103574 0.283125 3.9942
0.20372 0.671147 3.94181
0.304735 0.64972 3.81909
0.256488 0.654732 3.906
0.136019 0.532374 4.00139
0.0381064 0.421346 4.06494
0.0334894 0.395971 4.05311
0.0715433 0.413918 4.04925
0.0919669 0.404844 4.03182
0.0589052 0.395182 4.04298
0.0765516 0.393414 4.02633
0.123506 0.368929 3.99204
0.0283706 0.508324 4.12533
0.0325747 0.534109 4.13188
0.243578 0.719996 3.95739
0.0857751 0.599059 4.00868
0.0918904 0.517273 4.05803
0.0935737 0.531883 4.04947
0.215724 0.535845 3.96781
0.0316342 0.566914 4.11771
0.17735 0.744773 4.00174
0.215927 0.737482 3.98193
0.269568 0.809325 3.87789
0.0607582 0.717522 4.02975
0.102753 0.694162 3.97957
0.143451 0.390311 3.98499
0.280914 0.400292 3.75748
0.0706985 0.501686 4.05023
0.0483258 0.49255 4.05289
0.111542 0.390571 3.99325
0.102811 0.392153 3.99877
0.230616 0.754795 3.9683
0.0926183 0.506268 4.04346
0.125701 0.739518 4.01793
0.131297 0.761195 4.02175
0.159031 0.863386 3.97554
0.249855 0.7829 3.9285
0.141513 0.81372 4.00093
0.259367 0.731279 3.9349
0.278004 0.745726 3.88398
0.0365274 0.406008 4.06248
0.0639447 0.401889 4.04815
0.0837159 0.398332 4.03113
0.0634757 0.496627 4.04494
0.106254 0.390994 3.9964
0.0956628 0.389502 4.01065
0.102175 0.393496 3.99923
0.0586452 0.509654 4.08835
0.0735822 0.395409 4.02109
0.0541613 0.39456 4.03299
0.031366 0.39347 4.04262
0.0390445 0.332073 4.02609
0.0363542 0.360433 4.04896
0.0337785 0.374848 4.05161
0.0306651 0.386463 4.04585
0.0290798 0.394161 4.04126
0.0737896 0.394406 4.02107
0.0770706 0.39184 4.02454
0.0822768 0.385966 4.02715
0.0867234 0.377456 4.0234
0.115228 0.4348 4.01975
0.302221 0.531062 3.71985
0.0872139 0.393524 4.00998
0.0905343 0.392365 4.01146
0.0390261 0.480266 4.05711
0.0802964 0.489283 4.02552
0.04364 0.486103 4.0557
0.111679 0.584325 3.99918
0.153121 0.566187 3.99037
0.0968157 0.520469 4.03508
0.225628 0.843562 3.92922
0.205946 0.806899 3.96544
0.186463 0.765965 3.9958
0.101922 0.354098 4.00631
0.0697624 0.751569 4.03782
0.0778672 0.811381 4.02184
0.0882814 0.869986 4.00241
0.193379 0.645955 3.95776
0.254003 0.618548 3.91723
0.0815371 0.655809 3.97609
0.229748 0.686708 3.94424
0.0680536 0.615177 4.01928
0.0755118 0.525928 4.08426
0.284036 0.600512 3.88943
0.234791 0.600327 3.94187
0.199293 0.590554 3.96647
0.14842 0.595212 3.9811
0.112312 0.606851 3.98755
0.0865025 0.618675 3.99483
0.0321664 0.647675 4.04765
0.279363 0.545096 3.89796
0.253037 0.690352 3.93155
0.0215678 0.49532 4.11478
0.0833256 0.572498 4.01889
0.309208 0.650588 3.73792
0.065632 0.631391 4
0.0953131 0.518567 4.00913
0.213464 0.67031 3.93716
0.077398 0.543821 4.0735
0.297246 0.466939 3.73137
0.0835626 0.664153 3.97015
0.0555427 0.55811 4.10043
0.223205 0.337505 3.8921
0.223882 0.306355 3.84898
0.303343 0.536462 3.80789
0.256688 0.374122 3.85848
0.291698 0.701896 3.84483
0.111098 0.253061 3.98034
0.0146432 0.48895 4.08189
0.105679 0.553488 4.00761
0.279588 0.649713 3.88046
0.165479 0.656998 3.96707
0.142491 0.655936 3.97525
0.101613 0.384559 4.00646
0.274223 0.491484 3.88921
0.0610083 0.21636 3.97764
0.145236 0.247934 3.92336
0.18224 0.271384 3.89119
0.121215 0.657995 3.97696
0.101222 0.661841 3.97499
0.0886937 0.663313 3.97089
0.272224 0.695674 3.90453
0.108638 0.678187 3.97657
0.132947 0.683865 3.97884
0.155328 0.685232 3.97667
0.177185 0.682482 3.96952
0.190471 0.677507 3.96056
0.307315 0.713522 3.77694
0.181514 0.660188 3.95854
0.0932169 0.450709 4.03233
0.0711264 0.505562 4.05895
0.041793 0.457928 4.05823
0.18622 0.303005 3.91985
0.15035 0.276585 3.94788
0.0637096 0.238244 4.00788
0.255001 0.346452 3.80134
0.0917471 0.669908 3.97405
0.0495622 0.606582 4.0542
0.106159 0.228898 3.95655
0.296892 0.477953 3.81126
0.0527604 0.39477 4.03232
0.0565853 0.389318 4.03675
0.0606333 0.380401 4.04106
0.0638194 0.367479 4.03849
0.0745537 0.341482 4.02033
0.0930724 0.39244 4.01197
0.0993617 0.394283 4.0128
0.106898 0.398128 4.01255
0.133769 0.413935 4.00387
0.238241 0.478403 3.93991
0.0490648 0.632768 4.0318
0.0600359 0.679424 3.98708
0.0786886 0.677269 3.97823
0.089219 0.39549 4.00892
0.242288 0.413168 3.90466
0.039719 0.67961 4.02004
0.0899723 0.312646 4.00499
0.0317603 0.620121 4.07215
0.068131 0.566048 4.0519
0.047955 0.301835 4.02164
0.15216 0.355382 3.97354
0.11739 0.497297 4.00361
0.123982 0.330282 3.9879
0.177742 0.500948 3.98951
0.141533 0.469937 4.00094
0.202115 0.457378 3.9692
0.0588134 0.268104 4.02131
0.0839002 0.552275 4.03257
0.176218 0.333842 3.94815
0.139629 0.305677 3.96735
0.17339 0.386775 3.9696
0.267447 0.445506 3.88025
0.20947 0.38318 3.93991
0.283897 0.423837 3.82377
0.163208 0.434061 3.9901
0.0662604 0.589978 4.03573
0.0675851 0.514062 4.09142
0.0834694 0.508114 4.06074
0.055453 0.530812 4.11041
0.0816116 0.699644 3.99414
0.125406 0.714772 3.99592
0.163293 0.719617 3.99253
0.195342 0.716794 3.98146
0.21852 0.706273 3.96523
0.23265 0.66244 3.92587
0.307723 0.593636 3.81268
0.21057 0.626409 3.94674
0.182698 0.618845 3.96372
0.14717 0.620089 3.97599
0.114163 0.626876 3.98099
0.0890298 0.634889 3.98268
0.0714509 0.642244 3.98506
0.304781 0.591 3.72168
0.0821062 0.5015 4.04836
0.0492198 0.582757 4.07465
0.0480966 0.512044 4.11182
0.0350058 0.499324 4.10216
0.0485377 0.50786 4.1
0.0739294 0.493386 4.04002
0.0300588 0.497012 4.10944
0.0243586 0.490659 4.08058
0.0723235 0.662239 3.97342
0.0576499 0.655182 3.98834
0.0504034 0.650314 4.00681
0.198022 0.673737 3.95212
0.213237 0.684913 3.95007
