ply
format ascii 1.0
comment Created by Open3D
element vertex 468
property double x
property double y
property double z
end_header
0.0164166 0.355865 3.77234
0.0130067 0.444878 3.82732
0.0150874 0.411326 3.76856
-0.00718959 0.529628 3.79112
0.0126816 0.472281 3.8328
0.0122608 0.507339 3.82072
0.0124664 0.588241 3.75526
-0.154926 0.596359 3.66356
0.0121921 0.65971 3.73321
0.0120987 0.698002 3.73641
0.0126839 0.825832 3.71096
0.0165177 0.343869 3.76991
0.0165538 0.334898 3.76266
0.0165177 0.330753 3.75191
0.0181535 0.324573 3.75099
0.0183561 0.31419 3.75514
0.0182511 0.301969 3.75975
0.0182218 0.288018 3.75604
0.0179957 0.266437 3.73276
0.0131656 0.431367 3.81641
-0.00633713 0.428374 3.78364
-0.241882 0.690214 3.55618
-0.0846658 0.575171 3.69102
-0.10815 0.573376 3.6888
-0.131092 0.573338 3.68203
-0.162946 0.587537 3.65996
-0.0649846 0.579391 3.68745
-0.121324 0.647549 3.68862
-0.0943318 0.644335 3.69027
-0.145402 0.642162 3.68085
-0.161164 0.631266 3.67313
-0.18054 0.567503 3.64949
-0.0656306 0.23289 3.70031
-0.164567 0.603624 3.6549
-0.246404 0.572544 3.54891
-0.206814 0.584609 3.62567
-0.102015 0.463472 3.71562
-0.0122571 0.360188 3.76904
-0.00880516 0.335924 3.7591
-0.0412897 0.354036 3.75518
-0.0592846 0.34609 3.73756
-0.0300063 0.335492 3.74998
-0.0459741 0.333228 3.733
-0.0869893 0.308436 3.69728
-0.00574754 0.446013 3.82485
-0.00946141 0.472697 3.82966
-0.196841 0.65931 3.66551
-0.056256 0.52916 3.71669
-0.0563521 0.449938 3.76728
-0.0583582 0.463933 3.75897
-0.172062 0.466827 3.68496
-0.0084976 0.504232 3.81425
-0.142429 0.691604 3.69987
-0.174642 0.680868 3.68364
-0.22134 0.742508 3.59817
-0.0388163 0.668221 3.72403
-0.0709672 0.631921 3.68641
-0.10469 0.331319 3.6922
-0.205374 0.329107 3.48872
-0.0393235 0.432959 3.76024
-0.0203503 0.423494 3.76054
-0.0805011 0.329935 3.69616
-0.0712145 0.331188 3.7025
-0.188106 0.697988 3.67331
-0.0562754 0.438005 3.75464
-0.0983019 0.689855 3.7135
-0.103134 0.713082 3.71768
-0.126967 0.813376 3.68086
-0.204724 0.720994 3.6413
-0.11204 0.762909 3.70218
-0.211163 0.669461 3.64687
-0.226895 0.678646 3.60543
-0.0110198 0.3464 3.76723
-0.0347425 0.342675 3.75387
-0.0524964 0.339603 3.73682
-0.0332215 0.427199 3.75507
-0.0755073 0.330207 3.69963
-0.0655462 0.325428 3.71262
-0.0691447 0.332657 3.7028
-0.0293151 0.444505 3.79271
-0.0421844 0.334687 3.72814
-0.0256025 0.333484 3.74025
-0.00613599 0.332327 3.74927
-0.0135816 0.267078 3.73056
-0.0119656 0.290294 3.75362
-0.010618 0.304827 3.75641
-0.00861205 0.316819 3.75206
-0.00659984 0.325445 3.74818
-0.0456724 0.328722 3.72644
-0.0490615 0.32621 3.72906
-0.0538015 0.32038 3.73081
-0.0574306 0.311718 3.7267
-0.0797006 0.372828 3.72697
-0.235418 0.44828 3.45639
0.0148478 0.420595 3.78532
-0.0563367 0.329154 3.71299
-0.0606337 0.327914 3.71392
-0.0124697 0.41175 3.76181
-0.0478025 0.419429 3.73814
-0.0162441 0.417447 3.76197
-0.0793772 0.51431 3.70857
-0.117817 0.496727 3.7019
-0.0610708 0.451479 3.74635
-0.185124 0.78478 3.64155
-0.168325 0.750217 3.67199
-0.1514 0.713204 3.6968
-0.0680741 0.292149 3.71001
-0.0467377 0.705958 3.73074
-0.0535475 0.763821 3.72067
-0.0629906 0.825659 3.70372
-0.151467 0.577894 3.67102
-0.205092 0.547306 3.63834
-0.0525344 0.584356 3.68486
-0.184282 0.621219 3.65605
-0.0406688 0.545674 3.72411
-0.0442208 0.460904 3.78969
-0.22795 0.528183 3.61295
-0.189361 0.52971 3.65995
-0.158895 0.521191 3.68188
-0.113028 0.525621 3.69181
-0.0803043 0.536628 3.69669
-0.0575547 0.548465 3.70267
-0.00960225 0.581276 3.74713
-0.222624 0.473898 3.62151
-0.203779 0.625215 3.64602
0.00192015 0.432421 3.81495
-0.0530797 0.502616 3.7283
-0.24986 0.566747 3.47419
-0.0398778 0.561131 3.70626
-0.0625955 0.446935 3.72349
-0.170848 0.601682 3.65063
-0.0457904 0.478073 3.77936
-0.224056 0.3887 3.46646
-0.0535874 0.593486 3.67966
-0.0283726 0.494676 3.80065
-0.15796 0.281089 3.61349
-0.152824 0.252892 3.57111
-0.23921 0.459849 3.53951
-0.188124 0.311561 3.58419
-0.237577 0.628122 3.57158
-0.0666536 0.211309 3.68575
0.00620346 0.421298 3.78334
-0.073214 0.483811 3.71978
-0.225989 0.578103 3.60424
-0.129424 0.588539 3.67883
-0.108465 0.587183 3.68511
-0.0709364 0.321059 3.70852
-0.214709 0.421736 3.61401
-0.0254026 0.181738 3.67895
-0.0885051 0.208459 3.6342
-0.117389 0.226188 3.60735
0.0125856 0.760481 3.72735
0.0180943 0.17805 3.68555
-0.0886407 0.588534 3.68604
-0.0696256 0.591277 3.68324
-0.0580317 0.591851 3.6797
-0.220382 0.628572 3.62289
-0.0757744 0.618426 3.68388
-0.0976062 0.629787 3.68404
-0.119805 0.632137 3.68224
-0.141239 0.626518 3.67672
-0.153547 0.617387 3.67062
-0.250247 0.632836 3.51018
-0.144039 0.591813 3.6707
0.0155655 0.392846 3.76403
-0.0588608 0.385845 3.73974
-0.0402982 0.437743 3.76927
-0.0154178 0.391635 3.7618
0.0122013 0.624217 3.73569
-0.125779 0.252067 3.63523
-0.0968467 0.231491 3.65829
-0.0294796 0.196264 3.70862
-0.181134 0.28417 3.52808
-0.0605982 0.602783 3.68224
-0.0250243 0.539149 3.75698
0.0175919 0.193143 3.71446
-0.0590593 0.193285 3.66174
-0.228788 0.404681 3.54317
-0.0279781 0.327014 3.73871
-0.0315014 0.321468 3.74237
-0.0349267 0.312265 3.74528
-0.0371969 0.299071 3.7423
-0.0440114 0.277986 3.72343
-0.0611536 0.33265 3.71677
-0.0673621 0.335033 3.71649
-0.0738176 0.339275 3.71665
-0.0966434 0.354304 3.71122
-0.186268 0.41137 3.66133
-0.0247808 0.564483 3.73392
-0.0364405 0.613881 3.69353
-0.0507761 0.609812 3.68603
-0.0563725 0.334792 3.71364
-0.182739 0.348933 3.6281
-0.017484 0.619278 3.72098
-0.056465 0.255241 3.70975
0.0122737 0.534236 3.79814
-0.00913253 0.554164 3.7724
0.0123409 0.559397 3.77714
-0.0401193 0.498638 3.75862
0.0173927 0.214737 3.72881
0.0177373 0.241693 3.72994
-0.020991 0.242581 3.72414
-0.106961 0.298197 3.68347
-0.0824845 0.427736 3.71811
-0.0839419 0.273581 3.69505
-0.138499 0.43363 3.7061
-0.104585 0.403551 3.71335
-0.155431 0.393365 3.68869
-0.028105 0.216942 3.72219
-0.0521929 0.483195 3.74237
-0.123106 0.278939 3.66176
-0.0940085 0.253948 3.67654
-0.126522 0.328281 3.6818
-0.205167 0.378442 3.60632
-0.153642 0.324212 3.65937
-0.213685 0.354604 3.5527
-0.12163 0.372988 3.70284
-0.0389011 0.521043 3.74148
-0.0368366 0.449653 3.79666
-0.0494574 0.440981 3.7703
-0.0280812 0.467721 3.8106
-0.0561034 0.640582 3.69804
-0.0948568 0.657925 3.69803
-0.128802 0.661234 3.69365
-0.156663 0.65603 3.6839
-0.175612 0.643755 3.67193
-0.186058 0.593834 3.64173
-0.246021 0.516254 3.54307
-0.167496 0.557045 3.66253
-0.142687 0.549709 3.67717
-0.110841 0.550899 3.68653
-0.0818796 0.557305 3.69128
-0.0599361 0.564381 3.69143
-0.044973 0.571536 3.69311
-0.242968 0.507121 3.4584
-0.048049 0.433415 3.75933
-0.0247598 0.516716 3.77592
-0.0214595 0.448986 3.81392
-0.00896133 0.436051 3.80452
-0.0210652 0.444128 3.8032
-0.041509 0.424476 3.75128
-0.00497583 0.434016 3.81088
-0.0010416 0.423773 3.78369
-0.0453028 0.59104 3.68275
-0.0331093 0.5857 3.69605
-0.0264151 0.581982 3.71093
-0.160084 0.610062 3.66398
-0.171328 0.619208 3.66164
0.0318465 0.528718 3.79061
0.175357 0.587133 3.66623
0.0344405 0.428562 3.78383
0.257054 0.675087 3.55915
0.105457 0.569986 3.69083
0.128156 0.567522 3.68904
0.150733 0.56674 3.68301
0.181882 0.578204 3.66225
0.0875593 0.57513 3.68799
0.140393 0.636369 3.69139
0.114913 0.635384 3.69302
0.16339 0.62985 3.68418
0.178217 0.618789 3.67691
0.19901 0.559461 3.65285
0.0965212 0.233783 3.70118
0.184634 0.593045 3.65826
0.263618 0.560164 3.55125
0.224104 0.574197 3.62943
0.125831 0.461594 3.71777
0.0439318 0.360745 3.7684
0.0405403 0.336373 3.75837
0.0717964 0.355307 3.75338
0.0898762 0.347895 3.73513
0.0607223 0.336535 3.74801
0.0772273 0.334572 3.73092
0.118424 0.309716 3.69724
0.0312432 0.44591 3.82541
0.0338983 0.472309 3.8303
0.210433 0.643444 3.67082
0.0800396 0.526843 3.71702
0.081049 0.44897 3.76681
0.0822358 0.462737 3.75861
0.192299 0.463227 3.68806
0.0330186 0.503477 3.81397
0.159826 0.676778 3.70795
0.189718 0.664824 3.69099
0.236527 0.727209 3.6024
0.0621003 0.663088 3.72733
0.0937719 0.624939 3.68773
0.134944 0.332315 3.69191
0.230942 0.322914 3.48581
0.0662744 0.432612 3.76016
0.0491031 0.423798 3.76201
0.114266 0.331422 3.69419
0.103419 0.332746 3.70093
0.201897 0.680425 3.68072
0.0815061 0.437482 3.75472
0.119067 0.679147 3.72028
0.123274 0.701626 3.72451
0.147706 0.803801 3.68526
0.219182 0.705494 3.64729
0.13322 0.75274 3.70711
0.224591 0.652987 3.6521
0.241304 0.663399 3.60981
0.0427035 0.346865 3.76638
0.0656977 0.343851 3.75183
0.0835988 0.341019 3.73468
0.0612762 0.427196 3.75579
0.108751 0.331956 3.69803
0.0990142 0.326699 3.71181
0.1004 0.333811 3.70122
0.0547615 0.443944 3.79149
0.0725493 0.335607 3.72607
0.0563535 0.333991 3.73836
0.0375839 0.332388 3.748
0.0474579 0.267684 3.73138
0.0464212 0.29065 3.75344
0.0457349 0.305064 3.75583
0.0440116 0.316835 3.7508
0.0415943 0.325535 3.74675
0.0783923 0.329726 3.72518
0.0818047 0.327197 3.72839
0.0864884 0.321346 3.73063
0.0906927 0.31262 3.72658
0.107997 0.373293 3.72663
0.259724 0.438285 3.45562
0.0888402 0.329885 3.71083
0.0937578 0.328979 3.71262
0.0422064 0.411905 3.76219
0.0759827 0.419472 3.73959
0.0453751 0.417772 3.76287
0.103024 0.511701 3.7093
0.140476 0.493905 3.70455
0.0859195 0.450497 3.74631
0.202238 0.77171 3.64667
0.185094 0.73589 3.67853
0.168187 0.697486 3.70446
0.0997364 0.292988 3.70994
0.0695661 0.699539 3.73475
0.0773463 0.758854 3.72339
0.0865664 0.820908 3.70687
0.170533 0.569925 3.67253
0.222665 0.539378 3.64161
0.076689 0.580036 3.6845
0.200819 0.608663 3.66008
0.064824 0.543525 3.72411
0.0683983 0.459821 3.78974
0.245105 0.519593 3.61542
0.207634 0.523305 3.66239
0.178657 0.516468 3.68437
0.135135 0.521846 3.69335
0.103519 0.533421 3.6973
0.0812318 0.545649 3.70305
0.0343046 0.580197 3.74743
0.241305 0.467157 3.623
0.218985 0.611862 3.64931
0.0240525 0.432412 3.8146
0.0776599 0.500476 3.72793
0.270632 0.553313 3.47529
0.0646556 0.558671 3.70638
0.0890447 0.44628 3.72419
0.190046 0.590725 3.6537
0.0691039 0.47668 3.77955
0.248957 0.380463 3.46471
0.0776712 0.588723 3.67897
0.0517831 0.493684 3.80074
0.183439 0.279353 3.6133
0.179095 0.250667 3.56894
0.260616 0.451037 3.54001
0.212026 0.307909 3.58355
0.254412 0.614445 3.57421
0.0980492 0.211937 3.6851
0.0236304 0.421382 3.78366
0.0973444 0.481966 3.72051
0.242784 0.566903 3.60726
0.150062 0.581007 3.68024
0.129215 0.580474 3.68554
0.104489 0.322297 3.70768
0.235474 0.416325 3.6155
0.059819 0.182087 3.67808
0.118972 0.208274 3.63147
0.145499 0.2254 3.60436
0.109807 0.582756 3.68653
0.0923319 0.586143 3.68302
0.0819696 0.587118 3.67904
0.235387 0.614909 3.62658
0.0972787 0.611758 3.68436
0.117213 0.621726 3.68616
0.138844 0.622727 3.68471
0.160125 0.616475 3.6802
0.172576 0.607069 3.67463
0.268838 0.618524 3.51219
0.164794 0.583456 3.67274
0.0874897 0.386352 3.73946
0.0665536 0.437584 3.7698
0.0457344 0.392141 3.7616
0.153373 0.251986 3.63484
0.126256 0.232175 3.65774
0.0620894 0.197023 3.70884
0.206814 0.279785 3.52501
0.0838758 0.597519 3.68158
0.0494507 0.537769 3.75707
0.0917345 0.193415 3.65946
0.251033 0.39774 3.54316
0.0618928 0.32754 3.73714
0.0654265 0.322 3.74108
0.0686504 0.312704 3.74436
0.0710818 0.299333 3.74144
0.0765484 0.278608 3.7233
0.0926193 0.334015 3.71464
0.098994 0.336497 3.71441
0.105192 0.340847 3.71422
0.125514 0.354944 3.71032
0.207149 0.407891 3.66428
0.0495129 0.562706 3.73413
0.0615137 0.60995 3.69386
0.074637 0.604714 3.68575
0.0871009 0.335819 3.71153
0.205871 0.34595 3.62929
0.0418097 0.616764 3.72155
0.0874042 0.256386 3.71077
0.0332433 0.55326 3.77275
0.0639955 0.497277 3.75887
0.0542874 0.243399 3.72532
0.135388 0.298899 3.68438
0.108781 0.426961 3.71947
0.113356 0.274668 3.69602
0.161354 0.431766 3.71015
0.130218 0.402633 3.71505
0.178093 0.391531 3.6924
0.0604588 0.217598 3.72272
0.0761828 0.481687 3.74239
0.150452 0.27926 3.66262
0.123789 0.254932 3.67752
0.153718 0.328383 3.6824
0.226998 0.373814 3.60737
0.177941 0.323275 3.66062
0.237048 0.348976 3.55165
0.147055 0.372571 3.70435
0.06338 0.519101 3.74104
0.0612878 0.449027 3.79627
0.074804 0.440476 3.77074
0.0527195 0.466764 3.81056
0.0798041 0.634383 3.69912
0.116184 0.648438 3.70187
0.147956 0.64936 3.69924
0.174098 0.64282 3.68946
0.191733 0.630023 3.67711
0.20406 0.583372 3.64539
0.264888 0.50534 3.54411
0.186499 0.549981 3.66495
0.162775 0.544307 3.67925
0.132093 0.546166 3.68754
0.103893 0.553248 3.69144
0.0834101 0.561025 3.69213
0.0693446 0.568494 3.69339
0.265458 0.495245 3.45812
0.0740428 0.433097 3.75965
0.04946 0.515349 3.77563
0.0465002 0.448659 3.81424
0.0347318 0.436205 3.80502
0.046344 0.444018 3.80318
0.0688259 0.424497 3.75243
0.0308119 0.434042 3.81121
0.0300072 0.424038 3.78408
0.0702843 0.586821 3.68277
0.057953 0.582747 3.69642
0.0514058 0.579766 3.71152
0.179544 0.599579 3.66773
0.188673 0.607159 3.66572
