ply
format ascii 1.0
comment Created by Open3D
element vertex 468
property double x
property double y
property double z
end_header
-0.0282047 0.337254 4.04046
-0.0294153 0.429124 4.10992
-0.0308267 0.400558 4.04402
-0.0506501 0.524092 4.07177
-0.0285656 0.458808 4.11871
-0.0271135 0.497482 4.10729
-0.0277716 0.588808 4.03262
-0.20852 0.590508 3.9243
-0.0276847 0.657824 4.01026
-0.0275901 0.695934 4.01346
-0.0263546 0.82616 3.98112
-0.0279818 0.323832 4.03596
-0.0277372 0.31529 4.0271
-0.027438 0.313439 4.01546
-0.0274409 0.312226 4.01962
-0.0273495 0.30288 4.02486
-0.0260296 0.290596 4.03293
-0.025311 0.275683 4.03372
-0.0252185 0.247763 4.01547
-0.0289407 0.414265 4.09648
-0.0568568 0.416636 4.06153
-0.29695 0.685984 3.79406
-0.133285 0.571664 3.94904
-0.158077 0.569152 3.9473
-0.183125 0.569156 3.94066
-0.217788 0.580273 3.91985
-0.113491 0.578443 3.94734
-0.166993 0.63239 3.9599
-0.141024 0.631939 3.95965
-0.192162 0.627646 3.95171
-0.209161 0.618142 3.94116
-0.239502 0.562683 3.90802
-0.126665 0.201647 3.97937
-0.218216 0.594535 3.91586
-0.314183 0.570027 3.78858
-0.267463 0.578786 3.8814
-0.16213 0.457617 3.98442
-0.064226 0.342183 4.03818
-0.0597487 0.316802 4.02323
-0.101242 0.337409 4.0216
-0.125468 0.330276 3.99906
-0.0872216 0.31778 4.0106
-0.109639 0.317624 3.99101
-0.156439 0.294273 3.96154
-0.0516131 0.429951 4.10882
-0.0541447 0.458517 4.11659
-0.24712 0.64625 3.93338
-0.106598 0.526095 3.98321
-0.117286 0.441065 4.04345
-0.117776 0.456359 4.03448
-0.238891 0.461993 3.94782
-0.0523744 0.494305 4.09905
-0.189181 0.679241 3.98017
-0.223259 0.667462 3.95897
-0.271061 0.735842 3.84576
-0.0809049 0.663338 4.00261
-0.119236 0.625137 3.95167
-0.180329 0.319061 3.95284
-0.29775 0.317186 3.72569
-0.0996141 0.42499 4.03431
-0.0766811 0.414843 4.03861
-0.156294 0.31945 3.95204
-0.142421 0.319676 3.95934
-0.236851 0.684949 3.94555
-0.118901 0.429815 4.02967
-0.143222 0.680711 3.99555
-0.147662 0.703584 4.00081
-0.171343 0.805825 3.94739
-0.253297 0.711478 3.90231
-0.157877 0.756641 3.97467
-0.262647 0.657576 3.91056
-0.279947 0.670381 3.85567
-0.0624092 0.326702 4.03324
-0.0934152 0.324967 4.01681
-0.117285 0.323473 3.99717
-0.09359 0.419919 4.02985
-0.149425 0.319567 3.95619
-0.133431 0.314454 3.97616
-0.137782 0.320002 3.96013
-0.0824315 0.432098 4.06884
-0.103565 0.319772 3.98637
-0.081924 0.317514 3.99992
-0.0562633 0.314902 4.01106
-0.0616292 0.248162 4.01367
-0.0598459 0.277703 4.03078
-0.0594439 0.293389 4.02969
-0.0593771 0.30533 4.0207
-0.0575016 0.31335 4.01532
-0.106684 0.316886 3.99021
-0.109604 0.314671 3.9959
-0.113847 0.308492 4.00145
-0.11892 0.299363 3.99694
-0.148473 0.360191 3.99333
-0.322736 0.448892 3.68278
-0.0314988 0.408419 4.0621
-0.121724 0.317541 3.97208
-0.127242 0.317213 3.97595
-0.0673544 0.401589 4.03889
-0.111927 0.413076 4.01264
-0.0718961 0.407862 4.03936
-0.134153 0.510721 3.9743
-0.176848 0.493056 3.96803
-0.122873 0.444746 4.02015
-0.231389 0.776866 3.90063
-0.214894 0.741327 3.94139
-0.19867 0.701223 3.97457
-0.130713 0.276718 3.97955
-0.088714 0.700456 4.01253
-0.0971573 0.760883 3.99341
-0.10487 0.820705 3.97583
-0.20502 0.572481 3.92993
-0.268114 0.543222 3.89421
-0.1021 0.585519 3.94352
-0.237704 0.610727 3.91884
-0.0877687 0.543806 3.99269
-0.099101 0.449803 4.06927
-0.296351 0.523584 3.86449
-0.251255 0.526355 3.91811
-0.218414 0.518097 3.94265
-0.169478 0.522685 3.95407
-0.133227 0.533883 3.95958
-0.106247 0.546587 3.96664
-0.0529282 0.581139 4.02157
-0.298136 0.468694 3.8728
-0.258218 0.614778 3.90583
-0.0424924 0.415636 4.09504
-0.107229 0.498668 3.99637
-0.32268 0.569761 3.69951
-0.087293 0.561332 3.97041
-0.127023 0.443354 3.99355
-0.226238 0.593338 3.91058
-0.0991029 0.468564 4.05843
-0.315363 0.384068 3.6975
-0.103381 0.594847 3.93623
-0.0754899 0.484286 4.0835
-0.242321 0.259628 3.87116
-0.237473 0.226624 3.82381
-0.323661 0.456692 3.77824
-0.276864 0.293514 3.83622
-0.29852 0.623863 3.81431
-0.131441 0.173897 3.96461
-0.0429232 0.409638 4.06091
-0.130495 0.478902 3.98801
-0.289498 0.572556 3.85429
-0.181721 0.585884 3.9387
-0.158748 0.584742 3.94411
-0.140056 0.309315 3.97107
-0.297257 0.413673 3.86654
-0.0830328 0.13737 3.96011
-0.161976 0.171002 3.89986
-0.196368 0.193801 3.86559
-0.0273367 0.760973 3.9986
-0.0285002 0.131325 3.9687
-0.137779 0.58656 3.94547
-0.119423 0.590733 3.94164
-0.108881 0.593106 3.93634
-0.276735 0.619533 3.87904
-0.121688 0.606288 3.94582
-0.141709 0.609367 3.95124
-0.163296 0.609511 3.95028
-0.185536 0.605685 3.94433
-0.2006 0.600465 3.93662
-0.314712 0.633846 3.74087
-0.19747 0.587996 3.93088
-0.0299564 0.380219 4.03771
-0.1234 0.374624 4.01127
-0.0994097 0.428731 4.04452
-0.0686545 0.379025 4.03653
-0.0273476 0.623662 4.0112
-0.204144 0.22608 3.89962
-0.168846 0.199791 3.93074
-0.0838206 0.15568 3.99379
-0.27088 0.264472 3.77175
-0.109268 0.599955 3.93952
-0.07102 0.53609 4.03124
-0.0274757 0.151297 4.00054
-0.125736 0.15145 3.93555
-0.317177 0.396884 3.78494
-0.0844795 0.315459 4.004
-0.0874584 0.3099 4.01024
-0.0896674 0.300529 4.01642
-0.0924558 0.286742 4.01454
-0.0998973 0.260324 3.99866
-0.129624 0.318634 3.97368
-0.138157 0.321134 3.97348
-0.145685 0.325424 3.97401
-0.170749 0.341762 3.97158
-0.263681 0.401569 3.92198
-0.0700377 0.563958 4.00525
-0.0834574 0.615252 3.95658
-0.0985543 0.609308 3.94481
-0.122403 0.321584 3.97059
-0.267593 0.334886 3.88477
-0.0604882 0.618156 3.99243
-0.113575 0.231064 3.98893
-0.0273188 0.528707 4.08169
-0.0520541 0.550969 4.04998
-0.0277538 0.557406 4.05625
-0.0908589 0.492645 4.03295
-0.0267087 0.180086 4.01535
-0.0260436 0.215902 4.01544
-0.0707942 0.216756 4.01025
-0.177695 0.280631 3.9494
-0.147661 0.421561 3.9872
-0.147233 0.252229 3.96823
-0.205013 0.426421 3.97582
-0.172104 0.395124 3.98086
-0.229389 0.382854 3.95405
-0.0801075 0.182452 4.00753
-0.107803 0.477543 4.0144
-0.197653 0.258497 3.92732
-0.162325 0.228608 3.9507
-0.202387 0.313779 3.94336
-0.291309 0.366507 3.8595
-0.232802 0.307876 3.91976
-0.304126 0.342096 3.79831
-0.194722 0.361647 3.96668
-0.0886878 0.517512 4.01198
-0.0903349 0.436878 4.07483
-0.109467 0.431507 4.04781
-0.0782981 0.455145 4.09362
-0.10287 0.637721 3.96349
-0.142283 0.649602 3.96911
-0.176494 0.650215 3.96803
-0.205864 0.644243 3.95711
-0.226078 0.631508 3.94045
-0.243502 0.58644 3.90047
-0.322402 0.513924 3.78114
-0.225384 0.552629 3.92144
-0.198806 0.546488 3.93735
-0.164492 0.547603 3.94736
-0.132463 0.554175 3.95165
-0.108399 0.563331 3.95318
-0.0924058 0.572414 3.95499
-0.323088 0.50972 3.68142
-0.109625 0.424921 4.03492
-0.072063 0.510937 4.05336
-0.0707994 0.434487 4.09586
-0.0555637 0.420815 4.08514
-0.0708339 0.430314 4.08278
-0.102941 0.416764 4.0269
-0.0506774 0.417875 4.09214
-0.0512286 0.412012 4.06145
-0.0945884 0.593584 3.94157
-0.0794406 0.587587 3.95861
-0.0717638 0.583118 3.97854
-0.210178 0.596879 3.92782
-0.222897 0.60812 3.92652
-0.00442249 0.524467 4.07289
0.161579 0.59374 3.92449
-0.00244198 0.416556 4.05879
0.263295 0.698 3.79539
0.0867221 0.574299 3.95316
0.113255 0.571945 3.95071
0.139266 0.572185 3.94274
0.174983 0.583892 3.92007
0.0636047 0.580378 3.94978
0.123822 0.63712 3.96185
0.0957328 0.636046 3.95976
0.149272 0.632685 3.95306
0.166584 0.623185 3.94139
0.19798 0.567119 3.90546
0.0757014 0.19643 3.97414
0.171633 0.598288 3.9156
0.277195 0.577237 3.78585
0.227992 0.584452 3.87761
0.114245 0.459068 3.97819
0.00986522 0.342741 4.03647
0.0070243 0.317061 4.02172
0.0499373 0.337855 4.01802
0.075654 0.331512 3.99527
0.0370914 0.318133 4.009
0.0595657 0.318834 3.9882
0.106905 0.294055 3.95562
-0.00549647 0.430092 4.10621
-0.00124601 0.458868 4.11386
0.210032 0.653389 3.93143
0.0559178 0.527595 3.98274
0.0643982 0.441763 4.03725
0.066214 0.457231 4.02887
0.198129 0.464287 3.94086
-0.00222294 0.494659 4.09915
0.144075 0.686295 3.97511
0.182054 0.674599 3.95498
0.235852 0.748848 3.84613
0.0275976 0.665788 4.00107
0.070272 0.6283 3.95264
0.130249 0.319771 3.94748
0.256052 0.312563 3.72044
0.0431149 0.425194 4.0281
0.0182729 0.415042 4.03088
0.102723 0.321546 3.9494
0.0924771 0.32203 3.9557
0.197189 0.693444 3.94119
0.0665969 0.430329 4.02201
0.0933181 0.686174 3.99055
0.0988264 0.709878 3.99512
0.127026 0.815624 3.94587
0.216537 0.722195 3.89953
0.10916 0.76452 3.97141
0.226582 0.66612 3.90843
0.245021 0.680388 3.8541
0.00902395 0.326959 4.03191
0.0423153 0.325438 4.01469
0.0670615 0.324657 3.99372
0.0358097 0.420112 4.02218
0.0972969 0.32189 3.95233
0.0834962 0.316188 3.97113
0.0901716 0.322 3.95669
0.0273516 0.432239 4.06735
0.0558061 0.321281 3.98373
0.032214 0.318245 3.99869
0.00432578 0.315457 4.01098
0.013171 0.247353 4.01051
0.0111506 0.277569 4.02918
0.00920177 0.293374 4.02897
0.00639444 0.305457 4.02044
0.00443429 0.31353 4.01507
0.0576281 0.318154 3.98646
0.0615142 0.315806 3.991
0.0669032 0.309344 3.99541
0.0706952 0.300026 3.99118
0.0969919 0.361225 3.98619
0.277786 0.450912 3.67994
0.072486 0.319086 3.96979
0.077666 0.318963 3.97193
0.00788878 0.401763 4.03481
0.0556258 0.413522 4.00265
0.0129401 0.408 4.03329
0.0851749 0.512592 3.97319
0.130441 0.495466 3.96429
0.0710225 0.445431 4.01334
0.1931 0.789467 3.89892
0.173337 0.751472 3.93705
0.153745 0.709483 3.96928
0.0821096 0.275375 3.97509
0.0361766 0.703988 4.00936
0.0448231 0.765033 3.99121
0.0565763 0.826238 3.97269
0.162027 0.575771 3.93083
0.228639 0.54804 3.88927
0.0490981 0.586941 3.94689
0.197357 0.616075 3.91782
0.0359969 0.545001 3.99342
0.0455111 0.450305 4.06461
0.259231 0.528179 3.85995
0.210476 0.530613 3.91448
0.175567 0.521654 3.93972
0.122636 0.52543 3.95365
0.0840014 0.536015 3.96013
0.0558058 0.54819 3.96742
-0.00198582 0.581879 4.02212
0.259572 0.47151 3.86746
0.221384 0.621361 3.90429
-0.0143044 0.4157 4.09451
0.0549292 0.499936 3.9948
0.280909 0.577552 3.70006
0.0337267 0.562691 3.97178
0.0719272 0.44419 3.98566
0.181578 0.597435 3.91066
0.0477314 0.469278 4.05382
0.272146 0.382567 3.69279
0.0500297 0.596043 3.9406
0.0231369 0.484852 4.08173
0.198716 0.252817 3.8626
0.194209 0.21788 3.81842
0.281339 0.45883 3.7727
0.236573 0.288368 3.82689
0.261235 0.632932 3.81307
0.0791393 0.167442 3.96059
-0.0201268 0.40978 4.0597
0.0805098 0.480326 3.98388
0.251962 0.578683 3.85086
0.134176 0.588832 3.94065
0.111352 0.587764 3.94779
0.089416 0.310766 3.9665
0.258053 0.414109 3.85814
0.0268766 0.133146 3.95914
0.109762 0.162236 3.89811
0.147954 0.184025 3.86261
0.0897042 0.58947 3.94907
0.0690707 0.593065 3.94613
0.0558462 0.594673 3.94114
0.241483 0.627163 3.87695
0.0744894 0.608202 3.94971
0.0984883 0.611889 3.95381
0.119904 0.612251 3.95242
0.141754 0.608965 3.94569
0.156329 0.603995 3.93677
0.275944 0.64415 3.74155
0.150055 0.59104 3.93225
0.0701083 0.375151 4.00436
0.0431453 0.42903 4.03734
0.0118648 0.379482 4.0336
0.156532 0.218032 3.89256
0.118871 0.191724 3.92462
0.0309084 0.151816 3.9914
0.228758 0.257518 3.76673
0.0576282 0.601173 3.9448
0.0169003 0.536852 4.03085
0.0708411 0.144419 3.935
0.276739 0.396221 3.77678
0.0331901 0.315974 4.00229
0.0372307 0.310449 4.00763
0.0410529 0.300804 4.01379
0.0431284 0.286827 4.01183
0.0516537 0.259088 3.99573
0.0807508 0.32058 3.97006
0.0877037 0.323127 3.97044
0.0953512 0.327361 3.97042
0.120108 0.342998 3.96576
0.224463 0.401973 3.91167
0.0159766 0.564957 4.00596
0.0279976 0.616818 3.9571
0.045301 0.611108 3.94863
0.0753607 0.323557 3.96804
0.22651 0.33251 3.87414
0.00638338 0.619251 3.99251
0.064889 0.227661 3.98393
-0.0025911 0.551571 4.0494
0.038018 0.49351 4.02997
0.0206267 0.214793 4.0066
0.129372 0.277961 3.94196
0.0953632 0.422515 3.97881
0.0993369 0.248625 3.96142
0.161459 0.427469 3.96588
0.123003 0.395842 3.97233
0.187724 0.382686 3.94297
0.0284929 0.179589 4.00511
0.0560899 0.478525 4.01017
0.149733 0.252914 3.9195
0.112274 0.222489 3.94312
0.154692 0.312528 3.93694
0.251936 0.365084 3.84912
0.189514 0.304651 3.91024
0.264206 0.338829 3.78983
0.148214 0.362107 3.95836
0.0354025 0.518579 4.01178
0.036708 0.437114 4.07147
0.0557427 0.431891 4.04033
0.023292 0.455342 4.09092
0.0496306 0.639829 3.96416
0.0927809 0.653704 3.9673
0.130182 0.655791 3.96611
0.161846 0.650218 3.95555
0.184778 0.637468 3.93895
0.202149 0.591261 3.89847
0.28264 0.518806 3.77829
0.182772 0.556451 3.91966
0.154872 0.549962 3.93616
0.118636 0.550417 3.94802
0.0845093 0.556508 3.95373
0.0579519 0.565037 3.95425
0.0395677 0.57379 3.95651
0.278839 0.514865 3.68162
0.0553106 0.425322 4.0269
0.0170964 0.51159 4.05313
0.0152551 0.434505 4.09264
0.000541504 0.420588 4.08219
0.0157365 0.430219 4.07987
0.0474483 0.416884 4.01793
-0.00514458 0.417796 4.08976
-0.00986924 0.411807 4.05885
0.0395832 0.594822 3.94394
0.0252527 0.588764 3.9595
0.0175651 0.584267 3.97882
0.165011 0.600543 3.92759
0.180457 0.613006 3.92545
