ply
format ascii 1.0
comment Created by Open3D
element vertex 468
property double x
property double y
property double z
end_header
0.00573223 0.318811 4.16054
0.00474862 0.385313 4.21145
0.0047918 0.365983 4.15991
-0.016688 0.459888 4.17258
0.00394201 0.407254 4.21805
0.00312582 0.435523 4.20586
0.00327572 0.510812 4.13203
-0.161236 0.528614 4.03826
0.00306737 0.55738 4.106
0.00309318 0.584969 4.10378
0.00348334 0.694061 4.06161
0.00578981 0.30733 4.15731
0.00593901 0.298043 4.15066
0.00582395 0.294488 4.14221
0.00747674 0.226743 4.10735
0.00742862 0.214891 4.11126
0.00750965 0.19973 4.11545
0.00779758 0.185245 4.11035
0.00773168 0.163954 4.09216
0.00491856 0.37247 4.19951
-0.0177832 0.376775 4.17069
-0.234919 0.620716 3.91676
-0.0942148 0.506916 4.06047
-0.117013 0.504894 4.05954
-0.139444 0.506218 4.05379
-0.172861 0.5203 4.03633
-0.0755473 0.512765 4.05918
-0.124509 0.563192 4.07047
-0.0994501 0.561827 4.0674
-0.149221 0.561875 4.06491
-0.166287 0.555622 4.05448
-0.189693 0.506585 4.0262
-0.0945063 0.145952 4.06944
-0.170115 0.534608 4.03077
-0.250121 0.525515 3.92393
-0.212716 0.52288 4.00126
-0.120575 0.412775 4.09898
-0.0342284 0.322692 4.15663
-0.0295604 0.298107 4.1452
-0.0746402 0.315423 4.13913
-0.0983302 0.307298 4.11297
-0.0589788 0.297178 4.13094
-0.0801164 0.295481 4.10833
-0.124814 0.25206 4.06454
-0.0153799 0.385827 4.20852
-0.0192238 0.406447 4.21424
-0.196454 0.573257 4.04426
-0.0682003 0.4681 4.09488
-0.0770195 0.397845 4.15226
-0.0784378 0.410008 4.14456
-0.19093 0.418222 4.0685
-0.0182992 0.434603 4.19824
-0.139245 0.59102 4.08179
-0.172806 0.586795 4.0653
-0.210391 0.654459 3.95516
-0.0416975 0.564621 4.09952
-0.0780508 0.555692 4.06042
-0.142437 0.286778 4.0659
-0.240355 0.2958 3.89405
-0.0579181 0.38692 4.14466
-0.0372545 0.376957 4.15016
-0.123278 0.28446 4.06408
-0.110237 0.282315 4.06858
-0.183769 0.601958 4.05092
-0.0792973 0.388498 4.14071
-0.0957693 0.584177 4.0935
-0.0996701 0.600359 4.09509
-0.119651 0.690537 4.03443
-0.196084 0.627625 4.00776
-0.107019 0.649246 4.06453
-0.208404 0.584772 4.0218
-0.220448 0.601785 3.96866
-0.0329776 0.30849 4.15237
-0.0664397 0.304959 4.13538
-0.0893532 0.300831 4.11291
-0.0523958 0.382494 4.1409
-0.11685 0.283121 4.06641
-0.104496 0.26067 4.07384
-0.105508 0.282161 4.06954
-0.0427915 0.389503 4.17448
-0.0748873 0.296006 4.10683
-0.0532895 0.29704 4.12467
-0.0266163 0.295589 4.13749
-0.0358951 0.16971 4.09002
-0.0347122 0.191933 4.10734
-0.0324672 0.205854 4.11088
-0.0292668 0.221315 4.10635
-0.0260814 0.231395 4.10297
-0.0746448 0.251241 4.08143
-0.0800869 0.247048 4.08531
-0.0880339 0.2403 4.08774
-0.0940564 0.233755 4.0829
-0.111862 0.329779 4.10669
-0.256975 0.428395 3.85098
0.00519963 0.370885 4.17317
-0.0883718 0.262855 4.07078
-0.0967577 0.262512 4.07391
-0.0294157 0.366155 4.15359
-0.0717191 0.376924 4.12603
-0.0331291 0.371274 4.15194
-0.0941702 0.456633 4.09014
-0.133892 0.443593 4.0857
-0.0835872 0.401154 4.13216
-0.173726 0.67757 3.99768
-0.15977 0.644827 4.03929
-0.145951 0.608639 4.07291
-0.103746 0.221138 4.07193
-0.0483396 0.591113 4.10379
-0.0550417 0.647107 4.07816
-0.0630609 0.694455 4.0563
-0.160324 0.511246 4.04469
-0.21358 0.492781 4.01441
-0.0636389 0.520065 4.05647
-0.189767 0.547805 4.0326
-0.0504625 0.480291 4.1029
-0.0593443 0.403377 4.17356
-0.238949 0.477767 3.9922
-0.199389 0.476729 4.03777
-0.170794 0.467516 4.05906
-0.126183 0.46871 4.07057
-0.0926304 0.4764 4.07393
-0.0673905 0.48514 4.07945
-0.0183378 0.50666 4.12304
-0.242624 0.43017 4.00442
-0.205616 0.549731 4.02015
-0.00746386 0.373227 4.19842
-0.0690018 0.446399 4.10941
-0.255582 0.534054 3.85239
-0.049068 0.497127 4.0815
-0.0859425 0.403771 4.10839
-0.180256 0.535132 4.02743
-0.0608683 0.417881 4.16359
-0.254305 0.36629 3.86718
-0.0641166 0.528883 4.04824
-0.0393655 0.42719 4.18477
-0.195971 0.225962 3.99722
-0.194703 0.191795 3.96616
-0.261161 0.428758 3.92621
-0.22339 0.263422 3.97524
-0.235321 0.568337 3.9399
-0.0990864 0.114955 4.06024
-0.00426702 0.372173 4.17197
-0.0912624 0.430889 4.10281
-0.230543 0.520476 3.97805
-0.136383 0.521013 4.05122
-0.115772 0.519127 4.0566
-0.111571 0.259034 4.07122
-0.243601 0.380738 4.00288
-0.0511477 0.066482 4.05791
-0.130994 0.121147 4.01407
-0.161512 0.152322 3.9916
0.00359656 0.643471 4.08283
0.00854974 0.0565917 4.06372
-0.097751 0.520178 4.05702
-0.0807007 0.523621 4.05393
-0.0697715 0.526989 4.04877
-0.22012 0.555983 3.99586
-0.0823509 0.53541 4.05335
-0.100786 0.537197 4.05725
-0.118263 0.53889 4.05725
-0.138215 0.538347 4.05302
-0.152869 0.536405 4.04609
-0.248833 0.584567 3.87928
-0.150554 0.524493 4.04446
0.00536541 0.350824 4.15473
-0.0877013 0.342413 4.12565
-0.0577535 0.390091 4.15086
-0.0344135 0.348245 4.15144
0.00322849 0.534721 4.10972
-0.165398 0.186812 4.01508
-0.134054 0.151309 4.03702
-0.0510877 0.087291 4.08098
-0.21889 0.236272 3.93065
-0.0698212 0.531977 4.05016
-0.0345935 0.47248 4.13442
0.00865203 0.0763188 4.08484
-0.0956574 0.0905321 4.03948
-0.258959 0.37169 3.93483
-0.0527315 0.240275 4.09291
-0.058114 0.233181 4.09586
-0.064053 0.22218 4.09807
-0.0682421 0.209916 4.09337
-0.0761483 0.191718 4.08127
-0.0988273 0.291026 4.08768
-0.107142 0.294583 4.08704
-0.11499 0.29873 4.08724
-0.131433 0.312762 4.08382
-0.213234 0.364992 4.04717
-0.0333579 0.495358 4.11125
-0.0443042 0.541409 4.06343
-0.0586781 0.541205 4.05453
-0.0917973 0.293895 4.08734
-0.216494 0.30334 4.01408
-0.0252922 0.535323 4.09351
-0.08579 0.1727 4.07534
0.00312668 0.461816 4.18015
-0.0177261 0.482711 4.14797
0.00314052 0.486583 4.15387
-0.0535152 0.438881 4.13913
0.00835628 0.106011 4.09501
0.00786835 0.138991 4.09445
-0.0418279 0.147123 4.08943
-0.141502 0.243276 4.05502
-0.105184 0.384053 4.10153
-0.11739 0.204924 4.06326
-0.159452 0.384601 4.08989
-0.128217 0.359254 4.09403
-0.18053 0.346428 4.06908
-0.0482949 0.11683 4.08963
-0.0698778 0.428423 4.1252
-0.158827 0.219806 4.03795
-0.127855 0.181846 4.05209
-0.15983 0.280943 4.05771
-0.238842 0.3361 3.99652
-0.188152 0.273269 4.03666
-0.247319 0.315993 3.94841
-0.149208 0.329174 4.07953
-0.0510735 0.459649 4.12112
-0.0511062 0.392883 4.17816
-0.0691384 0.390215 4.15568
-0.0396237 0.405685 4.19546
-0.0605737 0.5594 4.06795
-0.0973466 0.572645 4.07366
-0.130286 0.575787 4.07485
-0.159092 0.572658 4.06721
-0.179798 0.563776 4.05191
-0.19396 0.528088 4.01774
-0.258135 0.478299 3.9243
-0.177844 0.497135 4.03799
-0.153075 0.489516 4.05196
-0.122262 0.487856 4.06182
-0.0928188 0.49244 4.06468
-0.0701715 0.499677 4.06598
-0.0545248 0.50729 4.06698
-0.255707 0.483283 3.84314
-0.0689502 0.385438 4.1447
-0.0353156 0.451501 4.15688
-0.0324294 0.389756 4.1966
-0.0190876 0.376957 4.18836
-0.0324132 0.386423 4.18569
-0.0632268 0.378881 4.13754
-0.0148191 0.374578 4.19492
-0.0122417 0.373544 4.17069
-0.0547959 0.528456 4.05312
-0.0423341 0.519383 4.06787
-0.0354171 0.512502 4.08646
-0.162418 0.534912 4.03947
-0.178667 0.546854 4.04083
0.0229782 0.45953 4.17215
0.165809 0.520635 4.03696
0.0278764 0.375827 4.17109
0.242562 0.61362 3.91407
0.100293 0.501736 4.05897
0.122983 0.499289 4.05808
0.144988 0.500444 4.05249
0.175769 0.512227 4.03567
0.082204 0.508267 4.05818
0.128127 0.555444 4.0685
0.105229 0.555041 4.06571
0.151623 0.552952 4.06255
0.16778 0.546191 4.05306
0.193413 0.499156 4.02697
0.110469 0.141994 4.07145
0.174066 0.525993 4.02953
0.256669 0.518528 3.92275
0.215586 0.514744 4.00096
0.127529 0.4097 4.1018
0.0453699 0.321703 4.15795
0.0413284 0.296916 4.14632
0.0867004 0.313227 4.14173
0.112346 0.304474 4.11584
0.0710863 0.295482 4.13319
0.0939138 0.29304 4.11106
0.141691 0.247835 4.06826
0.0246654 0.384865 4.2092
0.0263012 0.405669 4.21483
0.19575 0.562283 4.04217
0.0757182 0.465925 4.09547
0.0851904 0.395853 4.15409
0.0862235 0.408121 4.14581
0.196099 0.413224 4.07193
0.0249531 0.433896 4.19846
0.140238 0.580832 4.08009
0.172484 0.57566 4.06323
0.216295 0.646991 3.9523
0.0471347 0.561013 4.0989
0.0855645 0.550519 4.05916
0.158402 0.282718 4.06918
0.252598 0.290289 3.8949
0.0674956 0.384993 4.14606
0.0468421 0.375519 4.15238
0.14113 0.281103 4.06732
0.127463 0.279373 4.0718
0.183136 0.590534 4.04855
0.0872895 0.386231 4.14304
0.0989553 0.576929 4.09264
0.102163 0.59334 4.09362
0.124879 0.68561 4.03269
0.198749 0.618834 4.00503
0.1116 0.643479 4.0626
0.208858 0.573962 4.01964
0.225607 0.592877 3.96688
0.0441309 0.307435 4.15381
0.0789962 0.303075 4.13784
0.103318 0.298418 4.11592
0.0620517 0.381059 4.14265
0.134485 0.279895 4.06977
0.121469 0.257223 4.07727
0.122059 0.279576 4.0728
0.0523819 0.387948 4.17435
0.0878557 0.294289 4.10946
0.0653428 0.295633 4.12608
0.0380454 0.294732 4.13861
0.0508786 0.167641 4.09232
0.049764 0.189672 4.10882
0.0475223 0.204087 4.11194
0.0443754 0.219797 4.10757
0.0407986 0.22987 4.10362
0.0906762 0.248803 4.08387
0.096178 0.243994 4.08803
0.104091 0.236348 4.09141
0.110925 0.229683 4.08665
0.124204 0.327385 4.10984
0.269046 0.422481 3.85091
0.105351 0.26032 4.07293
0.113926 0.259193 4.07684
0.0395686 0.365039 4.15453
0.0816286 0.375227 4.12919
0.0431257 0.369907 4.15371
0.101137 0.453985 4.09123
0.139697 0.439688 4.08822
0.0914669 0.399248 4.13446
0.178184 0.670736 3.99493
0.16203 0.636233 4.0371
0.14749 0.598387 4.0709
0.120067 0.217163 4.07511
0.0531209 0.587349 4.10283
0.061355 0.644025 4.07742
0.0693832 0.691634 4.05556
0.16446 0.504342 4.0441
0.216508 0.485758 4.01549
0.070778 0.516012 4.05485
0.190915 0.538269 4.03151
0.0577235 0.478608 4.10312
0.0676314 0.401321 4.17476
0.242863 0.470395 3.99315
0.203256 0.470706 4.039
0.175975 0.46245 4.061
0.132698 0.464599 4.07153
0.0996452 0.472792 4.07468
0.0746338 0.48268 4.07936
0.0253583 0.505781 4.12277
0.247668 0.424202 4.00628
0.207316 0.540646 4.01845
0.0166314 0.372834 4.19823
0.0769413 0.44458 4.11037
0.265816 0.527788 3.85033
0.0567057 0.495147 4.08097
0.095338 0.401822 4.11132
0.182708 0.525863 4.02673
0.0684581 0.416274 4.1647
0.266486 0.36012 3.86842
0.0719874 0.524704 4.04646
0.0460068 0.426276 4.18504
0.209806 0.219869 3.99952
0.208717 0.185851 3.96732
0.270533 0.421565 3.92698
0.235126 0.25759 3.97754
0.242063 0.561043 3.93771
0.115315 0.110343 4.06223
0.0149424 0.371913 4.17227
0.0988662 0.428564 4.10488
0.23422 0.512643 3.9775
0.142432 0.514219 4.04949
0.122115 0.512739 4.05485
0.128736 0.255335 4.07485
0.250274 0.374748 4.00555
0.0676974 0.064351 4.059
0.147872 0.115812 4.01531
0.177687 0.146558 3.99269
0.10367 0.514132 4.0554
0.0873268 0.51853 4.05249
0.0771897 0.522442 4.04721
0.222693 0.547065 3.9943
0.0899085 0.530765 4.05145
0.10765 0.531297 4.0554
0.125004 0.532011 4.05516
0.143605 0.530661 4.05088
0.157639 0.528162 4.04436
0.258351 0.577951 3.8769
0.156054 0.516968 4.04295
0.0987351 0.340643 4.12885
0.0674203 0.388021 4.15259
0.0447023 0.347651 4.15279
0.180491 0.180895 4.01768
0.150183 0.145972 4.03942
0.0673408 0.0848181 4.08218
0.231582 0.23087 3.93148
0.0774366 0.527431 4.04813
0.0418282 0.471478 4.13499
0.112598 0.0864463 4.04072
0.268683 0.364985 3.9365
0.0682895 0.23838 4.0942
0.0737781 0.230486 4.09793
0.0795949 0.219001 4.10027
0.0848808 0.206475 4.09582
0.0918569 0.188309 4.08408
0.114109 0.288965 4.08995
0.123041 0.291773 4.08983
0.130911 0.295944 4.09006
0.145999 0.309731 4.08683
0.2197 0.359634 4.05104
0.0405254 0.49375 4.11125
0.0521954 0.538265 4.06229
0.0665621 0.537615 4.05273
0.106769 0.291627 4.09012
0.226501 0.298006 4.01718
0.0322638 0.533178 4.09341
0.101107 0.168977 4.07783
0.0244603 0.481809 4.1482
0.0610919 0.437603 4.1402
0.0568629 0.145058 4.09095
0.156337 0.238185 4.0585
0.114762 0.381551 4.10423
0.132746 0.200116 4.0664
0.166029 0.380269 4.09375
0.138157 0.355772 4.09712
0.188615 0.341642 4.07291
0.0636536 0.114574 4.09054
0.0780676 0.426704 4.12687
0.173679 0.214452 4.04075
0.1438 0.176823 4.0546
0.17337 0.276663 4.06085
0.246971 0.330252 4.00004
0.200077 0.267778 4.03985
0.25744 0.309931 3.94995
0.160463 0.325557 4.08275
0.0588308 0.45834 4.12147
0.0599237 0.391163 4.17838
0.0776294 0.388151 4.15732
0.0478818 0.404626 4.19597
0.0679662 0.55519 4.0665
0.102231 0.565587 4.07206
0.133132 0.567225 4.07316
0.16048 0.563113 4.06537
0.180509 0.553665 4.05009
0.196095 0.519773 4.01712
0.265559 0.471233 3.92365
0.18223 0.490564 4.03857
0.158738 0.483972 4.05281
0.128747 0.483052 4.0619
0.0994388 0.488231 4.06425
0.0770177 0.495936 4.06533
0.0621053 0.5043 4.06665
0.267548 0.477557 3.84198
0.0777377 0.383233 4.14684
0.0423793 0.450545 4.15725
0.0414835 0.388578 4.19698
0.0282552 0.375927 4.18888
0.0417167 0.384983 4.18595
0.0724231 0.376973 4.14033
0.023957 0.373471 4.19539
0.0226444 0.372718 4.17135
0.062689 0.524773 4.05192
0.0499428 0.516887 4.06684
0.0428529 0.510578 4.08637
0.166654 0.526213 4.03806
0.180136 0.5374 4.03923
