ply
format ascii 1.0
comment Created by Open3D
element vertex 468
property double x
property double y
property double z
end_header
0.104093 0.359119 3.79163
0.103356 0.446472 3.8519
0.104805 0.419969 3.78849
0.0796973 0.532076 3.8164
0.10248 0.473174 3.8596
0.100429 0.507511 3.84776
0.102894 0.589274 3.78007
-0.0820149 0.600274 3.67427
0.102003 0.63859 3.76272
0.101721 0.669023 3.76695
0.103628 0.791977 3.73463
0.10405 0.346491 3.78828
0.104153 0.336815 3.77972
0.103833 0.332833 3.76812
0.107476 0.328754 3.76718
0.107627 0.318311 3.77171
0.106091 0.304684 3.77667
0.105399 0.289444 3.77308
0.104943 0.259981 3.74837
0.101457 0.43235 3.83819
0.0785387 0.433441 3.80199
-0.190814 0.694366 3.54605
-0.00896414 0.577642 3.70349
-0.0357481 0.575464 3.70088
-0.0617999 0.576025 3.69263
-0.0962571 0.590649 3.66957
0.0145218 0.58412 3.7016
-0.0471848 0.637062 3.71012
-0.0174494 0.635507 3.70931
-0.0728732 0.634402 3.70092
-0.0899892 0.62719 3.68928
-0.117908 0.571556 3.65453
0.000361695 0.207685 3.71132
-0.0920048 0.60665 3.66579
-0.198009 0.582507 3.53732
-0.148197 0.586982 3.62677
-0.028625 0.466808 3.72311
0.0723838 0.36233 3.78695
0.0768171 0.335719 3.7755
0.038411 0.352305 3.77086
0.017197 0.340244 3.75304
0.0511211 0.332948 3.76534
0.0339541 0.329032 3.74823
-0.0164759 0.298179 3.71117
0.0809078 0.447059 3.84695
0.0767263 0.472625 3.85387
-0.133664 0.646965 3.68091
0.0229526 0.533986 3.73111
0.017311 0.453701 3.77948
0.0151752 0.467877 3.77123
-0.111582 0.468506 3.6892
0.077111 0.504771 3.84009
-0.0649422 0.669268 3.7279
-0.104928 0.662825 3.70751
-0.160565 0.737898 3.59759
0.0509431 0.644627 3.75445
0.00956807 0.628589 3.70333
-0.0365927 0.321515 3.70603
-0.184698 0.327969 3.47213
0.03973 0.438999 3.77076
0.0623373 0.430784 3.77393
-0.00328824 0.321721 3.7148
0.00635653 0.324098 3.71972
-0.119502 0.679305 3.69275
0.0162193 0.442018 3.76436
-0.0126962 0.664015 3.74338
-0.0182385 0.684285 3.74686
-0.0478744 0.788704 3.6986
-0.139703 0.709326 3.65114
-0.0290628 0.739322 3.72523
-0.149891 0.657761 3.65732
-0.169486 0.674658 3.60406
0.0738534 0.346491 3.78439
0.0463101 0.34005 3.77024
0.0260713 0.333899 3.75285
0.0471559 0.434086 3.7661
0.0025414 0.322552 3.71746
0.0129029 0.320089 3.73116
0.00710286 0.325662 3.72008
0.050378 0.446805 3.81
0.0362757 0.330752 3.74374
0.055588 0.332099 3.75569
0.0784676 0.332648 3.7654
0.0702196 0.259581 3.74352
0.0730718 0.290312 3.76949
0.0757334 0.306294 3.77369
0.0794412 0.319892 3.76887
0.0812771 0.328354 3.76453
0.0363903 0.326711 3.74198
0.0324006 0.32337 3.74519
0.0266024 0.316274 3.74691
0.0214544 0.306926 3.74323
-0.0065141 0.369654 3.74025
-0.200471 0.464336 3.4358
0.105751 0.426872 3.80664
0.0224429 0.325575 3.73074
0.0185988 0.324011 3.73207
0.0712126 0.418981 3.77872
0.0298689 0.425565 3.74575
0.0669341 0.424504 3.7768
-0.0043862 0.518748 3.72193
-0.0466597 0.500382 3.71292
0.0118269 0.456168 3.75611
-0.115159 0.770395 3.65088
-0.0937515 0.732245 3.68953
-0.0737208 0.689384 3.72161
0.00494837 0.282023 3.72467
0.0420035 0.676047 3.76221
0.0338191 0.738119 3.7449
0.0228684 0.794705 3.72438
-0.083956 0.580745 3.68017
-0.146966 0.551867 3.63761
0.0295607 0.590701 3.70029
-0.120281 0.618264 3.66702
0.0414612 0.550541 3.74221
0.0337509 0.463088 3.80598
-0.179045 0.533165 3.60919
-0.128605 0.53396 3.66302
-0.0931907 0.524461 3.68786
-0.0414699 0.529534 3.70371
-0.00426869 0.541047 3.71038
0.0226944 0.553242 3.71785
0.0785271 0.583059 3.77035
-0.177029 0.477049 3.61746
-0.144133 0.620134 3.65295
0.0874227 0.433329 3.83638
0.0251995 0.50814 3.74129
-0.204307 0.584667 3.45415
0.0444034 0.566583 3.72339
0.0135485 0.454488 3.73018
-0.103053 0.605029 3.66109
0.0316158 0.480378 3.79509
-0.198124 0.398043 3.44574
0.0287841 0.599567 3.69419
0.0532449 0.49535 3.82245
-0.125687 0.262833 3.60704
-0.128483 0.229456 3.56247
-0.200555 0.469019 3.52502
-0.160055 0.300727 3.57344
-0.183744 0.633385 3.56405
-0.00897989 0.175451 3.69706
0.0953948 0.428208 3.80413
0.00189125 0.488424 3.72928
-0.172143 0.581812 3.60025
-0.055401 0.59229 3.6909
-0.0330055 0.590211 3.69876
0.00645659 0.314666 3.72677
-0.173682 0.422546 3.60785
0.0430397 0.136661 3.69632
-0.0463883 0.168988 3.63806
-0.0851583 0.193189 3.60496
0.103858 0.733863 3.75239
0.103247 0.135262 3.70795
-0.0116282 0.591853 3.70032
0.00903464 0.595744 3.69862
0.0227487 0.597972 3.69507
-0.16383 0.624794 3.62544
0.00412594 0.613617 3.70066
-0.0200371 0.619077 3.70244
-0.0423763 0.620476 3.70052
-0.0646925 0.618004 3.69343
-0.0781739 0.613227 3.68433
-0.201513 0.646771 3.49404
-0.0707677 0.595946 3.68242
0.105533 0.400573 3.78338
0.0163839 0.38671 3.7525
0.0392846 0.443036 3.77965
0.0688248 0.397008 3.77927
0.102412 0.614997 3.76053
-0.0871115 0.227459 3.63451
-0.050082 0.199782 3.66334
0.0413908 0.160249 3.72641
-0.160082 0.271413 3.51537
0.0208559 0.605539 3.69813
0.0604803 0.543185 3.77678
0.102227 0.158682 3.73787
-0.00496408 0.149278 3.67282
-0.196992 0.408804 3.52732
0.0577377 0.328173 3.75471
0.053305 0.321747 3.7589
0.0484727 0.31128 3.76209
0.0449553 0.296746 3.75858
0.0329872 0.268571 3.73798
0.0168805 0.326002 3.73326
0.010097 0.327473 3.73404
0.00182922 0.331059 3.73359
-0.0259514 0.347292 3.72455
-0.135866 0.409348 3.65944
0.0612991 0.568545 3.75482
0.0524586 0.613477 3.70984
0.0334577 0.612293 3.70211
0.0205435 0.329466 3.7307
-0.142497 0.342117 3.62185
0.071256 0.612119 3.74282
0.0158313 0.238519 3.72177
0.101213 0.536053 3.82387
0.0785278 0.556844 3.79429
0.102589 0.562386 3.80094
0.0412812 0.502848 3.77361
0.101911 0.191151 3.75196
0.103487 0.22869 3.7504
0.0593773 0.227919 3.74063
-0.0471672 0.284629 3.69139
-0.00866996 0.432198 3.72405
-0.0192233 0.257043 3.70446
-0.0711936 0.434553 3.70991
-0.0336092 0.4043 3.72079
-0.0967978 0.389571 3.68854
0.0472417 0.192023 3.74047
0.024643 0.488202 3.75397
-0.0743465 0.261138 3.66458
-0.0368601 0.231438 3.68399
-0.0684846 0.317185 3.68926
-0.168655 0.375366 3.59737
-0.107722 0.311732 3.65691
-0.186502 0.352488 3.53916
-0.0561882 0.367142 3.70942
0.0429881 0.526116 3.75824
0.0414927 0.451106 3.81277
0.0262328 0.444899 3.78187
0.0537016 0.468896 3.8325
0.0311106 0.631613 3.71773
-0.0129056 0.644846 3.72046
-0.0517524 0.649001 3.7181
-0.0846084 0.646405 3.70718
-0.10834 0.636675 3.68983
-0.123243 0.595519 3.64791
-0.202938 0.526792 3.5309
-0.10251 0.561002 3.66853
-0.0752748 0.553547 3.68555
-0.0395841 0.554276 3.69845
-0.00563238 0.560713 3.7036
0.020639 0.56934 3.70575
0.0392363 0.577138 3.70857
-0.201243 0.525073 3.43781
0.027607 0.43802 3.76909
0.0601041 0.52002 3.79718
0.0609279 0.449904 3.8334
0.0739654 0.436819 3.82322
0.0607211 0.445325 3.82108
0.0361389 0.429882 3.76042
0.0792222 0.434817 3.8307
0.0857127 0.429528 3.80235
0.0402457 0.597931 3.69731
0.0538987 0.59021 3.71162
0.0604726 0.585312 3.73004
-0.0859448 0.609533 3.67611
-0.102893 0.618194 3.67359
0.124119 0.531943 3.81393
0.278363 0.594756 3.67253
0.126877 0.433703 3.80589
0.372946 0.672775 3.55024
0.203624 0.574603 3.69418
0.227543 0.571965 3.69308
0.251824 0.572185 3.68746
0.28391 0.585183 3.66761
0.185157 0.581239 3.69524
0.236224 0.629404 3.70576
0.210425 0.628461 3.7073
0.260872 0.626196 3.69851
0.276908 0.618707 3.68886
0.302379 0.566115 3.65713
0.194875 0.217495 3.72267
0.287561 0.599972 3.66496
0.379706 0.571306 3.54194
0.329512 0.58007 3.63208
0.222265 0.467056 3.72961
0.133489 0.363692 3.7878
0.127949 0.337183 3.77453
0.163441 0.355697 3.77208
0.18316 0.343805 3.75214
0.14918 0.335759 3.76279
0.167778 0.332162 3.7454
0.213302 0.303834 3.71693
0.122902 0.446822 3.85085
0.125048 0.472459 3.85769
0.311937 0.637571 3.68418
0.174892 0.532882 3.7303
0.179714 0.453997 3.78628
0.180126 0.468191 3.77727
0.290991 0.468722 3.6953
0.124293 0.504669 3.83917
0.253115 0.661114 3.73341
0.287549 0.653639 3.7124
0.345265 0.716136 3.60124
0.150221 0.642387 3.75327
0.190885 0.622813 3.70011
0.234487 0.326667 3.70899
0.365509 0.334366 3.48659
0.164016 0.439394 3.77798
0.14288 0.431058 3.78513
0.208956 0.325337 3.70916
0.194536 0.327789 3.7157
0.302087 0.668687 3.69956
0.180045 0.442766 3.77318
0.207441 0.658347 3.74788
0.212057 0.677871 3.75294
0.241491 0.773991 3.69964
0.321883 0.693679 3.6572
0.226457 0.729025 3.72787
0.328516 0.646607 3.66145
0.350433 0.658233 3.60961
0.130892 0.34816 3.78402
0.156062 0.343262 3.76841
0.175067 0.337414 3.7513
0.15775 0.434745 3.77517
0.201264 0.326128 3.7134
0.188579 0.323821 3.73146
0.190571 0.329568 3.71643
0.149788 0.447447 3.80962
0.161362 0.333629 3.74017
0.144587 0.334399 3.75202
0.125164 0.333809 3.76253
0.134834 0.262481 3.749
0.133317 0.29244 3.77138
0.132618 0.308283 3.77361
0.132601 0.321324 3.76738
0.13061 0.329544 3.76238
0.167068 0.329596 3.74114
0.168989 0.326456 3.7469
0.172935 0.319967 3.75094
0.179167 0.310882 3.74655
0.2056 0.372832 3.74632
0.393595 0.459693 3.4433
0.17928 0.328879 3.72611
0.183074 0.32741 3.73064
0.135782 0.419652 3.78354
0.173832 0.426971 3.75857
0.138965 0.42493 3.78506
0.198796 0.517509 3.72118
0.236608 0.499309 3.71555
0.184748 0.456846 3.76388
0.30139 0.750376 3.65495
0.281989 0.718441 3.69598
0.263431 0.680185 3.72773
0.192225 0.288299 3.72914
0.156924 0.672168 3.76408
0.168749 0.732393 3.74672
0.176861 0.786175 3.72842
0.271925 0.576435 3.67759
0.327131 0.546784 3.64345
0.176071 0.588097 3.69215
0.30349 0.610426 3.66773
0.158944 0.549284 3.73946
0.163922 0.463251 3.81069
0.354353 0.527655 3.61462
0.310352 0.530362 3.66594
0.278137 0.521863 3.69016
0.233378 0.527337 3.70163
0.200448 0.539287 3.70687
0.175825 0.551723 3.71491
0.127508 0.582212 3.76892
0.352642 0.475618 3.62293
0.322188 0.611426 3.65515
0.114093 0.433267 3.83647
0.17459 0.507675 3.7414
0.397095 0.570512 3.45708
0.15979 0.565173 3.71905
0.189726 0.455247 3.73929
0.294037 0.597778 3.65954
0.163366 0.48036 3.79991
0.385163 0.3985 3.45903
0.178675 0.597017 3.68444
0.143772 0.49525 3.82373
0.305927 0.275317 3.62669
0.307512 0.243961 3.58175
0.385582 0.465795 3.53416
0.336684 0.310319 3.59189
0.367553 0.618552 3.56831
0.20369 0.186937 3.70944
0.115946 0.427827 3.80593
0.193797 0.488268 3.73307
0.350931 0.573698 3.60474
0.252686 0.587641 3.68577
0.230043 0.586011 3.69043
0.195344 0.318482 3.72685
0.349199 0.424285 3.61883
0.160148 0.14372 3.70311
0.238886 0.184015 3.6515
0.271422 0.209192 3.62111
0.209197 0.587897 3.69174
0.192566 0.592424 3.68879
0.183657 0.595112 3.6845
0.340652 0.614368 3.62862
0.194587 0.609876 3.69144
0.211872 0.614011 3.69646
0.23339 0.615369 3.69595
0.255717 0.61238 3.69099
0.270286 0.606935 3.68354
0.391239 0.62754 3.49838
0.26806 0.591071 3.67883
0.184286 0.389231 3.75986
0.163321 0.4432 3.78849
0.138098 0.398353 3.78239
0.272629 0.241475 3.65485
0.239175 0.214051 3.68164
0.15776 0.166831 3.73377
0.338291 0.282374 3.53119
0.183916 0.602805 3.68699
0.142965 0.542583 3.7762
0.203429 0.161229 3.68195
0.377045 0.410136 3.54148
0.151066 0.330308 3.75248
0.15319 0.324239 3.7582
0.155629 0.314183 3.76242
0.159573 0.300432 3.75957
0.166317 0.27365 3.74138
0.182976 0.329542 3.72941
0.191431 0.330953 3.72947
0.198825 0.334402 3.72961
0.224743 0.351301 3.72704
0.311228 0.412222 3.67194
0.143305 0.567421 3.75273
0.157135 0.611457 3.70733
0.173141 0.609073 3.69383
0.177064 0.332786 3.72574
0.320932 0.349001 3.63829
0.134439 0.611014 3.74152
0.179696 0.246579 3.73039
0.125276 0.556267 3.79493
0.158209 0.502537 3.77662
0.142424 0.232504 3.74641
0.237998 0.293001 3.70514
0.208224 0.433428 3.73457
0.210291 0.266202 3.71693
0.257841 0.436158 3.72193
0.229533 0.406607 3.73055
0.279496 0.393627 3.70258
0.152308 0.197666 3.74571
0.17287 0.488133 3.75827
0.261702 0.272559 3.6826
0.228361 0.243432 3.70075
0.259219 0.323984 3.69869
0.344362 0.379899 3.61357
0.288784 0.320451 3.67433
0.363812 0.358051 3.55522
0.248226 0.371132 3.71891
0.158526 0.525607 3.75714
0.15597 0.451675 3.81546
0.172075 0.445271 3.79111
0.146653 0.469152 3.83537
0.173875 0.628804 3.71334
0.2094 0.639824 3.71996
0.242633 0.64151 3.71877
0.271966 0.637294 3.70765
0.29197 0.627507 3.69088
0.308455 0.5891 3.65005
0.386361 0.519144 3.53517
0.2892 0.556464 3.66946
0.263603 0.549922 3.68549
0.231186 0.551378 3.69514
0.20149 0.558333 3.69798
0.17925 0.567121 3.70202
0.165176 0.575391 3.7039
0.395791 0.515525 3.43983
0.171544 0.438689 3.77884
0.143136 0.519881 3.79586
0.139986 0.45043 3.83741
0.124547 0.437424 3.82756
0.139122 0.446017 3.82429
0.165023 0.430829 3.77197
0.120789 0.43488 3.83431
0.122475 0.429731 3.80637
0.169398 0.595507 3.69083
0.153405 0.588659 3.70816
0.145253 0.584017 3.72833
0.279417 0.602887 3.67591
0.289966 0.61031 3.67494
