ply
format ascii 1.0
comment Created by Open3D
element vertex 468
property double x
property double y
property double z
end_header
0.237673 0.298517 3.51332
0.23872 0.397991 3.57373
0.238829 0.361255 3.51022
0.216103 0.480563 3.5382
0.238298 0.425022 3.57945
0.235703 0.458141 3.56555
0.23535 0.537404 3.50457
0.0640897 0.545657 3.3996
0.23338 0.589604 3.49164
0.232176 0.62274 3.49781
0.229898 0.763588 3.46406
0.237172 0.285157 3.51012
0.236848 0.275075 3.50245
0.237528 0.269445 3.49102
0.24173 0.266102 3.48787
0.242154 0.25589 3.49226
0.240373 0.243397 3.49607
0.240151 0.228471 3.49183
0.240258 0.202547 3.46833
0.235721 0.383244 3.55986
0.216769 0.376957 3.52463
-0.0617926 0.646683 3.26173
0.132747 0.525613 3.43008
0.106742 0.523407 3.42631
0.0810948 0.523076 3.41719
0.0485497 0.536405 3.39162
0.156425 0.531236 3.42953
0.092962 0.586552 3.42773
0.12347 0.584921 3.42952
0.0688504 0.582539 3.41795
0.0531234 0.574198 3.40682
0.0259599 0.514401 3.37515
0.149483 0.151474 3.43176
0.0531724 0.551972 3.38967
-0.0618684 0.519487 3.25504
-0.00714861 0.528117 3.34638
0.118046 0.407554 3.44479
0.21024 0.301028 3.50898
0.212732 0.273502 3.49852
0.179625 0.291281 3.4935
0.158419 0.279995 3.47647
0.18839 0.271322 3.48845
0.172884 0.267125 3.47223
0.12853 0.235447 3.4308
0.218781 0.397293 3.5678
0.215234 0.423654 3.57284
0.00753433 0.592391 3.40199
0.162948 0.47925 3.45398
0.159766 0.396932 3.49828
0.157355 0.411546 3.48851
0.0348022 0.408625 3.4089
0.214153 0.455311 3.55935
0.0778012 0.617647 3.45353
0.0370355 0.610616 3.43124
-0.0303827 0.697734 3.31512
0.187447 0.595237 3.48498
0.150956 0.577106 3.42756
0.109544 0.25789 3.4278
-0.035973 0.244852 3.19022
0.181482 0.378977 3.49416
0.2047 0.369749 3.49678
0.137214 0.259261 3.43929
0.146538 0.261228 3.44214
0.0226427 0.626673 3.41708
0.15957 0.383956 3.48296
0.129179 0.613127 3.47172
0.12355 0.636037 3.4743
0.0833697 0.759934 3.42044
-0.00263797 0.664048 3.37103
0.10742 0.700898 3.45213
-0.01033 0.60283 3.37852
-0.0352291 0.623642 3.32347
0.210354 0.285065 3.50736
0.18541 0.279098 3.49385
0.16649 0.273245 3.47642
0.189207 0.373122 3.49012
0.14298 0.259747 3.44117
0.154284 0.257474 3.45009
0.14743 0.262872 3.44152
0.188531 0.392576 3.53234
0.175453 0.268454 3.4656
0.193278 0.269097 3.47834
0.214098 0.269649 3.48795
0.210177 0.20043 3.46277
0.210645 0.228352 3.48771
0.212394 0.244129 3.49202
0.215796 0.257165 3.48922
0.216951 0.26557 3.48487
0.174795 0.263819 3.46185
0.172375 0.260522 3.46334
0.168142 0.253507 3.463
0.163406 0.244243 3.46005
0.141106 0.308692 3.46311
-0.0604778 0.383321 3.15709
0.241359 0.371696 3.53084
0.16068 0.263213 3.45192
0.158951 0.261048 3.45186
0.211746 0.358842 3.50062
0.175496 0.363604 3.46813
0.207935 0.364343 3.49959
0.137844 0.463782 3.44419
0.0984952 0.443681 3.43571
0.155285 0.398311 3.47461
0.0170488 0.736414 3.36853
0.0455728 0.689904 3.41191
0.0688663 0.639122 3.44768
0.149598 0.22132 3.44406
0.178838 0.629478 3.49214
0.167319 0.701894 3.47345
0.153299 0.767382 3.44855
0.059873 0.527009 3.40356
-0.00435007 0.491935 3.35627
0.170846 0.536922 3.43077
0.0216151 0.563489 3.38772
0.180004 0.496177 3.46553
0.174945 0.40889 3.52543
-0.0377075 0.471299 3.32516
0.0153259 0.475104 3.38273
0.0518208 0.467249 3.40906
0.1026 0.474501 3.42792
0.13841 0.486928 3.43433
0.162553 0.499305 3.44201
0.212777 0.531044 3.49644
-0.0337005 0.412958 3.33528
-0.00495143 0.564376 3.37232
0.223141 0.383331 3.55763
0.165967 0.451702 3.46318
-0.0716296 0.516523 3.17462
0.182541 0.511797 3.45032
0.159236 0.392859 3.45174
0.0416962 0.550245 3.38369
0.172471 0.426736 3.51256
-0.0536932 0.314468 3.16543
0.168954 0.545041 3.42665
0.192225 0.444623 3.54056
0.0297754 0.191772 3.32843
0.0271878 0.156074 3.28521
-0.0579758 0.395458 3.24532
-0.00688508 0.226258 3.29213
-0.049873 0.576527 3.28285
0.142867 0.120952 3.41782
0.232532 0.372042 3.5277
0.145606 0.430738 3.45017
-0.033462 0.52147 3.31857
0.0904311 0.538236 3.41788
0.111133 0.537076 3.42636
0.148188 0.252322 3.4461
-0.0262165 0.3542 3.32506
0.190855 0.0878195 3.41763
0.108388 0.108327 3.36448
0.0702815 0.126653 3.33111
0.232566 0.696905 3.48335
0.243167 0.0897216 3.42752
0.130861 0.539123 3.42819
0.150861 0.543348 3.42828
0.163446 0.54463 3.42741
-0.0261103 0.568115 3.3435
0.143553 0.564333 3.42661
0.119153 0.571285 3.42345
0.0966266 0.57168 3.41956
0.0758003 0.56717 3.41201
0.0644704 0.560935 3.40439
-0.0707395 0.58829 3.21202
0.0753631 0.541476 3.40872
0.240162 0.340393 3.50615
0.162836 0.32606 3.47499
0.180608 0.384196 3.50312
0.208987 0.336382 3.50157
0.234112 0.564547 3.48697
0.0699091 0.159955 3.35685
0.105646 0.137647 3.38469
0.187495 0.111261 3.445
-0.00796071 0.19271 3.236
0.159703 0.552907 3.429
0.198222 0.489225 3.50048
0.239876 0.113539 3.4551
0.146604 0.0956048 3.39769
-0.050727 0.332435 3.24557
0.194916 0.264947 3.47536
0.191477 0.258655 3.478
0.187317 0.24865 3.47941
0.184452 0.234562 3.47648
0.174984 0.209648 3.45692
0.155621 0.264707 3.45618
0.149075 0.267056 3.45782
0.141587 0.271124 3.45689
0.119977 0.285784 3.44834
0.0126467 0.344779 3.37729
0.198025 0.514686 3.4801
0.191508 0.559213 3.44071
0.171465 0.560156 3.43221
0.160028 0.267014 3.45234
0.00946999 0.272396 3.34138
0.206374 0.560632 3.47057
0.162069 0.180559 3.44102
0.235888 0.4847 3.54396
0.213842 0.504547 3.51826
0.235845 0.510025 3.52448
0.181264 0.447546 3.49497
0.238557 0.143892 3.46794
0.239349 0.175865 3.46689
0.201342 0.172627 3.45808
0.103492 0.21956 3.41094
0.138291 0.370641 3.44623
0.129932 0.19575 3.42312
0.0787394 0.372593 3.43079
0.115785 0.342218 3.4438
0.0544308 0.325229 3.40846
0.19076 0.14137 3.45828
0.166043 0.431388 3.47348
0.0806039 0.194466 3.38544
0.117003 0.168809 3.40377
0.0810814 0.252262 3.41074
-0.0180978 0.304283 3.31483
0.0448491 0.244151 3.37707
-0.0365834 0.275806 3.25658
0.0932342 0.304462 3.43289
0.182329 0.470769 3.48107
0.180631 0.397367 3.53388
0.16914 0.386879 3.5014
0.193185 0.417914 3.55274
0.170376 0.579426 3.44813
0.127441 0.592161 3.4474
0.0900875 0.596357 3.44101
0.0583208 0.59415 3.42723
0.0342739 0.583803 3.40987
0.0194331 0.539189 3.36955
-0.0635171 0.458361 3.24945
0.0421709 0.504341 3.39046
0.0687671 0.498128 3.40883
0.104027 0.500486 3.42263
0.137153 0.507361 3.42841
0.161828 0.515525 3.432
0.179262 0.522185 3.43587
-0.0663687 0.44973 3.15974
0.170427 0.378783 3.4898
0.19856 0.466979 3.51957
0.20027 0.398245 3.55444
0.211474 0.38403 3.54371
0.199047 0.391983 3.54262
0.179967 0.369243 3.48199
0.21613 0.383446 3.55099
0.223466 0.372929 3.52569
0.180857 0.542582 3.42941
0.192548 0.534934 3.44096
0.197698 0.530831 3.45743
0.058316 0.556232 3.39799
0.0418854 0.564057 3.39322
0.258174 0.478661 3.53547
0.400069 0.5358 3.3974
0.260747 0.381304 3.53013
0.478628 0.600358 3.28764
0.329401 0.517788 3.41508
0.351381 0.51446 3.41382
0.373614 0.513026 3.41022
0.402892 0.524969 3.38897
0.313188 0.525256 3.41902
0.362353 0.57258 3.42687
0.335846 0.572791 3.43001
0.384911 0.568039 3.41997
0.398433 0.559944 3.41072
0.417737 0.502188 3.38178
0.317376 0.165467 3.43731
0.407833 0.540751 3.38979
0.487225 0.490669 3.27305
0.439942 0.512688 3.35816
0.345594 0.405313 3.45434
0.262728 0.302467 3.50867
0.257405 0.27404 3.49585
0.288399 0.293754 3.49259
0.306081 0.280114 3.4733
0.276077 0.27153 3.48345
0.29344 0.265816 3.46795
0.334934 0.239817 3.43598
0.255372 0.400088 3.5722
0.257118 0.425178 3.57718
0.424294 0.574443 3.40974
0.303773 0.475516 3.45483
0.307198 0.399906 3.50997
0.307738 0.412893 3.49967
0.407794 0.403065 3.41878
0.257847 0.454044 3.55844
0.370093 0.60412 3.46082
0.401994 0.59428 3.43938
0.453168 0.653218 3.33752
0.278117 0.590317 3.48229
0.318455 0.566418 3.42483
0.354798 0.259218 3.42957
0.479349 0.25069 3.20996
0.29496 0.384192 3.50502
0.273186 0.375133 3.51113
0.334048 0.254198 3.43201
0.320556 0.257573 3.43778
0.413891 0.608062 3.42802
0.306804 0.386433 3.49791
0.329046 0.604105 3.47604
0.331973 0.626073 3.48146
0.358978 0.732767 3.43113
0.43087 0.633137 3.38759
0.345171 0.682893 3.45857
0.439005 0.580782 3.3901
0.457305 0.590028 3.34357
0.25979 0.286331 3.50499
0.282312 0.280397 3.48947
0.299162 0.272969 3.47316
0.287566 0.378366 3.50351
0.326637 0.255559 3.43595
0.313679 0.257082 3.45065
0.317218 0.259693 3.43748
0.282934 0.397861 3.53367
0.288493 0.265756 3.4611
0.272926 0.267741 3.47289
0.256036 0.268483 3.48395
0.265561 0.205248 3.46771
0.264282 0.231839 3.48952
0.263931 0.246329 3.49165
0.263827 0.257866 3.487
0.26179 0.265562 3.48209
0.293147 0.263345 3.46119
0.294525 0.261772 3.46541
0.297988 0.256603 3.46743
0.303974 0.24819 3.46345
0.327093 0.310295 3.46903
0.505641 0.366183 3.17655
0.306257 0.260175 3.44716
0.308945 0.259713 3.45063
0.267192 0.360973 3.50655
0.301028 0.366586 3.48671
0.26954 0.368081 3.51014
0.325112 0.458139 3.44374
0.358311 0.437608 3.43942
0.311597 0.399409 3.48791
0.41275 0.699043 3.38822
0.394719 0.665097 3.42478
0.378909 0.623674 3.45642
0.315839 0.227133 3.44583
0.28284 0.622778 3.49352
0.292684 0.692151 3.47783
0.298268 0.753618 3.45823
0.391764 0.516733 3.40007
0.438018 0.479076 3.36876
0.307265 0.530643 3.41886
0.41934 0.548623 3.39137
0.290061 0.492443 3.46376
0.293603 0.412705 3.53311
0.464088 0.455262 3.33896
0.425407 0.463515 3.39071
0.396345 0.457542 3.41479
0.355948 0.466012 3.42526
0.326688 0.480532 3.42964
0.305063 0.494877 3.43925
0.259008 0.5291 3.49461
0.465717 0.402404 3.34804
0.433913 0.546637 3.38022
0.247729 0.384716 3.55795
0.30451 0.44868 3.46612
0.505163 0.479106 3.19569
0.291198 0.507761 3.44597
0.316465 0.394138 3.46704
0.412704 0.537179 3.38311
0.29242 0.428261 3.52107
0.497624 0.309728 3.18803
0.310701 0.538402 3.41301
0.275158 0.444169 3.54313
0.416045 0.209567 3.3426
0.419742 0.175988 3.29863
0.495758 0.382608 3.26457
0.4471 0.239368 3.30999
0.475404 0.543092 3.30259
0.325954 0.137184 3.42343
0.250754 0.373263 3.53035
0.320401 0.428093 3.4571
0.458697 0.501722 3.33183
0.377138 0.528913 3.40983
0.355637 0.528 3.41303
0.31989 0.25209 3.44643
0.462319 0.351204 3.34268
0.291668 0.0974254 3.42101
0.358539 0.128007 3.36993
0.3859 0.147558 3.33827
0.335644 0.531256 3.41399
0.321597 0.535801 3.41242
0.314781 0.536999 3.41135
0.449433 0.545557 3.35646
0.323411 0.555012 3.41423
0.337269 0.561621 3.41635
0.358514 0.563112 3.41666
0.379985 0.559182 3.41319
0.392562 0.551953 3.4069
0.497556 0.544387 3.23829
0.391454 0.531875 3.40341
0.308688 0.327944 3.48353
0.292588 0.39102 3.51635
0.268638 0.338379 3.50441
0.38547 0.181245 3.36943
0.355781 0.15894 3.39517
0.287426 0.121146 3.44862
0.451616 0.206394 3.25064
0.315421 0.545133 3.41376
0.274468 0.48727 3.50083
0.328478 0.110545 3.39958
0.487581 0.329765 3.26859
0.279312 0.264964 3.47279
0.281181 0.259962 3.47697
0.283562 0.251566 3.4796
0.287198 0.238594 3.47734
0.292565 0.215002 3.45767
0.308415 0.261234 3.45177
0.315865 0.263228 3.4517
0.32246 0.267579 3.45128
0.344883 0.285817 3.44956
0.42441 0.345373 3.3929
0.274939 0.511648 3.47806
0.287777 0.555301 3.43683
0.304011 0.552203 3.42269
0.304343 0.263004 3.44714
0.432041 0.280392 3.35759
0.264632 0.558227 3.46886
0.303025 0.191487 3.44531
0.256276 0.503583 3.51942
0.288259 0.447252 3.50078
0.272423 0.179263 3.46159
0.355141 0.231638 3.42248
0.331987 0.371176 3.46212
0.329681 0.208718 3.43203
0.375866 0.373314 3.44483
0.350453 0.343548 3.45577
0.393654 0.329149 3.4233
0.282068 0.148892 3.46017
0.301546 0.430809 3.48212
0.376067 0.212165 3.39844
0.345767 0.187085 3.41426
0.376043 0.258847 3.41756
0.456056 0.308069 3.33558
0.399372 0.256834 3.3914
0.475095 0.280918 3.27749
0.365078 0.306703 3.44202
0.290144 0.468144 3.48155
0.286633 0.403195 3.53864
0.300037 0.39272 3.51601
0.277739 0.420425 3.55629
0.303338 0.572501 3.44167
0.334278 0.583085 3.44631
0.364914 0.584153 3.44377
0.392545 0.577938 3.43181
0.409267 0.567233 3.41471
0.422827 0.525753 3.37453
0.495418 0.436205 3.26545
0.406563 0.493306 3.3943
0.382947 0.488165 3.4098
0.35344 0.491785 3.4171
0.327516 0.500497 3.41945
0.307684 0.510842 3.42684
0.296483 0.518432 3.4308
0.505919 0.421475 3.17703
0.299355 0.383684 3.50506
0.275943 0.464937 3.51899
0.271555 0.403821 3.5597
0.257039 0.3897 3.5492
0.271408 0.398661 3.54737
0.292619 0.37346 3.49925
0.253113 0.387301 3.55574
0.255936 0.376372 3.53093
0.301547 0.537337 3.42068
0.284593 0.532032 3.43684
0.27647 0.528654 3.45539
0.40015 0.54608 3.39987
0.408845 0.550996 3.39728
