ply
format ascii 1.0
comment Created by Open3D
element vertex 468
property double x
property double y
property double z
end_header
0.0605587 0.356696 3.82578
0.0624896 0.439513 3.89392
0.063514 0.412359 3.83051
0.0389336 0.521826 3.85641
0.0616622 0.46628 3.90139
0.0596188 0.49949 3.8896
0.0592106 0.57727 3.81667
-0.118501 0.57806 3.71226
0.0582112 0.635101 3.79491
0.057669 0.668814 3.79716
0.05667 0.784268 3.76483
0.0599353 0.344684 3.82225
0.0592745 0.337256 3.81494
0.0586126 0.336131 3.80415
0.0619627 0.301386 3.79582
0.0619741 0.292136 3.80136
0.0607039 0.280686 3.8077
0.0603255 0.266755 3.80558
0.0605505 0.242631 3.78601
0.0617243 0.425383 3.88107
0.0392446 0.426823 3.8456
-0.218645 0.665389 3.58673
-0.0483401 0.559841 3.74013
-0.0737115 0.558017 3.73769
-0.0979323 0.558803 3.73027
-0.131859 0.568946 3.70786
-0.0259521 0.565489 3.73707
-0.0824852 0.617717 3.74708
-0.0554376 0.616677 3.74512
-0.107046 0.613518 3.73817
-0.123812 0.604754 3.72686
-0.152902 0.553616 3.69404
-0.0382085 0.204819 3.74816
-0.127729 0.581749 3.70352
-0.227972 0.556999 3.57886
-0.181212 0.56691 3.6667
-0.0731484 0.460638 3.76528
0.0218077 0.361472 3.82123
0.0231356 0.339075 3.80893
-0.0183214 0.357633 3.80205
-0.0443685 0.351855 3.77625
-0.00653948 0.339994 3.79498
-0.0284554 0.340227 3.77141
-0.0718826 0.307067 3.73025
0.040987 0.440247 3.89001
0.0371518 0.466098 3.89685
-0.16628 0.630046 3.71716
-0.0168184 0.520257 3.7698
-0.0219322 0.448802 3.82515
-0.0242785 0.462016 3.81656
-0.1541 0.464784 3.72941
0.0373902 0.496677 3.8821
-0.102158 0.660701 3.7591
-0.139021 0.64978 3.73996
-0.19194 0.712863 3.63432
0.00779248 0.642033 3.78594
-0.0311703 0.609444 3.73861
-0.0939957 0.337776 3.72547
-0.204172 0.311176 3.52201
-0.00171526 0.434344 3.81635
0.0205325 0.425072 3.81869
-0.0726598 0.339104 3.72572
-0.0618534 0.338427 3.7313
-0.154161 0.666019 3.72643
-0.0244455 0.438668 3.81039
-0.0534992 0.660218 3.77476
-0.0589948 0.681412 3.77873
-0.0870611 0.775512 3.72995
-0.172741 0.690409 3.68534
-0.0694308 0.730789 3.75494
-0.182208 0.640373 3.69486
-0.199963 0.651504 3.6422
0.0217921 0.347439 3.81734
-0.0114219 0.346546 3.79933
-0.0361425 0.345784 3.77564
0.00485386 0.429473 3.81045
-0.0673351 0.338997 3.72825
-0.052401 0.323548 3.7432
-0.0587692 0.337908 3.73218
0.0120795 0.440808 3.85396
-0.0252959 0.34267 3.76763
-0.0021492 0.340552 3.78555
0.0251046 0.338088 3.79925
0.0197666 0.244028 3.78033
0.0208162 0.270243 3.80035
0.0229337 0.284506 3.80256
0.0260061 0.295746 3.79565
0.0282656 0.303671 3.79098
-0.0245247 0.317142 3.76029
-0.0289956 0.315043 3.76343
-0.0353093 0.309618 3.76622
-0.0392691 0.301572 3.7617
-0.0604304 0.375708 3.76792
-0.22571 0.437512 3.48204
0.0646393 0.41944 3.84863
-0.0396532 0.324235 3.74353
-0.0461988 0.32501 3.74472
0.0289081 0.413401 3.82172
-0.0148794 0.423432 3.79075
0.0250025 0.419064 3.82086
-0.0450994 0.507199 3.76085
-0.0891373 0.492771 3.75215
-0.0293248 0.451268 3.80155
-0.150378 0.750996 3.68425
-0.130965 0.717985 3.72119
-0.111562 0.680844 3.75341
-0.0486891 0.281647 3.74669
-0.000752963 0.676346 3.79273
-0.0090974 0.731953 3.77402
-0.0206828 0.785242 3.75585
-0.119492 0.562098 3.71849
-0.181273 0.536428 3.67849
-0.0116681 0.571669 3.73483
-0.153224 0.596592 3.70373
0.00160619 0.535967 3.77977
-0.00473042 0.457073 3.85095
-0.209965 0.51708 3.65082
-0.164162 0.522907 3.70285
-0.131273 0.516227 3.72688
-0.0814403 0.518331 3.74096
-0.0441421 0.526782 3.74733
-0.0169678 0.537623 3.75446
0.0360198 0.570416 3.80686
-0.210467 0.467077 3.65881
-0.175914 0.600137 3.69103
0.0486475 0.426593 3.87935
-0.0153071 0.497131 3.7824
-0.232764 0.553755 3.49839
0.00356593 0.551075 3.75909
-0.0305229 0.44953 3.77423
-0.13805 0.580731 3.69811
-0.00693775 0.473301 3.84008
-0.219925 0.375435 3.49511
-0.0123276 0.579795 3.72866
0.0145873 0.48744 3.86607
-0.150814 0.261925 3.64863
-0.146488 0.226036 3.61037
-0.229639 0.449596 3.56917
-0.186337 0.293639 3.61866
-0.213989 0.607939 3.60398
-0.0403931 0.177195 3.73707
0.0548265 0.420655 3.84646
-0.0401094 0.479925 3.77173
-0.203803 0.560649 3.64106
-0.093046 0.573801 3.72814
-0.0718608 0.572452 3.73525
-0.0583673 0.319961 3.73932
-0.209821 0.414045 3.65041
0.008972 0.143102 3.738
-0.0689606 0.172739 3.68165
-0.104324 0.194551 3.64954
0.0578044 0.7278 3.78187
0.0618161 0.140779 3.74665
-0.0512811 0.57339 3.73649
-0.0313458 0.576446 3.73385
-0.0183282 0.57816 3.72916
-0.194973 0.604448 3.66494
-0.0360754 0.59082 3.7365
-0.0588012 0.594279 3.74004
-0.0785296 0.594787 3.73875
-0.099104 0.591821 3.7324
-0.112856 0.5873 3.72344
-0.229541 0.61567 3.53682
-0.107672 0.575892 3.72012
0.0626255 0.393363 3.82306
-0.0324292 0.388592 3.78875
-0.00158788 0.437639 3.82519
0.0226393 0.392853 3.81849
0.0584451 0.606063 3.796
-0.111552 0.228653 3.67398
-0.0771828 0.202314 3.70339
0.00527481 0.161084 3.76597
-0.178342 0.261308 3.56573
-0.0198361 0.584574 3.73254
0.019547 0.53083 3.81561
0.0605625 0.15958 3.77411
-0.0329724 0.15465 3.71515
-0.225294 0.391993 3.57379
-0.000219146 0.309594 3.77736
-0.00472808 0.304209 3.78118
-0.00922581 0.295484 3.78563
-0.0118852 0.282748 3.78205
-0.0195703 0.259652 3.76602
-0.0500345 0.341098 3.74943
-0.0569895 0.343635 3.74904
-0.0640839 0.347615 3.74899
-0.0837893 0.359872 3.74502
-0.178944 0.405837 3.70094
0.0199071 0.554609 3.79173
0.00849498 0.598938 3.7439
-0.0078941 0.593694 3.73577
-0.0446955 0.343638 3.74777
-0.179806 0.338543 3.66297
0.0278005 0.601839 3.77793
-0.0297729 0.233446 3.75553
0.0595208 0.525848 3.8643
0.0372167 0.544631 3.83306
0.0597848 0.550352 3.83939
0.000906116 0.492856 3.81628
0.0601932 0.185622 3.78635
0.0603695 0.216773 3.78611
0.0135906 0.217358 3.77682
-0.0891112 0.291477 3.71854
-0.0536049 0.42905 3.76585
-0.0618872 0.25837 3.73441
-0.118766 0.431427 3.75133
-0.081805 0.404174 3.75604
-0.142988 0.390185 3.7279
0.00663127 0.186537 3.7771
-0.0156192 0.479407 3.79769
-0.106485 0.264573 3.69879
-0.071993 0.232961 3.71943
-0.113187 0.327724 3.71749
-0.204025 0.367735 3.64115
-0.144481 0.315092 3.69334
-0.212919 0.339196 3.58626
-0.10756 0.375481 3.7405
0.0029245 0.513864 3.79796
0.00335969 0.445378 3.85756
-0.0136823 0.440108 3.82789
0.0154664 0.462435 3.87593
-0.0116142 0.619467 3.74992
-0.0523281 0.63227 3.75218
-0.0883814 0.634291 3.75032
-0.119044 0.628872 3.74012
-0.141392 0.616762 3.72374
-0.157181 0.573836 3.68642
-0.231626 0.503962 3.57337
-0.138416 0.5451 3.70771
-0.11176 0.53957 3.7235
-0.0778643 0.539452 3.73518
-0.045453 0.544144 3.74047
-0.0196756 0.551955 3.74162
-0.00246207 0.560214 3.74395
-0.228904 0.495767 3.48255
-0.0136126 0.434271 3.81524
0.0197972 0.50979 3.83817
0.0225741 0.443701 3.87739
0.0357885 0.4305 3.86753
0.0223285 0.439171 3.86534
-0.00697279 0.426797 3.80606
0.0406034 0.428354 3.87466
0.0458432 0.422505 3.8456
-0.00211888 0.579077 3.73191
0.0109047 0.57411 3.74698
0.0180105 0.570767 3.76562
-0.12136 0.58401 3.71481
-0.137058 0.594795 3.71162
0.0806016 0.521144 3.85483
0.224774 0.571609 3.71178
0.0856422 0.426338 3.84773
0.313344 0.649691 3.58804
0.156279 0.554922 3.7354
0.179608 0.552875 3.73408
0.202843 0.55336 3.72788
0.234099 0.562239 3.70771
0.137374 0.561343 3.73429
0.1854 0.61005 3.74431
0.161524 0.609966 3.74419
0.20913 0.604996 3.73655
0.22497 0.595882 3.72698
0.255286 0.546366 3.69744
0.152955 0.209836 3.75408
0.233606 0.574469 3.70355
0.326638 0.54681 3.58403
0.280837 0.558507 3.6718
0.184126 0.457466 3.77171
0.095788 0.360837 3.8234
0.0915053 0.338424 3.81068
0.131494 0.356646 3.80657
0.155697 0.349561 3.78188
0.118007 0.338898 3.797
0.140101 0.337948 3.77512
0.184158 0.305493 3.73821
0.0820809 0.439949 3.89259
0.0835463 0.465524 3.89937
0.260618 0.619716 3.72003
0.131468 0.51773 3.76926
0.13937 0.446734 3.82983
0.140042 0.459994 3.82074
0.256855 0.460017 3.73775
0.0818787 0.496159 3.88145
0.204699 0.651256 3.76422
0.237122 0.639659 3.74412
0.287184 0.696148 3.63657
0.105423 0.639042 3.78683
0.141914 0.604135 3.73721
0.204609 0.335 3.73312
0.309172 0.313605 3.52686
0.123682 0.432565 3.82104
0.103097 0.424109 3.82562
0.18677 0.334822 3.73221
0.173131 0.334281 3.73833
0.25052 0.654453 3.7315
0.14136 0.436621 3.81679
0.161634 0.653279 3.77941
0.16579 0.673703 3.7843
0.190455 0.763534 3.73264
0.268087 0.676683 3.69001
0.17715 0.72112 3.75894
0.275843 0.628891 3.69832
0.294982 0.638213 3.64632
0.0941613 0.347035 3.81933
0.124369 0.34565 3.80216
0.148057 0.343671 3.78042
0.118288 0.428096 3.81706
0.180506 0.334653 3.73572
0.166233 0.320328 3.75143
0.167842 0.333958 3.73841
0.108245 0.439626 3.85391
0.134261 0.340065 3.77109
0.113246 0.339122 3.78676
0.0882354 0.337329 3.79945
0.0976892 0.244756 3.7848
0.0962104 0.270398 3.80257
0.0957906 0.284632 3.80346
0.0952786 0.295662 3.79596
0.0928957 0.303451 3.79071
0.139546 0.315187 3.76475
0.143089 0.313118 3.77015
0.147892 0.307745 3.77426
0.153157 0.300162 3.76981
0.174018 0.373749 3.77618
0.335389 0.432595 3.48566
0.153554 0.321258 3.74757
0.16014 0.321947 3.75143
0.0957079 0.41278 3.82505
0.135931 0.421822 3.80044
0.0990671 0.418064 3.8263
0.157914 0.503954 3.76143
0.198614 0.488577 3.7563
0.1456 0.449176 3.80713
0.247637 0.73528 3.68801
0.230695 0.705183 3.72722
0.213749 0.670401 3.75873
0.162133 0.282098 3.75333
0.112201 0.672033 3.79575
0.12155 0.726706 3.77678
0.128843 0.778378 3.75972
0.222684 0.556177 3.71759
0.281912 0.528914 3.68487
0.126585 0.568093 3.73066
0.252441 0.587946 3.70557
0.113694 0.533957 3.77799
0.122727 0.455337 3.85413
0.308347 0.509567 3.65695
0.26653 0.516176 3.70766
0.236598 0.510333 3.73056
0.191631 0.513929 3.7417
0.15702 0.523259 3.74628
0.130944 0.534774 3.75283
0.0821215 0.569429 3.80597
0.31136 0.461595 3.66597
0.271668 0.590734 3.69367
0.073606 0.426236 3.87945
0.132088 0.494867 3.78278
0.337804 0.542484 3.49976
0.113318 0.548668 3.75657
0.150508 0.447351 3.78151
0.241772 0.572957 3.69839
0.122461 0.47145 3.84331
0.327552 0.374079 3.50051
0.127505 0.576469 3.72324
0.101583 0.486336 3.86673
0.255453 0.267722 3.65769
0.250878 0.234137 3.61591
0.335601 0.444716 3.5766
0.287796 0.29729 3.62847
0.312746 0.595676 3.60754
0.156044 0.183989 3.74154
0.0744508 0.420349 3.84748
0.154327 0.477182 3.77528
0.301761 0.551702 3.64611
0.200913 0.567963 3.72585
0.180083 0.566618 3.73106
0.172199 0.316841 3.74741
0.310865 0.411091 3.6608
0.112597 0.147431 3.73874
0.184222 0.181983 3.68329
0.214525 0.204198 3.65252
0.160373 0.568011 3.73216
0.142969 0.571813 3.7287
0.132951 0.574359 3.72355
0.289471 0.593842 3.66835
0.143962 0.586747 3.73127
0.161588 0.589119 3.73655
0.18104 0.58916 3.73547
0.201818 0.585546 3.72987
0.216069 0.580545 3.72256
0.330716 0.601475 3.53851
0.214991 0.56977 3.71839
0.148905 0.387344 3.79561
0.123175 0.436047 3.83093
0.0984225 0.392442 3.82111
0.221059 0.236357 3.68202
0.18903 0.210496 3.7101
0.112685 0.165053 3.76812
0.282183 0.266626 3.56952
0.132718 0.581236 3.72604
0.098617 0.52954 3.81534
0.151824 0.162249 3.71614
0.32904 0.390223 3.58342
0.118897 0.308763 3.7791
0.122535 0.3034 3.78434
0.125637 0.294727 3.7889
0.128614 0.282368 3.78599
0.134553 0.260369 3.77035
0.160121 0.337475 3.75505
0.168673 0.34023 3.7545
0.175523 0.344003 3.7554
0.195856 0.357117 3.75296
0.279088 0.403121 3.71265
0.0975517 0.552975 3.79004
0.109525 0.596224 3.74306
0.123162 0.590288 3.73127
0.152862 0.340017 3.75213
0.281625 0.339205 3.67496
0.0886588 0.600404 3.77781
0.143238 0.236698 3.76148
0.0812195 0.544007 3.83329
0.116015 0.491351 3.81837
0.103621 0.219429 3.7813
0.199583 0.292732 3.72663
0.169615 0.426871 3.77349
0.172937 0.261285 3.7422
0.224337 0.428225 3.7627
0.193619 0.401905 3.76503
0.246191 0.388272 3.74029
0.110484 0.189512 3.77965
0.131821 0.477355 3.80077
0.216106 0.269186 3.70715
0.18418 0.238566 3.72758
0.221487 0.327144 3.72429
0.304322 0.367143 3.6535
0.248345 0.316908 3.70386
0.314886 0.340041 3.59512
0.214824 0.373076 3.74976
0.114596 0.512099 3.79732
0.115106 0.444002 3.8594
0.132186 0.438394 3.83405
0.104722 0.461308 3.87735
0.126675 0.615926 3.7487
0.162309 0.626163 3.75365
0.193972 0.625984 3.75228
0.221518 0.619671 3.74176
0.241049 0.60736 3.72599
0.258259 0.566074 3.68943
0.334139 0.496366 3.57777
0.24227 0.538572 3.70987
0.21797 0.534089 3.72488
0.186138 0.534615 3.73442
0.155886 0.53998 3.73822
0.132894 0.548523 3.74007
0.117889 0.557391 3.74178
0.337147 0.487534 3.48321
0.132422 0.432543 3.82189
0.099415 0.508527 3.83734
0.0984814 0.443107 3.87991
0.0841807 0.430288 3.8702
0.0980405 0.438547 3.86743
0.127114 0.425293 3.81419
0.0803715 0.427989 3.87693
0.0812193 0.42227 3.84789
0.119301 0.575983 3.7288
0.105937 0.571696 3.74535
0.0989524 0.568732 3.76474
0.225467 0.577034 3.7145
0.238275 0.586394 3.71328
