ply
format ascii 1.0
comment Created by Open3D
element vertex 468
property double x
property double y
property double z
end_header
0.0297152 0.370165 3.79651
0.0315878 0.441094 3.86232
0.0314413 0.412452 3.79955
0.010432 0.52304 3.82169
0.0313328 0.468052 3.86761
0.0304044 0.501905 3.8545
0.0298821 0.576656 3.78341
-0.142991 0.580304 3.68265
0.0294436 0.630617 3.76247
0.0292486 0.662768 3.76521
0.0297331 0.785993 3.73086
0.02917 0.359757 3.79495
0.0285087 0.351966 3.78893
0.0281791 0.349136 3.77912
0.0324521 0.274868 3.76439
0.0323831 0.26386 3.76946
0.0319924 0.251391 3.77381
0.0324138 0.236624 3.76663
0.0332742 0.216642 3.74148
0.0308685 0.427181 3.85117
0.00837385 0.426614 3.81604
-0.229041 0.655436 3.56869
-0.0717269 0.562802 3.71064
-0.0956411 0.56119 3.70914
-0.119382 0.560899 3.70262
-0.153293 0.571211 3.68022
-0.0520313 0.566937 3.70781
-0.108562 0.622709 3.71115
-0.0809113 0.620419 3.71163
-0.133519 0.618052 3.70364
-0.150057 0.608467 3.6945
-0.171019 0.552682 3.66999
-0.057442 0.198776 3.71119
-0.153179 0.584971 3.67418
-0.240245 0.547859 3.56408
-0.197581 0.563156 3.6452
-0.0939569 0.462533 3.7396
-0.00587619 0.373742 3.792
-0.00297588 0.352391 3.78421
-0.0415181 0.367569 3.77635
-0.0618166 0.357994 3.75327
-0.0279124 0.350688 3.77214
-0.0453604 0.346235 3.75046
-0.0858709 0.300606 3.70547
0.0112753 0.441883 3.85938
0.00832896 0.468715 3.8641
-0.184112 0.627504 3.68898
-0.0427205 0.522009 3.74134
-0.0463494 0.450271 3.79668
-0.0481469 0.463709 3.78759
-0.167932 0.465395 3.70988
0.00941041 0.498993 3.84734
-0.124828 0.655349 3.72857
-0.160038 0.646733 3.71108
-0.205245 0.70432 3.61155
-0.0194127 0.635124 3.75333
-0.0571472 0.610686 3.70607
-0.104276 0.334964 3.70267
-0.208136 0.309993 3.51698
-0.0283437 0.434048 3.7882
-0.00816822 0.42554 3.79087
-0.0848904 0.332299 3.70502
-0.0725659 0.331543 3.71119
-0.172581 0.660876 3.69826
-0.0480015 0.440362 3.78304
-0.0782734 0.653126 3.74291
-0.0827809 0.673884 3.74678
-0.108921 0.772463 3.69826
-0.188107 0.683806 3.65958
-0.0926664 0.725425 3.724
-0.197852 0.635481 3.66781
-0.213153 0.644335 3.62035
-0.00523757 0.361291 3.7909
-0.034128 0.357248 3.77506
-0.0538597 0.352121 3.75353
-0.022525 0.42954 3.78361
-0.0790733 0.331877 3.70843
-0.0668584 0.308937 3.71946
-0.0686083 0.33185 3.71164
-0.0158191 0.44114 3.82433
-0.0410974 0.34808 3.74681
-0.0231002 0.349982 3.76302
-0.000378289 0.349953 3.77505
-0.00577768 0.221202 3.73807
-0.00543107 0.242061 3.76267
-0.00361917 0.255964 3.76785
-0.000532048 0.26833 3.76386
0.0025666 0.277604 3.76
-0.040219 0.297283 3.73437
-0.0453796 0.294565 3.73623
-0.0526377 0.28941 3.73712
-0.0577689 0.282504 3.73241
-0.0781702 0.378518 3.74513
-0.23501 0.428812 3.47652
0.0322073 0.418647 3.81857
-0.0525649 0.309008 3.72074
-0.0599919 0.309539 3.72093
3.04357e-06 0.414486 3.79134
-0.0401195 0.424194 3.7642
-0.00396197 0.419785 3.79239
-0.0680171 0.509443 3.73384
-0.109208 0.494522 3.72793
-0.0526727 0.452812 3.77378
-0.167543 0.744541 3.65635
-0.149718 0.711811 3.69249
-0.132603 0.674368 3.72308
-0.0669016 0.269798 3.71685
-0.0271572 0.668246 3.75975
-0.0352189 0.728661 3.74227
-0.0454165 0.78507 3.72258
-0.140721 0.563939 3.69135
-0.196755 0.533677 3.65775
-0.0394166 0.571306 3.70469
-0.173715 0.596683 3.67614
-0.0255456 0.53706 3.74954
-0.0312226 0.458405 3.82089
-0.222536 0.513525 3.63289
-0.180223 0.521431 3.68055
-0.148849 0.515921 3.70305
-0.101981 0.519791 3.71517
-0.0674212 0.528761 3.71982
-0.0432349 0.53922 3.72618
0.00722062 0.569751 3.77447
-0.221128 0.465355 3.64343
-0.192687 0.597682 3.6658
0.0182307 0.428307 3.84934
-0.040963 0.498349 3.75377
-0.243881 0.540076 3.48833
-0.0247566 0.550919 3.72971
-0.054433 0.449274 3.74792
-0.161291 0.582258 3.66999
-0.0324064 0.475205 3.8097
-0.227205 0.370869 3.49025
-0.0405497 0.579052 3.69799
-0.0122263 0.48999 3.83294
-0.156638 0.261357 3.63137
-0.154156 0.22675 3.59731
-0.24063 0.444149 3.55952
-0.188099 0.29415 3.607
-0.227303 0.598916 3.58583
-0.0600743 0.171378 3.70181
0.0225673 0.419623 3.81644
-0.0635601 0.481849 3.74489
-0.218215 0.55518 3.62205
-0.11657 0.575445 3.69828
-0.0955218 0.57474 3.70489
-0.0731694 0.307522 3.71605
-0.216975 0.413811 3.63783
-0.0167807 0.132213 3.70139
-0.088095 0.169636 3.6551
-0.118419 0.193849 3.6295
0.0296394 0.726735 3.74942
0.0335058 0.126841 3.70862
-0.0758572 0.575909 3.70583
-0.0570021 0.577952 3.7028
-0.0453014 0.577964 3.69849
-0.209692 0.599369 3.64143
-0.0631259 0.598481 3.70303
-0.0847849 0.607361 3.70548
-0.106108 0.609186 3.70404
-0.127363 0.604407 3.69828
-0.140378 0.596332 3.69076
-0.240579 0.602739 3.52292
-0.131756 0.577466 3.69007
0.0310942 0.398423 3.79144
-0.0551437 0.392203 3.76247
-0.0287772 0.437518 3.79809
-0.00549064 0.398061 3.78718
0.0295162 0.604306 3.76339
-0.123396 0.227233 3.65039
-0.0926438 0.19952 3.67367
-0.0182389 0.151943 3.72533
-0.182273 0.261959 3.55833
-0.0478095 0.586466 3.70069
-0.00848799 0.5314 3.78417
0.0332628 0.145482 3.73152
-0.055838 0.147935 3.6827
-0.232828 0.389629 3.56581
-0.0210246 0.285716 3.74872
-0.0260375 0.279506 3.75126
-0.0314431 0.270071 3.75273
-0.035218 0.257707 3.74827
-0.0417485 0.241629 3.73026
-0.0623058 0.341391 3.72983
-0.0700394 0.344182 3.72864
-0.0772421 0.348377 3.72863
-0.0960175 0.360092 3.7243
-0.186064 0.407275 3.68498
-0.00844937 0.554423 3.76013
-0.0206964 0.5953 3.71391
-0.0366528 0.592736 3.70487
-0.0562706 0.343882 3.72754
-0.183456 0.339302 3.64878
-0.000626268 0.599103 3.74585
-0.0500025 0.223625 3.7176
0.0302235 0.527257 3.82921
0.00850148 0.545241 3.80024
0.0301531 0.550589 3.80557
-0.0259236 0.49436 3.78649
0.0334549 0.17059 3.74032
0.0335662 0.196824 3.73878
-0.0100127 0.201818 3.7317
-0.102445 0.289039 3.69244
-0.074849 0.430306 3.74068
-0.0791567 0.253232 3.70272
-0.133111 0.432509 3.72873
-0.0982349 0.405601 3.73328
-0.151195 0.391451 3.70798
-0.0158688 0.176824 3.73341
-0.0405478 0.480777 3.76918
-0.118881 0.262492 3.67376
-0.0881435 0.229057 3.68778
-0.122404 0.327319 3.69436
-0.208017 0.368514 3.62966
-0.15154 0.314992 3.67442
-0.215956 0.338759 3.57766
-0.117251 0.376804 3.71955
-0.0242432 0.514828 3.76786
-0.0237141 0.446341 3.8283
-0.0390993 0.441241 3.80006
-0.0123964 0.463922 3.84453
-0.0389985 0.615225 3.719
-0.0784205 0.629655 3.72115
-0.114133 0.633128 3.71824
-0.143691 0.62868 3.70841
-0.164258 0.617114 3.69456
-0.176454 0.573197 3.66143
-0.243271 0.496587 3.56076
-0.157381 0.54505 3.6828
-0.131321 0.539939 3.69821
-0.0987633 0.541373 3.70852
-0.0687564 0.546468 3.7121
-0.0461919 0.553231 3.71348
-0.0305656 0.559863 3.71464
-0.239547 0.483793 3.47495
-0.0385641 0.435414 3.78797
-0.00814701 0.51086 3.80527
-0.00612271 0.444638 3.84752
0.00582492 0.432013 3.83816
-0.00664169 0.439919 3.83612
-0.0326689 0.428033 3.77924
0.0103799 0.42996 3.8451
0.0142593 0.422032 3.81622
-0.0314138 0.577188 3.7018
-0.0183469 0.572372 3.71734
-0.0109925 0.569457 3.73533
-0.147694 0.59009 3.68363
-0.16108 0.597016 3.68156
0.0498249 0.522338 3.82108
0.194282 0.573555 3.68552
0.0538652 0.426398 3.81731
0.272886 0.644855 3.57116
0.124235 0.557624 3.70999
0.1469 0.555874 3.7092
0.169696 0.555369 3.7036
0.201988 0.564545 3.68278
0.106439 0.562411 3.70817
0.159091 0.615477 3.71297
0.133144 0.614326 3.71374
0.183102 0.610262 3.70638
0.198683 0.600651 3.6984
0.219085 0.546678 3.67379
0.11982 0.200785 3.71385
0.203824 0.577584 3.6776
0.284196 0.540689 3.56808
0.243723 0.5565 3.64957
0.147438 0.460757 3.74354
0.0638923 0.374157 3.79322
0.0580752 0.352736 3.78504
0.0968004 0.368409 3.77831
0.115714 0.35875 3.75475
0.0813221 0.351287 3.77269
0.0988562 0.346581 3.75102
0.142567 0.301176 3.70794
0.050822 0.441857 3.8607
0.05255 0.46847 3.86526
0.228923 0.618731 3.69304
0.0984073 0.51977 3.74207
0.104052 0.449441 3.79887
0.104743 0.46276 3.7898
0.215145 0.46247 3.71449
0.0512682 0.498437 3.84701
0.174934 0.647128 3.73384
0.207059 0.637836 3.71611
0.250837 0.693192 3.61459
0.0763349 0.632109 3.75475
0.112067 0.605769 3.70722
0.158822 0.334872 3.70448
0.257381 0.308782 3.51727
0.0886625 0.433773 3.79086
0.0698087 0.425445 3.79445
0.140896 0.332359 3.70605
0.127279 0.331539 3.71227
0.218799 0.651173 3.70344
0.105521 0.439746 3.7862
0.13205 0.647012 3.74709
0.136187 0.667536 3.7513
0.161921 0.764854 3.70174
0.23384 0.673908 3.66416
0.146862 0.718556 3.72766
0.242422 0.626214 3.67207
0.257571 0.634795 3.62451
0.0615012 0.361666 3.79174
0.088743 0.358071 3.7761
0.107626 0.352856 3.75468
0.0835033 0.429442 3.78699
0.134478 0.332016 3.70967
0.124088 0.309407 3.72188
0.122444 0.331684 3.71235
0.0756457 0.440475 3.82464
0.0931735 0.348347 3.74723
0.0761843 0.350268 3.76342
0.0547605 0.350076 3.77512
0.0702322 0.22205 3.74074
0.0683068 0.24269 3.76456
0.0664316 0.256366 3.76907
0.0639945 0.268644 3.76421
0.0607773 0.277794 3.7599
0.0991473 0.297879 3.73502
0.104197 0.295356 3.73824
0.110982 0.290275 3.74011
0.116655 0.283405 3.73565
0.13363 0.37865 3.74807
0.285295 0.424007 3.47839
0.109893 0.309023 3.72055
0.117493 0.309753 3.72241
0.062452 0.414355 3.79294
0.100072 0.424125 3.76887
0.0659111 0.419655 3.79509
0.122547 0.506869 3.73494
0.161072 0.49179 3.73117
0.109476 0.452042 3.77672
0.215981 0.73456 3.6609
0.198985 0.702594 3.6977
0.182866 0.665562 3.72836
0.126114 0.270852 3.71953
0.0837878 0.664506 3.7624
0.0926281 0.725063 3.74476
0.102019 0.781003 3.72576
0.189973 0.557862 3.69341
0.242909 0.528107 3.66236
0.0956193 0.566931 3.70427
0.220895 0.589071 3.67992
0.0823642 0.535026 3.74958
0.0894616 0.45753 3.82287
0.266901 0.507997 3.63714
0.227425 0.516342 3.68402
0.198244 0.511731 3.706
0.154574 0.516168 3.71652
0.122045 0.525481 3.72023
0.098811 0.53637 3.72653
0.0519036 0.568763 3.7744
0.265994 0.461107 3.64733
0.23782 0.589774 3.66939
0.0428599 0.428148 3.84942
0.0976844 0.496637 3.75465
0.291481 0.532027 3.49014
0.0821766 0.548437 3.72966
0.113403 0.448627 3.75136
0.210743 0.574853 3.67339
0.0893513 0.474194 3.81158
0.277079 0.36789 3.49233
0.0970368 0.574549 3.69698
0.0704203 0.489204 3.83361
0.2094 0.262777 3.63377
0.206398 0.228807 3.59814
0.28789 0.439984 3.56357
0.236924 0.294373 3.60912
0.272404 0.590307 3.58917
0.122965 0.173761 3.7034
0.0419948 0.419421 3.81711
0.118886 0.480308 3.74723
0.262525 0.548522 3.6263
0.168918 0.569183 3.69938
0.148157 0.568698 3.70481
0.130354 0.307976 3.71852
0.262618 0.411323 3.64254
0.0826235 0.133771 3.70196
0.148941 0.172354 3.65531
0.175411 0.19673 3.62965
0.128846 0.570091 3.7059
0.111581 0.572699 3.70209
0.101455 0.573144 3.69747
0.253789 0.59133 3.64535
0.11642 0.593475 3.70332
0.135492 0.60157 3.70708
0.156157 0.602884 3.70619
0.177203 0.597614 3.70131
0.190214 0.589345 3.69453
0.286817 0.593169 3.52523
0.183775 0.570919 3.69215
0.112521 0.39239 3.76557
0.0888533 0.437232 3.80107
0.0661447 0.398243 3.7885
0.180387 0.229659 3.65278
0.152439 0.202226 3.67603
0.0826773 0.153466 3.72664
0.231974 0.262376 3.55802
0.103308 0.581965 3.6998
0.0671243 0.530232 3.78439
0.119556 0.150421 3.68305
0.279596 0.387181 3.56997
0.0824712 0.286207 3.74907
0.0874643 0.280078 3.75243
0.0926262 0.270732 3.75461
0.0968714 0.258421 3.7504
0.103363 0.242729 3.73262
0.115363 0.341446 3.73063
0.123686 0.344401 3.72977
0.130782 0.34854 3.72975
0.150348 0.359846 3.7261
0.232154 0.405607 3.69081
0.0668486 0.552789 3.76021
0.0792421 0.592231 3.71463
0.0933648 0.588743 3.70429
0.108816 0.343703 3.72748
0.231966 0.338861 3.65303
0.0591749 0.597297 3.74647
0.111738 0.225278 3.72041
0.0508731 0.544617 3.80058
0.0832783 0.493305 3.7878
0.0751294 0.20307 3.7341
0.158757 0.289854 3.69559
0.131657 0.429352 3.74463
0.137981 0.254754 3.70606
0.183474 0.431163 3.73446
0.152653 0.404706 3.73723
0.200529 0.390405 3.7131
0.0805036 0.178074 3.73472
0.0972462 0.479486 3.77106
0.175419 0.264193 3.67679
0.148154 0.231219 3.69116
0.176103 0.32733 3.69659
0.254478 0.36728 3.63425
0.202642 0.315461 3.67833
0.263276 0.33768 3.5802
0.169291 0.376141 3.72281
0.0818807 0.513238 3.76804
0.0824814 0.445727 3.82941
0.0976087 0.440773 3.80307
0.0723338 0.463373 3.84566
0.0960028 0.611305 3.72012
0.132411 0.623903 3.72399
0.165621 0.625676 3.72211
0.193206 0.620587 3.71258
0.211773 0.608836 3.69889
0.22409 0.566198 3.66532
0.288744 0.490489 3.56383
0.206423 0.539458 3.68581
0.181805 0.535197 3.70047
0.150869 0.536841 3.7095
0.122422 0.542362 3.71224
0.101429 0.549736 3.71402
0.0873501 0.556722 3.71485
0.288764 0.477187 3.47581
0.0972783 0.435059 3.79133
0.0676722 0.509889 3.80541
0.0666904 0.444409 3.84886
0.0540557 0.432062 3.83968
0.0666391 0.439676 3.83722
0.0920948 0.427776 3.78318
0.0499449 0.429944 3.84635
0.0492072 0.422063 3.81746
0.0888848 0.573289 3.70184
0.0759824 0.569399 3.71784
0.0690341 0.567315 3.73598
0.197846 0.582971 3.68735
0.209417 0.58939 3.68605
