ply
format ascii 1.0
comment Created by Open3D
element vertex 468
property double x
property double y
property double z
end_header
0.0178251 0.355016 3.76629
0.014308 0.448108 3.82839
0.0163809 0.413198 3.76452
-0.00624519 0.532932 3.79015
0.0140727 0.476074 3.8342
0.0138104 0.511361 3.82175
0.014413 0.590966 3.75457
-0.151658 0.592491 3.65492
0.0148349 0.646992 3.73841
0.0150463 0.682242 3.74346
0.0166197 0.818488 3.71097
0.0179535 0.342678 3.7637
0.0179532 0.334153 3.75605
0.0178702 0.330723 3.74435
0.0194743 0.321885 3.74138
0.0194979 0.312254 3.74602
0.01921 0.300635 3.75156
0.0193211 0.286242 3.74812
0.0194994 0.258918 3.72532
0.0145263 0.434353 3.81657
-0.00750536 0.43137 3.78082
-0.242992 0.674649 3.54579
-0.0814588 0.57504 3.68073
-0.105243 0.573355 3.67953
-0.128808 0.572727 3.67341
-0.160889 0.582461 3.65191
-0.0621351 0.579181 3.67845
-0.118242 0.632325 3.68578
-0.0924492 0.631243 3.68619
-0.141012 0.626996 3.6787
-0.156188 0.617992 3.66983
-0.180774 0.562779 3.64165
-0.0691727 0.218086 3.69326
-0.161543 0.596983 3.64735
-0.252278 0.558129 3.53582
-0.209195 0.574374 3.61855
-0.10423 0.464114 3.70687
-0.0132197 0.359453 3.7628
-0.00939624 0.33504 3.75196
-0.0442584 0.353651 3.7475
-0.0633899 0.344999 3.72798
-0.032005 0.334793 3.74142
-0.049125 0.332073 3.72266
-0.0910686 0.304693 3.68549
-0.00602926 0.449226 3.82581
-0.00936941 0.476436 3.83112
-0.194797 0.640317 3.66757
-0.0557836 0.530413 3.70969
-0.0611276 0.453208 3.76227
-0.0623008 0.466956 3.7531
-0.175255 0.46643 3.67663
-0.00789726 0.507855 3.8147
-0.137043 0.670056 3.70782
-0.171038 0.660258 3.69077
-0.220599 0.727712 3.59179
-0.0324482 0.651666 3.72984
-0.0694159 0.622395 3.67956
-0.11029 0.328454 3.67951
-0.219225 0.306117 3.47067
-0.0438265 0.436158 3.75389
-0.023555 0.426993 3.75629
-0.085625 0.327 3.68259
-0.0754675 0.328564 3.689
-0.185065 0.675822 3.67865
-0.0618142 0.441491 3.74841
-0.0910854 0.669144 3.72092
-0.0963319 0.692305 3.72545
-0.124278 0.802262 3.67944
-0.202269 0.704296 3.64022
-0.107546 0.749692 3.70418
-0.209899 0.649553 3.64716
-0.226698 0.661765 3.59943
-0.0116464 0.345125 3.76068
-0.0370795 0.341891 3.74587
-0.0560018 0.338314 3.72702
-0.0377154 0.430832 3.74955
-0.0804565 0.327642 3.68616
-0.069071 0.322607 3.7004
-0.0730184 0.329879 3.68968
-0.0317936 0.447756 3.78989
-0.0450394 0.33362 3.71746
-0.0274663 0.332842 3.73075
-0.00651976 0.331892 3.74106
-0.013556 0.260153 3.72304
-0.01166 0.288634 3.7457
-0.0103031 0.30351 3.74824
-0.00851043 0.314641 3.74248
-0.00630189 0.322735 3.73821
-0.0472521 0.325651 3.715
-0.0509056 0.323499 3.71789
-0.0557208 0.317762 3.7198
-0.0596573 0.30897 3.71555
-0.0845598 0.372317 3.71787
-0.246275 0.426663 3.43673
0.015856 0.422807 3.78291
-0.0589463 0.325872 3.70046
-0.0637972 0.325219 3.70151
-0.014683 0.414314 3.75687
-0.0532221 0.422311 3.73062
-0.0190257 0.420523 3.75779
-0.0795167 0.515308 3.70086
-0.118886 0.49788 3.69528
-0.0658826 0.454354 3.73919
-0.18319 0.7717 3.63819
-0.164065 0.734224 3.67302
-0.14594 0.691219 3.70298
-0.0710934 0.287364 3.69937
-0.0407021 0.687903 3.73817
-0.0498191 0.754473 3.7223
-0.0599756 0.816787 3.7032
-0.149172 0.575305 3.66277
-0.207437 0.541951 3.62916
-0.0501789 0.583392 3.67556
-0.182466 0.608765 3.65183
-0.0394744 0.547181 3.71828
-0.0470185 0.464057 3.78692
-0.232391 0.520541 3.60246
-0.19048 0.527234 3.65055
-0.159056 0.520664 3.6725
-0.112603 0.525966 3.68373
-0.0791473 0.536942 3.68824
-0.0557718 0.54906 3.6951
-0.00817132 0.583393 3.74554
-0.228369 0.467387 3.61028
-0.203817 0.610628 3.64226
0.00209258 0.435276 3.81478
-0.0540606 0.504025 3.72043
-0.256209 0.54731 3.45651
-0.0379235 0.561675 3.69943
-0.0672867 0.448841 3.71373
-0.168385 0.59332 3.64347
-0.0479008 0.481065 3.77579
-0.237151 0.36629 3.44768
-0.0518505 0.591746 3.66979
-0.0287123 0.497994 3.7996
-0.16992 0.265253 3.59913
-0.165628 0.230641 3.55709
-0.248302 0.445261 3.52412
-0.200336 0.295461 3.569
-0.240276 0.613221 3.56127
-0.0726529 0.190476 3.67971
0.00610295 0.423569 3.78079
-0.0751155 0.484921 3.71107
-0.230061 0.5663 3.59507
-0.126022 0.587887 3.66936
-0.105139 0.587349 3.67554
-0.0746807 0.318004 3.69627
-0.222944 0.41322 3.60166
-0.0287383 0.155282 3.67463
-0.0982259 0.18321 3.62538
-0.129217 0.202491 3.5959
0.0159657 0.752684 3.72867
0.0197534 0.151866 3.68168
-0.0854029 0.588832 3.67656
-0.066748 0.590992 3.67372
-0.0558823 0.590854 3.6701
-0.221795 0.612708 3.61796
-0.0736855 0.613733 3.67491
-0.0952736 0.623387 3.67765
-0.116775 0.624722 3.67629
-0.137705 0.618904 3.67116
-0.149883 0.609837 3.66411
-0.25371 0.61611 3.49567
-0.140763 0.58988 3.66177
0.0169928 0.393837 3.75889
-0.063519 0.387008 3.73232
-0.0445986 0.44117 3.76448
-0.0168434 0.393319 3.75621
0.014743 0.619801 3.73619
-0.136609 0.234648 3.62344
-0.105657 0.211971 3.6494
-0.0315325 0.176348 3.70462
-0.194456 0.26169 3.51231
-0.0588395 0.600374 3.67276
-0.0241108 0.541725 3.75335
0.0192945 0.172978 3.71079
-0.0661088 0.16689 3.65544
-0.239475 0.388875 3.52735
-0.0286598 0.324147 3.72809
-0.0323221 0.318924 3.73213
-0.0356353 0.31002 3.73527
-0.0383144 0.296497 3.73239
-0.0458033 0.271962 3.71454
-0.0650704 0.331073 3.70525
-0.0716627 0.333183 3.70504
-0.0782952 0.33736 3.70516
-0.102312 0.352555 3.69995
-0.19301 0.406966 3.65106
-0.0232957 0.566145 3.72992
-0.0334207 0.6084 3.68658
-0.0486102 0.605303 3.6782
-0.0600827 0.333158 3.70151
-0.192943 0.339186 3.61456
-0.0146762 0.61373 3.71852
-0.0584714 0.245447 3.7018
0.0138713 0.538107 3.79806
-0.00781322 0.557597 3.77112
0.01418 0.563283 3.7762
-0.0406199 0.50097 3.75375
0.0192083 0.200276 3.72457
0.0193245 0.231371 3.7237
-0.0208365 0.232556 3.71772
-0.112622 0.291917 3.67174
-0.0868077 0.428993 3.70875
-0.0876617 0.26513 3.68519
-0.142497 0.433279 3.69703
-0.108984 0.403496 3.70354
-0.16152 0.390531 3.67738
-0.0288222 0.202637 3.71741
-0.0541904 0.485281 3.73544
-0.131376 0.2677 3.65003
-0.100122 0.24019 3.66707
-0.133089 0.323673 3.66939
-0.215279 0.367635 3.59261
-0.162351 0.316228 3.6464
-0.225579 0.338024 3.53698
-0.1277 0.371817 3.6923
-0.0388181 0.522906 3.73555
-0.0397306 0.453032 3.7944
-0.0542747 0.444438 3.76573
-0.0296241 0.471113 3.81098
-0.0516533 0.628404 3.69395
-0.0905094 0.641765 3.69815
-0.124549 0.644167 3.69599
-0.152753 0.639525 3.68596
-0.172358 0.628646 3.67186
-0.185984 0.584772 3.63521
-0.253574 0.502022 3.52852
-0.166726 0.553962 3.65368
-0.141735 0.548819 3.66893
-0.109319 0.550823 3.67815
-0.0795182 0.55687 3.68124
-0.0573794 0.564356 3.68337
-0.0423527 0.571144 3.68453
-0.251302 0.486112 3.43916
-0.0532781 0.436965 3.7538
-0.0243634 0.519517 3.773
-0.023029 0.452384 3.81369
-0.00973115 0.439167 3.80364
-0.0227723 0.447348 3.80177
-0.0465301 0.427969 3.74511
-0.00535452 0.437102 3.81055
-0.00187818 0.426531 3.78099
-0.0434288 0.589063 3.67355
-0.0306241 0.584372 3.68843
-0.0243238 0.581663 3.70607
-0.156708 0.603009 3.65721
-0.167613 0.607916 3.65637
0.0342361 0.532532 3.78978
0.182353 0.58666 3.65523
0.0382466 0.431744 3.78107
0.273293 0.6656 3.54636
0.110912 0.571741 3.67983
0.134374 0.569553 3.67868
0.157796 0.568284 3.67311
0.190614 0.576771 3.65225
0.0923059 0.576479 3.67813
0.147427 0.625288 3.68689
0.121823 0.625855 3.68752
0.170379 0.619138 3.67976
0.185368 0.610078 3.67109
0.210116 0.557745 3.64227
0.105518 0.219411 3.69329
0.192306 0.590432 3.64815
0.28214 0.551374 3.53598
0.238593 0.568127 3.61955
0.134035 0.463649 3.70753
0.0479978 0.360496 3.76215
0.0444684 0.336089 3.75139
0.0785338 0.356058 3.74597
0.0979359 0.348321 3.72556
0.0664655 0.336984 3.73985
0.0839887 0.334992 3.7205
0.12677 0.307786 3.68413
0.034433 0.449338 3.82615
0.0369424 0.476328 3.83161
0.222608 0.630306 3.67004
0.0853154 0.528924 3.70964
0.0900384 0.453396 3.76196
0.0908574 0.466975 3.75289
0.203456 0.464845 3.67725
0.0355019 0.507427 3.81442
0.165526 0.660412 3.71227
0.198953 0.649936 3.69478
0.25094 0.718361 3.59315
0.0620141 0.64812 3.73139
0.0999928 0.618177 3.68024
0.145012 0.331769 3.6778
0.251851 0.304455 3.46821
0.0741102 0.436714 3.75402
0.0550123 0.427804 3.75721
0.122615 0.331195 3.67964
0.11121 0.332617 3.68643
0.212986 0.664657 3.68291
0.0912268 0.442381 3.74854
0.120371 0.661746 3.72433
0.125654 0.684737 3.72901
0.155946 0.796159 3.68166
0.231293 0.694507 3.64307
0.138612 0.743027 3.70682
0.237965 0.639236 3.64948
0.255805 0.652338 3.60121
0.046714 0.346207 3.76002
0.0718475 0.344046 3.74411
0.0909665 0.341313 3.72483
0.0687067 0.431711 3.7502
0.11681 0.331941 3.68363
0.105756 0.326179 3.69832
0.108101 0.333517 3.68715
0.0605546 0.447632 3.78942
0.0793663 0.336525 3.71531
0.0621128 0.334786 3.72916
0.04149 0.332752 3.7402
0.0512643 0.260913 3.72336
0.0492747 0.289257 3.74525
0.0481765 0.304023 3.74748
0.0465424 0.315279 3.74135
0.0445409 0.323213 3.737
0.0838996 0.328263 3.71299
0.0873314 0.326109 3.71637
0.0920936 0.320317 3.71838
0.0964652 0.311387 3.71423
0.117414 0.374272 3.71676
0.280189 0.421873 3.43514
0.0951562 0.328852 3.69769
0.100255 0.328432 3.6993
0.0469684 0.415004 3.75716
0.0845649 0.423723 3.73142
0.050685 0.421411 3.75836
0.109196 0.513885 3.70069
0.148104 0.496204 3.69578
0.0949804 0.454777 3.73934
0.213728 0.763504 3.6406
0.193879 0.725026 3.67635
0.174618 0.681061 3.70714
0.107153 0.28957 3.69825
0.0706398 0.683648 3.74026
0.0814552 0.751065 3.7237
0.0924761 0.813646 3.70489
0.178591 0.570326 3.66256
0.236172 0.537238 3.6297
0.0813055 0.580773 3.67488
0.211891 0.600916 3.65332
0.0689521 0.5458 3.71816
0.0751965 0.463784 3.78708
0.260906 0.515676 3.60255
0.218681 0.523355 3.65058
0.187479 0.517843 3.67282
0.142067 0.523703 3.68369
0.108962 0.534842 3.68795
0.0855904 0.547206 3.69499
0.0373592 0.582711 3.74561
0.256285 0.463981 3.60952
0.232383 0.602304 3.64331
0.0267896 0.435419 3.81462
0.0837723 0.50292 3.7199
0.2894 0.540156 3.45586
0.0682785 0.560013 3.69943
0.0978431 0.44962 3.71397
0.198852 0.586627 3.64433
0.0756996 0.480522 3.77605
0.270363 0.362974 3.44538
0.0831153 0.588791 3.66878
0.0560336 0.497465 3.79969
0.201885 0.266487 3.59831
0.198321 0.231927 3.55502
0.278855 0.441039 3.52292
0.230953 0.295638 3.56753
0.270268 0.60517 3.56173
0.109424 0.192026 3.67917
0.0257486 0.423737 3.78103
0.104881 0.484404 3.71101
0.259311 0.559736 3.59556
0.156095 0.583095 3.66899
0.13487 0.583099 3.67462
0.111513 0.321575 3.69412
0.251638 0.411335 3.60095
0.0674461 0.156122 3.67418
0.13436 0.184661 3.62381
0.16364 0.204259 3.59381
0.115273 0.585224 3.67589
0.097384 0.587872 3.67274
0.0870857 0.587933 3.66912
0.250197 0.604443 3.61895
0.104046 0.609671 3.67491
0.124577 0.61842 3.67839
0.146022 0.618851 3.67722
0.167151 0.612329 3.6724
0.17972 0.603311 3.66557
0.28563 0.60794 3.49569
0.171247 0.584526 3.66171
0.0957366 0.388695 3.73172
0.0742811 0.441707 3.76498
0.0501324 0.394052 3.75595
0.170507 0.236553 3.62275
0.140658 0.213935 3.64888
0.0689795 0.177254 3.70481
0.226473 0.261492 3.5097
0.0897357 0.597159 3.67192
0.0529769 0.540724 3.75343
0.103837 0.168224 3.65434
0.269593 0.386196 3.52601
0.0661308 0.325765 3.72637
0.0695974 0.320499 3.73075
0.0728238 0.311415 3.73374
0.0756277 0.297861 3.73102
0.082683 0.273516 3.71361
0.100278 0.334621 3.70257
0.107099 0.336889 3.70241
0.113787 0.341157 3.70242
0.136053 0.355278 3.69799
0.22168 0.406247 3.65146
0.0528401 0.564943 3.73005
0.0646207 0.60573 3.68677
0.0795789 0.602166 3.67772
0.0947005 0.336498 3.69903
0.223261 0.339349 3.61413
0.044625 0.611963 3.71898
0.0944147 0.247205 3.70152
0.0360511 0.55692 3.77123
0.0691822 0.500224 3.75388
0.0585653 0.233463 3.71822
0.146584 0.294015 3.67145
0.117856 0.429668 3.70908
0.122709 0.267092 3.68477
0.17221 0.433149 3.69854
0.140403 0.404196 3.70376
0.191655 0.390785 3.67854
0.0661946 0.203444 3.71764
0.083124 0.484702 3.73528
0.164871 0.269584 3.6496
0.135355 0.242122 3.66696
0.166005 0.325722 3.66859
0.244693 0.36655 3.59188
0.193599 0.317498 3.64613
0.25587 0.336588 3.53522
0.159045 0.373339 3.6921
0.0680424 0.521734 3.73505
0.0679071 0.453008 3.79438
0.0835073 0.444849 3.76606
0.0575189 0.4708 3.81105
0.0821172 0.624414 3.69452
0.120073 0.635674 3.70013
0.153695 0.6363 3.69858
0.181767 0.630856 3.68852
0.2012 0.619869 3.67411
0.215754 0.578364 3.63633
0.283668 0.496324 3.52765
0.195811 0.54951 3.65393
0.170587 0.545123 3.66901
0.138535 0.5477 3.67801
0.109266 0.554313 3.68074
0.0876935 0.562155 3.68323
0.0730584 0.569139 3.68436
0.285225 0.480002 3.4376
0.0829899 0.437802 3.75407
0.0528595 0.518552 3.77284
0.0513009 0.452334 3.81409
0.0385637 0.439474 3.80407
0.0514167 0.447458 3.80202
0.0771214 0.429064 3.74584
0.0343311 0.437261 3.81082
0.0331575 0.426886 3.78134
0.0748144 0.586471 3.67334
0.061368 0.582397 3.68844
0.0546008 0.580225 3.70627
0.186902 0.596427 3.6585
0.197239 0.600306 3.65775
