ply
format ascii 1.0
comment Created by Open3D
element vertex 468
property double x
property double y
property double z
end_header
-0.0272604 0.360357 3.86727
-0.0293019 0.431042 3.93488
-0.0290402 0.401734 3.8744
-0.0474817 0.512156 3.89589
-0.0289635 0.457809 3.94008
-0.0281083 0.491722 3.92742
-0.0267532 0.566069 3.86009
-0.186872 0.556206 3.76725
-0.0254948 0.618345 3.84132
-0.0243957 0.650485 3.84442
-0.0213276 0.76459 3.81669
-0.026825 0.350031 3.86497
-0.0265023 0.343125 3.85882
-0.0263939 0.341168 3.84862
-0.0261052 0.296907 3.84121
-0.0262336 0.28791 3.84629
-0.026185 0.277155 3.85224
-0.0264875 0.262802 3.84958
-0.0280515 0.236852 3.83112
-0.0289869 0.417135 3.92424
-0.0537273 0.416291 3.89129
-0.262426 0.621947 3.66183
-0.117146 0.544626 3.7896
-0.139571 0.542106 3.78871
-0.162364 0.540893 3.78337
-0.194835 0.547815 3.76375
-0.100059 0.549393 3.78756
-0.154597 0.595864 3.79539
-0.130209 0.595527 3.79566
-0.177062 0.590395 3.7885
-0.191725 0.580903 3.78035
-0.210861 0.530984 3.75373
-0.117792 0.204218 3.79993
-0.196748 0.559327 3.75998
-0.272086 0.519914 3.65418
-0.235182 0.539476 3.7318
-0.145676 0.451133 3.81801
-0.0633429 0.364615 3.86428
-0.0586754 0.344014 3.85428
-0.0985759 0.360677 3.84819
-0.119282 0.353283 3.82429
-0.0845254 0.344299 3.84122
-0.103481 0.34092 3.81926
-0.143962 0.304366 3.7811
-0.0497764 0.431917 3.93331
-0.051523 0.458351 3.93791
-0.223627 0.602405 3.77616
-0.0956235 0.508945 3.81813
-0.108156 0.440836 3.8732
-0.10776 0.4541 3.86415
-0.211369 0.453351 3.78757
-0.0494841 0.488273 3.92072
-0.172674 0.633667 3.81454
-0.203386 0.622703 3.79761
-0.242533 0.671012 3.70466
-0.0731676 0.620486 3.83459
-0.108996 0.588266 3.78906
-0.163055 0.33329 3.77605
-0.250406 0.292511 3.59817
-0.0921461 0.425052 3.86505
-0.071971 0.415847 3.86831
-0.145427 0.332932 3.77524
-0.132919 0.331929 3.7814
-0.215196 0.635846 3.78614
-0.110031 0.431676 3.86014
-0.130115 0.634858 3.82724
-0.134229 0.655692 3.83174
-0.154328 0.743717 3.78876
-0.228152 0.655025 3.74974
-0.142225 0.701574 3.81111
-0.236131 0.609561 3.75651
-0.248867 0.614705 3.71199
-0.0614243 0.352322 3.86186
-0.0909019 0.350212 3.84496
-0.111271 0.347103 3.82314
-0.0868798 0.420637 3.86136
-0.139541 0.332814 3.7789
-0.126127 0.316427 3.79284
-0.128607 0.331468 3.78187
-0.0767424 0.431442 3.899
-0.0987114 0.342545 3.81531
-0.0796863 0.343307 3.83162
-0.0555935 0.342039 3.84415
-0.0646769 0.239955 3.82803
-0.062074 0.26643 3.84533
-0.0602986 0.280458 3.84706
-0.0583803 0.291021 3.84062
-0.0557882 0.298557 3.8363
-0.100017 0.310405 3.8091
-0.104291 0.308369 3.81217
-0.109971 0.303488 3.81471
-0.114895 0.295629 3.81052
-0.136719 0.37147 3.81895
-0.271053 0.400947 3.56457
-0.0298021 0.407501 3.89275
-0.112877 0.316552 3.79259
-0.119815 0.31747 3.7938
-0.0630482 0.404046 3.86776
-0.103687 0.415711 3.84316
-0.0674957 0.409759 3.86939
-0.119221 0.496084 3.81022
-0.157065 0.481518 3.80533
-0.112767 0.443571 3.85103
-0.208969 0.713066 3.74894
-0.194719 0.684802 3.78182
-0.180746 0.652131 3.80999
-0.124305 0.278302 3.79647
-0.0802622 0.653044 3.84213
-0.0866256 0.707801 3.82749
-0.0938667 0.759861 3.8115
-0.1828 0.542233 3.77356
-0.233574 0.513274 3.74213
-0.0902845 0.553932 3.78465
-0.213614 0.570928 3.76238
-0.0793183 0.523713 3.82601
-0.091335 0.448374 3.89654
-0.256623 0.4919 3.71693
-0.218781 0.503733 3.76172
-0.191022 0.500533 3.78222
-0.148879 0.504765 3.79269
-0.117068 0.513817 3.79699
-0.0943794 0.524792 3.80355
-0.04869 0.557919 3.8515
-0.257991 0.447784 3.72443
-0.230493 0.572791 3.7526
-0.0417025 0.418221 3.92269
-0.0967608 0.486303 3.82997
-0.276894 0.508209 3.58028
-0.0778843 0.536326 3.80744
-0.115463 0.439782 3.82637
-0.203001 0.556608 3.7557
-0.0909744 0.464986 3.88564
-0.265385 0.347428 3.57617
-0.0926914 0.560278 3.77904
-0.0700089 0.47928 3.90746
-0.209796 0.257442 3.71255
-0.204299 0.221357 3.67751
-0.275766 0.42131 3.6454
-0.23628 0.285634 3.6872
-0.26123 0.569579 3.6768
-0.122109 0.174354 3.79013
-0.0402698 0.408364 3.89134
-0.117878 0.470085 3.82205
-0.252512 0.530613 3.70972
-0.161141 0.553653 3.78038
-0.140192 0.554285 3.78551
-0.132086 0.313959 3.78925
-0.257819 0.398767 3.71761
-0.0812541 0.135313 3.78954
-0.147451 0.168687 3.74027
-0.173723 0.191485 3.71178
-0.0229397 0.709139 3.8321
-0.0321007 0.130354 3.79683
-0.121549 0.556552 3.78625
-0.10493 0.55931 3.7829
-0.0960026 0.559677 3.77899
-0.245023 0.573554 3.72977
-0.112426 0.576271 3.78552
-0.131835 0.582345 3.7896
-0.151686 0.582621 3.78847
-0.171723 0.577394 3.78377
-0.184236 0.56983 3.77702
-0.273839 0.569532 3.61592
-0.176089 0.554497 3.77346
-0.0283044 0.387794 3.8661
-0.115092 0.38428 3.83785
-0.0919378 0.428356 3.87561
-0.0654431 0.388392 3.86288
-0.0260848 0.5921 3.84189
-0.180486 0.225851 3.73356
-0.15216 0.199968 3.75972
-0.0813369 0.158023 3.81477
-0.228616 0.251243 3.63695
-0.0990998 0.566777 3.7817
-0.0648564 0.519567 3.86028
-0.0311168 0.15222 3.82033
-0.118138 0.148993 3.76995
-0.270315 0.370443 3.64985
-0.0802729 0.303541 3.82425
-0.0845048 0.298383 3.82782
-0.0883948 0.289843 3.83116
-0.0920434 0.277091 3.82872
-0.0993001 0.25563 3.81432
-0.121207 0.338094 3.7989
-0.129074 0.341049 3.7978
-0.135775 0.34545 3.79827
-0.154925 0.355162 3.7967
-0.231346 0.396581 3.76341
-0.0636133 0.541312 3.83697
-0.0747793 0.578187 3.79537
-0.0890746 0.573426 3.78625
-0.115034 0.339681 3.7962
-0.233261 0.330902 3.72832
-0.0555323 0.584798 3.82608
-0.107928 0.232832 3.80556
-0.02763 0.517083 3.90347
-0.0483224 0.534421 3.87667
-0.0272884 0.54056 3.88152
-0.082716 0.483289 3.86291
-0.0302888 0.180948 3.83006
-0.0291763 0.21211 3.82922
-0.0704051 0.21568 3.82313
-0.15964 0.289921 3.77113
-0.132947 0.420954 3.81919
-0.136043 0.258122 3.78619
-0.183345 0.423128 3.80834
-0.15406 0.397322 3.81056
-0.203158 0.383382 3.78695
-0.0777607 0.185957 3.82344
-0.0979594 0.470064 3.84596
-0.176167 0.262054 3.75468
-0.146802 0.231272 3.77336
-0.179284 0.324267 3.76982
-0.252443 0.355936 3.70946
-0.205493 0.311124 3.75308
-0.258212 0.323824 3.65846
-0.173525 0.370728 3.79514
-0.0802627 0.502587 3.8436
-0.0841643 0.436823 3.90368
-0.101386 0.432173 3.87713
-0.0726889 0.453491 3.9186
-0.0924519 0.596431 3.80083
-0.129264 0.608057 3.80507
-0.161291 0.609173 3.80322
-0.187716 0.603208 3.79368
-0.205479 0.59092 3.78045
-0.216016 0.548709 3.74758
-0.276139 0.470455 3.64806
-0.198186 0.524884 3.76501
-0.174199 0.522064 3.77867
-0.144033 0.524128 3.78735
-0.116162 0.52993 3.79054
-0.0956885 0.537284 3.79244
-0.0821619 0.544058 3.79367
-0.273737 0.453444 3.56478
-0.101581 0.426771 3.86541
-0.0658072 0.499383 3.88034
-0.0666398 0.434896 3.92207
-0.0538053 0.422283 3.91299
-0.0668769 0.430302 3.91099
-0.0960257 0.419474 3.85738
-0.0493368 0.41995 3.91932
-0.0481692 0.411315 3.89151
-0.0843978 0.559345 3.78326
-0.0713905 0.556523 3.79758
-0.0647769 0.554991 3.81442
-0.191366 0.564009 3.76979
-0.202193 0.57027 3.76782
-0.00788512 0.512857 3.89589
0.140213 0.560813 3.76531
-0.0041676 0.416529 3.88992
0.227651 0.632114 3.65983
0.0686925 0.547652 3.79024
0.09205 0.545516 3.78881
0.115618 0.545007 3.78299
0.149341 0.552779 3.7619
0.0501744 0.551842 3.78773
0.108931 0.601245 3.7937
0.0832787 0.600163 3.79396
0.132158 0.596198 3.78634
0.147346 0.586804 3.77774
0.165449 0.536667 3.75143
0.0606078 0.204264 3.79849
0.150389 0.564253 3.75728
0.231785 0.528159 3.65142
0.191922 0.54615 3.72827
0.0944024 0.45461 3.81548
0.0107145 0.365753 3.8633
0.00798968 0.345128 3.85386
0.0488219 0.362856 3.84646
0.0713693 0.356544 3.82266
0.0357958 0.346408 3.84093
0.055872 0.344201 3.81858
0.0948809 0.308015 3.77918
-0.00812964 0.432239 3.93208
-0.00540679 0.458857 3.9367
0.183745 0.609947 3.77248
0.0434586 0.511129 3.81757
0.0529173 0.442983 3.87026
0.0533965 0.456246 3.8614
0.163111 0.458763 3.78468
-0.00655844 0.488918 3.92051
0.129701 0.640171 3.80978
0.162235 0.629725 3.79314
0.208028 0.681354 3.70194
0.0243747 0.622818 3.83295
0.0605098 0.591774 3.7877
0.115299 0.337851 3.774
0.199468 0.296004 3.59796
0.0357354 0.426599 3.86295
0.0148499 0.416745 3.86541
0.098096 0.337937 3.77376
0.0868237 0.336747 3.77965
0.17592 0.643815 3.78149
0.0552759 0.433861 3.85697
0.084326 0.639809 3.82342
0.08974 0.661046 3.82722
0.115705 0.750465 3.7854
0.191471 0.663946 3.74569
0.099991 0.707391 3.80756
0.197485 0.617637 3.75283
0.212208 0.623616 3.7088
0.0100675 0.353445 3.8612
0.041599 0.352554 3.84437
0.0636135 0.350376 3.82208
0.0302226 0.421913 3.85801
0.0927763 0.33759 3.7766
0.0786713 0.32047 3.79078
0.0831046 0.336168 3.78074
0.0204226 0.432204 3.89804
0.0519587 0.346038 3.81472
0.0310759 0.345612 3.83156
0.00547355 0.34332 3.84433
0.0101624 0.240681 3.82733
0.0108008 0.267743 3.84547
0.00964 0.281615 3.8474
0.00749617 0.29211 3.84131
0.00505082 0.299551 3.83696
0.0524083 0.313519 3.80844
0.0567729 0.311532 3.81104
0.0623304 0.306655 3.8128
0.0663581 0.298924 3.80848
0.0865591 0.374855 3.81582
0.224323 0.407528 3.56381
0.0659807 0.320403 3.79195
0.072686 0.321521 3.79233
0.00579538 0.404829 3.86595
0.0479729 0.41772 3.83905
0.0102313 0.410619 3.86701
0.0675272 0.499118 3.8095
0.106745 0.485613 3.80367
0.0585346 0.446058 3.84798
0.172936 0.722338 3.7451
0.156079 0.692913 3.77731
0.138862 0.659329 3.80521
0.0735667 0.280968 3.79503
0.0334891 0.656047 3.83928
0.042562 0.710726 3.82502
0.0530654 0.763489 3.80897
0.136773 0.546938 3.77239
0.188896 0.519578 3.73898
0.0393349 0.556015 3.78499
0.170606 0.577268 3.75939
0.0269948 0.525636 3.82593
0.0355722 0.449751 3.89452
0.212651 0.498917 3.7142
0.172362 0.509601 3.75921
0.143081 0.505724 3.78029
0.0989992 0.508763 3.79175
0.0658388 0.516799 3.79668
0.0429089 0.526975 3.80348
-0.00416079 0.558836 3.85155
0.210855 0.454325 3.7215
0.189477 0.58008 3.74953
-0.0157971 0.418534 3.92235
0.043265 0.488443 3.82899
0.235833 0.517358 3.57937
0.0256652 0.538104 3.8074
0.0603493 0.442229 3.82277
0.157439 0.562125 3.75305
0.036061 0.46662 3.88365
0.216579 0.352077 3.57509
0.0420293 0.562456 3.77941
0.0148428 0.480454 3.90646
0.157354 0.25866 3.71063
0.150738 0.221428 3.67677
0.228507 0.427707 3.64296
0.185369 0.288136 3.68524
0.222312 0.578436 3.6738
0.0628749 0.173852 3.7888
-0.0193364 0.408601 3.89063
0.0652358 0.472976 3.81996
0.210635 0.538058 3.70657
0.113512 0.557368 3.77943
0.0921677 0.557747 3.78534
0.0844134 0.318123 3.78701
0.209223 0.404461 3.71463
0.0181644 0.134731 3.78953
0.0881833 0.167973 3.73988
0.11719 0.190745 3.71144
0.0729181 0.559603 3.78668
0.0553062 0.562113 3.78361
0.0455469 0.562084 3.77982
0.205448 0.581675 3.72671
0.0645641 0.579386 3.78553
0.0856959 0.586071 3.78867
0.10591 0.586925 3.78759
0.126 0.581995 3.78176
0.138556 0.574839 3.77467
0.235559 0.579433 3.61419
0.128874 0.55855 3.77219
0.0624192 0.38692 3.835
0.035681 0.42963 3.87258
0.0104966 0.38941 3.86147
0.12528 0.226232 3.73185
0.0950583 0.199621 3.75827
0.0206517 0.157702 3.81432
0.176295 0.25339 3.63717
0.0492478 0.569352 3.78242
0.0111015 0.520701 3.85971
0.0566153 0.148367 3.76974
0.22155 0.375735 3.6471
0.0309332 0.305556 3.82468
0.0353159 0.300498 3.82783
0.0390648 0.292294 3.83075
0.0418167 0.279536 3.82814
0.0467504 0.25758 3.8137
0.0753992 0.342343 3.79794
0.0824419 0.345327 3.79692
0.0892158 0.349754 3.79666
0.106742 0.359555 3.79426
0.183063 0.401737 3.76058
0.0107891 0.54273 3.83727
0.0233465 0.580094 3.79474
0.03866 0.575862 3.78615
0.0696869 0.343852 3.79551
0.183652 0.33471 3.72524
0.00389788 0.586083 3.82566
0.0534956 0.233737 3.80422
-0.00559874 0.535063 3.87627
0.028335 0.484906 3.86153
0.0134643 0.215923 3.82232
0.108619 0.29244 3.7693
0.0800665 0.424062 3.81615
0.0833383 0.259621 3.78442
0.134015 0.427329 3.80472
0.103843 0.400654 3.80745
0.154576 0.387631 3.78342
0.0190303 0.185983 3.82301
0.0438256 0.472096 3.84404
0.122858 0.263741 3.75288
0.0915972 0.231731 3.77137
0.130055 0.328287 3.76868
0.203424 0.360578 3.70655
0.155605 0.314125 3.75066
0.208229 0.328128 3.65684
0.125714 0.375013 3.79297
0.0264414 0.504264 3.84304
0.0284522 0.437931 3.90199
0.0459567 0.433819 3.87385
0.0162183 0.454441 3.91782
0.042965 0.599393 3.80032
0.0821522 0.612408 3.80256
0.115894 0.614743 3.79983
0.143759 0.609415 3.79034
0.162588 0.597146 3.77679
0.171919 0.554725 3.74468
0.232234 0.478064 3.64587
0.151585 0.530142 3.76302
0.126648 0.526512 3.77734
0.0954252 0.527784 3.78682
0.0662989 0.532886 3.79053
0.0450074 0.539471 3.79206
0.0306729 0.545878 3.7935
0.22957 0.461556 3.56488
0.0461602 0.428457 3.86207
0.0107053 0.500679 3.87986
0.00993847 0.435458 3.92062
-0.00283528 0.422528 3.91174
0.0105398 0.430709 3.90951
0.0403891 0.420963 3.85366
-0.00766967 0.420268 3.91836
-0.0104401 0.411588 3.89036
0.0329564 0.561244 3.78284
0.0197797 0.557967 3.79696
0.0129322 0.55624 3.81378
0.145587 0.569065 3.76728
0.157756 0.576236 3.76503
