ply
format ascii 1.0
comment Created by Open3D
element vertex 468
property double x
property double y
property double z
end_header
0.0700916 0.347852 3.7438
0.0730061 0.435102 3.81473
0.0736268 0.406034 3.748
0.0481126 0.52923 3.77588
0.0723176 0.464855 3.82201
0.0701643 0.503571 3.80918
0.0693894 0.591313 3.73826
-0.116634 0.594836 3.62696
0.069674 0.649059 3.71906
0.0694977 0.684377 3.72325
0.0698687 0.823586 3.69024
0.0694196 0.335431 3.74038
0.0685253 0.327125 3.7324
0.0680456 0.324659 3.72071
0.068697 0.317479 3.71968
0.0685379 0.307625 3.72466
0.0666806 0.295563 3.73198
0.0659223 0.280131 3.73075
0.0669848 0.249058 3.71109
0.0716659 0.420416 3.80156
0.0461521 0.420503 3.76328
-0.218635 0.691458 3.50378
-0.0417577 0.577212 3.65723
-0.068052 0.574797 3.65518
-0.0935267 0.574278 3.64742
-0.128727 0.585131 3.62306
-0.0189099 0.582626 3.65479
-0.0807772 0.636782 3.66233
-0.0514809 0.635787 3.66194
-0.106471 0.63213 3.6533
-0.123877 0.622951 3.64197
-0.147939 0.566939 3.60948
-0.0287353 0.195736 3.67393
-0.127184 0.599953 3.61816
-0.224972 0.570332 3.49383
-0.177725 0.581052 3.5824
-0.0642446 0.463771 3.68061
0.0339247 0.352147 3.73933
0.0357925 0.327625 3.72695
-0.00478442 0.347137 3.72171
-0.0294307 0.340334 3.70017
0.00680675 0.328371 3.71487
-0.0137342 0.32778 3.6948
-0.0580355 0.300932 3.65946
0.0497283 0.435627 3.81038
0.0457245 0.465058 3.81643
-0.164769 0.646618 3.63548
-0.0102591 0.531549 3.68763
-0.0174906 0.447022 3.73975
-0.0190979 0.462848 3.73066
-0.144785 0.467253 3.64516
0.0465524 0.500344 3.80105
-0.0983146 0.676228 3.6801
-0.137302 0.666292 3.66031
-0.191643 0.743636 3.55323
0.0177671 0.655678 3.70827
-0.0250317 0.627976 3.65558
-0.079886 0.32626 3.65209
-0.198522 0.305457 3.43322
0.00350376 0.429588 3.73142
0.0272915 0.419913 3.73477
-0.0538864 0.327914 3.65537
-0.043895 0.328749 3.66088
-0.151834 0.683877 3.64608
-0.019144 0.436327 3.72417
-0.0465995 0.674618 3.69633
-0.0521435 0.698379 3.70051
-0.0821822 0.813226 3.65154
-0.170821 0.715738 3.60501
-0.0632524 0.758602 3.67779
-0.180538 0.658111 3.61236
-0.198772 0.673613 3.56046
0.0340823 0.337238 3.73613
0.00214408 0.335282 3.71945
-0.0210158 0.333611 3.69938
0.0105471 0.424657 3.72634
-0.0485864 0.328435 3.65831
-0.0358939 0.322088 3.67393
-0.0418782 0.329323 3.66176
0.0169923 0.435944 3.7716
-0.0102876 0.33022 3.68989
0.0116056 0.328038 3.70457
0.0376939 0.325915 3.7166
0.0307367 0.250029 3.70609
0.0312632 0.282428 3.72659
0.0335735 0.298189 3.7283
0.0368924 0.310275 3.72089
0.0389119 0.318163 3.71579
-0.0109789 0.323145 3.68895
-0.0148196 0.320625 3.69226
-0.0201742 0.314687 3.6949
-0.0239281 0.30549 3.69103
-0.0484592 0.367568 3.69
-0.222008 0.44013 3.39403
0.0754173 0.412688 3.76771
-0.0251383 0.325093 3.67413
-0.0300004 0.324747 3.67519
0.0373325 0.407555 3.73805
-0.00790059 0.419087 3.70486
0.0323459 0.413374 3.7373
-0.0372238 0.516739 3.67783
-0.0802467 0.499181 3.66917
-0.0233264 0.451299 3.71526
-0.148419 0.785665 3.60404
-0.12687 0.744985 3.64164
-0.10726 0.6989 3.67434
-0.0347552 0.280436 3.67651
0.00866469 0.692636 3.71611
-0.000156621 0.760626 3.69884
-0.011752 0.824558 3.67876
-0.116173 0.577137 3.63506
-0.175949 0.547179 3.59371
-0.00453648 0.588241 3.65273
-0.151683 0.613509 3.62045
0.00849894 0.548434 3.69813
0.000269005 0.455033 3.76732
-0.205083 0.526206 3.56561
-0.157836 0.531515 3.61854
-0.123661 0.524031 3.64323
-0.0731591 0.528506 3.65855
-0.0364882 0.539258 3.6649
-0.0103154 0.551368 3.67276
0.0448561 0.584108 3.72803
-0.203384 0.470774 3.57431
-0.174134 0.616739 3.60841
0.0569472 0.421332 3.79926
-0.00831084 0.504132 3.69863
-0.229719 0.566659 3.41216
0.0107716 0.564699 3.67796
-0.0228239 0.448845 3.68787
-0.136327 0.59744 3.61333
-0.00160908 0.47468 3.75578
-0.21556 0.3735 3.40617
-0.0060631 0.596863 3.64633
0.0217499 0.490545 3.78349
-0.145462 0.250183 3.56753
-0.141975 0.212347 3.52626
-0.223637 0.452653 3.4834
-0.179129 0.28621 3.53434
-0.21208 0.625995 3.52065
-0.0333137 0.161517 3.66146
0.0640949 0.413679 3.7648
-0.0322529 0.485117 3.68694
-0.200507 0.574213 3.55697
-0.0890979 0.58999 3.6438
-0.0667016 0.589705 3.65167
-0.0415326 0.317291 3.66983
-0.200501 0.413455 3.56516
0.0168917 0.122952 3.6609
-0.0644079 0.153008 3.60363
-0.100648 0.176736 3.56941
0.0700524 0.756562 3.7082
0.0718059 0.122156 3.67025
-0.0451234 0.591735 3.65321
-0.0244148 0.595042 3.6509
-0.0113847 0.595884 3.64701
-0.192887 0.621218 3.58161
-0.0322263 0.614961 3.6525
-0.0566816 0.622138 3.6549
-0.0791677 0.623126 3.65279
-0.101226 0.618104 3.64585
-0.114521 0.610362 3.63687
-0.22821 0.635376 3.45176
-0.104967 0.592003 3.63501
0.0727492 0.387331 3.74073
-0.0230616 0.381975 3.70698
0.00312071 0.432866 3.74121
0.032617 0.386777 3.73592
0.0692541 0.621157 3.71824
-0.107145 0.214429 3.59622
-0.0712985 0.186427 3.6266
0.0132346 0.147565 3.69058
-0.172938 0.252276 3.47869
-0.0144491 0.604173 3.64997
0.0272868 0.540582 3.73503
0.0695193 0.146375 3.69931
-0.0268206 0.134123 3.63825
-0.217539 0.391325 3.48748
0.0120962 0.320577 3.70403
0.00808502 0.314964 3.70853
0.00398921 0.30573 3.71302
0.00156831 0.291272 3.71072
-0.00647674 0.262669 3.69493
-0.0336583 0.328804 3.67688
-0.0404118 0.331128 3.67725
-0.0477405 0.335331 3.67677
-0.0705839 0.349219 3.67096
-0.168978 0.404215 3.61682
0.0278355 0.567599 3.71135
0.0172126 0.614107 3.66364
-0.00131638 0.610789 3.65467
-0.0285391 0.3317 3.67412
-0.171015 0.332828 3.57972
0.0375143 0.616743 3.69861
-0.0182714 0.230372 3.68242
0.0698021 0.533699 3.78409
0.0457493 0.555513 3.75397
0.0697982 0.561505 3.76081
0.00758321 0.497988 3.73326
0.0680052 0.179143 3.71246
0.0675804 0.216785 3.71077
0.0241377 0.216948 3.70216
-0.0801312 0.282938 3.64512
-0.0459896 0.427968 3.68169
-0.0516192 0.252382 3.66211
-0.10914 0.431531 3.66766
-0.072729 0.40116 3.67549
-0.134085 0.386193 3.64522
0.0158299 0.18024 3.70299
-0.00921162 0.483331 3.71292
-0.100255 0.253423 3.62263
-0.0637057 0.221503 3.64389
-0.104148 0.317734 3.64126
-0.194444 0.364372 3.55588
-0.137412 0.306521 3.61442
-0.204634 0.33537 3.49971
-0.097671 0.36801 3.6626
0.00988118 0.522476 3.71565
0.00809911 0.44134 3.77507
-0.00920654 0.436607 3.74287
0.0218167 0.460383 3.79469
-0.00359749 0.634316 3.67042
-0.0471468 0.647424 3.67306
-0.0853226 0.650052 3.6694
-0.117514 0.645561 3.65839
-0.140729 0.633678 3.64199
-0.154129 0.589521 3.60227
-0.227561 0.512011 3.48781
-0.13307 0.557361 3.62359
-0.105581 0.551567 3.641
-0.0708978 0.553149 3.65332
-0.0379665 0.559394 3.65781
-0.0125834 0.567372 3.65988
0.00539187 0.575063 3.66198
-0.225408 0.503167 3.39562
-0.00851913 0.430559 3.72993
0.0276342 0.516078 3.75634
0.0291332 0.438857 3.79665
0.0421344 0.425112 3.78625
0.0278512 0.433898 3.784
-0.000573943 0.422647 3.72074
0.0479905 0.42282 3.79384
0.0536583 0.415899 3.76386
0.00494325 0.594779 3.64991
0.0192316 0.588977 3.66561
0.0263985 0.585183 3.68508
-0.121785 0.604557 3.62868
-0.136066 0.612178 3.62656
0.0919818 0.528648 3.77475
0.240176 0.588501 3.63109
0.0995292 0.422014 3.76778
0.321743 0.674391 3.50789
0.166506 0.571517 3.65391
0.190264 0.568923 3.65312
0.214005 0.56875 3.6475
0.246361 0.578705 3.6264
0.148142 0.577818 3.65354
0.202762 0.626009 3.66452
0.17679 0.626669 3.66531
0.226223 0.620992 3.65722
0.241505 0.612245 3.64768
0.264155 0.561094 3.6158
0.15875 0.204978 3.67972
0.249383 0.592541 3.62322
0.329782 0.561457 3.49982
0.288969 0.573644 3.59052
0.192555 0.463618 3.68943
0.102624 0.353022 3.74146
0.0964977 0.328436 3.72792
0.134877 0.349649 3.72536
0.154801 0.34267 3.70363
0.120356 0.330118 3.71571
0.139351 0.329254 3.69676
0.181378 0.304456 3.66497
0.0939481 0.436604 3.8139
0.0953754 0.465423 3.82014
0.273741 0.633726 3.64308
0.142435 0.529737 3.68928
0.153417 0.44863 3.74849
0.152912 0.463617 3.73866
0.260823 0.466754 3.65491
0.0937328 0.500094 3.80128
0.219405 0.661938 3.69105
0.251951 0.652147 3.6706
0.298594 0.724694 3.55919
0.1179 0.64959 3.71115
0.155853 0.620682 3.6573
0.20326 0.329321 3.65764
0.314329 0.315884 3.43662
0.138422 0.431746 3.73952
0.116779 0.421749 3.74495
0.180652 0.328599 3.65718
0.167134 0.329244 3.66367
0.264493 0.66793 3.65674
0.154472 0.43822 3.73474
0.175608 0.663174 3.70517
0.180267 0.686178 3.71028
0.206547 0.798816 3.65818
0.280045 0.698847 3.61379
0.191886 0.745678 3.68555
0.288139 0.644169 3.62034
0.304519 0.658651 3.56801
0.0997968 0.338319 3.73747
0.126983 0.337422 3.72111
0.146846 0.335755 3.70227
0.132247 0.427037 3.73669
0.174119 0.328906 3.6611
0.159891 0.323346 3.67834
0.162451 0.329822 3.66414
0.123157 0.437845 3.77459
0.133486 0.330954 3.69129
0.11551 0.328974 3.7047
0.0932006 0.326178 3.71578
0.0988169 0.252222 3.70971
0.0961304 0.283379 3.72753
0.095703 0.298926 3.72779
0.0964125 0.310883 3.71968
0.094634 0.318938 3.71462
0.135813 0.324668 3.69124
0.13865 0.322264 3.69629
0.142554 0.316534 3.70056
0.147545 0.307509 3.69652
0.177613 0.370213 3.69849
0.338794 0.439115 3.39723
0.149057 0.325821 3.67465
0.154096 0.325889 3.67828
0.10804 0.408668 3.74328
0.148043 0.421218 3.71836
0.112452 0.414818 3.74536
0.167304 0.514696 3.6804
0.205616 0.497343 3.67504
0.157691 0.452473 3.72449
0.261992 0.767358 3.61264
0.244195 0.728445 3.65217
0.228363 0.683386 3.68496
0.159013 0.284782 3.68059
0.125508 0.684925 3.72158
0.135541 0.753831 3.7037
0.144536 0.816725 3.68552
0.234476 0.571442 3.63694
0.287807 0.541847 3.60202
0.138323 0.583878 3.64982
0.265469 0.60416 3.62646
0.125462 0.546547 3.69808
0.136965 0.456121 3.77407
0.31248 0.521574 3.57278
0.272828 0.52696 3.62468
0.243316 0.520368 3.64869
0.199235 0.525266 3.66071
0.166396 0.536221 3.66555
0.141919 0.548586 3.67311
0.0933773 0.582877 3.72772
0.314067 0.469591 3.58135
0.282944 0.606664 3.6145
0.0850676 0.421782 3.80023
0.143407 0.503103 3.70126
0.340988 0.556152 3.41381
0.124994 0.562123 3.67715
0.161807 0.449929 3.69897
0.255456 0.589678 3.61785
0.135815 0.475192 3.76226
0.331623 0.378404 3.41115
0.140514 0.592493 3.64249
0.114281 0.49062 3.78629
0.264458 0.264558 3.57729
0.261868 0.229215 3.53237
0.337074 0.452233 3.49003
0.293511 0.298259 3.54342
0.319572 0.613677 3.52634
0.166339 0.173193 3.66648
0.0866603 0.413991 3.76705
0.164155 0.48443 3.69279
0.30738 0.566594 3.56389
0.214538 0.583624 3.64494
0.192282 0.582973 3.64975
0.165993 0.318725 3.674
0.313041 0.416544 3.57535
0.124358 0.129981 3.66289
0.197942 0.168321 3.60655
0.227728 0.194107 3.57345
0.171529 0.585301 3.65092
0.154187 0.589356 3.64721
0.144828 0.591014 3.64249
0.298963 0.610064 3.58812
0.158219 0.609321 3.65028
0.176944 0.615363 3.65571
0.198736 0.61595 3.65517
0.220629 0.610723 3.65025
0.234225 0.602976 3.64276
0.336632 0.620945 3.45537
0.229982 0.585841 3.63759
0.156718 0.384396 3.71565
0.138115 0.435373 3.75133
0.108169 0.387876 3.7396
0.231762 0.229945 3.60518
0.200138 0.201242 3.63448
0.121635 0.154103 3.69328
0.289724 0.266136 3.48164
0.146269 0.59969 3.64545
0.110159 0.539619 3.73606
0.16473 0.146209 3.63993
0.330498 0.395938 3.49556
0.117546 0.321826 3.70406
0.120085 0.31632 3.70944
0.122147 0.307074 3.71443
0.125012 0.292835 3.71262
0.132447 0.266 3.69708
0.155841 0.329738 3.67903
0.164367 0.332126 3.67887
0.171346 0.336566 3.67941
0.195776 0.351868 3.67759
0.281452 0.407771 3.62947
0.109318 0.56583 3.71092
0.121702 0.610062 3.66371
0.136154 0.605859 3.65183
0.149255 0.332054 3.67522
0.285577 0.341174 3.59227
0.100462 0.61421 3.69921
0.144886 0.236885 3.68735
0.0922059 0.554988 3.75512
0.128026 0.497815 3.73764
0.10669 0.220729 3.70563
0.202488 0.290237 3.65325
0.179383 0.42944 3.69274
0.174917 0.260328 3.66938
0.229838 0.433328 3.68098
0.200069 0.403404 3.68647
0.251019 0.390681 3.6595
0.11604 0.185213 3.70517
0.143595 0.483238 3.71886
0.223671 0.265124 3.63216
0.191255 0.233124 3.65288
0.225151 0.323557 3.64858
0.307188 0.37103 3.56793
0.254034 0.315788 3.62588
0.317985 0.344179 3.5072
0.218226 0.371385 3.67286
0.126498 0.521457 3.71679
0.129748 0.443248 3.78031
0.146654 0.438901 3.75334
0.118148 0.461311 3.79829
0.139746 0.628225 3.67068
0.176583 0.638221 3.67786
0.209324 0.638461 3.67675
0.23718 0.633402 3.66568
0.255875 0.622409 3.6494
0.268958 0.58214 3.60864
0.336383 0.507064 3.49207
0.251544 0.552112 3.62832
0.226586 0.547052 3.64436
0.195025 0.548621 3.65393
0.16556 0.554998 3.65715
0.143637 0.563896 3.66008
0.129306 0.571888 3.66153
0.339745 0.496908 3.39578
0.146396 0.432971 3.74071
0.111701 0.515505 3.75703
0.111919 0.440755 3.80159
0.0975438 0.427146 3.79106
0.112228 0.436253 3.7887
0.14017 0.424977 3.7329
0.092732 0.424178 3.79778
0.0944632 0.416885 3.76772
0.131961 0.5908 3.64825
0.117674 0.585722 3.66554
0.110537 0.58256 3.68555
0.24255 0.597289 3.63472
0.253108 0.603135 3.63337
