ply
format ascii 1.0
comment Created by Open3D
element vertex 468
property double x
property double y
property double z
end_header
-0.0157963 0.330769 4.22055
-0.0151502 0.416788 4.27022
-0.0158202 0.39194 4.2167
-0.0331884 0.501575 4.23767
-0.014506 0.442619 4.27723
-0.0127266 0.476176 4.26704
-0.014943 0.559737 4.20746
-0.16351 0.571338 4.11539
-0.0171547 0.60651 4.19181
-0.0182731 0.636232 4.19507
-0.0221856 0.769303 4.16416
-0.0157959 0.317581 4.21786
-0.0154671 0.307359 4.21033
-0.0150622 0.302822 4.20063
-0.0159178 0.293556 4.2004
-0.016108 0.282445 4.20451
-0.0150557 0.267901 4.20885
-0.0144295 0.252531 4.20564
-0.0144451 0.228372 4.18431
-0.0135191 0.403657 4.25883
-0.0362074 0.406437 4.2315
-0.2431 0.658393 4.00747
-0.100867 0.550445 4.13389
-0.121004 0.547762 4.13341
-0.141414 0.547897 4.12933
-0.168648 0.561172 4.11245
-0.0844105 0.556682 4.13515
-0.130656 0.603024 4.14439
-0.108509 0.602771 4.14517
-0.150649 0.599421 4.13877
-0.163941 0.592669 4.13045
-0.186009 0.542842 4.10433
-0.0936919 0.1929 4.16432
-0.171228 0.576873 4.10943
-0.250803 0.555328 4.00535
-0.209834 0.557041 4.08256
-0.117857 0.441159 4.16741
-0.0411819 0.33502 4.21751
-0.0360179 0.307353 4.20651
-0.0673389 0.32669 4.20487
-0.084193 0.313955 4.18839
-0.0545364 0.30566 4.19681
-0.0703574 0.301367 4.18242
-0.11061 0.273121 4.1602
-0.0324076 0.417621 4.26962
-0.0345086 0.441992 4.27579
-0.192548 0.603887 4.12553
-0.0772839 0.506681 4.16718
-0.0841442 0.427703 4.21577
-0.0843687 0.441512 4.20799
-0.176505 0.443599 4.1393
-0.0336826 0.47394 4.25984
-0.141647 0.62251 4.16723
-0.17123 0.61687 4.15011
-0.220463 0.698576 4.04953
-0.0556045 0.607454 4.18369
-0.0905082 0.598329 4.1381
-0.127662 0.296635 4.15282
-0.237504 0.320613 3.96487
-0.0704495 0.413587 4.20745
-0.0505532 0.404125 4.21438
-0.105892 0.293207 4.15271
-0.0930667 0.294227 4.15835
-0.182813 0.631506 4.13736
-0.0839666 0.416461 4.20466
-0.103634 0.620358 4.17858
-0.108011 0.639193 4.18208
-0.137044 0.752378 4.13369
-0.199432 0.666848 4.09897
-0.121768 0.699828 4.15912
-0.206724 0.614778 4.10475
-0.224634 0.635856 4.05845
-0.0390729 0.319025 4.21448
-0.060438 0.3138 4.20207
-0.0771187 0.307029 4.1877
-0.0641387 0.408664 4.20595
-0.0994017 0.292904 4.15612
-0.08823 0.289424 4.17224
-0.0892269 0.295957 4.15922
-0.0574089 0.420672 4.23524
-0.0646691 0.302289 4.17823
-0.0500322 0.304007 4.18807
-0.0331916 0.303528 4.19609
-0.0410661 0.230141 4.18551
-0.039452 0.255194 4.20488
-0.0385971 0.271227 4.20663
-0.0381568 0.2858 4.20109
-0.0361191 0.294737 4.19684
-0.0684782 0.295247 4.17939
-0.0706588 0.291678 4.1843
-0.0747446 0.284524 4.18849
-0.08053 0.276094 4.18483
-0.102225 0.34476 4.1833
-0.261234 0.448636 3.92499
-0.0165431 0.399256 4.2319
-0.0787287 0.294979 4.16735
-0.0830785 0.293008 4.17118
-0.0437047 0.392275 4.21343
-0.0776455 0.400565 4.19154
-0.0469956 0.397808 4.21455
-0.0977073 0.491967 4.16014
-0.129555 0.473792 4.15619
-0.0879679 0.430357 4.19649
-0.185392 0.730228 4.09549
-0.166114 0.688664 4.13143
-0.150082 0.6415 4.16053
-0.0914681 0.257724 4.17023
-0.0628612 0.636342 4.19198
-0.0747103 0.705048 4.17563
-0.0843287 0.764364 4.15822
-0.158654 0.552128 4.12089
-0.208057 0.524628 4.09283
-0.0758135 0.563593 4.13166
-0.186265 0.583738 4.11218
-0.0627418 0.522492 4.17482
-0.0698019 0.435666 4.23627
-0.231533 0.507654 4.06949
-0.193856 0.506675 4.11255
-0.16627 0.497291 4.13283
-0.12689 0.502591 4.14325
-0.0985861 0.51431 4.14727
-0.0774034 0.526109 4.1536
-0.0354969 0.553482 4.19813
-0.230146 0.454923 4.07806
-0.203061 0.584195 4.10109
-0.0245997 0.404823 4.2577
-0.0776331 0.481427 4.17702
-0.263486 0.559079 3.93263
-0.0630753 0.539044 4.15645
-0.0915937 0.429586 4.17505
-0.177243 0.57407 4.10522
-0.0696275 0.452417 4.22694
-0.25443 0.386784 3.93991
-0.0778839 0.573172 4.12433
-0.0515563 0.465421 4.2471
-0.188858 0.254919 4.08361
-0.188986 0.225708 4.04624
-0.256572 0.450923 4.00229
-0.214135 0.292001 4.05385
-0.240044 0.600612 4.02534
-0.100783 0.164627 4.15408
-0.0256517 0.400391 4.23121
-0.0944301 0.462231 4.16991
-0.228007 0.552763 4.0593
-0.141786 0.56374 4.12671
-0.122536 0.562164 4.13038
-0.0945672 0.284788 4.16866
-0.226114 0.403966 4.07547
-0.0619076 0.122983 4.14847
-0.131423 0.163872 4.1048
-0.159284 0.189572 4.07922
-0.0212984 0.706867 4.18052
-0.0120684 0.113838 4.15194
-0.104887 0.564211 4.13178
-0.0902957 0.568688 4.12868
-0.0821432 0.571341 4.12479
-0.218613 0.588742 4.07836
-0.0926996 0.58832 4.13039
-0.108352 0.593684 4.13549
-0.126975 0.594912 4.1354
-0.145619 0.590835 4.13161
-0.157582 0.584711 4.12487
-0.258131 0.61544 3.96541
-0.154782 0.56734 4.12059
-0.016312 0.372675 4.21284
-0.0845378 0.361733 4.19448
-0.07007 0.417327 4.21668
-0.045038 0.370175 4.21265
-0.015635 0.585231 4.19007
-0.161125 0.219993 4.10793
-0.132248 0.192046 4.13076
-0.0603408 0.143896 4.17423
-0.214468 0.266575 4.00332
-0.0827326 0.57976 4.12643
-0.0495491 0.513984 4.20521
-0.0116022 0.135652 4.17699
-0.0998546 0.140858 4.1308
-0.249238 0.39468 4.00965
-0.0541018 0.295769 4.18876
-0.0565395 0.288953 4.19373
-0.0593855 0.27813 4.19752
-0.0631384 0.264583 4.19494
-0.0687964 0.24242 4.18005
-0.0832769 0.29717 4.1693
-0.0909761 0.299193 4.16966
-0.0977899 0.303333 4.16959
-0.118672 0.322373 4.16705
-0.193166 0.388887 4.12019
-0.0491466 0.539609 4.1849
-0.0603529 0.584584 4.14307
-0.0737583 0.584569 4.13257
-0.0775533 0.300474 4.16666
-0.200751 0.32778 4.09212
-0.0419682 0.581944 4.1731
-0.0810073 0.21877 4.17082
-0.0136174 0.505109 4.24592
-0.0342207 0.526491 4.2206
-0.0147401 0.531973 4.22563
-0.0643243 0.474735 4.20619
-0.0115682 0.165947 4.18835
-0.0130501 0.200356 4.18665
-0.047672 0.204011 4.18375
-0.131839 0.265469 4.15037
-0.105969 0.407542 4.17143
-0.108236 0.238943 4.1606
-0.14744 0.409963 4.16148
-0.122769 0.380018 4.16908
-0.165408 0.368185 4.14544
-0.0557108 0.172073 4.18351
-0.0772618 0.461433 4.19131
-0.151994 0.248128 4.13144
-0.123505 0.219066 4.14691
-0.14899 0.296895 4.14436
-0.2213 0.360151 4.07116
-0.174311 0.296192 4.12342
-0.23732 0.341838 4.02288
-0.138293 0.343607 4.15999
-0.0634701 0.498064 4.18962
-0.0630867 0.424526 4.24038
-0.0775056 0.419155 4.21997
-0.0536475 0.440107 4.25719
-0.0753076 0.599572 4.14821
-0.106558 0.608351 4.15568
-0.134617 0.609373 4.15563
-0.159258 0.60608 4.14706
-0.176187 0.597585 4.13278
-0.190443 0.565069 4.09729
-0.257028 0.504202 4.0016
-0.17461 0.532717 4.11495
-0.152807 0.525805 4.12877
-0.124644 0.526915 4.1369
-0.0991844 0.533904 4.13839
-0.0796416 0.542227 4.1419
-0.0673216 0.550032 4.1426
-0.262616 0.504759 3.9201
-0.077029 0.412479 4.20915
-0.0502032 0.490607 4.22265
-0.0477705 0.422208 4.25857
-0.0344732 0.409471 4.25001
-0.0475831 0.418461 4.24749
-0.070625 0.404542 4.2029
-0.0305604 0.406557 4.25571
-0.0318392 0.402371 4.23161
-0.0700971 0.570815 4.12987
-0.0569955 0.562589 4.1452
-0.0502075 0.556896 4.16345
-0.164856 0.580179 4.11803
-0.174385 0.584837 4.11824
0.00454959 0.501224 4.23897
0.143344 0.573771 4.11525
0.00694804 0.405225 4.22769
0.238666 0.669917 4.00422
0.0796756 0.551778 4.13989
0.102906 0.549102 4.13827
0.125641 0.548856 4.1317
0.155988 0.563037 4.1128
0.0597678 0.558015 4.13899
0.109923 0.611731 4.14668
0.0842234 0.610671 4.14568
0.133394 0.608376 4.14002
0.148978 0.600812 4.12974
0.17585 0.543905 4.0999
0.0765357 0.181084 4.15279
0.15214 0.580548 4.1085
0.251824 0.556498 3.998
0.203739 0.559096 4.07602
0.0974527 0.438827 4.16014
0.0119813 0.33422 4.21628
0.00770014 0.306329 4.20655
0.0415988 0.323578 4.20233
0.0593549 0.310717 4.18688
0.0298461 0.303224 4.19774
0.0448656 0.298929 4.18277
0.0892278 0.266992 4.15182
0.0044125 0.417213 4.26628
0.00809407 0.441763 4.27207
0.18531 0.614551 4.12284
0.0531712 0.506223 4.16669
0.0602811 0.425189 4.20754
0.0618172 0.43919 4.20041
0.168417 0.439778 4.13241
0.00708943 0.473611 4.25989
0.122356 0.637186 4.1639
0.15858 0.630258 4.14642
0.209295 0.713278 4.04812
0.0229321 0.613639 4.18465
0.0616831 0.60402 4.1401
0.105228 0.290744 4.14691
0.242583 0.302341 3.94921
0.041215 0.411246 4.20019
0.0220551 0.402682 4.20458
0.0765423 0.289907 4.15399
0.0684069 0.291247 4.15865
0.170698 0.646279 4.13329
0.0611193 0.41359 4.19495
0.0761378 0.632669 4.17664
0.0805475 0.652581 4.17942
0.10717 0.764624 4.13324
0.189263 0.681109 4.09585
0.090431 0.711863 4.1584
0.19958 0.625747 4.10202
0.218434 0.646634 4.05428
0.0103967 0.317904 4.21417
0.0345746 0.311098 4.20152
0.0516709 0.304157 4.18691
0.0351546 0.406335 4.19684
0.0717009 0.290061 4.15651
0.0640317 0.286728 4.16918
0.0678471 0.292781 4.15946
0.0312353 0.418643 4.23342
0.0422445 0.30029 4.17912
0.0257353 0.302053 4.18958
0.00608022 0.302714 4.1982
0.0159904 0.227449 4.1804
0.0139276 0.253397 4.20247
0.0113011 0.269602 4.20609
0.00811358 0.284276 4.2018
0.0063138 0.293418 4.19785
0.0441974 0.292902 4.17851
0.0476936 0.289252 4.18141
0.0530501 0.281639 4.18306
0.0575935 0.272729 4.17921
0.0794427 0.340724 4.17622
0.259748 0.440236 3.91401
0.0554131 0.29201 4.16832
0.0589565 0.290302 4.1699
0.0140593 0.390575 4.20842
0.0497696 0.397978 4.17959
0.0179833 0.396313 4.20686
0.0765656 0.491067 4.15893
0.112458 0.472328 4.15232
0.0648017 0.427854 4.18796
0.167104 0.745688 4.09335
0.147421 0.703949 4.12898
0.129036 0.657363 4.15744
0.0713268 0.251225 4.16386
0.0299562 0.6447 4.19139
0.0372764 0.7114 4.17472
0.0463582 0.771225 4.15529
0.145249 0.553369 4.12154
0.202728 0.523996 4.08536
0.0464009 0.564495 4.13718
0.176086 0.589645 4.11061
0.0371011 0.522387 4.17601
0.045593 0.433967 4.23028
0.232099 0.505443 4.06133
0.185345 0.505514 4.10764
0.152973 0.496199 4.12906
0.107751 0.502091 4.14302
0.0759818 0.514287 4.1481
0.0530902 0.526171 4.15469
0.00570151 0.553851 4.1991
0.229165 0.449042 4.07029
0.197327 0.590038 4.09829
-0.00157384 0.404309 4.25709
0.0517578 0.480236 4.17474
0.259311 0.560824 3.9266
0.0341362 0.539498 4.15876
0.0630162 0.427151 4.16526
0.161821 0.577864 4.10469
0.0472594 0.450996 4.22108
0.256965 0.373275 3.92513
0.0468344 0.574052 4.13131
0.0278561 0.464728 4.24502
0.184866 0.235878 4.06458
0.1894 0.203211 4.02797
0.255467 0.443495 3.99045
0.215543 0.273765 4.03621
0.235697 0.607025 4.02027
0.084814 0.150454 4.14155
-0.00745632 0.400102 4.22952
0.0715315 0.460649 4.16504
0.226147 0.55407 4.05248
0.120041 0.565682 4.12911
0.100498 0.564234 4.13572
0.0697741 0.281564 4.16525
0.225938 0.394949 4.06416
0.0401774 0.114196 4.14138
0.117187 0.144457 4.09081
0.151045 0.167766 4.06294
0.0819659 0.566331 4.13718
0.0640676 0.570269 4.13569
0.0521128 0.572269 4.13242
0.215541 0.594888 4.07395
0.0677426 0.590921 4.13675
0.0884331 0.597697 4.13913
0.108074 0.59929 4.13778
0.12764 0.595675 4.13195
0.139488 0.589379 4.12389
0.252776 0.622864 3.96009
0.133432 0.569178 4.1219
0.06047 0.358341 4.18692
0.0417012 0.415328 4.2075
0.0158752 0.368907 4.20927
0.151969 0.200811 4.08829
0.120314 0.174213 4.11293
0.041451 0.135395 4.16661
0.218495 0.245276 3.98733
0.0534208 0.580681 4.13476
0.0211623 0.513662 4.20504
0.0814326 0.12572 4.12083
0.251783 0.382781 3.99416
0.026543 0.293637 4.18929
0.0302845 0.286595 4.19304
0.0348233 0.275513 4.19547
0.0380164 0.261182 4.19173
0.0479141 0.237094 4.17551
0.0594839 0.294673 4.17018
0.0653913 0.296465 4.17117
0.0722467 0.300307 4.17007
0.0954622 0.317245 4.16241
0.190479 0.38123 4.10899
0.0202779 0.539902 4.18607
0.0254482 0.587233 4.14552
0.0418347 0.586996 4.13825
0.0558355 0.297912 4.16819
0.197297 0.314813 4.07753
0.00943665 0.583785 4.17384
0.0627707 0.210305 4.16147
0.00559809 0.526607 4.21971
0.0381126 0.473832 4.20232
0.0255999 0.199168 4.17786
0.115881 0.254972 4.1357
0.0817561 0.404435 4.16111
0.0924111 0.228488 4.14698
0.133273 0.405976 4.15065
0.101926 0.37559 4.15928
0.155285 0.361186 4.13253
0.0362011 0.16551 4.17785
0.0527738 0.460076 4.18585
0.139775 0.233146 4.11343
0.108537 0.204707 4.12981
0.132903 0.287616 4.13339
0.221147 0.348121 4.05631
0.166829 0.283455 4.10693
0.240861 0.325989 4.00593
0.120623 0.337597 4.15031
0.0360843 0.49753 4.18934
0.038919 0.422426 4.23591
0.0529371 0.416681 4.20979
0.0283177 0.438745 4.25425
0.0413482 0.604481 4.15249
0.078892 0.617096 4.15594
0.11302 0.620386 4.15425
0.142765 0.616893 4.14562
0.164502 0.60687 4.13086
0.180406 0.56788 4.09419
0.257201 0.501177 3.99364
0.1619 0.533338 4.1115
0.13749 0.526088 4.1267
0.106455 0.527397 4.13776
0.0770454 0.534551 4.14104
0.0548006 0.542897 4.14341
0.0384539 0.550797 4.1451
0.258775 0.501205 3.91357
0.0517216 0.409977 4.19903
0.0213544 0.489939 4.22256
0.0215495 0.420954 4.25415
0.0102996 0.408315 4.2459
0.0219408 0.41678 4.24371
0.0443272 0.402119 4.1919
0.00576314 0.406018 4.25264
0.000829964 0.401456 4.22806
0.0371124 0.57213 4.13448
0.0253951 0.563803 4.14711
0.0203231 0.557869 4.16431
0.146472 0.58441 4.11705
0.160855 0.59097 4.11632
