ply
format ascii 1.0
comment Created by Open3D
element vertex 468
property double x
property double y
property double z
end_header
-0.00503255 0.340409 3.99819
-0.00704884 0.40633 4.05867
-0.00584003 0.385805 3.9969
-0.0292802 0.487565 4.02478
-0.00750339 0.431158 4.06718
-0.0080983 0.463808 4.0571
-0.00850426 0.541108 3.98938
-0.185211 0.546575 3.88863
-0.00888503 0.59037 3.97225
-0.0089573 0.620405 3.97665
-0.00862585 0.734428 3.94587
-0.00491389 0.329548 3.99495
-0.00488769 0.321538 3.98682
-0.00507549 0.318849 3.97599
-0.00507141 0.314769 3.97454
-0.00495934 0.306241 3.9793
-0.00521213 0.294106 3.98513
-0.00549205 0.280015 3.98275
-0.00591018 0.250306 3.95952
-0.00710016 0.393713 4.04578
-0.030473 0.397297 4.01254
-0.275956 0.633281 3.76614
-0.114502 0.526478 3.91453
-0.139258 0.524506 3.9126
-0.162926 0.525978 3.90563
-0.195026 0.537917 3.88492
-0.0936563 0.53292 3.91197
-0.147277 0.577646 3.92511
-0.122121 0.576592 3.92403
-0.170826 0.575504 3.91689
-0.18688 0.569318 3.90584
-0.215232 0.523812 3.87209
-0.102875 0.201645 3.93016
-0.193627 0.551364 3.88041
-0.287446 0.533739 3.75851
-0.243266 0.538732 3.84617
-0.132794 0.432936 3.94027
-0.0369817 0.343871 3.99496
-0.0323274 0.321824 3.98339
-0.0696987 0.336409 3.98059
-0.0900994 0.326803 3.96234
-0.0559249 0.320233 3.97353
-0.073906 0.317421 3.95666
-0.119147 0.289826 3.92634
-0.0285813 0.40697 4.0563
-0.0317381 0.431072 4.064
-0.229043 0.595864 3.89749
-0.0827722 0.490085 3.9434
-0.0879501 0.417757 3.99502
-0.089139 0.430892 3.98738
-0.208547 0.435984 3.90794
-0.0304951 0.461559 4.04917
-0.170295 0.618689 3.94197
-0.205159 0.611598 3.92186
-0.252355 0.674094 3.81552
-0.0601657 0.596248 3.96428
-0.0992509 0.57153 3.9165
-0.139605 0.311313 3.91948
-0.267887 0.310225 3.69866
-0.0690173 0.404696 3.98544
-0.0474419 0.3971 3.98878
-0.110553 0.313476 3.92217
-0.0994516 0.314861 3.92896
-0.22013 0.628259 3.90865
-0.0887119 0.408412 3.98129
-0.122464 0.614669 3.95649
-0.12787 0.634494 3.96127
-0.152575 0.72539 3.91299
-0.235846 0.652011 3.86867
-0.13784 0.682832 3.93839
-0.244268 0.606793 3.87475
-0.259928 0.618934 3.82348
-0.0350207 0.330613 3.99188
-0.0617342 0.326075 3.97833
-0.0816865 0.321494 3.96187
-0.062265 0.401131 3.98041
-0.104696 0.314096 3.92559
-0.0935574 0.310419 3.94237
-0.0971843 0.315344 3.92986
-0.0559432 0.409091 4.01998
-0.0694372 0.318891 3.95317
-0.0510576 0.319808 3.96428
-0.0293331 0.319327 3.97323
-0.0384597 0.251349 3.95837
-0.0353244 0.281412 3.98112
-0.0333036 0.296051 3.98335
-0.031486 0.307903 3.97675
-0.0297023 0.315018 3.97206
-0.0711869 0.314965 3.95198
-0.0746291 0.312171 3.95682
-0.0796438 0.305936 3.96112
-0.0844257 0.297341 3.95703
-0.113248 0.350021 3.95385
-0.289887 0.429596 3.65764
-0.00635045 0.390737 4.01381
-0.0833344 0.314416 3.93923
-0.0878433 0.313787 3.94222
-0.0383243 0.386696 3.9904
-0.0791803 0.39539 3.96327
-0.042715 0.391493 3.98993
-0.108811 0.476889 3.935
-0.14947 0.462381 3.92756
-0.0932212 0.421399 3.97312
-0.213693 0.70566 3.86832
-0.197396 0.674952 3.90609
-0.179986 0.638525 3.93653
-0.0986688 0.274147 3.93958
-0.0689739 0.62698 3.97378
-0.0771609 0.682207 3.95694
-0.0865262 0.733309 3.93927
-0.183433 0.530098 3.89487
-0.241849 0.507729 3.85779
-0.0805486 0.539462 3.90872
-0.216052 0.565394 3.88331
-0.0652762 0.505102 3.95289
-0.0721195 0.424249 4.01932
-0.268585 0.490969 3.83019
-0.224536 0.492407 3.88103
-0.192418 0.484101 3.90445
-0.144979 0.486961 3.91645
-0.109842 0.496035 3.92229
-0.0836116 0.50701 3.92913
-0.032254 0.535353 3.97931
-0.26624 0.442467 3.83804
-0.237334 0.569266 3.87076
-0.0201983 0.394996 4.04455
-0.0807687 0.467375 3.95451
-0.293066 0.535322 3.67377
-0.0644169 0.519879 3.93278
-0.0948275 0.421088 3.94757
-0.202141 0.550258 3.87562
-0.0729978 0.440457 4.00982
-0.284164 0.371028 3.67108
-0.0811684 0.547891 3.9021
-0.0521841 0.453051 4.03408
-0.216009 0.255537 3.83318
-0.214814 0.224797 3.78913
-0.289673 0.434663 3.74777
-0.246955 0.288119 3.80087
-0.273719 0.580156 3.78393
-0.110289 0.17212 3.91595
-0.0165156 0.391845 4.01235
-0.102957 0.450609 3.94514
-0.264222 0.53425 3.82044
-0.16099 0.539951 3.90369
-0.139287 0.537855 3.90995
-0.099671 0.305422 3.93795
-0.263572 0.394426 3.83159
-0.0626865 0.135016 3.91047
-0.142459 0.16855 3.85789
-0.176353 0.191687 3.82767
-0.00869592 0.679832 3.96279
-0.00693046 0.130541 3.91815
-0.118621 0.53921 3.91111
-0.0993578 0.543115 3.90791
-0.0872069 0.545863 3.90248
-0.255094 0.574142 3.84476
-0.102575 0.557629 3.91175
-0.123843 0.560055 3.91632
-0.143924 0.560887 3.91509
-0.164478 0.558858 3.90885
-0.178192 0.555271 3.90027
-0.288143 0.590465 3.71401
-0.17531 0.543298 3.89569
-0.00557596 0.372192 3.99132
-0.0903062 0.363284 3.96674
-0.0697294 0.407406 3.99431
-0.0409423 0.370622 3.98967
-0.00871035 0.566525 3.97099
-0.181064 0.222885 3.85967
-0.147354 0.196801 3.88661
-0.0637019 0.155958 3.94173
-0.243425 0.261591 3.74172
-0.0877289 0.552543 3.90607
-0.0484484 0.498647 3.98711
-0.00727651 0.151692 3.94833
-0.105811 0.148736 3.88946
-0.283372 0.381553 3.75305
-0.052064 0.315704 3.96295
-0.0556422 0.310245 3.96843
-0.0590943 0.301001 3.97341
-0.0624547 0.287903 3.97038
-0.072093 0.260726 3.95221
-0.0894232 0.315396 3.94192
-0.0968879 0.316641 3.94186
-0.104576 0.31972 3.94177
-0.131777 0.332564 3.9364
-0.230474 0.383621 3.88265
-0.0482561 0.521935 3.96431
-0.0609534 0.563218 3.92038
-0.0765769 0.559087 3.9105
-0.0845973 0.318299 3.93976
-0.235077 0.325103 3.84688
-0.0401437 0.563364 3.95344
-0.0882218 0.231281 3.93977
-0.00823745 0.490775 4.03345
-0.0312455 0.51057 4.00413
-0.00834421 0.515699 4.01035
-0.0656645 0.461755 3.98709
-0.00722811 0.181753 3.96208
-0.00665652 0.21834 3.96145
-0.0481867 0.21972 3.95584
-0.146278 0.276056 3.91165
-0.114935 0.402402 3.94198
-0.119617 0.249753 3.92476
-0.173868 0.405931 3.93072
-0.139186 0.379348 3.93809
-0.1967 0.367255 3.91143
-0.0586316 0.185188 3.95454
-0.0806323 0.449107 3.96939
-0.170643 0.254057 3.88786
-0.136943 0.225766 3.90635
-0.167423 0.305785 3.90755
-0.258507 0.353054 3.82378
-0.201846 0.29979 3.88139
-0.271469 0.332579 3.76623
-0.160116 0.348852 3.92709
-0.0641465 0.483366 3.96951
-0.0641009 0.412938 4.02461
-0.0804002 0.40945 3.99791
-0.0531182 0.4284 4.04302
-0.0807442 0.5798 3.92805
-0.121005 0.591072 3.9326
-0.155593 0.59382 3.93155
-0.184611 0.590898 3.92128
-0.205238 0.582037 3.90473
-0.220426 0.544635 3.86504
-0.291969 0.484829 3.75192
-0.201455 0.514257 3.88509
-0.175872 0.507839 3.90021
-0.143131 0.507318 3.91108
-0.1116 0.512343 3.91581
-0.0869327 0.520548 3.91672
-0.0704329 0.528723 3.9187
-0.291289 0.482788 3.65712
-0.0792544 0.404433 3.98557
-0.0483194 0.476968 4.0072
-0.0464526 0.410719 4.04405
-0.032545 0.399272 4.03439
-0.0462663 0.40721 4.03199
-0.0718969 0.39819 3.97721
-0.0280846 0.396851 4.04106
-0.0248676 0.393667 4.01216
-0.0717925 0.546725 3.90617
-0.0574234 0.54125 3.92169
-0.0500721 0.537419 3.94008
-0.186665 0.552824 3.89149
-0.200405 0.562176 3.89086
0.0128211 0.487229 4.02454
0.166491 0.542739 3.88834
0.0170902 0.396808 4.01259
0.259945 0.628397 3.76549
0.0960131 0.524255 3.91394
0.120657 0.522072 3.91212
0.144543 0.523281 3.90524
0.176612 0.533963 3.88466
0.0754887 0.530897 3.91182
0.127962 0.573021 3.92453
0.103563 0.572845 3.92373
0.15141 0.570231 3.91604
0.167412 0.563794 3.90552
0.19772 0.520034 3.87252
0.0873218 0.201143 3.93095
0.175013 0.546913 3.88013
0.273161 0.529039 3.75912
0.226312 0.534121 3.84677
0.117516 0.431828 3.94088
0.0261283 0.343901 3.99473
0.0217677 0.321858 3.98289
0.0582715 0.33674 3.98006
0.0784343 0.327239 3.9616
0.0449892 0.320541 3.97281
0.0627824 0.317966 3.95587
0.105767 0.289938 3.92644
0.0141403 0.406652 4.05657
0.0163385 0.430851 4.06432
0.208629 0.589074 3.89767
0.0662955 0.489229 3.94314
0.0737562 0.417288 3.99482
0.0746662 0.430636 3.98713
0.192347 0.433662 3.909
0.0145404 0.461319 4.04904
0.149588 0.611764 3.94332
0.184189 0.604307 3.9229
0.234929 0.669205 3.81542
0.0417007 0.593856 3.96465
0.0814281 0.568548 3.91622
0.126476 0.311275 3.91978
0.256184 0.305956 3.6991
0.0556711 0.404262 3.98535
0.0343043 0.396963 3.98926
0.0986033 0.314212 3.92162
0.087132 0.315733 3.92829
0.199144 0.620561 3.9094
0.0750121 0.408292 3.98144
0.102603 0.609573 3.95734
0.107714 0.629214 3.96198
0.134022 0.722102 3.9133
0.216595 0.646235 3.86893
0.118846 0.678755 3.93902
0.224501 0.599912 3.87501
0.242283 0.613201 3.82353
0.0246079 0.330716 3.99158
0.0509141 0.326516 3.97763
0.0703376 0.322028 3.96093
0.0492636 0.400823 3.98079
0.0926888 0.314775 3.92524
0.0814111 0.311186 3.94169
0.0844623 0.316098 3.92928
0.0414801 0.408295 4.01956
0.058068 0.319496 3.95215
0.040137 0.320166 3.9634
0.0186591 0.319488 3.97267
0.0257203 0.251359 3.95847
0.0233526 0.281785 3.98075
0.0222667 0.296431 3.98261
0.021038 0.30827 3.97574
0.0193068 0.315265 3.97097
0.0595261 0.315613 3.95098
0.0628054 0.312915 3.95602
0.0673945 0.30653 3.96062
0.0719707 0.298103 3.95628
0.100032 0.350062 3.95354
0.278991 0.42488 3.65816
0.0712361 0.315116 3.93815
0.0758174 0.314482 3.94147
0.0260135 0.386829 3.99043
0.066318 0.395674 3.96367
0.0298982 0.391451 3.9905
0.0926502 0.475812 3.93514
0.133418 0.460874 3.92806
0.0791993 0.421301 3.97318
0.195171 0.701146 3.86832
0.177804 0.66932 3.9069
0.159284 0.631577 3.93723
0.0850798 0.274376 3.93957
0.0499059 0.624046 3.97442
0.0589333 0.680306 3.95721
0.0683523 0.731646 3.93972
0.164866 0.526765 3.89453
0.225286 0.504032 3.85836
0.0630142 0.537561 3.90828
0.197193 0.559752 3.88315
0.0483138 0.504332 3.95262
0.0571749 0.423556 4.01915
0.252777 0.486923 3.83083
0.207654 0.489324 3.88141
0.175385 0.481708 3.90506
0.128259 0.485287 3.91674
0.0930661 0.494615 3.92217
0.0665542 0.505719 3.92894
0.0152707 0.534805 3.97929
0.250809 0.438907 3.83882
0.21879 0.563681 3.87064
0.00585261 0.394711 4.04436
0.0652681 0.466858 3.95407
0.280759 0.530707 3.67378
0.047441 0.518718 3.93264
0.0813932 0.421086 3.94777
0.183781 0.545455 3.87539
0.0576009 0.43988 4.00974
0.272992 0.366462 3.6716
0.0637436 0.545766 3.90155
0.0359701 0.452818 4.0339
0.201453 0.252773 3.83487
0.201081 0.22175 3.79022
0.276469 0.430045 3.74818
0.233096 0.284291 3.80212
0.258129 0.575142 3.78386
0.0949137 0.171463 3.91695
0.00388969 0.391666 4.01233
0.0877198 0.449999 3.94518
0.248249 0.529522 3.8208
0.14207 0.536941 3.90332
0.12058 0.53514 3.90927
0.0873796 0.306028 3.93751
0.248475 0.390676 3.83238
0.0481147 0.134657 3.9109
0.127623 0.16735 3.8587
0.162162 0.189822 3.82865
0.10009 0.536679 3.91061
0.0812135 0.540957 3.90729
0.0696712 0.543759 3.90206
0.237507 0.568647 3.84474
0.0838257 0.554752 3.91104
0.104272 0.556538 3.91591
0.124036 0.556931 3.91444
0.144572 0.55457 3.9082
0.158697 0.550907 3.89992
0.27432 0.585646 3.71376
0.156442 0.539882 3.89547
0.0774602 0.363637 3.9666
0.056192 0.406771 3.99436
0.0288513 0.370805 3.98947
0.166255 0.221106 3.86138
0.132008 0.19542 3.8879
0.0483457 0.155579 3.94215
0.230707 0.25762 3.74222
0.0697962 0.550187 3.90538
0.0317401 0.498025 3.98696
0.090875 0.1482 3.89008
0.270309 0.37698 3.75376
0.0413432 0.316112 3.96204
0.0444253 0.310815 3.96728
0.0473585 0.301608 3.97245
0.0501128 0.288533 3.96952
0.0585056 0.260802 3.95196
0.0777657 0.31614 3.94095
0.0852118 0.317419 3.94111
0.0927316 0.320352 3.9412
0.118558 0.332654 3.9364
0.214725 0.38073 3.88398
0.0312559 0.521166 3.96415
0.0439095 0.561374 3.91997
0.0592128 0.557016 3.9099
0.0725403 0.318994 3.93903
0.220294 0.321932 3.84845
0.0227767 0.56223 3.95323
0.0732285 0.231114 3.93996
0.0143525 0.510224 4.00414
0.0497602 0.461172 3.98689
0.0338698 0.219621 3.95631
0.131551 0.275261 3.91245
0.101153 0.402323 3.94212
0.104525 0.249313 3.9256
0.158243 0.404151 3.93226
0.124828 0.378716 3.93872
0.181357 0.365209 3.91309
0.0433574 0.184874 3.95488
0.0656049 0.448704 3.9693
0.155429 0.252492 3.88939
0.121605 0.224685 3.90757
0.152885 0.30469 3.90842
0.243578 0.349346 3.825
0.186793 0.297587 3.88278
0.258326 0.328127 3.76675
0.145491 0.348011 3.92801
0.0478882 0.482768 3.96912
0.0493644 0.411983 4.02428
0.0665358 0.408858 3.99803
0.038115 0.427725 4.04274
0.0631334 0.57711 3.92767
0.102384 0.58682 3.9329
0.136104 0.588344 3.93206
0.164731 0.58495 3.92157
0.185558 0.575875 3.90492
0.202559 0.539977 3.86541
0.278131 0.48026 3.75211
0.183718 0.511012 3.88539
0.158309 0.505319 3.9005
0.125478 0.505145 3.91115
0.0939998 0.510613 3.91544
0.0694861 0.518943 3.91679
0.0531738 0.52733 3.91842
0.279636 0.47825 3.65683
0.0657182 0.404123 3.98564
0.0320261 0.476521 4.00684
0.0317042 0.410029 4.04416
0.0179616 0.398724 4.03454
0.0316731 0.406292 4.03203
0.0586089 0.39804 3.97754
0.0137013 0.396376 4.04122
0.0117956 0.393231 4.01229
0.0546025 0.544897 3.90574
0.0404491 0.539881 3.92155
0.0330414 0.536246 3.93988
0.167696 0.548466 3.89118
0.181312 0.556858 3.89057
