ply
format ascii 1.0
comment Created by Open3D
element vertex 468
property double x
property double y
property double z
end_header
-0.00444405 0.348927 3.9742
-0.00711375 0.43153 4.03961
-0.00589272 0.406966 3.97593
-0.0283725 0.51432 4.00472
-0.00730462 0.457504 4.04834
-0.00704081 0.490987 4.03807
-0.00590431 0.570429 3.96691
-0.184651 0.575722 3.86565
-0.0054955 0.630208 3.94668
-0.00534433 0.662927 3.95007
-0.00518328 0.777513 3.91938
-0.00415086 0.336912 3.9702
-0.00390649 0.328565 3.96201
-0.00360105 0.326285 3.95102
-0.0027476 0.327019 3.9558
-0.00266615 0.318191 3.96092
-0.00251158 0.306001 3.96812
-0.00252705 0.291603 3.96815
-0.00244685 0.262261 3.94813
-0.00694389 0.418312 4.02639
-0.031414 0.420742 3.99176
-0.265724 0.665951 3.74333
-0.111884 0.556754 3.89139
-0.136677 0.554569 3.88947
-0.16074 0.555082 3.88241
-0.194307 0.567061 3.8619
-0.0912137 0.563116 3.88819
-0.145024 0.615422 3.90019
-0.11898 0.614084 3.89936
-0.169925 0.611901 3.89237
-0.186857 0.603432 3.88196
-0.213537 0.551861 3.84932
-0.100343 0.217282 3.91175
-0.193903 0.58112 3.85762
-0.280254 0.561632 3.73619
-0.239635 0.567526 3.82349
-0.135679 0.455801 3.91903
-0.0389988 0.353771 3.97152
-0.0348899 0.329951 3.95809
-0.0743993 0.349087 3.95551
-0.0974389 0.343089 3.93488
-0.0610438 0.330791 3.94681
-0.0817188 0.331203 3.92808
-0.126909 0.309268 3.89808
-0.0288991 0.432373 4.03744
-0.0322053 0.457231 4.04536
-0.222979 0.629279 3.87482
-0.0820112 0.515851 3.92034
-0.089128 0.441898 3.97437
-0.0905875 0.454945 3.96647
-0.211414 0.460026 3.88489
-0.0305794 0.488551 4.02994
-0.164476 0.656365 3.9172
-0.198961 0.647284 3.89772
-0.242065 0.709015 3.79207
-0.0572517 0.636791 3.93915
-0.0960682 0.606932 3.89178
-0.148961 0.333344 3.89053
-0.260159 0.33058 3.67452
-0.0705808 0.428201 3.96488
-0.0493382 0.419304 3.96761
-0.123324 0.33512 3.89113
-0.111521 0.335318 3.89814
-0.21182 0.663272 3.88524
-0.0903421 0.431782 3.96047
-0.118316 0.655083 3.93162
-0.122766 0.674698 3.93651
-0.145993 0.765647 3.88776
-0.226582 0.686788 3.8449
-0.131689 0.721812 3.91258
-0.236999 0.640154 3.85278
-0.251383 0.651754 3.80091
-0.0372341 0.339206 3.96743
-0.066673 0.337666 3.95197
-0.089228 0.336712 3.9336
-0.0643016 0.423608 3.9595
-0.11736 0.335248 3.89468
-0.103691 0.329459 3.9132
-0.108122 0.33548 3.89899
-0.0567965 0.434369 4.00005
-0.076584 0.332898 3.92416
-0.0558392 0.330239 3.93696
-0.0315329 0.327787 3.94752
-0.0382231 0.263538 3.94562
-0.035961 0.293758 3.96489
-0.0346318 0.308808 3.9651
-0.0331978 0.320693 3.95707
-0.0311703 0.328105 3.95215
-0.0785497 0.331483 3.92696
-0.0820949 0.328868 3.93216
-0.0870523 0.322803 3.93655
-0.0914429 0.314196 3.93215
-0.119444 0.369557 3.92735
-0.282538 0.453053 3.6347
-0.00658501 0.41363 3.99299
-0.092289 0.332526 3.91049
-0.097544 0.332135 3.91359
-0.0402251 0.407904 3.96985
-0.0821626 0.417157 3.94286
-0.0447201 0.4133 3.96916
-0.108937 0.502422 3.91173
-0.150927 0.487226 3.90474
-0.094957 0.444734 3.95202
-0.204556 0.7431 3.84348
-0.188861 0.711208 3.88129
-0.17307 0.675483 3.91228
-0.103321 0.290819 3.91506
-0.0649423 0.668977 3.94861
-0.0725056 0.722804 3.93073
-0.0818342 0.775625 3.91344
-0.182092 0.558864 3.87168
-0.239798 0.535002 3.83513
-0.0784034 0.569895 3.88451
-0.213399 0.596467 3.86056
-0.0640937 0.531505 3.92963
-0.0730203 0.449628 3.99964
-0.265794 0.517799 3.80762
-0.223885 0.519031 3.85816
-0.192512 0.510443 3.88154
-0.144516 0.513508 3.89316
-0.108814 0.5229 3.89881
-0.0823931 0.534093 3.90538
-0.0301925 0.564142 3.95667
-0.2659 0.467771 3.81476
-0.232811 0.6003 3.84827
-0.0200664 0.419578 4.02508
-0.0811288 0.491937 3.93226
-0.284598 0.562824 3.65218
-0.0630279 0.547276 3.90891
-0.0977239 0.443548 3.92633
-0.201748 0.580083 3.8528
-0.0741527 0.46571 3.98966
-0.275723 0.392819 3.64778
-0.0791487 0.578889 3.87776
-0.0527594 0.479477 4.01479
-0.210866 0.274238 3.81019
-0.206103 0.24401 3.76663
-0.285499 0.459012 3.72462
-0.243083 0.307342 3.77749
-0.266282 0.610359 3.76136
-0.104497 0.190114 3.89809
-0.0171985 0.414768 3.99136
-0.104341 0.474523 3.92339
-0.259447 0.56263 3.79812
-0.158901 0.569976 3.88047
-0.136793 0.568822 3.88635
-0.109793 0.324778 3.9085
-0.264102 0.417824 3.80737
-0.0562226 0.154856 3.89445
-0.133068 0.188374 3.8382
-0.166531 0.211096 3.80616
-0.00517464 0.72066 3.93608
-0.00247725 0.149885 3.90229
-0.116003 0.570273 3.88728
-0.096824 0.574198 3.8837
-0.0848779 0.576846 3.87821
-0.249412 0.605274 3.82255
-0.100102 0.590989 3.88727
-0.121048 0.594983 3.89176
-0.141955 0.595852 3.89082
-0.163852 0.592881 3.88487
-0.178391 0.587537 3.87718
-0.279049 0.620311 3.69199
-0.174033 0.572613 3.8726
-0.00521988 0.388195 3.97024
-0.0949146 0.382197 3.94353
-0.0710373 0.431597 3.97404
-0.0426499 0.38695 3.9683
-0.00555939 0.600634 3.94697
-0.174536 0.241448 3.83702
-0.140708 0.21545 3.86604
-0.058584 0.172779 3.92583
-0.235734 0.281044 3.71806
-0.0857316 0.58402 3.88154
-0.0475516 0.524675 3.96559
-0.00286687 0.168504 3.93269
-0.0978963 0.168723 3.8719
-0.279738 0.404054 3.72986
-0.0567817 0.329996 3.94062
-0.0603585 0.324733 3.9464
-0.0634661 0.315503 3.95227
-0.0660752 0.301992 3.94964
-0.0744283 0.274886 3.93276
-0.10016 0.333353 3.91149
-0.107905 0.335621 3.91141
-0.115417 0.339473 3.91164
-0.140216 0.353619 3.90784
-0.233538 0.405801 3.85866
-0.0465806 0.54926 3.94116
-0.0588042 0.595789 3.89537
-0.0744444 0.591523 3.88576
-0.0940257 0.335649 3.90946
-0.235718 0.345105 3.82321
-0.0375483 0.596909 3.92928
-0.0882729 0.246043 3.92155
-0.00663982 0.518089 4.01344
-0.0296021 0.537798 3.98302
-0.00623711 0.543201 3.98909
-0.0661803 0.486528 3.96622
-0.00302876 0.195994 3.94719
-0.00289618 0.230948 3.94768
-0.0469294 0.232466 3.94144
-0.148418 0.295007 3.88525
-0.119027 0.424012 3.91997
-0.120589 0.266694 3.90216
-0.17816 0.427705 3.9093
-0.143928 0.400008 3.91419
-0.200854 0.388449 3.88863
-0.0556074 0.199302 3.93906
-0.0818499 0.473295 3.94793
-0.168216 0.272419 3.86377
-0.134285 0.243105 3.88472
-0.171744 0.326945 3.88056
-0.258304 0.374686 3.79983
-0.202571 0.319713 3.8567
-0.26772 0.353211 3.74248
-0.165594 0.37042 3.90131
-0.0638913 0.508426 3.9476
-0.0648091 0.438404 4.00516
-0.0814319 0.433681 3.97758
-0.0539201 0.454332 4.0233
-0.0783085 0.616342 3.90282
-0.117924 0.629188 3.9078
-0.152719 0.631454 3.90673
-0.18205 0.626767 3.89668
-0.202695 0.615605 3.88114
-0.217913 0.573976 3.84239
-0.286245 0.51101 3.72921
-0.20036 0.541993 3.86234
-0.174419 0.535386 3.87747
-0.14123 0.535495 3.88787
-0.109706 0.540987 3.89281
-0.0852076 0.549177 3.89304
-0.0688243 0.557418 3.89462
-0.283596 0.508576 3.63469
-0.0808544 0.427788 3.96496
-0.0482327 0.502845 3.98659
-0.046932 0.436392 4.02513
-0.0327833 0.423926 4.0148
-0.0467347 0.432629 4.01271
-0.0740013 0.420541 3.95657
-0.028236 0.421474 4.02151
-0.0256705 0.416718 3.99149
-0.0700121 0.577497 3.8817
-0.0557573 0.571005 3.89732
-0.0482907 0.566528 3.91572
-0.187161 0.58377 3.86871
-0.199863 0.593808 3.86766
0.0155563 0.514144 4.0045
0.177702 0.572959 3.86399
0.0188134 0.420371 3.99149
0.261085 0.66357 3.74071
0.104406 0.555281 3.89064
0.129386 0.552871 3.88854
0.153678 0.553179 3.88127
0.187724 0.564507 3.86032
0.0835174 0.561565 3.88768
0.136632 0.612633 3.89896
0.11063 0.611532 3.89806
0.161598 0.608942 3.89047
0.178909 0.600316 3.88024
0.207266 0.549488 3.84749
0.0951988 0.216033 3.91098
0.187151 0.578039 3.8557
0.277197 0.558988 3.73361
0.233731 0.5648 3.82128
0.128204 0.454808 3.91801
0.0304546 0.353463 3.97111
0.0278655 0.329579 3.95771
0.067259 0.348589 3.95498
0.0920242 0.342442 3.93422
0.0551497 0.330406 3.9464
0.0766715 0.330699 3.9276
0.12327 0.308067 3.89758
0.0148287 0.432216 4.0371
0.0179819 0.457031 4.04517
0.214386 0.625705 3.87259
0.073091 0.515199 3.91975
0.0783213 0.440889 3.97349
0.080374 0.454122 3.96566
0.205529 0.458528 3.88342
0.0167594 0.488166 4.02994
0.154251 0.652623 3.91563
0.189325 0.643392 3.8959
0.235871 0.706619 3.78971
0.0471796 0.635283 3.93852
0.0880292 0.604618 3.89083
0.14527 0.332086 3.88987
0.26055 0.326622 3.67152
0.0597102 0.427241 3.96435
0.0380235 0.418652 3.96715
0.120075 0.333955 3.8907
0.108336 0.334327 3.89771
0.202205 0.659302 3.88329
0.0804494 0.430773 3.95957
0.108125 0.65207 3.93049
0.112521 0.671685 3.93524
0.136886 0.764166 3.88613
0.218627 0.683894 3.84284
0.122054 0.719744 3.91155
0.229005 0.636696 3.85061
0.245087 0.649053 3.79846
0.0296297 0.339053 3.96688
0.0602585 0.337358 3.9515
0.0841811 0.336231 3.9328
0.0535975 0.422589 3.9589
0.114168 0.334354 3.89439
0.100436 0.328753 3.91277
0.104992 0.334517 3.89865
0.0442309 0.433867 3.99956
0.0721994 0.332456 3.92365
0.0503457 0.32998 3.93663
0.0251262 0.327665 3.9473
0.0335226 0.26322 3.94545
0.0313546 0.293718 3.96459
0.030145 0.308781 3.9649
0.0284327 0.320468 3.95663
0.026426 0.327901 3.95157
0.074923 0.331018 3.9266
0.0784293 0.328487 3.9315
0.0834582 0.322461 3.93616
0.0879707 0.313624 3.9314
0.112952 0.368939 3.92675
0.281968 0.449513 3.63194
0.0890694 0.331843 3.91028
0.0944279 0.331442 3.91324
0.0291554 0.407571 3.96928
0.0726032 0.416212 3.942
0.0333322 0.412772 3.96868
0.100922 0.501618 3.91117
0.143917 0.486275 3.90372
0.0853825 0.443689 3.95112
0.196613 0.740881 3.84175
0.179664 0.70838 3.87943
0.162782 0.671771 3.9103
0.0994081 0.290226 3.91465
0.0548876 0.667358 3.94793
0.0625625 0.721752 3.92974
0.0718907 0.774873 3.9127
0.17535 0.556574 3.87031
0.234066 0.532731 3.83312
0.0705794 0.568333 3.88399
0.206049 0.59327 3.85835
0.0544078 0.530797 3.92941
0.0610871 0.448957 3.99879
0.261019 0.51526 3.80506
0.217641 0.517178 3.85623
0.185764 0.509101 3.88025
0.137355 0.512471 3.89222
0.101104 0.522012 3.89803
0.0739925 0.533068 3.90475
0.0189884 0.563762 3.95646
0.261413 0.465296 3.81243
0.225707 0.597281 3.84612
0.00651385 0.419428 4.02483
0.0717798 0.491162 3.93152
0.28288 0.559908 3.64925
0.0540589 0.546392 3.90844
0.0885541 0.442613 3.92519
0.195203 0.577092 3.85091
0.062681 0.464969 3.9889
0.275823 0.389003 3.6448
0.0715311 0.576983 3.87727
0.0400026 0.479038 4.01426
0.208864 0.27117 3.80825
0.205507 0.240336 3.76429
0.282854 0.455665 3.72208
0.24164 0.303874 3.77506
0.261802 0.607747 3.75848
0.099782 0.188517 3.89714
0.00405686 0.414785 3.99117
0.0958938 0.473754 3.92239
0.254657 0.559857 3.79564
0.15139 0.567704 3.87913
0.129201 0.566854 3.8852
0.106602 0.324046 3.90801
0.260374 0.41488 3.80499
0.0514479 0.153762 3.89372
0.129954 0.185875 3.8368
0.164817 0.207864 3.80442
0.108563 0.56856 3.88658
0.089313 0.572567 3.88308
0.0773447 0.575108 3.8777
0.243336 0.602547 3.82018
0.0924444 0.588588 3.88649
0.113381 0.592301 3.8909
0.134111 0.593207 3.88965
0.156189 0.590074 3.88339
0.171039 0.584797 3.8753
0.275952 0.617524 3.68922
0.166777 0.570039 3.87109
0.0870368 0.381647 3.94286
0.0597174 0.43072 3.97318
0.0326812 0.386708 3.96799
0.171742 0.23858 3.8355
0.137028 0.212943 3.86473
0.0529881 0.171884 3.92517
0.235827 0.2769 3.71533
0.0780466 0.582063 3.88092
0.0363148 0.524163 3.96522
0.0936046 0.167031 3.87096
0.278031 0.400513 3.72678
0.052677 0.329755 3.94048
0.0561765 0.324489 3.94574
0.0594269 0.315414 3.9515
0.0619776 0.301853 3.94901
0.0700299 0.274359 3.93235
0.0964497 0.332482 3.91114
0.103957 0.334914 3.91111
0.111283 0.338521 3.91146
0.135213 0.352713 3.90725
0.229119 0.403526 3.85695
0.0360941 0.548692 3.9411
0.0499296 0.594375 3.89486
0.0660967 0.589741 3.88494
0.0903982 0.334987 3.90907
0.232476 0.342404 3.82094
0.0273688 0.596149 3.92882
0.0834805 0.245094 3.92065
0.0176687 0.537492 3.98289
0.0552423 0.485971 3.96545
0.0415474 0.231997 3.94106
0.144463 0.293491 3.88413
0.110978 0.423075 3.91886
0.116267 0.265407 3.90128
0.172002 0.426403 3.90819
0.137238 0.399113 3.91342
0.195861 0.386747 3.88729
0.0497961 0.198624 3.93852
0.0719035 0.47252 3.94727
0.16431 0.270363 3.86233
0.130024 0.241186 3.88381
0.167455 0.32533 3.87975
0.25526 0.371656 3.79746
0.19917 0.317389 3.85526
0.26651 0.349436 3.73966
0.160242 0.36928 3.90077
0.0535188 0.507854 3.94708
0.0524645 0.437752 4.00451
0.0705744 0.432685 3.97667
0.0407459 0.453808 4.02291
0.0695345 0.614321 3.90226
0.10887 0.626524 3.90656
0.143419 0.628281 3.90524
0.173061 0.623538 3.89503
0.19429 0.612407 3.87908
0.211654 0.571107 3.84041
0.283093 0.507797 3.72621
0.193798 0.540005 3.86093
0.167525 0.533886 3.87615
0.134073 0.534144 3.88679
0.102033 0.539815 3.89213
0.0773594 0.548036 3.89252
0.0604679 0.556339 3.89414
0.282391 0.505313 3.6318
0.0703814 0.426802 3.96409
0.0361606 0.50246 3.98628
0.0335166 0.435968 4.02477
0.0196805 0.423591 4.01457
0.0338113 0.432176 4.01221
0.0639021 0.419448 3.95586
0.0148124 0.421205 4.02121
0.0127347 0.416386 3.99131
0.0619761 0.575829 3.88112
0.0470488 0.569834 3.89687
0.0387729 0.565632 3.91533
0.180098 0.580836 3.86683
0.192589 0.59082 3.86567
