ply
format ascii 1.0
comment Created by Open3D
element vertex 468
property double x
property double y
property double z
end_header
0.0172835 0.323886 3.96437
0.0176764 0.395581 4.00784
0.019477 0.371956 3.95158
0.00107044 0.456231 3.97429
0.0181519 0.41559 4.01478
0.0189337 0.439926 4.00372
0.0235925 0.499564 3.93845
-0.152965 0.499477 3.85085
0.0247323 0.556381 3.9235
0.0251878 0.586171 3.9277
0.0285475 0.688351 3.89804
0.016916 0.31331 3.96315
0.0170758 0.302857 3.95533
0.0171637 0.296011 3.94481
0.020485 0.256868 3.92756
0.0205997 0.244819 3.93018
0.0205674 0.230435 3.93025
0.0209473 0.217718 3.91906
0.0215618 0.207686 3.88733
0.0168568 0.384696 3.99656
0.00237691 0.384409 3.96638
-0.236592 0.585398 3.73171
-0.0861048 0.477002 3.87868
-0.110448 0.474545 3.87585
-0.132937 0.476774 3.86838
-0.161514 0.492054 3.84779
-0.0642858 0.484724 3.87496
-0.116594 0.545574 3.88511
-0.0897008 0.542801 3.8855
-0.140771 0.542242 3.87596
-0.156803 0.533262 3.86556
-0.179779 0.477533 3.83554
-0.0661422 0.192321 3.87297
-0.160078 0.507321 3.84266
-0.246253 0.491048 3.73033
-0.205231 0.495568 3.80998
-0.0931926 0.3961 3.90119
-0.00584138 0.325166 3.9601
-0.000383002 0.300897 3.95335
-0.0285593 0.311366 3.94949
-0.0410596 0.295382 3.93714
-0.0153114 0.294018 3.94769
-0.0253704 0.28605 3.93525
-0.0713597 0.249047 3.89689
5.85077e-05 0.395527 4.00536
-0.00275594 0.41412 4.01126
-0.193877 0.55921 3.8516
-0.0503926 0.450121 3.9034
-0.0447719 0.392912 3.9508
-0.0477022 0.40192 3.9437
-0.165858 0.391423 3.87314
-0.00121818 0.437066 3.9968
-0.138232 0.584158 3.89164
-0.171156 0.576777 3.87202
-0.214695 0.625429 3.77626
-0.0305943 0.561096 3.91551
-0.0658149 0.533396 3.87995
-0.0830635 0.270593 3.89573
-0.212253 0.294924 3.68167
-0.0260828 0.383337 3.94302
-0.00781973 0.377965 3.94383
-0.0519961 0.266896 3.90538
-0.0410898 0.269132 3.91246
-0.184553 0.591645 3.86001
-0.0429006 0.381774 3.93861
-0.0925986 0.580102 3.9066
-0.0964749 0.598178 3.90999
-0.116962 0.677412 3.86721
-0.200107 0.608227 3.82522
-0.103837 0.638452 3.89152
-0.207812 0.568401 3.83031
-0.222411 0.575574 3.78531
-0.00395046 0.312239 3.95997
-0.0216553 0.301652 3.95053
-0.0336229 0.290601 3.93848
-0.0188235 0.379266 3.93722
-0.0459002 0.267066 3.90896
-0.0429272 0.25982 3.91648
-0.0393851 0.271801 3.91265
-0.0200568 0.39415 3.97371
-0.0206271 0.286126 3.93235
-0.0100678 0.291574 3.93975
0.00290691 0.295002 3.94472
-0.00855921 0.209364 3.88843
-0.00699774 0.2203 3.91978
-0.00488772 0.233011 3.92883
-0.0011172 0.247616 3.92891
0.00175649 0.257548 3.92674
-0.024576 0.262239 3.91855
-0.029463 0.258166 3.92076
-0.0372593 0.251505 3.92215
-0.0439849 0.244664 3.91766
-0.0625747 0.319163 3.92508
-0.23922 0.400276 3.64013
0.0188695 0.380316 3.96777
-0.0316107 0.264947 3.91478
-0.0365759 0.262603 3.91667
-0.00250724 0.369339 3.94567
-0.0326733 0.368443 3.92173
-0.00483267 0.373439 3.94506
-0.0752415 0.436281 3.89628
-0.112974 0.419802 3.88809
-0.0494576 0.391126 3.93142
-0.177684 0.656805 3.82452
-0.163243 0.630925 3.86
-0.146803 0.601984 3.88717
-0.0583906 0.234375 3.8989
-0.0378382 0.590156 3.92309
-0.0426823 0.637526 3.91023
-0.050285 0.686234 3.8917
-0.151648 0.482203 3.85717
-0.204495 0.461204 3.82301
-0.0493827 0.492114 3.87235
-0.181673 0.525169 3.84341
-0.0334406 0.464891 3.91084
-0.0349533 0.403887 3.97198
-0.228602 0.446762 3.79895
-0.189119 0.444283 3.84611
-0.158539 0.436287 3.86868
-0.112111 0.441641 3.87922
-0.0785716 0.452256 3.8846
-0.0529494 0.463905 3.89032
0.000449892 0.493738 3.93071
-0.221536 0.399944 3.80962
-0.201142 0.529306 3.83094
0.0071256 0.385268 3.99562
-0.045311 0.43157 3.9149
-0.248874 0.493827 3.6506
-0.0333381 0.47688 3.89337
-0.0501258 0.38852 3.90931
-0.168496 0.507096 3.83801
-0.036681 0.414714 3.96277
-0.230934 0.349464 3.65365
-0.0479648 0.500716 3.86719
-0.0203301 0.428292 3.9837
-0.161599 0.238815 3.80432
-0.164278 0.219111 3.76248
-0.242048 0.399481 3.72552
-0.188817 0.268259 3.77686
-0.234293 0.535956 3.75097
-0.0727955 0.17383 3.85975
0.0119862 0.380971 3.96626
-0.0652225 0.414239 3.90664
-0.225362 0.491603 3.78674
-0.131099 0.488521 3.86628
-0.110625 0.485699 3.87276
-0.049969 0.25654 3.91324
-0.211937 0.358248 3.80627
-0.0324717 0.145107 3.85109
-0.102397 0.175238 3.81427
-0.131676 0.193033 3.79302
0.0268814 0.637066 3.91647
0.0169536 0.141196 3.85715
-0.0896801 0.487628 3.87408
-0.0693665 0.49294 3.87149
-0.0552937 0.496928 3.86691
-0.217915 0.533587 3.80615
-0.0703966 0.517428 3.87607
-0.0920075 0.524355 3.87826
-0.112865 0.525976 3.87648
-0.133635 0.522493 3.86949
-0.146524 0.516436 3.86146
-0.246153 0.544028 3.68542
-0.14417 0.493892 3.85803
0.019319 0.356691 3.94856
-0.0446303 0.336164 3.93039
-0.0279448 0.387895 3.94996
-0.00718187 0.351298 3.94647
0.0240359 0.527335 3.92232
-0.133352 0.21322 3.82294
-0.104612 0.194138 3.83989
-0.0328081 0.157817 3.87686
-0.188899 0.25052 3.72157
-0.0546297 0.507451 3.87105
-0.0163624 0.462376 3.94086
0.0171016 0.15321 3.88179
-0.0703721 0.158308 3.83658
-0.232089 0.352884 3.73185
-0.0131059 0.259732 3.92321
-0.0181152 0.252653 3.92539
-0.0243978 0.241961 3.9263
-0.0292919 0.230215 3.92019
-0.0379939 0.219796 3.89775
-0.0336252 0.277628 3.92377
-0.0413531 0.278919 3.92388
-0.0490179 0.281629 3.92316
-0.0745693 0.296257 3.91369
-0.177502 0.346609 3.8526
-0.0162336 0.481112 3.91931
-0.0292766 0.519599 3.88263
-0.044012 0.515407 3.87464
-0.0290984 0.280819 3.92216
-0.17593 0.296494 3.82078
-0.00813465 0.52254 3.90889
-0.0533573 0.208008 3.88144
0.0205688 0.460102 3.98099
0.000515181 0.473724 3.95368
0.0222759 0.478942 3.95893
-0.0318309 0.430483 3.94209
0.0181726 0.171693 3.89096
0.0201579 0.191774 3.88813
-0.0177203 0.194916 3.88518
-0.100035 0.244908 3.87795
-0.0692956 0.369631 3.90394
-0.0806612 0.224212 3.8792
-0.12675 0.367953 3.89237
-0.0904372 0.345677 3.9041
-0.141891 0.331368 3.87913
-0.0274332 0.176219 3.88658
-0.0434407 0.416894 3.92761
-0.123863 0.232305 3.85241
-0.0958959 0.211847 3.8595
-0.113664 0.271009 3.87929
-0.202074 0.323119 3.79975
-0.147148 0.269993 3.85255
-0.216224 0.309386 3.74501
-0.103333 0.312631 3.89726
-0.0310483 0.447526 3.92705
-0.0275115 0.396728 3.9773
-0.0375776 0.387875 3.9532
-0.0198068 0.410795 3.99219
-0.0499376 0.540983 3.8897
-0.0899559 0.556047 3.89088
-0.124746 0.559604 3.88713
-0.15274 0.555837 3.87684
-0.172245 0.544767 3.8618
-0.184434 0.50147 3.82743
-0.247891 0.44545 3.72735
-0.168105 0.467316 3.84886
-0.144239 0.460072 3.86292
-0.112506 0.460067 3.87373
-0.0820863 0.465922 3.87965
-0.0573264 0.475038 3.87927
-0.0402583 0.483553 3.88129
-0.244174 0.447157 3.63769
-0.0345635 0.380736 3.9421
-0.0166776 0.445829 3.95956
-0.0136871 0.397922 3.99451
-0.00162678 0.38778 3.98604
-0.012719 0.394274 3.98408
-0.0267254 0.373712 3.9343
0.00121796 0.386216 3.99198
0.00619078 0.381533 3.96603
-0.0389837 0.500606 3.86983
-0.0261519 0.496633 3.88329
-0.0184274 0.494388 3.89762
-0.153923 0.511886 3.85302
-0.168109 0.522569 3.85138
0.0403711 0.45682 3.97316
0.195797 0.506106 3.85239
0.033818 0.384545 3.96571
0.280184 0.59176 3.73199
0.126896 0.480872 3.87768
0.150597 0.479455 3.87559
0.172779 0.482688 3.86867
0.201389 0.499104 3.84838
0.107704 0.487524 3.87469
0.156345 0.549262 3.8843
0.130351 0.545038 3.88555
0.180787 0.547205 3.87609
0.196897 0.538863 3.86693
0.218435 0.485135 3.83746
0.0978699 0.19944 3.87498
0.203119 0.514098 3.8438
0.286283 0.50125 3.73124
0.24424 0.504045 3.81257
0.130112 0.400155 3.90226
0.0407958 0.325787 3.95903
0.0339641 0.301172 3.95134
0.0626493 0.31299 3.94629
0.074881 0.297123 3.93176
0.0478012 0.294872 3.94285
0.0586174 0.286766 3.92882
0.10419 0.253486 3.89445
0.0342732 0.396034 4.00584
0.0383942 0.414673 4.01198
0.232955 0.566095 3.85466
0.0904407 0.452282 3.90273
0.0806777 0.394411 3.94938
0.0837134 0.403583 3.94258
0.199107 0.399062 3.87426
0.0394562 0.43775 3.99607
0.181554 0.587955 3.89717
0.212487 0.582275 3.87689
0.260271 0.629802 3.77817
0.0785247 0.56223 3.91755
0.108997 0.534898 3.87932
0.117346 0.274756 3.89074
0.243454 0.30899 3.67913
0.0634408 0.384092 3.9413
0.0459329 0.378028 3.94419
0.0880408 0.268703 3.89609
0.074404 0.270344 3.90353
0.226253 0.597389 3.86511
0.0787532 0.383014 3.93701
0.138423 0.58249 3.91198
0.143078 0.600429 3.91579
0.167887 0.678261 3.86987
0.243068 0.613771 3.82922
0.153612 0.64003 3.89539
0.247719 0.575785 3.83312
0.263977 0.582602 3.78744
0.0378127 0.312828 3.95836
0.0551495 0.302858 3.94646
0.0672863 0.291951 3.93288
0.0574 0.379715 3.93634
0.0809825 0.268573 3.9002
0.0772434 0.261413 3.91096
0.0715895 0.272985 3.90362
0.0548644 0.394993 3.97126
0.0525269 0.286696 3.92546
0.0424678 0.291831 3.93437
0.0305022 0.295124 3.94152
0.0491146 0.211297 3.89011
0.047123 0.221866 3.92004
0.0447738 0.234195 3.92838
0.0415687 0.248683 3.92739
0.0382563 0.258257 3.92475
0.0603073 0.26356 3.91347
0.0649806 0.259788 3.91693
0.0720237 0.253648 3.92011
0.0787715 0.247381 3.91598
0.0971516 0.321934 3.92231
0.280614 0.412543 3.63849
0.0656205 0.266254 3.90718
0.0709171 0.263928 3.91014
0.0408927 0.369547 3.94489
0.0713645 0.369588 3.92166
0.0429496 0.373501 3.94488
0.113996 0.439399 3.89575
0.150903 0.424772 3.88922
0.0858871 0.393045 3.93014
0.225016 0.659451 3.8282
0.208926 0.634193 3.86536
0.191077 0.605768 3.89291
0.092041 0.238818 3.89808
0.0866431 0.591228 3.92647
0.0948194 0.638209 3.91244
0.104115 0.686381 3.89458
0.191196 0.488765 3.85807
0.241717 0.470078 3.82575
0.095307 0.494359 3.8709
0.221307 0.53226 3.84479
0.0753678 0.466484 3.90974
0.0701628 0.404908 3.97117
0.263693 0.457091 3.8003
0.225782 0.452638 3.84807
0.195137 0.443261 3.87065
0.151238 0.446717 3.8796
0.118953 0.455749 3.88445
0.0943766 0.466214 3.88988
0.0460952 0.494334 3.93014
0.254648 0.410519 3.80935
0.23948 0.537095 3.83229
0.0265113 0.385391 3.99486
0.0846712 0.433364 3.9134
0.294433 0.503691 3.64981
0.0773354 0.478315 3.89236
0.0888266 0.390335 3.90867
0.210399 0.514197 3.83897
0.0721164 0.415875 3.96236
0.267693 0.362723 3.65231
0.0945679 0.503132 3.86405
0.0568485 0.429341 3.98318
0.188635 0.251697 3.80446
0.190205 0.2336 3.76207
0.279229 0.411915 3.72538
0.216271 0.281177 3.77553
0.276208 0.544309 3.75196
0.102904 0.182552 3.86118
0.0257584 0.380993 3.96616
0.102939 0.416982 3.90628
0.263807 0.500949 3.78883
0.173848 0.49407 3.86739
0.153275 0.490273 3.87273
0.0841259 0.258705 3.90795
0.242633 0.368971 3.80583
0.064985 0.150142 3.85203
0.130738 0.187225 3.81478
0.158302 0.206811 3.79326
0.132694 0.491323 3.87347
0.114113 0.49595 3.86986
0.101836 0.499551 3.86427
0.256511 0.541913 3.80783
0.112938 0.520028 3.87361
0.132139 0.527405 3.87717
0.153041 0.530361 3.87579
0.174315 0.528079 3.86995
0.187787 0.522605 3.86259
0.291848 0.551966 3.68518
0.187209 0.500076 3.85912
0.0807971 0.338167 3.92869
0.0648901 0.388654 3.94944
0.0452946 0.352088 3.94574
0.160779 0.225662 3.82479
0.133001 0.205435 3.84242
0.0649648 0.162546 3.87821
0.2167 0.264895 3.71915
0.100138 0.509913 3.86753
0.0586775 0.46348 3.94028
0.100653 0.167289 3.83734
0.265222 0.365665 3.73166
0.0514086 0.260983 3.91937
0.0558251 0.25425 3.92261
0.0617862 0.243912 3.92495
0.0666168 0.232783 3.91955
0.0738978 0.2234 3.89783
0.0665665 0.278367 3.91536
0.0752806 0.280307 3.91572
0.0828557 0.283285 3.91534
0.108741 0.299547 3.90828
0.207321 0.355171 3.85292
0.0608264 0.482169 3.91864
0.077012 0.520692 3.88271
0.0904023 0.517013 3.87212
0.061167 0.281579 3.91315
0.20465 0.306642 3.81976
0.0554082 0.523336 3.9089
0.0873168 0.213463 3.88336
0.0434276 0.474429 3.95374
0.0702189 0.431817 3.94207
0.0556024 0.197937 3.88691
0.130766 0.252314 3.87875
0.107003 0.372534 3.90382
0.11178 0.231346 3.88151
0.161047 0.373482 3.89451
0.125838 0.349645 3.90383
0.172783 0.338346 3.87986
0.0617629 0.180054 3.88739
0.0808251 0.418404 3.92691
0.152554 0.242835 3.85422
0.126108 0.221207 3.86264
0.145487 0.2778 3.87725
0.230665 0.334244 3.7994
0.175104 0.27954 3.85268
0.245906 0.322453 3.74395
0.13702 0.317359 3.89538
0.0713567 0.449037 3.92573
0.0617492 0.397781 3.97561
0.0733111 0.388914 3.95259
0.055546 0.411862 3.99162
0.0961017 0.542614 3.88983
0.133801 0.558739 3.89309
0.166913 0.563388 3.88997
0.194034 0.560808 3.8792
0.212454 0.550927 3.86401
0.224549 0.509198 3.82929
0.286304 0.456889 3.72713
0.20653 0.474392 3.85062
0.182949 0.466528 3.86466
0.152121 0.464904 3.87437
0.122487 0.469597 3.87955
0.100061 0.477486 3.87935
0.084591 0.48542 3.88089
0.288211 0.458265 3.63594
0.0709779 0.381772 3.94124
0.0570309 0.447012 3.95856
0.0478132 0.39866 3.99407
0.0349016 0.388126 3.98598
0.0467643 0.395006 3.98303
0.0642662 0.374475 3.93369
0.0319769 0.386552 3.99202
0.0307839 0.381779 3.96589
0.0863615 0.50248 3.86841
0.072389 0.497803 3.88289
0.0644655 0.495245 3.89765
0.19611 0.518331 3.85419
0.208342 0.529065 3.85343
