ply
format ascii 1.0
comment Created by Open3D
element vertex 468
property double x
property double y
property double z
end_header
-0.016344 0.371719 4.08742
-0.0175628 0.435033 4.13973
-0.0168775 0.41643 4.0844
-0.035294 0.511343 4.1065
-0.0170534 0.458509 4.14694
-0.0158252 0.489253 4.13657
-0.014403 0.563008 4.071
-0.175303 0.572548 3.98404
-0.0129684 0.626699 4.0515
-0.0126176 0.657003 4.05387
-0.0133339 0.747629 4.02435
-0.0163938 0.361114 4.08471
-0.0162758 0.352012 4.07733
-0.0160428 0.347687 4.06751
-0.0161561 0.333868 4.06525
-0.0165369 0.322874 4.0689
-0.0161476 0.30907 4.07383
-0.0159999 0.295173 4.07038
-0.0157781 0.273128 4.049
-0.0164959 0.423564 4.12815
-0.037133 0.42615 4.09871
-0.245781 0.655139 3.86895
-0.109638 0.553127 4.00693
-0.132144 0.551419 4.00521
-0.153685 0.552571 3.9988
-0.182746 0.56565 3.98052
-0.0912216 0.55901 4.00385
-0.139616 0.613618 4.01397
-0.115189 0.61127 4.01396
-0.162903 0.610658 4.00694
-0.178376 0.602004 3.99801
-0.199968 0.551265 3.96991
-0.0997027 0.245606 4.02386
-0.183659 0.578201 3.97593
-0.258374 0.565568 3.868
-0.222304 0.568565 3.94596
-0.130355 0.461142 4.03589
-0.0449853 0.374535 4.08448
-0.0404583 0.351643 4.07406
-0.0732403 0.367807 4.07155
-0.0907174 0.359546 4.05411
-0.0601858 0.350469 4.06438
-0.075337 0.348303 4.04895
-0.11718 0.324178 4.02116
-0.0357706 0.435416 4.13841
-0.0384898 0.458004 4.1449
-0.208364 0.629325 3.98752
-0.0835057 0.515377 4.03404
-0.0853337 0.444512 4.08382
-0.0870472 0.457074 4.07693
-0.196653 0.465435 4.0056
-0.0369626 0.486867 4.12967
-0.159682 0.655454 4.02616
-0.188921 0.647032 4.00723
-0.22519 0.691112 3.91148
-0.0635298 0.634387 4.04586
-0.0947417 0.602848 4.00759
-0.134191 0.347353 4.01569
-0.237619 0.367308 3.81966
-0.0692737 0.432115 4.07584
-0.0512675 0.425421 4.07837
-0.109959 0.345403 4.01672
-0.0965796 0.346325 4.02308
-0.1999 0.661242 3.99631
-0.0852921 0.435581 4.072
-0.119343 0.653179 4.04027
-0.122661 0.669702 4.04437
-0.139232 0.73685 3.99686
-0.212528 0.675283 3.96016
-0.129064 0.702577 4.02144
-0.220722 0.638744 3.96759
-0.23332 0.644826 3.92152
-0.0431907 0.36157 4.08158
-0.0663744 0.357549 4.06892
-0.0832055 0.353595 4.05361
-0.063691 0.428513 4.07078
-0.103307 0.345447 4.02016
-0.0944776 0.337752 4.03495
-0.0930074 0.347839 4.0235
-0.0583556 0.436994 4.10504
-0.0694001 0.349235 4.04528
-0.0551234 0.348995 4.05592
-0.0373412 0.348029 4.06451
-0.0468671 0.276086 4.04893
-0.0452352 0.298415 4.06871
-0.0439468 0.312134 4.07099
-0.0420438 0.325916 4.06573
-0.039371 0.334781 4.06177
-0.0736011 0.339803 4.0433
-0.0775224 0.336036 4.04782
-0.0828836 0.329392 4.05197
-0.0883201 0.321411 4.04801
-0.110694 0.383213 4.04782
-0.259877 0.476551 3.78102
-0.0175187 0.420764 4.09945
-0.082714 0.342394 4.03127
-0.0882127 0.340915 4.03426
-0.0442818 0.416573 4.07946
-0.0787803 0.423455 4.05706
-0.0476969 0.420513 4.07909
-0.107658 0.503431 4.02733
-0.145447 0.489724 4.02126
-0.0905802 0.447958 4.06452
-0.191711 0.719053 3.95768
-0.179965 0.695989 3.99383
-0.167255 0.67163 4.02196
-0.100122 0.305483 4.03237
-0.0695463 0.662374 4.05377
-0.0750041 0.700828 4.03686
-0.0815875 0.744695 4.02023
-0.172145 0.557132 3.98926
-0.222926 0.536136 3.95851
-0.0798246 0.565408 4.0002
-0.200203 0.595568 3.97744
-0.067189 0.529292 4.04125
-0.0725562 0.451145 4.10527
-0.245496 0.522511 3.93378
-0.209795 0.520034 3.97988
-0.182668 0.510982 4.00183
-0.140373 0.513873 4.0105
-0.108212 0.52257 4.01524
-0.0840421 0.532451 4.02035
-0.0364414 0.557774 4.06253
-0.245209 0.477146 3.94249
-0.216002 0.600687 3.96588
-0.0278453 0.424407 4.12709
-0.0818663 0.493114 4.04581
-0.263135 0.569989 3.79199
-0.0670927 0.544306 4.02238
-0.0941965 0.447801 4.04309
-0.190701 0.578918 3.97167
-0.0734127 0.466535 4.09645
-0.253252 0.42376 3.79393
-0.0800607 0.573758 3.99365
-0.0557153 0.478974 4.11711
-0.19439 0.305929 3.94197
-0.192183 0.283312 3.90205
-0.263528 0.47572 3.86245
-0.220819 0.33834 3.91265
-0.246573 0.607757 3.88807
-0.104898 0.222181 4.0116
-0.0263571 0.421473 4.09833
-0.102079 0.477627 4.03905
-0.239453 0.564941 3.92347
-0.15262 0.565488 3.99715
-0.132898 0.563627 4.00216
-0.100797 0.334143 4.03116
-0.241262 0.434031 3.93873
-0.0645362 0.186678 4.00645
-0.132575 0.226698 3.96105
-0.1605 0.250506 3.93527
-0.0133263 0.699901 4.04089
-0.0144386 0.178749 4.01219
-0.114007 0.564794 4.0029
-0.0964401 0.568558 3.99895
-0.0856937 0.571429 3.99359
-0.23051 0.605226 3.94248
-0.098019 0.583752 4.00271
-0.116942 0.587634 4.00636
-0.136499 0.588805 4.00557
-0.156261 0.586591 4.00029
-0.169126 0.582598 3.99384
-0.258853 0.617332 3.82491
-0.165914 0.568781 3.99022
-0.0167743 0.40291 4.07994
-0.0905084 0.394542 4.05921
-0.0698652 0.434831 4.0837
-0.0476197 0.400633 4.07861
-0.0133592 0.595039 4.05276
-0.164872 0.274813 3.96406
-0.135994 0.249013 3.98683
-0.0643114 0.202196 4.0331
-0.216304 0.319904 3.85852
-0.0857368 0.578019 3.9967
-0.0524138 0.521902 4.07281
-0.0144852 0.193939 4.03763
-0.101886 0.204077 3.98795
-0.256634 0.427809 3.86899
-0.0584941 0.337281 4.05321
-0.0624221 0.330784 4.05787
-0.0663145 0.320428 4.06239
-0.0698407 0.307721 4.05926
-0.0770595 0.288223 4.04274
-0.0878881 0.347472 4.03464
-0.0963636 0.34956 4.03474
-0.103494 0.353108 4.03508
-0.126742 0.367359 4.03154
-0.212361 0.419676 3.98483
-0.0516346 0.545093 4.05048
-0.0631118 0.590698 4.01097
-0.0759431 0.58677 4.00064
-0.081582 0.350288 4.03246
-0.213376 0.368147 3.95412
-0.0433706 0.591897 4.03915
-0.0888959 0.268304 4.03194
-0.01526 0.51445 4.11427
-0.0361668 0.532984 4.08682
-0.0150564 0.537635 4.09187
-0.0682508 0.487152 4.07552
-0.0146653 0.218048 4.04893
-0.0152098 0.247774 4.04876
-0.0534258 0.252532 4.04504
-0.138697 0.31643 4.00884
-0.113228 0.431613 4.03781
-0.116224 0.289428 4.02019
-0.165028 0.436162 4.02856
-0.1341 0.411145 4.03445
-0.182148 0.402249 4.01218
-0.0607753 0.225596 4.04337
-0.0809399 0.475273 4.06036
-0.158013 0.299232 3.98878
-0.129372 0.271281 4.0045
-0.156813 0.345194 4.00592
-0.234556 0.396809 3.93321
-0.184939 0.341883 3.98442
-0.243903 0.382006 3.8812
-0.15018 0.384416 4.02417
-0.0667527 0.507746 4.05823
-0.065043 0.440417 4.10968
-0.0783128 0.436768 4.08684
-0.057197 0.455384 4.12516
-0.0812674 0.613306 4.01734
-0.117197 0.627557 4.02063
-0.148244 0.629783 4.01867
-0.174132 0.625148 4.00911
-0.191396 0.614181 3.99479
-0.203858 0.573682 3.96237
-0.264091 0.521196 3.86397
-0.189133 0.541546 3.9823
-0.166586 0.534635 3.99583
-0.137081 0.534328 4.0046
-0.108234 0.539119 4.00967
-0.0864249 0.546648 4.00885
-0.0717262 0.554127 4.01017
-0.261685 0.524095 3.77824
-0.0772988 0.431895 4.07594
-0.0532418 0.501441 4.09194
-0.0509781 0.438664 4.12727
-0.0378865 0.428262 4.11851
-0.0501319 0.43547 4.11648
-0.0712894 0.425952 4.06868
-0.0343266 0.426082 4.12464
-0.0329546 0.422942 4.09843
-0.072076 0.572934 3.99781
-0.0597644 0.566642 4.01224
-0.0532121 0.56199 4.02783
-0.177148 0.5799 3.98615
-0.189041 0.592707 3.98533
0.00451113 0.511582 4.10683
0.156073 0.57577 3.98028
0.00484824 0.42666 4.09727
0.230445 0.662908 3.86706
0.0894289 0.555965 4.00678
0.11243 0.554575 4.00428
0.134382 0.555635 3.99652
0.16594 0.568987 3.97693
0.0694448 0.561049 4.00323
0.119924 0.616715 4.01201
0.0943045 0.613742 4.0115
0.143883 0.61429 4.00333
0.160154 0.606075 3.99367
0.182271 0.554738 3.96579
0.0764889 0.242215 4.01954
0.164467 0.581806 3.97201
0.24547 0.569838 3.86393
0.20608 0.572316 3.94091
0.105669 0.463459 4.03065
0.0138439 0.375692 4.08371
0.00997498 0.352501 4.07346
0.0456673 0.369457 4.07017
0.0649741 0.361942 4.05351
0.0327325 0.351845 4.06488
0.049166 0.350367 4.04948
0.0949318 0.325127 4.01849
0.00247104 0.436025 4.13696
0.00577323 0.458779 4.14327
0.191691 0.633131 3.9826
0.0573386 0.51678 4.03229
0.0569268 0.446649 4.08077
0.0594935 0.458998 4.07362
0.177196 0.468317 4.00021
0.00564171 0.487203 4.12968
0.139432 0.657224 4.0204
0.170046 0.649866 4.00172
0.207913 0.699193 3.90908
0.0393434 0.634419 4.04349
0.0723911 0.604621 4.00605
0.112343 0.34921 4.01372
0.229365 0.363642 3.8151
0.0389166 0.433913 4.07332
0.0198487 0.426655 4.07461
0.0853945 0.348328 4.01793
0.0739773 0.349249 4.02399
0.181286 0.664508 3.99058
0.0578939 0.437707 4.06869
0.0976496 0.654414 4.03433
0.101276 0.671269 4.03805
0.118448 0.742533 3.99434
0.194984 0.681174 3.95501
0.106813 0.706339 4.01713
0.204155 0.64318 3.9628
0.217174 0.650931 3.91753
0.0125723 0.362671 4.08128
0.0385898 0.358962 4.06874
0.0570817 0.355884 4.05344
0.0327947 0.430294 4.06751
0.0794144 0.34841 4.02072
0.0701946 0.340328 4.03383
0.0713844 0.350402 4.02467
0.0283004 0.438265 4.1044
0.0445007 0.351476 4.0464
0.0277403 0.350313 4.05677
0.007438 0.348939 4.06512
0.0176673 0.275851 4.0468
0.0155414 0.298432 4.06776
0.0137044 0.312549 4.07066
0.0107525 0.326244 4.06601
0.00869032 0.335112 4.06209
0.0477289 0.341617 4.04325
0.0521146 0.337839 4.04657
0.0583707 0.331005 4.05
0.0636389 0.322916 4.04571
0.0857873 0.385448 4.04404
0.247443 0.477365 3.77808
0.0587771 0.344492 4.03213
0.0639868 0.343272 4.0342
0.0125896 0.417162 4.07745
0.0497136 0.42523 4.05255
0.016094 0.421629 4.0764
0.0824779 0.505434 4.02501
0.121588 0.492343 4.01726
0.0632851 0.450064 4.06125
0.173641 0.726419 3.95387
0.160803 0.701029 3.98777
0.147156 0.674018 4.01551
0.0767296 0.305181 4.02991
0.0465748 0.662987 4.05028
0.0506017 0.703177 4.03443
0.0581447 0.748101 4.01774
0.154378 0.560422 3.98633
0.206316 0.539707 3.95299
0.0567793 0.566907 4.00037
0.18315 0.599486 3.97349
0.0407996 0.530277 4.04053
0.0433846 0.452797 4.10297
0.231062 0.525761 3.92874
0.191426 0.523695 3.975
0.162223 0.514257 3.99709
0.117056 0.516638 4.00789
0.083938 0.524688 4.0135
0.0592798 0.533956 4.01885
0.00807744 0.558033 4.06234
0.22968 0.479579 3.93759
0.200513 0.604521 3.96146
-0.00449406 0.424708 4.12684
0.0543099 0.494542 4.044
0.248886 0.574253 3.79023
0.0405547 0.545424 4.02197
0.0652612 0.450029 4.03873
0.172836 0.582491 3.96792
0.0455344 0.468137 4.0935
0.243234 0.42253 3.78998
0.0573436 0.574977 3.99467
0.0263389 0.479803 4.11574
0.181499 0.300574 3.9348
0.181753 0.275618 3.89594
0.249503 0.477075 3.85695
0.210232 0.334097 3.90586
0.231192 0.613409 3.88444
0.0821163 0.217257 4.0075
-0.00847792 0.421738 4.09779
0.0760789 0.479626 4.03563
0.225128 0.568899 3.91851
0.132183 0.568777 3.9948
0.112192 0.567074 4.00128
0.0767714 0.336554 4.03009
0.226765 0.435012 3.93228
0.0371323 0.183359 4.00428
0.112591 0.219204 3.95668
0.145096 0.242512 3.92986
0.0928979 0.56785 4.00237
0.0747508 0.570779 3.99938
0.062731 0.573135 3.99469
0.215884 0.609918 3.93813
0.0779345 0.585334 4.00262
0.0978382 0.589763 4.00516
0.117221 0.591489 4.00358
0.137236 0.589908 3.9974
0.150661 0.58633 3.9899
0.243047 0.623806 3.82304
0.146127 0.5719 3.98717
0.0636389 0.396313 4.05559
0.0393628 0.436815 4.08011
0.016344 0.40153 4.077
0.148188 0.268916 3.95736
0.117014 0.242816 3.9808
0.038181 0.199437 4.03075
0.207628 0.313752 3.85363
0.0636596 0.579051 3.99789
0.023372 0.522636 4.07191
0.0780658 0.198293 3.98515
0.244869 0.427366 3.86234
0.0301054 0.33829 4.05351
0.034132 0.331893 4.05745
0.0386861 0.32124 4.06138
0.0422423 0.308106 4.05795
0.0512893 0.287601 4.04088
0.0639646 0.350133 4.03538
0.0715817 0.352092 4.03548
0.0791068 0.355994 4.03528
0.103382 0.369781 4.02924
0.196378 0.421064 3.97793
0.0239447 0.545589 4.04997
0.0377321 0.59116 4.00932
0.0520392 0.587866 4.00109
0.0586435 0.352718 4.03408
0.199146 0.367005 3.9469
0.0173705 0.591917 4.03796
0.0654088 0.266003 4.02832
0.00663987 0.533295 4.08613
0.0393573 0.488355 4.07307
0.0257617 0.251189 4.04243
0.118308 0.315153 4.0043
0.0864437 0.433681 4.03272
0.0953682 0.287162 4.01503
0.143677 0.43839 4.0214
0.10975 0.413131 4.02929
0.163698 0.403586 4.00532
0.033816 0.223532 4.04146
0.0534859 0.476962 4.05753
0.139429 0.295757 3.98261
0.108959 0.267033 3.99818
0.137117 0.34549 4.00226
0.221445 0.396172 3.92599
0.168987 0.34008 3.97785
0.233631 0.379669 3.87435
0.128474 0.386241 4.0194
0.0384431 0.508845 4.05694
0.0356635 0.441943 4.10797
0.0492822 0.438917 4.08321
0.0257418 0.456362 4.12346
0.0572736 0.613935 4.01529
0.0948022 0.629198 4.01671
0.1275 0.632653 4.01436
0.154579 0.628843 4.00465
0.173785 0.618326 3.99018
0.186886 0.577385 3.95805
0.250403 0.523935 3.86021
0.170521 0.545226 3.978
0.146125 0.537787 3.99231
0.115439 0.537251 4.00253
0.0862464 0.541575 4.00835
0.0631192 0.548355 4.00765
0.0473534 0.555271 4.00956
0.247931 0.526758 3.77662
0.0485232 0.433845 4.07221
0.022691 0.502201 4.0912
0.0190987 0.439495 4.12569
0.00740695 0.428773 4.11672
0.0193401 0.436275 4.11482
0.0424457 0.4275 4.06472
0.00311128 0.426375 4.12314
-0.00056079 0.423198 4.0972
0.0479086 0.57398 3.99766
0.0346926 0.567374 4.01151
0.0268037 0.562694 4.02704
0.15852 0.583582 3.98202
0.171616 0.596527 3.98021
