ply
format ascii 1.0
comment Created by Open3D
element vertex 468
property double x
property double y
property double z
end_header
-0.0101331 0.354341 4.06169
-0.0148176 0.422918 4.12477
-0.0129836 0.401103 4.06582
-0.0365088 0.50231 4.08165
-0.0148589 0.447201 4.1316
-0.014655 0.478418 4.11861
-0.0153109 0.557423 4.03655
-0.190713 0.566081 3.93579
-0.015179 0.620759 4.00864
-0.0150259 0.653749 4.00675
-0.0127342 0.752389 3.96339
-0.00989546 0.343361 4.05895
-0.00956927 0.336269 4.05301
-0.00968173 0.33546 4.04457
-0.00992787 0.245449 4.00474
-0.0096963 0.234247 4.0104
-0.00959548 0.221807 4.01702
-0.010095 0.209201 4.01321
-0.0116342 0.193804 3.99807
-0.0142775 0.409529 4.11267
-0.0395102 0.413095 4.08013
-0.272579 0.651046 3.80267
-0.118477 0.545969 3.96085
-0.142512 0.544375 3.95932
-0.1667 0.54543 3.95303
-0.201628 0.558097 3.93332
-0.0989996 0.551751 3.95799
-0.153239 0.611418 3.96715
-0.12677 0.609141 3.96482
-0.179233 0.607597 3.96026
-0.196543 0.597616 3.95032
-0.220757 0.543512 3.92262
-0.120489 0.188517 3.97037
-0.200616 0.571295 3.92717
-0.290057 0.553568 3.81
-0.246531 0.55951 3.89542
-0.149664 0.451109 4.0033
-0.0565629 0.358083 4.05914
-0.0517862 0.337087 4.04839
-0.10234 0.352792 4.04072
-0.129744 0.346801 4.01007
-0.0853611 0.336631 4.03212
-0.110097 0.335748 4.00512
-0.159417 0.291788 3.95461
-0.0364473 0.423427 4.12266
-0.0393984 0.446748 4.12876
-0.228576 0.622962 3.93949
-0.0919295 0.507414 3.9965
-0.101907 0.435415 4.06237
-0.103652 0.448132 4.05345
-0.224992 0.459089 3.9696
-0.0380561 0.47653 4.11057
-0.173459 0.652156 3.97816
-0.205711 0.642566 3.95981
-0.247894 0.690966 3.84469
-0.0688251 0.629961 4.00168
-0.104227 0.600099 3.95784
-0.179212 0.330534 3.9539
-0.270233 0.325953 3.77716
-0.0828212 0.422576 4.05392
-0.0605019 0.412778 4.05805
-0.16377 0.326256 3.95203
-0.148735 0.32332 3.95765
-0.218257 0.657342 3.94555
-0.104835 0.426158 4.05017
-0.129483 0.650447 3.9933
-0.133514 0.668148 3.99589
-0.151704 0.742324 3.93277
-0.233033 0.67317 3.8999
-0.140456 0.706122 3.96335
-0.242346 0.632979 3.91649
-0.257344 0.639675 3.86016
-0.0550285 0.345178 4.05535
-0.0935712 0.342932 4.03633
-0.120417 0.341273 4.00936
-0.0772752 0.418128 4.04878
-0.15692 0.324734 3.95489
-0.140807 0.293963 3.96371
-0.142541 0.322734 3.95792
-0.0656602 0.426479 4.08588
-0.104083 0.338069 4.00306
-0.0793774 0.338409 4.02414
-0.0482192 0.336656 4.03953
-0.0609745 0.199024 3.99566
-0.0591726 0.215221 4.01006
-0.0565648 0.227655 4.01151
-0.0534872 0.240161 4.00461
-0.0497103 0.24962 4.00008
-0.106189 0.276435 3.9747
-0.112255 0.273281 3.97874
-0.120911 0.268077 3.98288
-0.127808 0.263029 3.97845
-0.144484 0.368631 4.00393
-0.292708 0.451056 3.72811
-0.0142214 0.406332 4.08187
-0.122457 0.292937 3.9605
-0.132475 0.293894 3.96371
-0.0520772 0.401656 4.05991
-0.0992278 0.413176 4.03355
-0.0561629 0.406864 4.05955
-0.119813 0.49619 3.99097
-0.163029 0.483848 3.98647
-0.109762 0.438703 4.04031
-0.210058 0.722328 3.89112
-0.196616 0.696629 3.93426
-0.182064 0.669527 3.97076
-0.136206 0.256818 3.96618
-0.0759178 0.660881 4.00627
-0.0815056 0.704944 3.97959
-0.0880673 0.750296 3.95798
-0.188652 0.55004 3.94296
-0.247845 0.528585 3.91101
-0.0870818 0.558501 3.95412
-0.220247 0.588357 3.92786
-0.0730938 0.521091 4.00407
-0.0832193 0.441892 4.08548
-0.274944 0.51219 3.88608
-0.231845 0.514952 3.93588
-0.20147 0.507383 3.95917
-0.153856 0.508486 3.96971
-0.117679 0.515439 3.97352
-0.0909502 0.524915 3.9785
-0.0391236 0.551759 4.02633
-0.278961 0.466101 3.8992
-0.238448 0.592499 3.91511
-0.0274362 0.410633 4.11145
-0.0932241 0.484684 4.01353
-0.295302 0.556466 3.73072
-0.0720257 0.537257 3.98061
-0.113822 0.43973 4.01425
-0.210085 0.572004 3.92273
-0.0844668 0.457511 4.07443
-0.287134 0.391845 3.74716
-0.0883552 0.566714 3.9458
-0.0608569 0.468709 4.09706
-0.222832 0.265723 3.88956
-0.218028 0.232283 3.85897
-0.299945 0.45613 3.81283
-0.253807 0.299411 3.8668
-0.27388 0.600056 3.82719
-0.122575 0.162721 3.96322
-0.0248574 0.40723 4.08048
-0.117801 0.469128 4.00736
-0.267304 0.554683 3.87079
-0.163993 0.559906 3.95023
-0.142333 0.558257 3.95564
-0.148399 0.293915 3.96095
-0.280093 0.416517 3.8965
-0.07407 0.119421 3.96514
-0.152239 0.168515 3.91455
-0.182824 0.196722 3.88803
-0.0140517 0.7026 3.98504
-0.0158695 0.110352 3.97172
-0.122553 0.55909 3.95602
-0.104498 0.562195 3.95218
-0.0935994 0.564934 3.94628
-0.255157 0.597268 3.88952
-0.108337 0.575996 3.95288
-0.128336 0.578824 3.95718
-0.147812 0.579862 3.95675
-0.168712 0.578143 3.95148
-0.183654 0.574571 3.94466
-0.288188 0.609597 3.76054
-0.179271 0.562705 3.94283
-0.0121361 0.385301 4.05914
-0.117269 0.379797 4.02821
-0.0823818 0.425405 4.0616
-0.0570528 0.383595 4.05594
-0.015304 0.588249 4.01334
-0.189579 0.229313 3.90848
-0.157311 0.197546 3.93426
-0.0750852 0.136122 3.98749
-0.24562 0.271345 3.81944
-0.0947747 0.57054 3.94799
-0.056542 0.513557 4.04044
-0.0153875 0.126864 3.99308
-0.117945 0.140896 3.94389
-0.29567 0.400472 3.82316
-0.0811606 0.260675 3.98866
-0.0874275 0.254432 3.99224
-0.0935296 0.245105 3.99629
-0.0984538 0.234766 3.99292
-0.105806 0.223543 3.98144
-0.133437 0.33284 3.9797
-0.143224 0.336407 3.97819
-0.151187 0.340472 3.97854
-0.167155 0.353776 3.97542
-0.248447 0.404431 3.94496
-0.0553973 0.53773 4.0133
-0.0689205 0.58595 3.96273
-0.0835442 0.582056 3.95186
-0.125258 0.335628 3.97877
-0.249941 0.340843 3.9076
-0.0476749 0.58569 3.99648
-0.112897 0.210652 3.97583
-0.0149462 0.505176 4.0901
-0.0379903 0.525425 4.05509
-0.0151806 0.53023 4.06096
-0.076712 0.478043 4.04727
-0.0146665 0.151493 3.99987
-0.0131524 0.177077 3.99821
-0.0663518 0.183878 3.99267
-0.171823 0.284733 3.94468
-0.13467 0.420365 4.0049
-0.146176 0.245167 3.95829
-0.19197 0.423718 3.9927
-0.159645 0.396828 3.99377
-0.213879 0.386338 3.96843
-0.0728196 0.159716 3.99364
-0.0943458 0.466538 4.03206
-0.186227 0.262017 3.92917
-0.154057 0.225357 3.94711
-0.192333 0.324626 3.94726
-0.273772 0.371814 3.88992
-0.219218 0.314335 3.92943
-0.280912 0.347404 3.83707
-0.182398 0.37066 3.97498
-0.0740803 0.498986 4.02572
-0.0740977 0.430483 4.09068
-0.0934885 0.42717 4.06621
-0.0621243 0.445144 4.10768
-0.0881939 0.610026 3.96723
-0.127233 0.62582 3.97069
-0.161518 0.62823 3.97003
-0.190256 0.622028 3.96105
-0.210205 0.609193 3.94602
-0.224717 0.565265 3.91281
-0.297407 0.505771 3.80997
-0.207571 0.53475 3.9364
-0.181452 0.528325 3.95085
-0.148406 0.527357 3.96072
-0.117056 0.531432 3.96461
-0.0934131 0.538975 3.96446
-0.0776726 0.54664 3.96593
-0.294329 0.50496 3.72031
-0.0942566 0.422162 4.05443
-0.056985 0.49231 4.06554
-0.054703 0.427449 4.11033
-0.0401234 0.414802 4.10133
-0.054737 0.42392 4.09823
-0.0891799 0.415288 4.04671
-0.0353851 0.412057 4.1083
-0.0335476 0.409114 4.08012
-0.0789608 0.566776 3.95099
-0.0654296 0.560154 3.96714
-0.0576576 0.555355 3.98634
-0.193276 0.572263 3.9372
-0.208441 0.586254 3.93653
0.00640905 0.501975 4.08216
0.160643 0.56012 3.93618
0.0117431 0.413094 4.07926
0.24884 0.648348 3.80464
0.088666 0.542512 3.96238
0.113128 0.540902 3.96072
0.137681 0.541674 3.95428
0.173037 0.552607 3.93361
0.0686715 0.548582 3.95867
0.124325 0.605313 3.96789
0.0976937 0.604304 3.96481
0.149641 0.60084 3.96045
0.166835 0.590708 3.95032
0.192868 0.539655 3.92305
0.091492 0.186765 3.9697
0.170787 0.564311 3.92717
0.264996 0.549787 3.81052
0.219589 0.554863 3.89519
0.123136 0.451446 4.00311
0.0365949 0.359593 4.05811
0.0332379 0.33824 4.04777
0.0833538 0.356261 4.03882
0.111401 0.351549 4.00848
0.0674383 0.339321 4.03128
0.0922044 0.339769 4.00442
0.138762 0.294961 3.95369
0.00704336 0.423371 4.12215
0.00978832 0.44668 4.12822
0.20105 0.615271 3.93932
0.0630232 0.506552 3.99671
0.0748546 0.436341 4.06069
0.0765783 0.449166 4.05172
0.198806 0.458451 3.9704
0.00850151 0.476338 4.1109
0.144082 0.644581 3.97757
0.176947 0.634561 3.95973
0.22407 0.688574 3.84616
0.038959 0.626831 4.00123
0.0746309 0.596262 3.95797
0.158428 0.334379 3.95444
0.244956 0.321343 3.77746
0.0559343 0.423477 4.05224
0.034067 0.413677 4.05607
0.145666 0.331815 3.95182
0.131077 0.328605 3.95707
0.190146 0.6492 3.94536
0.0788861 0.42763 4.04807
0.0997489 0.644938 3.99228
0.104528 0.662856 3.99451
0.127472 0.741216 3.93313
0.207312 0.668526 3.9002
0.113356 0.70308 3.96291
0.215574 0.625875 3.9165
0.232206 0.635089 3.86084
0.0359755 0.346451 4.05445
0.074963 0.346102 4.03503
0.102238 0.345524 4.00821
0.0505847 0.419281 4.04685
0.139109 0.330326 3.95435
0.12314 0.298234 3.96201
0.125053 0.327517 3.9574
0.0375576 0.426508 4.08569
0.0866144 0.341886 4.00254
0.0611854 0.340863 4.02384
0.0296275 0.337784 4.03939
0.0374809 0.199264 3.99475
0.038986 0.21573 4.00897
0.0373767 0.228243 4.01071
0.0341484 0.240897 4.00403
0.0302222 0.250361 3.99967
0.0877193 0.279533 3.97344
0.0940118 0.27645 3.977
0.103053 0.271018 3.98049
0.109094 0.265533 3.9762
0.121721 0.37178 4.00209
0.267107 0.44648 3.72888
0.104098 0.296778 3.96006
0.114519 0.298116 3.96228
0.0262619 0.402565 4.05886
0.0733086 0.415162 4.03091
0.0297571 0.407701 4.05797
0.0916745 0.49558 3.99161
0.135471 0.483347 3.9875
0.0831749 0.440067 4.03855
0.186334 0.720512 3.89183
0.170408 0.692078 3.93376
0.15327 0.662275 3.9699
0.114079 0.258194 3.96501
0.0465001 0.657666 4.00566
0.0541022 0.703555 3.97914
0.0636259 0.749885 3.95772
0.159934 0.545545 3.94376
0.220505 0.525679 3.911
0.0562157 0.555324 3.9551
0.191988 0.581545 3.92775
0.043559 0.520115 4.00481
0.0545137 0.44206 4.08424
0.248482 0.508979 3.88652
0.204252 0.512946 3.93614
0.173499 0.506178 3.95988
0.125424 0.507226 3.97069
0.0886741 0.514027 3.97449
0.0614892 0.523423 3.97917
0.0084601 0.550983 4.02678
0.252095 0.464005 3.89952
0.211841 0.586501 3.91503
-0.000952468 0.410459 4.11118
0.0647628 0.484602 4.0133
0.270388 0.552809 3.73252
0.0417454 0.535784 3.98122
0.0869229 0.441302 4.01214
0.18077 0.565266 3.92294
0.0561268 0.457685 4.07332
0.261712 0.386941 3.74738
0.0575308 0.562982 3.94682
0.0317687 0.46844 4.0966
0.196003 0.26252 3.88954
0.190802 0.227921 3.85892
0.273201 0.452351 3.81243
0.228081 0.295963 3.86652
0.24885 0.596193 3.82813
0.0920651 0.160025 3.96261
-0.00344924 0.40735 4.08015
0.0905517 0.469578 4.00671
0.241254 0.550304 3.87072
0.133782 0.555356 3.95113
0.111837 0.554006 3.95696
0.130379 0.29815 3.95954
0.254117 0.414388 3.89622
0.0420262 0.117638 3.96504
0.121047 0.164676 3.91399
0.153362 0.192361 3.88809
0.0921433 0.555073 3.95757
0.0738717 0.558692 3.95367
0.0626898 0.561256 3.94764
0.229635 0.591889 3.88959
0.0786669 0.570995 3.95416
0.0994961 0.57284 3.9582
0.118582 0.573284 3.95758
0.139276 0.571055 3.95218
0.154158 0.567423 3.94506
0.263723 0.606518 3.76294
0.149046 0.55754 3.94358
0.0935972 0.382537 4.02631
0.0548825 0.426219 4.05959
0.0333491 0.384955 4.05493
0.160857 0.226145 3.90801
0.127764 0.194572 3.93382
0.0439558 0.134478 3.9875
0.219607 0.266866 3.81958
0.0642871 0.566412 3.94947
0.0264797 0.512973 4.04039
0.0860322 0.138023 3.94381
0.269974 0.396734 3.82207
0.061924 0.262596 3.98764
0.0683256 0.256195 3.99077
0.0744644 0.246718 3.99471
0.0785091 0.236088 3.9912
0.0827693 0.223948 3.9804
0.116388 0.337651 3.97892
0.125608 0.341595 3.97777
0.133301 0.345915 3.97789
0.145624 0.357582 3.97499
0.223297 0.403347 3.94546
0.0251738 0.536737 4.01398
0.0383968 0.583303 3.96211
0.0528508 0.57883 3.95251
0.108505 0.340251 3.97876
0.224776 0.338924 3.90759
0.0176206 0.584103 3.99617
0.0866464 0.210029 3.97491
0.00769742 0.525025 4.05516
0.0475768 0.478008 4.04649
0.0396906 0.183421 3.99177
0.1473 0.285305 3.94465
0.108922 0.421911 4.00331
0.120983 0.24505 3.95751
0.166703 0.423659 3.99308
0.134966 0.398073 3.99312
0.189393 0.385997 3.96898
0.0432634 0.158667 3.9936
0.0664236 0.467005 4.03076
0.159337 0.260603 3.92912
0.126407 0.223558 3.94646
0.168572 0.325829 3.94851
0.248261 0.369632 3.88947
0.194201 0.3134 3.9297
0.255249 0.343581 3.83661
0.159198 0.372497 3.9757
0.0447101 0.498544 4.02562
0.0460974 0.430482 4.08972
0.0666775 0.428101 4.06413
0.0328144 0.444891 4.10732
0.0580496 0.606391 3.96662
0.0974974 0.620643 3.97015
0.131984 0.621821 3.97006
0.160901 0.615143 3.96093
0.181149 0.601813 3.9458
0.196818 0.559619 3.91277
0.270948 0.501803 3.81028
0.179291 0.531465 3.93689
0.153127 0.525971 3.95155
0.119705 0.525041 3.9617
0.0877557 0.529066 3.96567
0.0635405 0.53661 3.96496
0.0474809 0.544539 3.96627
0.268758 0.500684 3.72203
0.06796 0.42347 4.05229
0.0270987 0.491742 4.06547
0.0257856 0.427125 4.10962
0.012334 0.414602 4.1007
0.026371 0.423734 4.09757
0.0630203 0.41689 4.0443
0.00732653 0.411976 4.10753
0.00541926 0.409151 4.07943
0.047873 0.563626 3.95148
0.0349585 0.55808 3.967
0.027572 0.553851 3.98654
0.163629 0.564997 3.9373
0.17916 0.579275 3.93616
