ply
format ascii 1.0
comment Created by Open3D
element vertex 468
property double x
property double y
property double z
end_header
0.201548 0.349553 3.6558
0.197753 0.441782 3.71396
0.199858 0.411492 3.652
0.173523 0.518996 3.67838
0.196296 0.466687 3.72088
0.193071 0.497827 3.70773
0.194387 0.571826 3.64341
0.0198369 0.585324 3.53585
0.194852 0.620686 3.62756
0.194991 0.650643 3.63286
0.197627 0.779775 3.60293
0.201774 0.336633 3.65264
0.2015 0.326933 3.64448
0.201335 0.322644 3.63287
0.20346 0.319699 3.63222
0.203693 0.309507 3.63694
0.201608 0.296891 3.6414
0.20031 0.28248 3.63758
0.19897 0.258926 3.61378
0.195454 0.428191 3.70025
0.176247 0.425371 3.6646
-0.0861526 0.67936 3.41161
0.0896679 0.564392 3.56648
0.0639521 0.56237 3.56332
0.0390272 0.562106 3.55471
0.00519673 0.576274 3.52964
0.112829 0.569366 3.56536
0.0534372 0.626474 3.56902
0.0840278 0.62364 3.57004
0.0277427 0.623762 3.55897
0.0106794 0.615713 3.54656
-0.0136034 0.556387 3.51497
0.103634 0.211407 3.57127
0.00952307 0.592431 3.52645
-0.0906717 0.565124 3.40259
-0.0425528 0.570901 3.4881
0.0748299 0.454739 3.5835
0.171616 0.352448 3.65025
0.175189 0.325575 3.63889
0.138638 0.34298 3.63283
0.117392 0.33227 3.61405
0.149325 0.323285 3.62738
0.132739 0.320082 3.60928
0.085834 0.292326 3.56867
0.177115 0.441809 3.70842
0.172407 0.465806 3.71378
-0.0289527 0.631237 3.54149
0.121035 0.520201 3.59324
0.117056 0.443868 3.63877
0.114217 0.457474 3.62977
-0.00627102 0.455794 3.54726
0.171275 0.495044 3.70054
0.0402003 0.6538 3.58984
-7.36514e-06 0.648016 3.56874
-0.0559312 0.724692 3.46305
0.148764 0.627962 3.61927
0.110681 0.614872 3.5665
0.0670776 0.314231 3.56454
-0.0725715 0.315818 3.33574
0.139231 0.428761 3.63281
0.162317 0.419896 3.63602
0.0957961 0.314347 3.57464
0.104654 0.315724 3.5781
-0.0126153 0.663245 3.55546
0.116326 0.431924 3.6235
0.090296 0.647863 3.60734
0.085609 0.668116 3.61127
0.0540655 0.778544 3.5642
-0.0331151 0.694923 3.51468
0.0743026 0.72591 3.59177
-0.0438591 0.641232 3.51922
-0.0635709 0.658845 3.46803
0.172584 0.336703 3.64799
0.145411 0.330967 3.63253
0.125911 0.32577 3.61374
0.146898 0.423049 3.62867
0.101169 0.314669 3.57667
0.111517 0.31233 3.58877
0.105448 0.317272 3.57816
0.147297 0.439294 3.67161
0.134862 0.321695 3.60374
0.153602 0.321955 3.61762
0.176024 0.322471 3.62887
0.166673 0.257487 3.60624
0.168907 0.282734 3.63182
0.171732 0.29783 3.63627
0.1755 0.310919 3.63262
0.177208 0.319354 3.62806
0.133168 0.317938 3.6019
0.130058 0.314935 3.60374
0.124844 0.308302 3.60425
0.120343 0.299621 3.60072
0.0977965 0.361239 3.6005
-0.0907592 0.446334 3.30525
0.20139 0.420252 3.67105
0.119562 0.317212 3.58981
0.116594 0.315585 3.5903
0.169791 0.409046 3.64132
0.131603 0.414218 3.60727
0.165978 0.41418 3.6394
0.095566 0.506005 3.58338
0.056183 0.487866 3.57414
0.111821 0.445478 3.61561
-0.0103796 0.75867 3.51499
0.0128796 0.718167 3.55393
0.0325916 0.673419 3.58514
0.106239 0.277958 3.58327
0.141012 0.65956 3.6274
0.133145 0.724791 3.61179
0.121958 0.784565 3.59054
0.0170405 0.566523 3.54138
-0.0410758 0.536144 3.49763
0.127551 0.574763 3.56594
-0.0175624 0.603929 3.52683
0.138114 0.535572 3.60492
0.132075 0.454544 3.66551
-0.0724233 0.517943 3.46904
-0.0237866 0.519061 3.52299
0.0112991 0.510524 3.54794
0.0608332 0.516634 3.56609
0.095837 0.527992 3.57266
0.120588 0.539062 3.58048
0.17187 0.566216 3.63444
-0.0707005 0.463164 3.47712
-0.0403266 0.604309 3.51373
0.18254 0.428563 3.69822
0.123949 0.495162 3.60304
-0.0970961 0.565611 3.32467
0.141154 0.550736 3.58762
0.115664 0.44236 3.59144
-0.00147735 0.590799 3.52071
0.129147 0.470666 3.65373
-0.0868982 0.382664 3.3126
0.126709 0.582996 3.5611
0.148877 0.485791 3.68184
-0.0125682 0.25669 3.46728
-0.015069 0.225466 3.42529
-0.0908815 0.452982 3.3898
-0.0477224 0.291367 3.43305
-0.0777677 0.616316 3.42938
0.096709 0.183425 3.55807
0.192243 0.421022 3.66784
0.102797 0.47609 3.59015
-0.0658058 0.565328 3.46249
0.0464624 0.577524 3.55373
0.06738 0.576269 3.56214
0.105452 0.307541 3.58443
-0.0654319 0.409604 3.46614
0.144363 0.152691 3.5589
0.0636253 0.174896 3.50221
0.026935 0.194276 3.46872
0.197779 0.718567 3.62025
0.197377 0.154512 3.57058
0.087614 0.577948 3.56403
0.107569 0.581085 3.56346
0.120703 0.582121 3.56186
-0.0586063 0.608318 3.48697
0.102509 0.60138 3.56403
0.0792742 0.60965 3.56299
0.0569721 0.611534 3.55975
0.0350624 0.608048 3.55178
0.0225305 0.601797 3.54302
-0.0953458 0.628802 3.36219
0.0313923 0.580799 3.54459
0.20153 0.391066 3.64803
0.118782 0.377489 3.61372
0.139052 0.433363 3.64129
0.167771 0.386905 3.6423
0.194182 0.597466 3.62463
0.0255399 0.225203 3.49537
0.0599295 0.202136 3.52398
0.141463 0.172558 3.58707
-0.0478006 0.263171 3.37833
0.118301 0.58998 3.56431
0.156263 0.528349 3.63956
0.195653 0.174205 3.59891
0.10076 0.160795 3.5371
-0.0863801 0.394385 3.38959
0.154029 0.318973 3.61679
0.150138 0.312601 3.61983
0.145477 0.302755 3.62187
0.142151 0.289208 3.61882
0.131565 0.265846 3.59817
0.11472 0.318121 3.5929
0.108209 0.320367 3.59422
0.100723 0.32419 3.59347
0.0780044 0.339616 3.58445
-0.0288157 0.397811 3.51644
0.156677 0.552164 3.61842
0.150645 0.596259 3.57605
0.130984 0.596694 3.56821
0.118764 0.320854 3.58969
-0.0321708 0.331998 3.4804
0.166485 0.595274 3.60712
0.116854 0.238915 3.58111
0.193589 0.522842 3.6849
0.172565 0.541412 3.6571
0.194638 0.546347 3.66373
0.138705 0.490466 3.63445
0.195062 0.201651 3.61283
0.19694 0.232717 3.61245
0.156546 0.230227 3.60108
0.0599931 0.27891 3.54909
0.0948014 0.420827 3.58518
0.0852126 0.254646 3.56235
0.03515 0.422827 3.56886
0.0721974 0.394043 3.58159
0.0113413 0.37909 3.5461
0.145146 0.199689 3.6006
0.123455 0.476352 3.61406
0.0361372 0.256564 3.52375
0.0710943 0.230755 3.54298
0.0385784 0.309918 3.54796
-0.0582882 0.363556 3.45567
0.00244299 0.303787 3.51509
-0.0749407 0.340322 3.39996
0.0506414 0.358334 3.56939
0.140208 0.51219 3.62053
0.138834 0.443514 3.67335
0.126141 0.43539 3.64152
0.150476 0.461344 3.69309
0.130602 0.61564 3.5835
0.088784 0.630047 3.58405
0.0509761 0.635477 3.57863
0.0181462 0.633351 3.56634
-0.00611971 0.623218 3.54881
-0.0195638 0.580634 3.50857
-0.094321 0.509997 3.39584
0.0011933 0.546306 3.52899
0.0278961 0.539307 3.54728
0.0616989 0.541166 3.56099
0.0939774 0.547436 3.56609
0.118933 0.554756 3.56905
0.136843 0.56107 3.57268
-0.0934239 0.506113 3.3084
0.127667 0.427835 3.62935
0.155833 0.507306 3.65919
0.158496 0.443473 3.69445
0.170708 0.430397 3.68414
0.157847 0.438433 3.68239
0.136837 0.419068 3.6211
0.175437 0.429352 3.6918
0.183192 0.421782 3.66564
0.138383 0.580775 3.56392
0.150842 0.573131 3.57668
0.15658 0.568461 3.59434
0.0154112 0.596782 3.53539
-0.00116919 0.605226 3.53183
0.216453 0.518196 3.67593
0.363242 0.574186 3.5376
0.220834 0.42786 3.67054
0.444848 0.643238 3.41825
0.292319 0.556215 3.55629
0.314568 0.553177 3.5554
0.336763 0.552468 3.55061
0.366249 0.564752 3.53021
0.274941 0.562954 3.55922
0.325213 0.609384 3.56819
0.298778 0.608909 3.57037
0.348294 0.605339 3.56194
0.362568 0.597607 3.5526
0.381645 0.545443 3.52074
0.278644 0.226383 3.58257
0.371453 0.579456 3.53017
0.448346 0.545816 3.4048
0.403458 0.55711 3.49446
0.309083 0.454674 3.59547
0.228687 0.354152 3.65241
0.22406 0.327285 3.63933
0.257225 0.348036 3.63687
0.277194 0.337411 3.61703
0.244837 0.326924 3.6269
0.263802 0.324004 3.61083
0.30387 0.301369 3.58041
0.214832 0.44279 3.71306
0.216178 0.466115 3.71909
0.387932 0.609312 3.54692
0.265239 0.517401 3.59536
0.269506 0.446871 3.6513
0.269773 0.459332 3.64144
0.372758 0.454573 3.559
0.21618 0.494565 3.70016
0.332846 0.633113 3.59769
0.365137 0.6256 3.57638
0.418544 0.687137 3.4683
0.24014 0.620702 3.61887
0.280673 0.602989 3.56408
0.324635 0.322161 3.57305
0.436581 0.330536 3.34733
0.256797 0.432616 3.64455
0.235065 0.42347 3.65163
0.306083 0.318915 3.57506
0.291598 0.320643 3.58088
0.376559 0.638244 3.56327
0.269478 0.435477 3.63879
0.291842 0.632784 3.61295
0.294835 0.651746 3.61817
0.324843 0.752627 3.56636
0.39492 0.6643 3.52121
0.309435 0.705246 3.59409
0.402838 0.616891 3.52521
0.423115 0.628893 3.47578
0.226569 0.338632 3.64839
0.251439 0.335233 3.63302
0.270144 0.330577 3.61648
0.249953 0.427276 3.64292
0.298452 0.319386 3.57911
0.283966 0.31752 3.5956
0.287201 0.32226 3.58065
0.243426 0.442666 3.67418
0.257762 0.32468 3.60419
0.240787 0.324337 3.61616
0.221776 0.323312 3.62671
0.226078 0.261828 3.6139
0.226675 0.285868 3.63603
0.227024 0.30048 3.6381
0.227924 0.312609 3.63231
0.225938 0.320616 3.6272
0.261651 0.321849 3.6057
0.263005 0.319466 3.61105
0.266277 0.313863 3.61451
0.272224 0.30572 3.6101
0.295283 0.366272 3.61142
0.465027 0.441248 3.31021
0.275365 0.32113 3.59068
0.278982 0.320165 3.5949
0.228991 0.411533 3.64867
0.26417 0.418591 3.62667
0.231607 0.417236 3.65133
0.287674 0.502661 3.58545
0.322018 0.484457 3.58034
0.27397 0.447925 3.62899
0.37783 0.724355 3.52081
0.35776 0.69043 3.55967
0.341384 0.650848 3.59204
0.282349 0.286931 3.59112
0.245809 0.649526 3.62979
0.25757 0.713568 3.61395
0.265288 0.770319 3.59631
0.355127 0.556316 3.54055
0.402182 0.526152 3.50597
0.267836 0.56882 3.55719
0.383358 0.587062 3.53066
0.250334 0.532764 3.60401
0.25476 0.456607 3.67472
0.427586 0.507912 3.47586
0.389534 0.510992 3.52912
0.36069 0.504176 3.55388
0.319636 0.510857 3.56585
0.289114 0.523066 3.57111
0.266434 0.535198 3.57974
0.218384 0.564617 3.63316
0.429775 0.460148 3.48583
0.397924 0.586252 3.51729
0.207321 0.429327 3.69856
0.265936 0.493625 3.60661
0.467025 0.542342 3.3258
0.252055 0.547337 3.58487
0.279572 0.444907 3.60718
0.37657 0.576724 3.52349
0.25366 0.471751 3.66311
0.455742 0.387591 3.32336
0.270887 0.5769 3.54973
0.234724 0.485702 3.68516
0.377875 0.279103 3.48375
0.378862 0.250832 3.43859
0.457675 0.448983 3.39874
0.407636 0.310535 3.44998
0.439371 0.590378 3.43421
0.284997 0.201211 3.56798
0.210886 0.421492 3.67062
0.282796 0.475281 3.59814
0.421618 0.550133 3.46646
0.339613 0.567022 3.55013
0.31838 0.565937 3.5537
0.290351 0.313077 3.59109
0.425949 0.41359 3.48158
0.247058 0.163479 3.56399
0.317194 0.198141 3.51044
0.345315 0.220055 3.47841
0.298311 0.568601 3.55473
0.283267 0.573279 3.55219
0.275572 0.575251 3.54909
0.413655 0.587529 3.49144
0.284944 0.592426 3.55383
0.300234 0.598369 3.55782
0.321876 0.599915 3.55842
0.343292 0.595905 3.55476
0.356072 0.589072 3.54793
0.462017 0.597386 3.3681
0.35424 0.570214 3.54346
0.274372 0.382068 3.6258
0.255018 0.437477 3.6557
0.231724 0.389338 3.64755
0.346563 0.249405 3.51208
0.316116 0.22528 3.5391
0.244039 0.182746 3.59328
0.409579 0.284509 3.38952
0.275958 0.583273 3.55131
0.234373 0.526887 3.64048
0.285659 0.178837 3.54158
0.44899 0.399355 3.40457
0.245826 0.321639 3.61757
0.24767 0.316072 3.62276
0.249723 0.307016 3.62618
0.252902 0.294219 3.62352
0.256816 0.27304 3.60358
0.279778 0.322292 3.59457
0.288139 0.324524 3.59472
0.2946 0.328754 3.59472
0.314827 0.345504 3.59187
0.389775 0.403087 3.53434
0.234761 0.54977 3.61726
0.248892 0.591041 3.57359
0.26513 0.589193 3.55955
0.274157 0.32462 3.59007
0.395978 0.345355 3.49875
0.225263 0.591987 3.60633
0.266026 0.250867 3.59155
0.215746 0.540546 3.65845
0.249577 0.490317 3.6412
0.232084 0.236869 3.60841
0.321628 0.293256 3.56632
0.29623 0.42378 3.60239
0.294599 0.269414 3.57743
0.340548 0.425239 3.58702
0.316151 0.397767 3.59697
0.35995 0.385778 3.56596
0.240207 0.207901 3.6057
0.263337 0.476594 3.62319
0.339665 0.276274 3.54215
0.308526 0.250187 3.55981
0.342964 0.321184 3.56091
0.419031 0.373426 3.47495
0.365389 0.319612 3.5343
0.435137 0.353166 3.41562
0.332802 0.364434 3.58413
0.250675 0.510626 3.62178
0.247878 0.447023 3.67948
0.262241 0.43916 3.65678
0.237685 0.462753 3.69786
0.265257 0.607171 3.57886
0.297149 0.616653 3.58496
0.32823 0.617444 3.58292
0.355733 0.612766 3.57136
0.37328 0.603053 3.55447
0.386642 0.567082 3.51303
0.456794 0.497699 3.39835
0.370595 0.536646 3.53359
0.346841 0.531034 3.54959
0.317045 0.533682 3.5584
0.289973 0.54103 3.56125
0.269268 0.549818 3.56696
0.257047 0.557083 3.56968
0.466711 0.491702 3.30837
0.262009 0.432013 3.64539
0.235423 0.506383 3.6594
0.231642 0.446475 3.70065
0.216893 0.433489 3.69031
0.231884 0.442084 3.68824
0.255567 0.423273 3.63919
0.212833 0.4311 3.69668
0.216602 0.423643 3.6712
0.261845 0.575407 3.55731
0.245399 0.569392 3.57424
0.236757 0.565508 3.59386
0.36403 0.583837 3.54052
0.372903 0.588979 3.53845
