ply
format ascii 1.0
comment Created by Open3D
element vertex 468
property double x
property double y
property double z
end_header
0.0650739 0.338799 3.78999
0.0744701 0.422622 3.86555
0.0716984 0.393625 3.79861
0.0487992 0.509757 3.82032
0.0739252 0.451418 3.87253
0.0713878 0.486714 3.8577
0.0709741 0.567088 3.77555
-0.121069 0.565583 3.65721
0.0708804 0.620375 3.74861
0.0707088 0.65353 3.74877
0.0718642 0.781941 3.70626
0.0635118 0.326537 3.7868
0.0612527 0.31847 3.78035
0.0598242 0.317197 3.77011
0.0698277 0.219256 3.73794
0.0693431 0.207846 3.7437
0.0671949 0.195309 3.75025
0.0673177 0.180638 3.74505
0.0679467 0.162688 3.72554
0.0723301 0.406526 3.85237
0.044483 0.406951 3.81281
-0.220825 0.652078 3.52289
-0.0450444 0.546449 3.68907
-0.0723698 0.544145 3.68681
-0.0989686 0.544289 3.67918
-0.135989 0.555727 3.65365
-0.0214969 0.5529 3.68671
-0.0830086 0.612785 3.69158
-0.0513331 0.611261 3.69036
-0.111554 0.607776 3.68241
-0.130423 0.597485 3.67012
-0.155515 0.537632 3.64067
-0.0390208 0.142709 3.68781
-0.131619 0.570647 3.6474
-0.231234 0.537881 3.52017
-0.183532 0.54953 3.61129
-0.0768317 0.442545 3.72172
0.0183351 0.342878 3.78206
0.0182219 0.318818 3.7711
-0.0304492 0.335931 3.75857
-0.0589588 0.326807 3.7262
-0.0170871 0.317276 3.75263
-0.0410178 0.31463 3.72351
-0.0853256 0.261298 3.66827
0.0505355 0.422801 3.86068
0.0463621 0.450706 3.86647
-0.168228 0.613798 3.66269
-0.0139931 0.506794 3.72559
-0.0250528 0.431595 3.78687
-0.0269974 0.445988 3.77669
-0.160899 0.444535 3.68473
0.0472468 0.4833 3.84914
-0.097822 0.644766 3.70801
-0.138863 0.634444 3.68811
-0.190893 0.70259 3.57003
0.0186925 0.625697 3.73767
-0.0240927 0.602527 3.68409
-0.107664 0.302598 3.66687
-0.21088 0.273278 3.47918
-0.00283185 0.415939 3.77797
0.0214163 0.406179 3.78326
-0.0911768 0.300516 3.66515
-0.0782729 0.298434 3.67089
-0.152458 0.649675 3.67225
-0.0288694 0.420993 3.77115
-0.0453315 0.643715 3.72491
-0.0502048 0.664906 3.72792
-0.0785989 0.770703 3.66793
-0.170405 0.677186 3.62539
-0.0600102 0.721466 3.69869
-0.182923 0.62349 3.63772
-0.200529 0.63631 3.5805
0.0172311 0.328135 3.77875
-0.023075 0.324177 3.75586
-0.0502234 0.320508 3.7262
0.00353528 0.410986 3.77283
-0.0852518 0.299544 3.66787
-0.0674583 0.269012 3.67882
-0.0733677 0.29795 3.6723
0.0143978 0.421837 3.81943
-0.0375036 0.317502 3.72017
-0.0120592 0.318623 3.74395
0.0196917 0.318094 3.76201
0.0184485 0.166417 3.71721
0.0177052 0.186139 3.73672
0.0205087 0.200022 3.7406
0.0254172 0.213047 3.73494
0.0290149 0.22303 3.73035
-0.0318845 0.250692 3.69691
-0.0378176 0.248167 3.69843
-0.0468362 0.242719 3.69947
-0.0524537 0.236249 3.69449
-0.0697622 0.350639 3.71977
-0.231026 0.411387 3.43161
0.0749762 0.399971 3.8189
-0.0501308 0.267733 3.68151
-0.0592678 0.269011 3.68084
0.0303109 0.393927 3.78659
-0.0194569 0.405326 3.75043
0.0260332 0.399702 3.78608
-0.0445918 0.492883 3.71706
-0.0920274 0.47669 3.70953
-0.0335366 0.434405 3.76072
-0.1453 0.743397 3.62002
-0.124421 0.706599 3.66278
-0.10573 0.664801 3.70011
-0.0592965 0.22413 3.68286
0.0102028 0.660281 3.74302
0.00239828 0.72478 3.71867
-0.00879771 0.782202 3.69521
-0.122523 0.547731 3.66635
-0.184417 0.518762 3.6253
-0.00596884 0.55954 3.68453
-0.156902 0.583175 3.64758
0.00665471 0.523157 3.73625
-0.00357242 0.440222 3.81494
-0.215404 0.497217 3.59787
-0.167507 0.50576 3.65261
-0.133449 0.499997 3.67853
-0.0812545 0.503607 3.69484
-0.0416899 0.512996 3.70075
-0.012993 0.52465 3.70836
0.0460156 0.559561 3.76479
-0.218786 0.444796 3.60974
-0.178237 0.58369 3.63468
0.0569735 0.40736 3.84987
-0.014095 0.482854 3.7399
-0.236113 0.5342 3.44049
0.0095538 0.538711 3.71294
-0.0338358 0.43274 3.73098
-0.143031 0.568843 3.64183
-0.00578135 0.4579 3.80242
-0.227661 0.345171 3.44798
-0.00631114 0.567892 3.67648
0.0201584 0.472836 3.83121
-0.154631 0.214229 3.59619
-0.152763 0.173542 3.56474
-0.23799 0.424692 3.51758
-0.190957 0.25113 3.57094
-0.216032 0.591302 3.54334
-0.0411652 0.111472 3.68056
0.0635433 0.401056 3.81583
-0.0417503 0.464478 3.72863
-0.206555 0.541856 3.58461
-0.0928659 0.560257 3.67525
-0.0697935 0.559056 3.68316
-0.0746903 0.268038 3.67537
-0.219203 0.387361 3.60319
0.00971273 0.0694579 3.6865
-0.0743067 0.108879 3.62924
-0.110453 0.135867 3.59926
0.0717859 0.721489 3.72786
0.0679531 0.0673575 3.69633
-0.0479337 0.560789 3.68461
-0.0266727 0.564326 3.6822
-0.012537 0.566202 3.67758
-0.196696 0.586947 3.60706
-0.0317239 0.582695 3.68164
-0.0561719 0.588506 3.68428
-0.0785178 0.589679 3.68269
-0.10162 0.585806 3.67601
-0.116234 0.579464 3.66625
-0.23269 0.599685 3.47518
-0.109121 0.562582 3.66587
0.0695022 0.374807 3.78927
-0.0410668 0.366341 3.7459
-0.00180269 0.419493 3.78743
0.0217625 0.372803 3.781
0.0706808 0.593771 3.75156
-0.115097 0.175579 3.61801
-0.0796491 0.143477 3.64683
0.00786375 0.0904839 3.71053
-0.184679 0.215054 3.52454
-0.0145307 0.573788 3.67942
0.0270063 0.518371 3.77492
0.0676896 0.0875193 3.71941
-0.0363054 0.0851221 3.66261
-0.234963 0.362112 3.52475
-0.00402142 0.234425 3.71538
-0.0100091 0.227715 3.71729
-0.01704 0.217866 3.71949
-0.0209949 0.205848 3.71509
-0.0278363 0.19008 3.70187
-0.0657509 0.310023 3.69545
-0.0736863 0.313405 3.69393
-0.0810508 0.31782 3.69329
-0.0943295 0.330549 3.69095
-0.186904 0.378828 3.65495
0.0277862 0.542784 3.74882
0.017821 0.587322 3.69289
-0.00101899 0.583852 3.68342
-0.0590241 0.313174 3.69458
-0.186391 0.302749 3.61374
0.0383602 0.58952 3.73078
-0.0337543 0.170811 3.69286
0.0712132 0.514328 3.82882
0.0472647 0.533498 3.79333
0.0716363 0.53976 3.80019
0.0041784 0.478583 3.77617
0.0682215 0.11503 3.72765
0.0682869 0.143408 3.72501
0.015308 0.146544 3.71341
-0.0973035 0.247521 3.658
-0.0584557 0.409784 3.72189
-0.0691617 0.205816 3.67216
-0.123822 0.408151 3.70631
-0.0866935 0.38042 3.70991
-0.147864 0.361977 3.67903
0.0098862 0.118219 3.71751
-0.0157609 0.464479 3.75623
-0.111762 0.216901 3.64058
-0.07563 0.178447 3.65952
-0.121993 0.291449 3.66149
-0.21219 0.335949 3.59346
-0.15147 0.275377 3.63892
-0.220031 0.303168 3.54007
-0.113617 0.347469 3.69048
0.00730477 0.500432 3.75635
0.00507529 0.427077 3.82271
-0.0159816 0.422231 3.79019
0.0206348 0.446009 3.84421
-0.00220252 0.60773 3.69763
-0.0462932 0.621856 3.6996
-0.0869041 0.624382 3.69712
-0.121394 0.618521 3.68594
-0.14584 0.604996 3.66875
-0.160006 0.558863 3.63082
-0.237275 0.482122 3.51849
-0.140879 0.529359 3.65583
-0.112684 0.524184 3.67381
-0.0768821 0.524936 3.68689
-0.0420784 0.53061 3.69112
-0.0152761 0.539083 3.69338
0.00379994 0.547701 3.69543
-0.232989 0.473235 3.42847
-0.0167867 0.416166 3.77676
0.0269974 0.496508 3.80028
0.0285638 0.425282 3.84559
0.0412606 0.410545 3.83578
0.0267204 0.419882 3.83245
-0.0102769 0.408433 3.76708
0.0474582 0.408544 3.844
0.0526412 0.402708 3.81399
0.00482429 0.567589 3.68109
0.0184622 0.562171 3.6976
0.025758 0.558975 3.71956
-0.12496 0.574573 3.65801
-0.142607 0.584543 3.65462
0.0933949 0.509901 3.81898
0.242606 0.56546 3.66041
0.0997958 0.407417 3.81839
0.323164 0.641682 3.52243
0.169816 0.544815 3.68454
0.193323 0.543109 3.68411
0.217051 0.543783 3.67892
0.249922 0.555348 3.65667
0.150844 0.550986 3.68469
0.203883 0.608072 3.69153
0.176988 0.606669 3.69127
0.229507 0.603435 3.68542
0.246061 0.593582 3.67605
0.267705 0.536714 3.64685
0.165649 0.154944 3.69846
0.251906 0.56992 3.65145
0.331888 0.53541 3.52474
0.290607 0.547836 3.61808
0.196279 0.443526 3.73356
0.106316 0.343511 3.78924
0.0976577 0.319501 3.77677
0.146493 0.338313 3.77217
0.172011 0.328866 3.74131
0.128295 0.318896 3.7608
0.152773 0.315591 3.73445
0.202241 0.265534 3.68545
0.095556 0.423076 3.8651
0.0966308 0.451121 3.87049
0.273926 0.609725 3.66741
0.144452 0.506667 3.72777
0.157289 0.432965 3.79937
0.157143 0.447213 3.78849
0.265824 0.446225 3.69741
0.0952096 0.483646 3.84931
0.217308 0.638059 3.71433
0.250761 0.628827 3.69415
0.298488 0.689467 3.57008
0.117422 0.62235 3.73854
0.156452 0.599018 3.68363
0.220777 0.30612 3.68263
0.309523 0.289683 3.48368
0.141728 0.41697 3.78988
0.118412 0.40658 3.79704
0.207621 0.301229 3.68231
0.191891 0.298609 3.68744
0.262526 0.642534 3.67803
0.159066 0.422076 3.78643
0.173281 0.637566 3.73019
0.176885 0.657958 3.73416
0.205234 0.759349 3.67034
0.278584 0.667325 3.62956
0.189743 0.712534 3.70243
0.287684 0.618056 3.64226
0.305564 0.628564 3.5843
0.102627 0.328848 3.78488
0.137257 0.326499 3.76656
0.162589 0.322238 3.74022
0.135405 0.412074 3.78746
0.200529 0.299916 3.68604
0.186079 0.270355 3.69757
0.184893 0.298344 3.68707
0.125122 0.423041 3.82385
0.145399 0.317693 3.73031
0.122129 0.3194 3.7506
0.0933717 0.318312 3.76532
0.111846 0.169206 3.72704
0.111129 0.188067 3.74434
0.109964 0.201788 3.74609
0.109161 0.214537 3.73885
0.10569 0.224297 3.73319
0.154943 0.252471 3.70779
0.159711 0.249947 3.71325
0.166799 0.244913 3.71732
0.173436 0.239112 3.71336
0.189256 0.353109 3.73646
0.339013 0.417321 3.43423
0.16989 0.268814 3.69213
0.178741 0.270054 3.69678
0.109806 0.394634 3.79501
0.153375 0.40633 3.76959
0.113967 0.400143 3.79748
0.170549 0.492877 3.72085
0.209011 0.476726 3.71716
0.162734 0.435653 3.77497
0.260309 0.729438 3.62305
0.241596 0.696026 3.66859
0.225531 0.657041 3.70609
0.180464 0.230007 3.69758
0.124375 0.654857 3.74624
0.135314 0.719644 3.7221
0.144405 0.775498 3.70013
0.237616 0.547533 3.66791
0.29107 0.517957 3.63393
0.140527 0.557936 3.68051
0.268462 0.580998 3.65283
0.126412 0.523109 3.73571
0.139632 0.441241 3.82396
0.316319 0.497635 3.60593
0.276355 0.505181 3.65957
0.247301 0.499326 3.68467
0.202651 0.503014 3.69735
0.169357 0.512565 3.70136
0.143679 0.52423 3.70843
0.0945411 0.559083 3.76418
0.320463 0.448187 3.62035
0.283947 0.580789 3.63928
0.0854266 0.407487 3.85115
0.146529 0.483382 3.7445
0.343031 0.530869 3.43866
0.126599 0.538079 3.71153
0.168456 0.434039 3.74715
0.259728 0.56776 3.64639
0.138477 0.458952 3.81123
0.330784 0.356428 3.45455
0.142381 0.566636 3.67108
0.115757 0.473672 3.83468
0.259743 0.234006 3.60771
0.253553 0.196636 3.57242
0.343527 0.430296 3.5281
0.288554 0.269064 3.58201
0.321632 0.585398 3.54634
0.167508 0.126705 3.68931
0.0866903 0.400938 3.81829
0.16827 0.465254 3.73786
0.308971 0.540611 3.59029
0.217266 0.559344 3.67466
0.195259 0.557479 3.67966
0.19272 0.269765 3.69449
0.319023 0.394888 3.61831
0.123421 0.0790497 3.69036
0.196879 0.129383 3.63568
0.223375 0.159448 3.60621
0.174473 0.558518 3.68085
0.157138 0.562165 3.67693
0.147615 0.564407 3.67163
0.299564 0.583002 3.61107
0.159253 0.5815 3.67711
0.176982 0.587024 3.68238
0.19812 0.588598 3.68222
0.220384 0.584802 3.67724
0.234883 0.578429 3.6696
0.339091 0.592114 3.47487
0.232306 0.562218 3.66717
0.165375 0.368696 3.76187
0.141023 0.420369 3.80078
0.111022 0.374146 3.78844
0.23011 0.19581 3.63017
0.19944 0.16275 3.65788
0.122661 0.0992069 3.71491
0.281396 0.235505 3.52844
0.147931 0.572963 3.67312
0.111439 0.518435 3.77606
0.164968 0.101311 3.66756
0.335698 0.372546 3.53862
0.133413 0.236129 3.72213
0.138767 0.229663 3.72673
0.14371 0.220394 3.7307
0.148426 0.208647 3.72761
0.152972 0.195295 3.71362
0.17567 0.310628 3.70993
0.185714 0.314345 3.7091
0.193098 0.318986 3.70977
0.210472 0.333031 3.70628
0.285621 0.385292 3.6716
0.110218 0.542413 3.74782
0.123732 0.585673 3.69279
0.1384 0.582263 3.67901
0.166864 0.313317 3.7064
0.28641 0.314966 3.6299
0.101907 0.588338 3.73088
0.157703 0.179986 3.70491
0.0935702 0.533376 3.79401
0.13065 0.479419 3.78238
0.116016 0.151472 3.7222
0.214061 0.256689 3.67265
0.185039 0.411423 3.73748
0.18813 0.215835 3.68708
0.23266 0.411129 3.7228
0.204771 0.383078 3.72501
0.253315 0.367755 3.69548
0.121237 0.125162 3.7226
0.147502 0.465359 3.76523
0.227649 0.231943 3.65437
0.19645 0.193365 3.67299
0.233787 0.298901 3.67331
0.310261 0.347029 3.61019
0.257009 0.28778 3.65446
0.317701 0.31801 3.55088
0.223888 0.350979 3.70434
0.128384 0.500878 3.75845
0.132049 0.428242 3.82982
0.149971 0.423584 3.80441
0.11963 0.447025 3.8487
0.140269 0.605294 3.69659
0.176306 0.617532 3.70268
0.21028 0.619016 3.70182
0.239456 0.613395 3.69175
0.258812 0.601144 3.67552
0.271836 0.557667 3.63655
0.340629 0.483553 3.52328
0.25548 0.528967 3.66043
0.230063 0.523688 3.67731
0.198342 0.524056 3.68756
0.168724 0.529536 3.68984
0.1459 0.538084 3.69321
0.131289 0.546714 3.69429
0.341251 0.473919 3.4259
0.150033 0.417443 3.7919
0.113296 0.497107 3.80139
0.113512 0.426349 3.85159
0.0975958 0.411528 3.84162
0.113552 0.421009 3.83842
0.144228 0.409491 3.7843
0.0928977 0.40912 3.84883
0.0944239 0.403083 3.81867
0.133561 0.56615 3.67827
0.119645 0.560853 3.69727
0.112082 0.557997 3.71972
0.244023 0.573684 3.66191
0.257391 0.582069 3.66155
