ply
format ascii 1.0
comment Created by Open3D
element vertex 468
property double x
property double y
property double z
end_header
-0.00973495 0.3452 4.02577
-0.0109826 0.421874 4.08865
-0.0107441 0.398276 4.02718
-0.0318281 0.496967 4.04958
-0.0110085 0.445749 4.09576
-0.0106192 0.475909 4.08411
-0.0111655 0.546679 4.01035
-0.17859 0.550987 3.90914
-0.0114444 0.597343 3.98818
-0.0112851 0.625625 3.98981
-0.0110798 0.720679 3.95396
-0.00950664 0.333023 4.02287
-0.00923942 0.324195 4.01581
-0.00911351 0.321254 4.00554
-0.0088958 0.275135 3.99019
-0.00883234 0.263172 3.9949
-0.00827693 0.249416 4.00067
-0.00843781 0.234627 3.9964
-0.00919445 0.215356 3.9747
-0.010371 0.409282 4.0762
-0.0342524 0.411319 4.04307
-0.251717 0.619393 3.78585
-0.110595 0.532849 3.9336
-0.133336 0.531231 3.93257
-0.155667 0.531472 3.92641
-0.187119 0.542096 3.90622
-0.091573 0.537992 3.93154
-0.142523 0.586227 3.94111
-0.11747 0.584765 3.94022
-0.166457 0.583074 3.93427
-0.182287 0.575193 3.92442
-0.204668 0.526454 3.89516
-0.106976 0.197354 3.94517
-0.187406 0.555255 3.90088
-0.266504 0.530062 3.78458
-0.228991 0.539293 3.86949
-0.13489 0.440864 3.96813
-0.0465895 0.349417 4.02279
-0.041736 0.324809 4.01145
-0.0834277 0.343217 4.00644
-0.105717 0.334133 3.98139
-0.0679749 0.324182 3.99805
-0.0878996 0.321914 3.97552
-0.134301 0.287309 3.93569
-0.0315712 0.422596 4.08671
-0.0346749 0.4453 4.09324
-0.215731 0.597562 3.91632
-0.0834484 0.496239 3.96677
-0.0922707 0.429329 4.02561
-0.0939254 0.441501 4.01701
-0.202688 0.444203 3.93521
-0.0333706 0.473476 4.07609
-0.162996 0.622974 3.95768
-0.194748 0.614788 3.93901
-0.230701 0.658022 3.83122
-0.06113 0.603408 3.97978
-0.0960688 0.577731 3.93313
-0.152229 0.31827 3.93204
-0.248038 0.320792 3.7353
-0.0740091 0.416547 4.01662
-0.0529846 0.408645 4.02082
-0.132558 0.314121 3.93164
-0.11832 0.313912 3.93756
-0.206637 0.628143 3.92608
-0.0939639 0.419143 4.01265
-0.119269 0.620524 3.97225
-0.123406 0.637637 3.97674
-0.141758 0.709268 3.9223
-0.218063 0.643303 3.8842
-0.130574 0.675086 3.94979
-0.228065 0.605448 3.8942
-0.239495 0.611072 3.84176
-0.044817 0.334946 4.01921
-0.0752244 0.331764 4.00253
-0.0970914 0.327764 3.9806
-0.0681332 0.412202 4.01213
-0.125926 0.31374 3.93491
-0.113573 0.296478 3.9483
-0.113421 0.314692 3.93832
-0.0586231 0.423485 4.0497
-0.0817761 0.323435 3.97214
-0.0622834 0.32356 3.98881
-0.0382333 0.3224 4.00125
-0.0494228 0.219583 3.97334
-0.0477306 0.239663 3.99355
-0.0454695 0.253917 3.99631
-0.0429417 0.26815 3.98997
-0.0399176 0.277887 3.98548
-0.0855063 0.291371 3.96033
-0.090613 0.287605 3.96473
-0.0977625 0.281158 3.96809
-0.103913 0.273836 3.96325
-0.122713 0.359285 3.97467
-0.268999 0.432277 3.69296
-0.0112007 0.404885 4.0442
-0.0984448 0.299271 3.94514
-0.106241 0.298766 3.94837
-0.0446888 0.398299 4.02147
-0.0865841 0.405209 3.9954
-0.0486092 0.403227 4.0219
-0.109307 0.484044 3.95934
-0.148004 0.46998 3.95373
-0.0990511 0.431145 4.00341
-0.196325 0.688978 3.88022
-0.184159 0.666159 3.91959
-0.171116 0.639301 3.95172
-0.113667 0.261722 3.94768
-0.0684015 0.631594 3.98766
-0.0748472 0.675371 3.96716
-0.0817216 0.718319 3.94796
-0.175467 0.534996 3.91611
-0.228651 0.510365 3.88265
-0.079904 0.543944 3.92791
-0.206165 0.56776 3.90281
-0.0658417 0.510501 3.97528
-0.0752595 0.437623 4.04935
-0.252229 0.493907 3.85658
-0.213886 0.497209 3.90572
-0.185361 0.490343 3.92833
-0.141537 0.493704 3.93974
-0.108421 0.502327 3.94428
-0.0830812 0.51234 3.95083
-0.0340723 0.540574 4.00038
-0.252849 0.449796 3.86619
-0.222936 0.569874 3.89095
-0.0230211 0.410372 4.07488
-0.0839653 0.475083 3.98024
-0.270724 0.528466 3.70358
-0.0650649 0.524373 3.95361
-0.102273 0.430077 3.97714
-0.195289 0.553957 3.89634
-0.076381 0.452164 4.03894
-0.263955 0.378936 3.70809
-0.0806094 0.55198 3.92016
-0.054762 0.465004 4.06205
-0.203767 0.26575 3.85737
-0.200225 0.236771 3.82002
-0.272799 0.439897 3.77985
-0.230397 0.29835 3.83021
-0.252884 0.573373 3.80597
-0.111237 0.171932 3.93422
-0.0212296 0.405963 4.04294
-0.10642 0.459003 3.97254
-0.246976 0.533605 3.84489
-0.154491 0.545899 3.92316
-0.134103 0.544427 3.92893
-0.120664 0.294061 3.94472
-0.251158 0.404405 3.86141
-0.0659833 0.132465 3.93171
-0.140105 0.175893 3.88123
-0.16861 0.202356 3.85349
-0.0112728 0.67408 3.97257
-0.0104313 0.124036 3.93816
-0.114966 0.54522 3.92988
-0.0971203 0.548022 3.92621
-0.0861095 0.55011 3.92075
-0.23772 0.572522 3.86541
-0.0997751 0.562816 3.92862
-0.119026 0.566546 3.93351
-0.138863 0.56765 3.9326
-0.15925 0.565127 3.92698
-0.172685 0.560672 3.91948
-0.264674 0.579127 3.73882
-0.168594 0.548258 3.91592
-0.0104271 0.381162 4.02072
-0.0997106 0.372626 3.99316
-0.0738971 0.420086 4.02542
-0.0486881 0.379297 4.01834
-0.0111867 0.572025 3.98942
-0.174305 0.231545 3.87967
-0.1442 0.2024 3.90535
-0.066332 0.14969 3.9586
-0.2251 0.272997 3.77727
-0.0866704 0.556751 3.92335
-0.0505696 0.505513 4.01074
-0.0100935 0.140953 3.96389
-0.107299 0.151177 3.91104
-0.267087 0.389844 3.78681
-0.0650637 0.283849 3.97394
-0.0700728 0.276774 3.97862
-0.0756043 0.266154 3.98189
-0.0799992 0.25349 3.9781
-0.0869559 0.237486 3.96217
-0.105876 0.319655 3.95549
-0.115041 0.322313 3.9551
-0.12286 0.326424 3.95537
-0.142119 0.341687 3.9516
-0.221565 0.393604 3.9109
-0.0494272 0.526852 3.98611
-0.0617996 0.566758 3.93845
-0.0761597 0.563501 3.92759
-0.0983693 0.322824 3.95311
-0.224181 0.334994 3.87402
-0.0415782 0.568292 3.97152
-0.0969127 0.220613 3.9522
-0.0107522 0.500412 4.05822
-0.0333262 0.51765 4.02703
-0.0112078 0.522703 4.0329
-0.0689444 0.47103 4.014
-0.00981552 0.166073 3.97477
-0.00946582 0.194116 3.97445
-0.055821 0.200004 3.96946
-0.151407 0.280341 3.92356
-0.120693 0.411096 3.9702
-0.127333 0.247406 3.93617
-0.171452 0.414059 3.95824
-0.141873 0.388071 3.96203
-0.190853 0.37717 3.93606
-0.0632713 0.174097 3.96861
-0.0849641 0.45852 3.99725
-0.168682 0.260617 3.90433
-0.138478 0.227873 3.92164
-0.16993 0.315153 3.92304
-0.24531 0.363891 3.85402
-0.19621 0.309085 3.90206
-0.254102 0.342157 3.79883
-0.160649 0.359679 3.94745
-0.0665106 0.490453 3.99404
-0.0665347 0.427273 4.05474
-0.0842088 0.421779 4.02926
-0.0560024 0.442517 4.07292
-0.080022 0.585491 3.94403
-0.117862 0.598019 3.94805
-0.150914 0.600246 3.94708
-0.178508 0.596073 3.93777
-0.197159 0.585742 3.92235
-0.209391 0.546518 3.88692
-0.272425 0.485817 3.7806
-0.192553 0.518421 3.90781
-0.168423 0.512939 3.92274
-0.137892 0.513432 3.93279
-0.108638 0.518292 3.93639
-0.0857217 0.525655 3.9377
-0.0704126 0.533014 3.93882
-0.270139 0.480673 3.68914
-0.0842185 0.415832 4.01698
-0.0512871 0.48616 4.0328
-0.048846 0.426003 4.07444
-0.0346584 0.41423 4.06493
-0.048479 0.422201 4.06228
-0.0780294 0.408736 4.00909
-0.0303317 0.412047 4.07179
-0.0290726 0.407603 4.04293
-0.0720797 0.55081 3.92532
-0.0583236 0.545107 3.94138
-0.0511063 0.541553 3.96061
-0.180932 0.557463 3.91158
-0.193988 0.566454 3.91063
0.00999483 0.496667 4.05018
0.157287 0.549322 3.90986
0.013768 0.411042 4.042
0.232442 0.618283 3.78741
0.0914138 0.532567 3.93544
0.114635 0.530697 3.93422
0.137038 0.530686 3.92745
0.167702 0.540303 3.90678
0.0714217 0.537765 3.93298
0.122569 0.583134 3.94218
0.0972719 0.582331 3.94062
0.145981 0.579593 3.9346
0.161791 0.571924 3.92444
0.185971 0.524554 3.89545
0.0898003 0.193054 3.94209
0.165859 0.55301 3.90152
0.248358 0.527296 3.78498
0.21014 0.536492 3.86908
0.116942 0.440218 3.96664
0.0281558 0.349565 4.02205
0.0242842 0.32462 4.01072
0.066534 0.343173 4.00469
0.0897824 0.334086 3.98014
0.0519092 0.323918 3.99783
0.0721281 0.321692 3.97539
0.11958 0.285097 3.93336
0.0104019 0.422367 4.08566
0.013281 0.445148 4.09229
0.195497 0.591868 3.9159
0.0635541 0.495833 3.96699
0.0737412 0.429263 4.02339
0.0754245 0.441225 4.01484
0.187038 0.442931 3.93466
0.0121654 0.473309 4.07634
0.141148 0.616865 3.95703
0.173434 0.608575 3.93871
0.210625 0.657403 3.83223
0.0389214 0.601307 3.9801
0.0750659 0.576155 3.93388
0.13748 0.316598 3.93068
0.233879 0.313544 3.73451
0.0551054 0.41662 4.01391
0.033342 0.408901 4.01753
0.117207 0.313229 3.93102
0.104422 0.313233 3.93704
0.18492 0.621552 3.92508
0.076422 0.419129 4.00998
0.0972181 0.616239 3.97118
0.101324 0.633344 3.97462
0.120877 0.70966 3.92248
0.197444 0.640182 3.88383
0.108494 0.67333 3.94896
0.207844 0.600269 3.89374
0.219977 0.607984 3.84222
0.0267782 0.334918 4.01875
0.0586444 0.331621 4.00204
0.0810275 0.327682 3.97962
0.0488714 0.412563 4.0093
0.111221 0.312918 3.93396
0.0992189 0.295533 3.94639
0.100168 0.313987 3.93791
0.0396559 0.423316 4.04939
0.066799 0.323303 3.97233
0.0462147 0.323394 3.98884
0.0210745 0.322478 4.00151
0.0321181 0.218453 3.97176
0.0317497 0.238727 3.99274
0.0295717 0.253322 3.9957
0.0261754 0.267459 3.99012
0.0227837 0.277343 3.98576
0.070536 0.290679 3.95976
0.0760408 0.286969 3.96308
0.0837921 0.279936 3.966
0.0895865 0.27248 3.96107
0.105571 0.358782 3.97246
0.250226 0.427402 3.69328
0.0839299 0.298582 3.94504
0.0916432 0.29782 3.94725
0.0249742 0.398211 4.01976
0.0680765 0.40516 3.99184
0.0289429 0.403312 4.01944
0.0902552 0.483613 3.95973
0.130066 0.469407 3.95342
0.0808395 0.431107 4.00101
0.17603 0.68878 3.87999
0.162511 0.662965 3.91833
0.148911 0.633409 3.9504
0.0985474 0.2594 3.94608
0.0462422 0.629192 3.98696
0.05248 0.675007 3.96636
0.0606193 0.718881 3.94711
0.156447 0.533854 3.91683
0.210855 0.508356 3.88197
0.0584442 0.543521 3.92972
0.186076 0.563985 3.90291
0.0455544 0.510116 3.97598
0.0558155 0.437372 4.04784
0.235803 0.491256 3.85648
0.196444 0.495767 3.90552
0.167794 0.489591 3.92882
0.122916 0.493282 3.94067
0.0888261 0.501916 3.9456
0.0631158 0.511933 3.95157
0.0118164 0.5403 4.00061
0.237308 0.447046 3.86616
0.204199 0.566139 3.89065
0.00247706 0.410225 4.07453
0.0639628 0.474814 3.97994
0.250479 0.525597 3.70578
0.0438181 0.524048 3.95496
0.0829935 0.429795 3.975
0.174314 0.551353 3.897
0.057214 0.451911 4.03714
0.247284 0.372709 3.70738
0.0591266 0.551226 3.92238
0.0346692 0.464593 4.0614
0.190852 0.258248 3.85424
0.187725 0.227753 3.81738
0.255342 0.435359 3.77864
0.218339 0.291356 3.82776
0.233745 0.570957 3.80653
0.0935687 0.166455 3.93156
-0.00101532 0.405869 4.04242
0.0874923 0.458566 3.97137
0.229149 0.530528 3.84456
0.133906 0.54517 3.92421
0.114043 0.543999 3.93062
0.106019 0.29286 3.9427
0.236914 0.400661 3.85979
0.0453865 0.128951 3.93041
0.122844 0.168353 3.87862
0.153939 0.193707 3.85081
0.0946953 0.544976 3.93148
0.0764489 0.547861 3.92804
0.0646569 0.549579 3.92305
0.21943 0.568914 3.86566
0.0796119 0.561819 3.93018
0.099792 0.565035 3.93485
0.118928 0.56563 3.93365
0.138677 0.562809 3.92796
0.152001 0.558363 3.91983
0.244655 0.577113 3.74074
0.147646 0.547042 3.91682
0.0819305 0.37241 3.99106
0.0549066 0.420259 4.02281
0.0290951 0.379353 4.01712
0.159404 0.224263 3.87587
0.128406 0.195422 3.90187
0.047057 0.146501 3.95714
0.212511 0.264631 3.77568
0.0653989 0.555746 3.92568
0.029064 0.505265 4.01064
0.0884269 0.145209 3.90929
0.251956 0.38429 3.78477
0.0489024 0.283067 3.97392
0.0543143 0.276024 3.97765
0.0602141 0.26499 3.98101
0.0644642 0.252193 3.97697
0.0709809 0.235432 3.96091
0.0914747 0.319266 3.9546
0.0999602 0.321762 3.95409
0.107545 0.325899 3.95419
0.125925 0.340755 3.95051
0.207755 0.390838 3.90904
0.027866 0.526442 3.98649
0.0392863 0.565855 3.93857
0.0541738 0.562688 3.9297
0.0848002 0.322282 3.9534
0.211157 0.330367 3.87113
0.0194405 0.567515 3.97202
0.0805281 0.217433 3.94987
0.0113873 0.517465 4.02687
0.0486207 0.470688 4.01291
0.0376769 0.1982 3.96715
0.136381 0.276822 3.92134
0.102417 0.410574 3.96767
0.112198 0.243635 3.93353
0.155721 0.412642 3.95622
0.124759 0.38714 3.96022
0.176527 0.374875 3.93434
0.0442311 0.171445 3.967
0.0658609 0.458166 3.99592
0.15372 0.255184 3.90103
0.122867 0.222592 3.91813
0.155087 0.312218 3.92196
0.23207 0.359253 3.85164
0.182868 0.304364 3.89932
0.240922 0.336005 3.79686
0.145455 0.358169 3.94583
0.0458853 0.490008 3.99425
0.0478102 0.427144 4.05355
0.0660046 0.421799 4.02634
0.0355162 0.442188 4.07103
0.0578356 0.583506 3.94411
0.0961723 0.594754 3.94783
0.129737 0.596351 3.94731
0.157378 0.591828 3.93788
0.176622 0.581456 3.9225
0.189738 0.543864 3.88708
0.254428 0.482126 3.78116
0.173941 0.517208 3.90846
0.150161 0.512126 3.92344
0.119402 0.513013 3.93413
0.0892944 0.518136 3.93802
0.0658657 0.525308 3.93868
0.0495466 0.532648 3.94029
0.250016 0.476887 3.69114
0.0661796 0.415795 4.01415
0.0296101 0.485755 4.03281
0.0287333 0.425685 4.07331
0.0155366 0.413889 4.06372
0.0291722 0.421919 4.06133
0.0598078 0.408655 4.00581
0.0107092 0.411748 4.07084
0.00782003 0.407277 4.04196
0.0498104 0.550229 3.9266
0.0366963 0.544593 3.94247
0.0295951 0.541078 3.96105
0.159966 0.555106 3.91203
0.17338 0.563245 3.91028
