ply
format ascii 1.0
comment Created by Open3D
element vertex 468
property double x
property double y
property double z
end_header
-0.0129011 0.340559 3.95457
-0.0133476 0.415029 4.00675
-0.0135509 0.387627 3.9452
-0.0326408 0.477352 3.97215
-0.0131678 0.436553 4.01396
-0.0125654 0.46207 4.00288
-0.0116111 0.520324 3.93763
-0.188725 0.519828 3.84505
-0.0109414 0.573035 3.92201
-0.0105286 0.60338 3.92735
-0.00992001 0.713397 3.89821
-0.0128324 0.330936 3.95323
-0.0126031 0.321964 3.9454
-0.0121725 0.316076 3.93464
-0.0115407 0.278701 3.92111
-0.0115411 0.268209 3.92417
-0.0112706 0.255813 3.92591
-0.0114453 0.243303 3.91587
-0.011958 0.227744 3.88368
-0.0129007 0.403616 3.99496
-0.0303156 0.401011 3.96192
-0.285314 0.593236 3.72578
-0.116211 0.498484 3.87261
-0.141526 0.496693 3.8708
-0.165668 0.498433 3.86364
-0.196517 0.511781 3.84134
-0.0953698 0.50438 3.86932
-0.149417 0.563316 3.8771
-0.121679 0.56095 3.87865
-0.174746 0.559185 3.86878
-0.191433 0.5502 3.85933
-0.217367 0.494757 3.83037
-0.0957468 0.211672 3.86511
-0.197263 0.526168 3.83635
-0.292194 0.497704 3.71944
-0.245317 0.508869 3.80477
-0.128641 0.414525 3.89617
-0.0371796 0.341843 3.95034
-0.0311826 0.320589 3.94234
-0.0600435 0.330634 3.93818
-0.0733307 0.316609 3.92352
-0.0461568 0.315168 3.9346
-0.057887 0.307901 3.91983
-0.103408 0.27296 3.88314
-0.0310306 0.415374 4.0049
-0.0343141 0.435607 4.01137
-0.230274 0.570326 3.85019
-0.083204 0.468926 3.89819
-0.0768257 0.411873 3.94587
-0.0789597 0.4214 3.93836
-0.202766 0.410038 3.86875
-0.033434 0.458844 3.99544
-0.171825 0.596908 3.89321
-0.206315 0.58828 3.87327
-0.261426 0.637309 3.77416
-0.0634687 0.577374 3.91494
-0.0982149 0.551244 3.87221
-0.11812 0.293082 3.87977
-0.255579 0.293853 3.65774
-0.0594381 0.400006 3.93683
-0.0421114 0.394571 3.93888
-0.0874294 0.290497 3.88596
-0.0749855 0.293093 3.89326
-0.221234 0.601707 3.86144
-0.075136 0.400784 3.93286
-0.125116 0.5946 3.90746
-0.129931 0.613106 3.91211
-0.158513 0.698335 3.86846
-0.24078 0.620664 3.82518
-0.141976 0.657108 3.89346
-0.246555 0.577794 3.82861
-0.266083 0.584963 3.78212
-0.034735 0.330366 3.94964
-0.0529069 0.321665 3.93799
-0.065978 0.312223 3.92426
-0.0533793 0.39589 3.93179
-0.0807895 0.290996 3.89027
-0.0755768 0.284878 3.90115
-0.0725064 0.295794 3.8934
-0.0515062 0.411729 3.96956
-0.0523219 0.308424 3.916
-0.0410564 0.312805 3.92523
-0.0276404 0.315245 3.93212
-0.0413783 0.230489 3.88549
-0.0387919 0.246751 3.91639
-0.0367367 0.259037 3.92391
-0.0339119 0.271261 3.92197
-0.0310467 0.27965 3.91862
-0.0574435 0.285514 3.90583
-0.0617584 0.282665 3.90916
-0.06838 0.277578 3.91163
-0.0746541 0.271 3.90707
-0.0971048 0.339327 3.91348
-0.289051 0.39559 3.6185
-0.0135818 0.396168 3.96303
-0.0644693 0.288615 3.89863
-0.0694589 0.287021 3.90081
-0.0364032 0.385916 3.9387
-0.0675012 0.386063 3.91514
-0.0389725 0.390097 3.9395
-0.107869 0.455047 3.8906
-0.148309 0.438676 3.88475
-0.0815904 0.410262 3.92504
-0.22125 0.673227 3.8252
-0.201808 0.645948 3.86128
-0.181387 0.614268 3.8889
-0.0894405 0.258002 3.88825
-0.0714982 0.607314 3.92398
-0.0802697 0.659396 3.91186
-0.0902766 0.71049 3.89339
-0.185564 0.50294 3.85237
-0.244102 0.47697 3.81848
-0.0819227 0.510361 3.86548
-0.218301 0.54033 3.83847
-0.0668224 0.483872 3.90558
-0.0662937 0.423033 3.96886
-0.269617 0.460118 3.79119
-0.226974 0.46202 3.84154
-0.194096 0.455474 3.8648
-0.146008 0.460873 3.87412
-0.111118 0.471315 3.87854
-0.0855611 0.482659 3.88478
-0.0348752 0.514151 3.92891
-0.262149 0.413426 3.80038
-0.239023 0.542078 3.82692
-0.0231953 0.404034 3.99348
-0.0782226 0.449717 3.90841
-0.300884 0.492462 3.63446
-0.0670396 0.494867 3.8876
-0.0841842 0.4057 3.9015
-0.205074 0.524517 3.83147
-0.0673911 0.434643 3.95958
-0.277916 0.345517 3.63124
-0.0815338 0.518561 3.85895
-0.0518493 0.449541 3.9816
-0.197115 0.2519 3.78895
-0.199132 0.227987 3.74371
-0.287803 0.404003 3.71034
-0.228116 0.27739 3.75962
-0.28039 0.543578 3.7436
-0.101491 0.19242 3.85011
-0.0212027 0.396725 3.96134
-0.0984671 0.432676 3.90036
-0.267332 0.502707 3.78031
-0.164497 0.510702 3.861
-0.14258 0.507872 3.86742
-0.0822596 0.281803 3.89775
-0.252644 0.370648 3.79456
-0.0612436 0.161345 3.84074
-0.131806 0.190156 3.8003
-0.162881 0.20587 3.77686
-0.0104549 0.659205 3.91629
-0.0114116 0.155555 3.84687
-0.121073 0.509235 3.86831
-0.100902 0.512957 3.86462
-0.0878604 0.515494 3.85928
-0.258239 0.544085 3.80166
-0.10202 0.538379 3.86731
-0.123463 0.547018 3.87032
-0.146384 0.549153 3.86898
-0.168929 0.544934 3.86281
-0.182534 0.537645 3.85516
-0.298191 0.547023 3.67407
-0.17895 0.515063 3.85243
-0.0135243 0.371765 3.9406
-0.0787487 0.355025 3.92123
-0.0610902 0.404657 3.94616
-0.0406579 0.367827 3.93863
-0.0110848 0.546361 3.92044
-0.165356 0.228993 3.80907
-0.134375 0.211694 3.82814
-0.0613039 0.176581 3.86963
-0.228256 0.254155 3.6996
-0.0876903 0.526367 3.86253
-0.0503024 0.482206 3.93771
-0.0111195 0.170527 3.87436
-0.0990024 0.174622 3.82455
-0.276332 0.357309 3.71584
-0.0462112 0.282459 3.91297
-0.0504629 0.27683 3.91625
-0.0555987 0.268014 3.91849
-0.0600969 0.257154 3.91359
-0.0687949 0.243022 3.89089
-0.0670474 0.300747 3.90635
-0.0751633 0.301893 3.90653
-0.0825185 0.304446 3.90629
-0.11012 0.317812 3.89913
-0.215732 0.362711 3.84453
-0.0508095 0.500578 3.91554
-0.0634917 0.536844 3.87694
-0.077636 0.533095 3.86724
-0.0620279 0.303716 3.90353
-0.215033 0.309611 3.8076
-0.0426426 0.541329 3.90567
-0.0838953 0.228393 3.87495
-0.0122736 0.48156 3.97998
-0.0339978 0.494728 3.95333
-0.0120697 0.49995 3.95824
-0.064217 0.449655 3.93869
-0.0111517 0.189897 3.88579
-0.0116612 0.210562 3.88316
-0.0493809 0.214423 3.88062
-0.132407 0.266356 3.86597
-0.104766 0.387422 3.89679
-0.110806 0.245717 3.87005
-0.164076 0.386207 3.88797
-0.126671 0.364199 3.89593
-0.179041 0.34952 3.87124
-0.0571126 0.195234 3.88087
-0.0750909 0.435462 3.92208
-0.155732 0.251363 3.84006
-0.126411 0.230955 3.84927
-0.148786 0.291301 3.86576
-0.242171 0.334479 3.78615
-0.182162 0.287856 3.84069
-0.258275 0.314774 3.72711
-0.140106 0.332502 3.88717
-0.064227 0.46641 3.92191
-0.0584629 0.415215 3.97447
-0.0697253 0.406018 3.94884
-0.0518033 0.430775 3.99058
-0.0825929 0.557761 3.8844
-0.122689 0.57178 3.88758
-0.158035 0.574494 3.88438
-0.187315 0.569972 3.87352
-0.20758 0.559292 3.85857
-0.222324 0.517023 3.82195
-0.293476 0.45095 3.71342
-0.204036 0.485824 3.84382
-0.178634 0.479676 3.85916
-0.145009 0.480206 3.86879
-0.11319 0.486034 3.87332
-0.0892697 0.493904 3.87379
-0.0730145 0.501641 3.87491
-0.295372 0.443451 3.61805
-0.0674853 0.398888 3.93695
-0.0502547 0.465861 3.9563
-0.0450433 0.41695 3.99311
-0.0323343 0.406452 3.98383
-0.0439607 0.412566 3.9816
-0.0607096 0.39168 3.92863
-0.0293387 0.405166 3.99028
-0.0268518 0.397971 3.96169
-0.0729509 0.517767 3.86285
-0.0599395 0.514247 3.87763
-0.0526965 0.512626 3.89347
-0.190558 0.531865 3.84717
-0.20365 0.539552 3.84553
0.00764141 0.477383 3.9722
0.167008 0.51942 3.84387
0.00430424 0.400842 3.96167
0.269752 0.59659 3.72248
0.0954575 0.499203 3.87285
0.121424 0.497625 3.87055
0.145649 0.49931 3.86291
0.175992 0.511505 3.84043
0.0733253 0.504918 3.86953
0.128921 0.562666 3.87687
0.100938 0.560716 3.87813
0.153931 0.558176 3.86783
0.17051 0.548958 3.8581
0.197684 0.495589 3.82836
0.0751861 0.209989 3.86354
0.17522 0.525239 3.8351
0.276446 0.500092 3.71623
0.227035 0.509683 3.80205
0.106328 0.414988 3.89443
0.0118462 0.342131 3.95009
0.00663717 0.320727 3.94251
0.0365804 0.33093 3.93824
0.0516152 0.317253 3.92427
0.0232948 0.315229 3.93574
0.0358915 0.308185 3.92138
0.0847168 0.272971 3.8824
0.0050667 0.415409 4.00432
0.00858132 0.435648 4.01081
0.210766 0.568812 3.84801
0.0606417 0.46941 3.89768
0.0524042 0.411646 3.9455
0.0550698 0.421067 3.93807
0.18395 0.411392 3.86651
0.00828087 0.458975 3.99541
0.151127 0.595285 3.89036
0.185933 0.586416 3.87087
0.244788 0.640033 3.77065
0.0418189 0.577019 3.9141
0.0765225 0.551422 3.87192
0.098969 0.293356 3.87971
0.239295 0.293548 3.65586
0.0339521 0.399798 3.93672
0.016091 0.394144 3.93798
0.0680089 0.291233 3.88795
0.0564608 0.293668 3.89501
0.201297 0.599757 3.85832
0.050886 0.400344 3.9325
0.104231 0.593665 3.9051
0.109623 0.612192 3.90947
0.140773 0.699914 3.866
0.223056 0.621316 3.82178
0.122513 0.657552 3.89089
0.227903 0.5768 3.82552
0.249395 0.586099 3.77872
0.00971146 0.33048 3.94985
0.0292965 0.321932 3.93878
0.044026 0.312837 3.92523
0.0275495 0.39548 3.93121
0.0616958 0.291749 3.89181
0.0565999 0.285174 3.90155
0.0541047 0.295921 3.89533
0.0266468 0.411806 3.96986
0.0311047 0.308735 3.91765
0.0183221 0.312798 3.9267
0.00369924 0.315459 3.93305
0.0184354 0.230012 3.88445
0.0165393 0.246358 3.9159
0.0145665 0.258782 3.9236
0.0111918 0.271086 3.92195
0.00824561 0.279611 3.91903
0.0371586 0.285607 3.90681
0.0417364 0.282456 3.90942
0.0486955 0.277328 3.91109
0.055021 0.270813 3.90662
0.0749911 0.339565 3.9127
0.271206 0.397465 3.61605
0.045162 0.288763 3.90016
0.0502786 0.287123 3.90187
0.010122 0.385564 3.93845
0.0422065 0.385404 3.9143
0.0127953 0.389831 3.93896
0.0860724 0.455841 3.89008
0.127225 0.439701 3.88314
0.0574204 0.409951 3.92479
0.204186 0.67561 3.82163
0.182993 0.646262 3.85785
0.161268 0.612698 3.886
0.0700116 0.257536 3.88749
0.0509133 0.606752 3.92255
0.0604635 0.659865 3.9101
0.07207 0.71143 3.89152
0.165452 0.503278 3.85114
0.225978 0.478578 3.81516
0.0586333 0.510724 3.86617
0.198239 0.539423 3.837
0.0442308 0.484259 3.90556
0.0418589 0.422859 3.96841
0.252988 0.46213 3.78823
0.208009 0.463863 3.83888
0.174525 0.457244 3.86265
0.125028 0.462195 3.87305
0.0893691 0.472234 3.87819
0.0634815 0.483347 3.88433
0.0115795 0.514227 3.92902
0.245061 0.415352 3.79805
0.220826 0.541746 3.82457
-0.00225317 0.404103 3.99359
0.0548075 0.449979 3.90826
0.28407 0.495574 3.63155
0.0440812 0.495428 3.88769
0.0594983 0.405448 3.90075
0.183835 0.523677 3.83029
0.0436113 0.434396 3.95898
0.260563 0.346366 3.62874
0.0579761 0.518735 3.86036
0.0275268 0.449577 3.98128
0.180352 0.250271 3.78677
0.182265 0.226015 3.74202
0.270715 0.405632 3.7075
0.212112 0.276444 3.75738
0.264076 0.545833 3.74011
0.0811158 0.190323 3.84881
-0.00591912 0.396729 3.96131
0.0755324 0.433096 3.89955
0.250355 0.504244 3.77722
0.142997 0.511054 3.86022
0.121361 0.508655 3.86718
0.0634122 0.282092 3.89815
0.235781 0.371733 3.79198
0.0389207 0.160175 3.84011
0.111654 0.187633 3.79921
0.144274 0.203549 3.77559
0.099489 0.509893 3.86862
0.0785299 0.513606 3.86559
0.0646907 0.515913 3.86093
0.241222 0.544494 3.79843
0.0807183 0.538369 3.86836
0.103375 0.546658 3.87045
0.125942 0.548129 3.86846
0.147979 0.543576 3.86205
0.161253 0.536394 3.85405
0.281828 0.550353 3.67089
0.157382 0.515147 3.85134
0.054871 0.35497 3.9205
0.0357252 0.404415 3.94537
0.0146711 0.367793 3.93838
0.147016 0.22696 3.80704
0.115215 0.209296 3.8261
0.039469 0.1755 3.86906
0.212115 0.252697 3.69791
0.0649911 0.526449 3.86415
0.0265574 0.482344 3.93759
0.0777327 0.172561 3.82408
0.259904 0.358328 3.71262
0.0244463 0.282337 3.91356
0.0290428 0.276581 3.91656
0.0346542 0.267499 3.91831
0.0392882 0.256571 3.91316
0.0482573 0.242236 3.89037
0.0471541 0.301177 3.90819
0.0548583 0.302329 3.90812
0.0623411 0.305167 3.90763
0.0896529 0.318031 3.89917
0.198438 0.363522 3.84209
0.0276722 0.500689 3.91545
0.0403049 0.536918 3.87649
0.0546121 0.533436 3.86804
0.0421677 0.303938 3.90553
0.197975 0.309398 3.80544
0.0202941 0.541207 3.90557
0.0632981 0.227071 3.87338
0.0100753 0.494752 3.9531
0.0400645 0.449618 3.93803
0.0266799 0.213687 3.87957
0.113496 0.265665 3.86401
0.0809098 0.387407 3.89543
0.0917914 0.244612 3.86789
0.143374 0.38673 3.88511
0.104105 0.364241 3.89401
0.160083 0.349727 3.86894
0.0350792 0.194401 3.88011
0.0515171 0.435362 3.92154
0.137282 0.250112 3.83767
0.107119 0.22901 3.84674
0.130027 0.291265 3.86455
0.225649 0.334729 3.7837
0.165007 0.287083 3.83851
0.242523 0.314934 3.7244
0.119759 0.33276 3.88562
0.0405277 0.466461 3.92164
0.034047 0.415161 3.97441
0.0450012 0.405727 3.948
0.026542 0.430694 3.99024
0.0602158 0.557424 3.88395
0.101397 0.571063 3.88624
0.137154 0.573503 3.88293
0.166564 0.568708 3.87194
0.187303 0.557847 3.85694
0.2025 0.516993 3.8202
0.277075 0.453138 3.71078
0.184041 0.486999 3.84182
0.158577 0.481025 3.85744
0.124462 0.481388 3.8681
0.0920863 0.486813 3.87303
0.0671818 0.494591 3.87326
0.0502045 0.502263 3.87498
0.277671 0.445989 3.61585
0.042526 0.398401 3.93646
0.0255331 0.466063 3.95631
0.0198649 0.416984 3.99264
0.00746213 0.406379 3.98335
0.018975 0.412529 3.98132
0.0356385 0.391056 3.92806
0.00428077 0.40517 3.98977
0.000406564 0.397882 3.96147
0.0491865 0.517945 3.8636
0.0368238 0.514591 3.8777
0.029826 0.512878 3.89334
0.168898 0.530721 3.84563
0.182613 0.538345 3.84398
