ply
format ascii 1.0
comment Created by Open3D
element vertex 468
property double x
property double y
property double z
end_header
0.0188522 0.375563 3.87793
0.0203422 0.448618 3.94496
0.0208683 0.42185 3.88295
0.000849913 0.529373 3.90706
0.0202571 0.475078 3.95193
0.0198578 0.507924 3.94017
0.0208339 0.584728 3.86774
-0.152014 0.587678 3.76882
0.0206748 0.646082 3.84533
0.0205778 0.680329 3.84762
0.0203122 0.800424 3.81731
0.0184202 0.364594 3.87526
0.0181538 0.357945 3.86893
0.0179912 0.357206 3.85915
0.0205049 0.310286 3.85007
0.0203035 0.301904 3.85533
0.0196837 0.29168 3.86145
0.0195825 0.27902 3.8587
0.0198782 0.255985 3.83961
0.0199577 0.434511 3.9329
-0.000462769 0.435279 3.89888
-0.245425 0.671905 3.6494
-0.0807563 0.566575 3.79599
-0.105967 0.565219 3.79385
-0.129997 0.566644 3.78704
-0.163383 0.578696 3.7654
-0.0594064 0.571709 3.79245
-0.113965 0.632888 3.79964
-0.0870246 0.630893 3.79907
-0.139067 0.627897 3.79179
-0.156273 0.617569 3.78205
-0.184254 0.562111 3.75298
-0.0725134 0.224233 3.80603
-0.161377 0.59286 3.76017
-0.257153 0.562681 3.64287
-0.210995 0.574608 3.7273
-0.108507 0.470081 3.82522
-0.019255 0.379795 3.8745
-0.0181468 0.359506 3.86392
-0.058334 0.376437 3.8569
-0.0842513 0.371203 3.83105
-0.0468896 0.360186 3.85013
-0.0691102 0.35996 3.82629
-0.109289 0.324552 3.78507
0.00075663 0.449235 3.94228
-0.00201402 0.474909 3.94852
-0.193645 0.639386 3.77462
-0.0514608 0.527975 3.82513
-0.0549729 0.45764 3.88107
-0.0567003 0.470844 3.87282
-0.188236 0.474545 3.79149
-0.000753551 0.50503 3.93277
-0.132465 0.67082 3.81388
-0.167795 0.660012 3.79585
-0.219505 0.720527 3.69478
-0.0277372 0.651788 3.8374
-0.0636707 0.621087 3.79267
-0.130681 0.356637 3.78139
-0.229373 0.320795 3.59156
-0.0374852 0.442968 3.87218
-0.0177115 0.434297 3.87428
-0.114166 0.358313 3.77961
-0.102518 0.356542 3.78548
-0.181884 0.675042 3.78376
-0.0576026 0.448466 3.8676
-0.086412 0.670222 3.82806
-0.0911673 0.690791 3.83245
-0.119033 0.787002 3.78561
-0.200256 0.698412 3.74429
-0.102245 0.740572 3.80983
-0.209094 0.648835 3.75315
-0.227284 0.658908 3.70336
-0.0194184 0.367095 3.87138
-0.0518748 0.366162 3.8538
-0.0766375 0.365591 3.83025
-0.0320849 0.438495 3.86678
-0.108773 0.357815 3.78234
-0.0931591 0.33818 3.79679
-0.0981024 0.355371 3.78625
-0.0241271 0.448888 3.90719
-0.06529 0.362288 3.82284
-0.0424734 0.360855 3.841
-0.015707 0.358613 3.85465
-0.0205123 0.257634 3.83555
-0.0194228 0.282488 3.85408
-0.0181607 0.295735 3.85582
-0.0157999 0.305402 3.84947
-0.013212 0.312642 3.84486
-0.0648332 0.328333 3.81427
-0.0693165 0.326608 3.81763
-0.075102 0.322203 3.82054
-0.0789667 0.314868 3.81562
-0.0978853 0.390616 3.82369
-0.255388 0.443478 3.55078
0.0212168 0.427741 3.9007
-0.0796158 0.33717 3.79651
-0.0867779 0.338646 3.79806
-0.0104582 0.423401 3.87587
-0.0511844 0.434065 3.84898
-0.0137996 0.428647 3.87589
-0.0792267 0.515548 3.8176
-0.123986 0.502014 3.81132
-0.0622066 0.460745 3.8588
-0.179437 0.759966 3.7422
-0.160469 0.726798 3.77884
-0.141298 0.689973 3.8091
-0.0867859 0.296755 3.80098
-0.0356325 0.685912 3.84456
-0.0443434 0.743204 3.82778
-0.054906 0.798951 3.81044
-0.151228 0.570748 3.77579
-0.212295 0.544261 3.7397
-0.0458179 0.57777 3.78935
-0.182944 0.606318 3.76148
-0.0335492 0.543303 3.83348
-0.0392548 0.4653 3.90534
-0.239767 0.52445 3.71326
-0.19591 0.531554 3.76305
-0.16411 0.525186 3.78597
-0.115172 0.527044 3.79789
-0.0781281 0.534619 3.80316
-0.0516145 0.545118 3.80958
-0.00136906 0.577644 3.85847
-0.24149 0.47572 3.7225
-0.20374 0.608507 3.75005
0.00837923 0.435657 3.93155
-0.0499407 0.50506 3.83831
-0.263474 0.558628 3.56442
-0.0323781 0.55807 3.81293
-0.0654418 0.458728 3.83292
-0.170099 0.590674 3.75549
-0.0405101 0.481442 3.89498
-0.246978 0.382578 3.5648
-0.0459513 0.586447 3.78286
-0.0210854 0.495716 3.91871
-0.176789 0.277653 3.71387
-0.170395 0.242775 3.67695
-0.260114 0.456583 3.63572
-0.212414 0.306171 3.68653
-0.242975 0.614122 3.6664
-0.0724883 0.199835 3.79626
0.0123471 0.428786 3.8987
-0.0745867 0.488903 3.82983
-0.233006 0.567606 3.70308
-0.126393 0.581159 3.78422
-0.104927 0.579157 3.79051
-0.0988425 0.335591 3.79294
-0.2409 0.423591 3.71647
-0.0274239 0.168015 3.79611
-0.0971802 0.196172 3.74256
-0.129503 0.215121 3.71272
0.0204482 0.741313 3.83404
0.0202372 0.164183 3.80355
-0.0841817 0.57981 3.79144
-0.0642001 0.582628 3.78823
-0.051586 0.58426 3.7834
-0.222541 0.612047 3.72501
-0.0685332 0.605787 3.78991
-0.090087 0.614073 3.79298
-0.11103 0.61581 3.792
-0.132653 0.611399 3.78615
-0.146712 0.603735 3.77842
-0.258633 0.620799 3.60106
-0.141242 0.584237 3.77628
0.0204325 0.405799 3.87529
-0.0694948 0.402151 3.84441
-0.0373715 0.445932 3.88132
-0.0170929 0.405527 3.87192
0.0206339 0.615387 3.84736
-0.138277 0.247592 3.73624
-0.105723 0.224067 3.76404
-0.0307775 0.183313 3.823
-0.202438 0.274121 3.63377
-0.0530093 0.593924 3.78602
-0.017126 0.53791 3.86844
0.0199044 0.180727 3.82949
-0.064879 0.179526 3.77454
-0.254254 0.400286 3.64233
-0.0412807 0.319162 3.83122
-0.0458193 0.314589 3.83493
-0.0496038 0.306891 3.83873
-0.0519363 0.295115 3.83515
-0.0584859 0.273371 3.82005
-0.0906321 0.360261 3.80377
-0.0978498 0.363283 3.80278
-0.104564 0.36718 3.80315
-0.121465 0.376719 3.80076
-0.211644 0.416318 3.76575
-0.0165555 0.561576 3.84401
-0.0277992 0.606511 3.79799
-0.0425195 0.601884 3.78944
-0.0844715 0.362276 3.80231
-0.209761 0.350541 3.72926
-0.00892988 0.61039 3.8305
-0.0662734 0.250225 3.81182
0.0203883 0.533538 3.91474
-0.000373797 0.551767 3.88466
0.0207631 0.557494 3.89007
-0.0342986 0.500615 3.87117
0.0199238 0.203873 3.84051
0.0198372 0.232257 3.8398
-0.0254519 0.233268 3.83225
-0.121864 0.309246 3.77542
-0.0883325 0.439305 3.82486
-0.0961497 0.275959 3.79109
-0.154234 0.441475 3.81394
-0.117157 0.415489 3.81513
-0.176674 0.401943 3.79147
-0.0305419 0.205317 3.83284
-0.0492206 0.487604 3.85406
-0.135896 0.282369 3.75877
-0.103604 0.252412 3.77858
-0.145662 0.345025 3.77555
-0.233637 0.378233 3.7086
-0.174468 0.330242 3.75641
-0.239679 0.348909 3.65465
-0.141963 0.390033 3.79945
-0.0327062 0.521092 3.85215
-0.0318846 0.453604 3.91164
-0.0476884 0.448992 3.88422
-0.0214118 0.470649 3.92818
-0.046433 0.628879 3.80351
-0.0855807 0.643632 3.80621
-0.120664 0.646139 3.80439
-0.150314 0.640242 3.79471
-0.171752 0.627419 3.78035
-0.187555 0.582768 3.74509
-0.261369 0.510077 3.63807
-0.17034 0.553885 3.7665
-0.144042 0.547806 3.78131
-0.110472 0.547234 3.79168
-0.0786112 0.551435 3.79672
-0.0540177 0.558842 3.79718
-0.0378177 0.566864 3.79876
-0.259703 0.501134 3.54925
-0.047953 0.443697 3.87201
-0.0172662 0.517247 3.89022
-0.0151521 0.452292 3.93049
-0.00281425 0.439522 3.92076
-0.015205 0.447815 3.91886
-0.0428777 0.436862 3.86333
0.0011781 0.437353 3.92749
0.00490051 0.430944 3.89862
-0.037298 0.585295 3.78646
-0.0252321 0.58077 3.80118
-0.0184785 0.577856 3.81888
-0.155042 0.597819 3.77068
-0.168794 0.605799 3.76871
0.0399293 0.529061 3.90613
0.190422 0.58662 3.76837
0.0416296 0.434935 3.89922
0.278495 0.668306 3.64876
0.119657 0.565076 3.79379
0.143979 0.564194 3.79221
0.167467 0.56557 3.78586
0.199894 0.577768 3.76489
0.100003 0.570315 3.791
0.150641 0.631045 3.79759
0.124956 0.628802 3.79772
0.175472 0.626154 3.79016
0.192299 0.616072 3.78151
0.220338 0.561066 3.75363
0.112116 0.226354 3.80734
0.199604 0.591923 3.75986
0.29265 0.561503 3.64403
0.246082 0.573408 3.72823
0.145916 0.469509 3.82702
0.0560486 0.379775 3.87531
0.0533444 0.35951 3.8649
0.0940184 0.376118 3.85872
0.119783 0.370725 3.83342
0.0814246 0.360058 3.85115
0.104394 0.359353 3.82814
0.148001 0.324225 3.78785
0.0393829 0.449245 3.94301
0.0414918 0.474748 3.94922
0.225909 0.637947 3.77413
0.0913864 0.527117 3.82434
0.0940903 0.456743 3.88179
0.0954183 0.469904 3.87336
0.222845 0.474453 3.79418
0.0406714 0.504749 3.93234
0.16802 0.669067 3.814
0.201537 0.658487 3.79575
0.252578 0.715957 3.69437
0.0682492 0.650997 3.8369
0.103797 0.619241 3.79125
0.16851 0.355976 3.78374
0.269251 0.323657 3.59122
0.0779543 0.442153 3.87342
0.0587953 0.433604 3.87637
0.152763 0.356844 3.78226
0.140349 0.355159 3.78856
0.214627 0.673131 3.78379
0.0965876 0.447427 3.86886
0.12478 0.668711 3.82854
0.128979 0.689091 3.83327
0.155554 0.783103 3.78592
0.232908 0.695484 3.745
0.140078 0.737886 3.81061
0.241197 0.646937 3.75301
0.260012 0.656389 3.70368
0.0552753 0.367038 3.87216
0.0871667 0.366139 3.85527
0.112263 0.36512 3.83238
0.0731018 0.437749 3.86865
0.147004 0.356416 3.78573
0.131935 0.337243 3.80033
0.135371 0.35402 3.78899
0.0638595 0.448362 3.90652
0.099721 0.361665 3.82486
0.0770274 0.360519 3.84199
0.0506412 0.358679 3.85511
0.0594895 0.257994 3.83737
0.0578715 0.282594 3.85516
0.0570433 0.295768 3.85646
0.0558813 0.305407 3.84981
0.0533659 0.31248 3.84515
0.103674 0.32792 3.81647
0.107726 0.326212 3.82075
0.113089 0.321749 3.82384
0.117571 0.314563 3.81909
0.135836 0.390451 3.82667
0.296391 0.444133 3.55107
0.118534 0.336257 3.79854
0.125737 0.337843 3.80107
0.0516444 0.422993 3.87666
0.091757 0.433147 3.85192
0.0548467 0.42792 3.87738
0.118355 0.514787 3.81721
0.161461 0.501369 3.81237
0.101114 0.459684 3.8599
0.213387 0.755379 3.74286
0.194875 0.723555 3.77983
0.176637 0.687911 3.80942
0.125951 0.297441 3.80358
0.0756478 0.684834 3.84477
0.0844165 0.741736 3.82813
0.0936078 0.796738 3.8115
0.188087 0.569693 3.77505
0.247333 0.54326 3.74134
0.0878088 0.576296 3.78746
0.217803 0.605137 3.76116
0.0740099 0.542565 3.83242
0.0785314 0.464584 3.90566
0.274052 0.52376 3.71474
0.231213 0.530425 3.76409
0.200498 0.524279 3.78669
0.153772 0.526159 3.79749
0.117916 0.533719 3.80214
0.0919882 0.544156 3.80843
0.0427511 0.577227 3.85792
0.276451 0.4758 3.72429
0.237208 0.60727 3.74989
0.031409 0.4354 3.93129
0.0900288 0.504119 3.83782
0.301975 0.556896 3.56386
0.0738603 0.557134 3.81163
0.106007 0.457889 3.83449
0.2073 0.589718 3.75491
0.0791537 0.480661 3.89528
0.287599 0.384618 3.56539
0.0883076 0.58519 3.78022
0.0600936 0.495228 3.91821
0.214698 0.280855 3.71496
0.209051 0.246477 3.67668
0.298382 0.457263 3.63762
0.249463 0.309177 3.68807
0.277851 0.612045 3.6664
0.112345 0.202305 3.79608
0.0302457 0.428697 3.89895
0.113474 0.488182 3.83054
0.267601 0.566545 3.70405
0.165337 0.579807 3.78294
0.144174 0.577647 3.78841
0.137721 0.334701 3.79654
0.276119 0.424714 3.71918
0.0679096 0.169152 3.79542
0.137835 0.199156 3.74089
0.169476 0.218776 3.71135
0.123913 0.578269 3.78951
0.10526 0.581078 3.78582
0.0937718 0.58277 3.78072
0.255752 0.610459 3.72505
0.108217 0.604473 3.78765
0.128003 0.612695 3.7913
0.148532 0.614819 3.79036
0.170189 0.610659 3.78492
0.184272 0.603064 3.77774
0.295074 0.617971 3.60064
0.180007 0.583 3.77509
0.108287 0.401893 3.84662
0.0777969 0.445189 3.88245
0.0565543 0.405368 3.87274
0.177703 0.250677 3.73693
0.145272 0.227001 3.76465
0.0701162 0.184586 3.82302
0.24146 0.277482 3.63316
0.0945989 0.592644 3.78309
0.0581238 0.537349 3.86794
0.105603 0.181939 3.77306
0.292187 0.402089 3.64467
0.0809143 0.31894 3.83253
0.0850534 0.31439 3.83674
0.0884156 0.306652 3.84039
0.0911076 0.29506 3.83694
0.0975629 0.273922 3.82191
0.126641 0.359033 3.80664
0.13435 0.362221 3.80578
0.140976 0.36602 3.80617
0.159008 0.376315 3.80345
0.245591 0.417267 3.76971
0.0578754 0.560994 3.84327
0.0704333 0.605501 3.79705
0.0845124 0.600592 3.78677
0.119869 0.361235 3.80446
0.24537 0.352642 3.73234
0.0502161 0.609789 3.83009
0.105415 0.251654 3.81364
0.0414294 0.55153 3.88438
0.0740287 0.499942 3.87104
0.0648279 0.234182 3.83398
0.16067 0.309973 3.77746
0.127553 0.43864 3.82691
0.13506 0.277288 3.79334
0.189396 0.441614 3.81779
0.154908 0.415285 3.81786
0.211102 0.402735 3.7952
0.0697664 0.206661 3.83326
0.0886206 0.486768 3.85436
0.174626 0.284631 3.76005
0.143111 0.254619 3.78016
0.183094 0.345386 3.77691
0.269016 0.380085 3.71205
0.210697 0.332077 3.75876
0.277379 0.351292 3.65641
0.17813 0.390026 3.80232
0.0732501 0.520458 3.85134
0.0710069 0.452913 3.91138
0.0872206 0.448195 3.88539
0.0612768 0.470153 3.92828
0.0878602 0.627638 3.80256
0.124633 0.642089 3.80581
0.157813 0.644345 3.80384
0.186282 0.638726 3.79419
0.20654 0.626088 3.78004
0.223457 0.581712 3.7453
0.298199 0.509608 3.6387
0.206956 0.552835 3.76656
0.181474 0.546929 3.7811
0.148996 0.546185 3.79086
0.118065 0.550306 3.79522
0.0947538 0.55763 3.79611
0.0794134 0.565839 3.79756
0.299954 0.500418 3.54872
0.0875463 0.442857 3.87347
0.0581097 0.516724 3.88956
0.0549159 0.452043 3.93081
0.0419691 0.439359 3.92146
0.054737 0.447376 3.91893
0.0828245 0.43599 3.86564
0.0383149 0.437074 3.92801
0.0370092 0.430786 3.89925
0.0800995 0.584089 3.7847
0.067329 0.579832 3.8002
0.060181 0.577043 3.81813
0.192911 0.597072 3.77
0.204867 0.604599 3.76847
