ply
format ascii 1.0
comment Created by Open3D
element vertex 468
property double x
property double y
property double z
end_header
0.0349098 0.353351 3.78352
0.0381431 0.440021 3.85646
0.0379941 0.408569 3.79141
0.0157308 0.526321 3.81707
0.0376864 0.46836 3.8631
0.0365774 0.504084 3.85073
0.0360842 0.583302 3.77885
-0.13697 0.580947 3.67491
0.0360742 0.638691 3.75803
0.0358694 0.672849 3.76127
0.0357546 0.800673 3.72961
0.0342425 0.341473 3.78028
0.033605 0.334633 3.77328
0.0332809 0.33396 3.76243
0.0355761 0.301084 3.75671
0.0352578 0.292447 3.76226
0.0341698 0.282255 3.76992
0.033925 0.267995 3.76921
0.0345155 0.239249 3.75272
0.0374093 0.425335 3.84435
0.012224 0.425004 3.80735
-0.228897 0.660758 3.5588
-0.0651297 0.564403 3.70174
-0.0899511 0.56272 3.70011
-0.114447 0.562588 3.69359
-0.148555 0.571548 3.67128
-0.0444217 0.568864 3.69885
-0.102266 0.62107 3.70674
-0.0753831 0.619863 3.70579
-0.12643 0.616154 3.69891
-0.142652 0.606741 3.68906
-0.168415 0.55435 3.65892
-0.0596574 0.196701 3.71458
-0.147049 0.584496 3.66666
-0.241718 0.547349 3.54872
-0.196375 0.564703 3.63378
-0.0960746 0.463025 3.72834
-0.00528958 0.358671 3.77939
-0.00428189 0.336436 3.76724
-0.0468362 0.35639 3.76013
-0.0734248 0.351301 3.73298
-0.0349724 0.338365 3.75237
-0.0578746 0.338556 3.72773
-0.0982345 0.306407 3.6874
0.0160074 0.440841 3.85325
0.012917 0.468813 3.85924
-0.181333 0.63083 3.68396
-0.0389794 0.52438 3.7313
-0.0496533 0.450771 3.78666
-0.0508827 0.464786 3.77741
-0.173644 0.466811 3.69398
0.0141651 0.50095 3.84312
-0.120862 0.661572 3.72445
-0.156401 0.651287 3.70688
-0.204302 0.712819 3.60505
-0.0132634 0.643084 3.74905
-0.0513558 0.611799 3.69908
-0.1213 0.337522 3.6811
-0.219932 0.292288 3.49022
-0.0309906 0.433888 3.77799
-0.0079279 0.423781 3.78092
-0.103832 0.338375 3.67923
-0.0922749 0.337211 3.68512
-0.170211 0.667162 3.69389
-0.0528765 0.440623 3.77185
-0.0733775 0.660606 3.73894
-0.0786125 0.683505 3.74344
-0.105309 0.78566 3.6959
-0.186647 0.69177 3.65387
-0.0887452 0.737337 3.72035
-0.19631 0.640126 3.6625
-0.212225 0.649236 3.61236
-0.00557452 0.344655 3.77598
-0.0399805 0.344935 3.75674
-0.065391 0.344786 3.73184
-0.0248307 0.428824 3.77286
-0.0985612 0.33822 3.68212
-0.0817693 0.32211 3.69841
-0.0882651 0.336301 3.68633
-0.0146692 0.44099 3.8161
-0.0540852 0.341106 3.72325
-0.0303231 0.338747 3.74208
-0.00181524 0.335936 3.75679
-0.00571422 0.241464 3.7474
-0.00499674 0.271516 3.76363
-0.00341419 0.28588 3.76403
-0.000974951 0.2958 3.75604
0.00140591 0.302927 3.75108
-0.0527968 0.315401 3.71847
-0.057141 0.313756 3.72178
-0.0627515 0.308985 3.72418
-0.0662654 0.300713 3.71987
-0.0880007 0.374715 3.72631
-0.241322 0.41777 3.45247
0.0390936 0.416164 3.81038
-0.0685047 0.321939 3.69955
-0.0754625 0.323375 3.70028
0.00146578 0.411086 3.78265
-0.0447319 0.423505 3.75264
-0.00305609 0.417175 3.78302
-0.0660197 0.511264 3.72261
-0.109218 0.496391 3.71579
-0.0565024 0.453645 3.76259
-0.165429 0.755923 3.65215
-0.147198 0.722147 3.68795
-0.129573 0.682619 3.71918
-0.0735744 0.279741 3.70642
-0.0215968 0.678744 3.75645
-0.0300807 0.741172 3.73901
-0.0405524 0.799234 3.7211
-0.136105 0.565209 3.68246
-0.196363 0.535445 3.64469
-0.0314835 0.57374 3.696
-0.169245 0.597268 3.66895
-0.0205116 0.540129 3.7408
-0.0309942 0.458841 3.81285
-0.224266 0.51337 3.61747
-0.179464 0.523999 3.66737
-0.147532 0.51909 3.69003
-0.0992786 0.522083 3.70332
-0.0632756 0.530715 3.70878
-0.0377736 0.54166 3.71605
0.0131137 0.575471 3.76913
-0.227044 0.463589 3.62512
-0.190469 0.599866 3.65803
0.0237352 0.426468 3.8423
-0.0393172 0.500058 3.74324
-0.245683 0.538025 3.47032
-0.0183399 0.554184 3.72034
-0.0584167 0.450185 3.73519
-0.155391 0.581673 3.66199
-0.0323185 0.476452 3.80156
-0.236081 0.355689 3.46494
-0.0329507 0.581278 3.68978
-0.00914064 0.491491 3.82738
-0.169262 0.250945 3.61417
-0.162806 0.210569 3.5778
-0.246187 0.437092 3.53816
-0.203616 0.281897 3.58567
-0.22693 0.60151 3.57403
-0.0614221 0.164904 3.70444
0.0283552 0.417234 3.80796
-0.0639371 0.482875 3.73335
-0.218262 0.556047 3.60941
-0.110596 0.577314 3.69004
-0.0889351 0.5767 3.69663
-0.0873275 0.318933 3.69464
-0.228007 0.408175 3.61656
-0.0138267 0.126595 3.70558
-0.0887323 0.156728 3.64917
-0.122364 0.178962 3.61681
0.0359897 0.73943 3.74626
0.0375611 0.123596 3.71395
-0.0685817 0.57795 3.69772
-0.0491596 0.58023 3.69463
-0.0376757 0.580399 3.6903
-0.208622 0.60218 3.6328
-0.0565951 0.599153 3.6963
-0.0789796 0.606283 3.69986
-0.0999877 0.607237 3.69871
-0.121032 0.602374 3.6928
-0.134128 0.594807 3.68473
-0.24087 0.605079 3.50894
-0.125799 0.578948 3.68205
0.0370215 0.390069 3.78328
-0.0609073 0.388071 3.74859
-0.0306449 0.437326 3.788
-0.00424777 0.391008 3.77872
0.0358815 0.611328 3.75869
-0.130712 0.21719 3.63936
-0.0967565 0.190473 3.66948
-0.0170422 0.149576 3.73336
-0.193933 0.244751 3.53369
-0.0405429 0.588468 3.6931
-0.00367714 0.534857 3.77724
0.0364372 0.14633 3.74062
-0.054457 0.138526 3.68296
-0.241951 0.37888 3.54286
-0.0279525 0.30817 3.73676
-0.0321456 0.303383 3.74074
-0.0358752 0.295431 3.74508
-0.0381838 0.282212 3.74264
-0.0444363 0.256963 3.72936
-0.0805659 0.339722 3.70472
-0.0876053 0.342719 3.70379
-0.094468 0.347043 3.70393
-0.111806 0.35889 3.70197
-0.199672 0.403922 3.66649
-0.00266473 0.558731 3.75302
-0.0133635 0.599651 3.70579
-0.029232 0.595136 3.69703
-0.0741043 0.341828 3.70251
-0.200323 0.331933 3.62851
0.00565916 0.605109 3.73999
-0.0522794 0.228952 3.72074
0.0363977 0.531023 3.8251
0.0140692 0.549773 3.79544
0.0363883 0.555756 3.80128
-0.0234785 0.496022 3.7778
0.035739 0.176687 3.75238
0.0350652 0.210953 3.75167
-0.0100104 0.212566 3.74323
-0.11194 0.288881 3.67799
-0.0801661 0.430043 3.72817
-0.0840947 0.254781 3.69684
-0.141826 0.432639 3.71615
-0.107086 0.404271 3.71817
-0.166305 0.389345 3.69183
-0.0158249 0.179015 3.74379
-0.0407418 0.482141 3.75878
-0.127221 0.257777 3.66105
-0.0927405 0.22503 3.68323
-0.136966 0.326454 3.67615
-0.222815 0.359959 3.60755
-0.166294 0.310615 3.65651
-0.22917 0.325819 3.55392
-0.132698 0.375874 3.70137
-0.0207322 0.517247 3.75882
-0.0232558 0.44639 3.82025
-0.0420248 0.441131 3.78999
-0.00974374 0.464274 3.83845
-0.0326043 0.61918 3.71187
-0.072854 0.632257 3.71535
-0.108276 0.634805 3.71331
-0.137681 0.629998 3.70335
-0.158824 0.617907 3.68871
-0.172827 0.573839 3.65203
-0.24649 0.492756 3.54207
-0.154041 0.546855 3.67183
-0.127758 0.542343 3.68736
-0.0943568 0.543265 3.69802
-0.0630959 0.548252 3.70204
-0.0393267 0.555398 3.70371
-0.0231318 0.562623 3.70516
-0.243324 0.477406 3.45363
-0.0424689 0.435258 3.77721
-0.00390861 0.51344 3.79887
-0.00315524 0.444272 3.84065
0.00997191 0.430607 3.8306
-0.00398079 0.439412 3.82839
-0.0362955 0.427133 3.76812
0.0152136 0.428261 3.83774
0.0189758 0.419982 3.80765
-0.0236882 0.579627 3.69338
-0.0108319 0.575876 3.70841
-0.00418292 0.573729 3.72741
-0.141592 0.589092 3.67703
-0.154698 0.596064 3.67508
0.0571838 0.525872 3.81626
0.202679 0.579706 3.67468
0.0637551 0.425414 3.80924
0.284371 0.652993 3.55823
0.131748 0.562408 3.69865
0.155276 0.560823 3.69752
0.178805 0.560701 3.69189
0.21136 0.569881 3.67107
0.113142 0.567266 3.69721
0.166844 0.617388 3.70564
0.141494 0.616723 3.70588
0.190308 0.612351 3.69861
0.205759 0.603168 3.68963
0.231001 0.55178 3.66053
0.129997 0.199867 3.71728
0.212233 0.582917 3.6668
0.299484 0.543472 3.5509
0.256737 0.561382 3.63639
0.163286 0.462265 3.73249
0.073248 0.358988 3.78143
0.0690083 0.336827 3.7692
0.111908 0.357159 3.76411
0.136681 0.351876 3.73765
0.0979178 0.338983 3.75493
0.120904 0.338767 3.73134
0.163889 0.306869 3.69227
0.0590936 0.441201 3.8549
0.0605913 0.468844 3.86059
0.239754 0.625543 3.68566
0.108596 0.523071 3.73152
0.121096 0.451013 3.79084
0.121284 0.46491 3.78141
0.23539 0.465743 3.6988
0.0589136 0.500602 3.84289
0.184803 0.655941 3.72819
0.21747 0.645677 3.70992
0.261451 0.704153 3.6053
0.083512 0.640674 3.7499
0.120152 0.609151 3.69855
0.185815 0.337505 3.6861
0.284079 0.296133 3.4919
0.105274 0.43465 3.78199
0.083333 0.424402 3.78584
0.169258 0.337869 3.68425
0.156335 0.336796 3.69074
0.230067 0.660514 3.69703
0.124113 0.441137 3.77746
0.14075 0.656091 3.74208
0.145414 0.678574 3.74711
0.170069 0.778984 3.69806
0.244904 0.684394 3.65632
0.155747 0.731597 3.72318
0.253933 0.634164 3.66462
0.26916 0.642677 3.61423
0.071616 0.345069 3.77775
0.104125 0.345517 3.75977
0.128695 0.345204 3.73618
0.0998114 0.429649 3.77827
0.163357 0.337858 3.68784
0.14699 0.322167 3.70445
0.151364 0.335797 3.69128
0.088244 0.441563 3.81736
0.115797 0.341244 3.72686
0.093134 0.339122 3.74435
0.0660115 0.336097 3.75781
0.0733893 0.242344 3.74994
0.0712336 0.271928 3.76542
0.0704137 0.286094 3.76517
0.0699821 0.296048 3.75693
0.0678735 0.303252 3.75185
0.118586 0.315865 3.7224
0.12236 0.314376 3.72664
0.127211 0.309598 3.72999
0.131635 0.301342 3.72557
0.155222 0.375145 3.7323
0.306143 0.417081 3.45366
0.134003 0.321802 3.70299
0.140868 0.323381 3.70536
0.0740951 0.411346 3.78542
0.118267 0.424182 3.76006
0.0785139 0.417577 3.78691
0.134742 0.509722 3.72316
0.175423 0.494845 3.7183
0.127207 0.453816 3.76746
0.225504 0.747539 3.65462
0.209155 0.714805 3.69155
0.193377 0.6763 3.72287
0.140493 0.281 3.71041
0.0913942 0.6757 3.75867
0.100228 0.738098 3.74093
0.10895 0.795576 3.72374
0.199455 0.563388 3.68128
0.257229 0.532712 3.64789
0.102351 0.572193 3.6937
0.230611 0.593819 3.67
0.0908352 0.538933 3.74013
0.103014 0.459061 3.81595
0.283496 0.510757 3.62064
0.241541 0.521188 3.6694
0.21168 0.516513 3.69186
0.166379 0.520028 3.70355
0.132283 0.529005 3.70826
0.107374 0.540121 3.71538
0.0587477 0.57479 3.76867
0.287269 0.462331 3.62886
0.249193 0.595511 3.65929
0.0504645 0.426632 3.84256
0.110371 0.499079 3.74427
0.306427 0.533429 3.46982
0.0896589 0.552896 3.7194
0.131319 0.450427 3.74116
0.219222 0.579616 3.66208
0.102841 0.476225 3.80459
0.300532 0.357366 3.46705
0.104176 0.579883 3.68665
0.0801293 0.491203 3.8283
0.235099 0.25603 3.61833
0.229334 0.216711 3.57951
0.308867 0.436635 3.54173
0.26669 0.286546 3.59009
0.285206 0.596046 3.57528
0.133297 0.168847 3.70617
0.049986 0.417254 3.80885
0.133284 0.482122 3.73621
0.27672 0.55262 3.61186
0.1773 0.575614 3.68821
0.155972 0.57471 3.6937
0.152847 0.318947 3.70017
0.28929 0.409198 3.62232
0.0884825 0.128889 3.70578
0.161552 0.161895 3.64918
0.192517 0.184949 3.61726
0.136195 0.575885 3.69491
0.118359 0.578358 3.6913
0.108507 0.578854 3.68687
0.265919 0.597455 3.63456
0.123806 0.597406 3.69395
0.143333 0.604405 3.69872
0.163889 0.605475 3.69784
0.184888 0.600593 3.6925
0.198108 0.593154 3.68534
0.299404 0.598449 3.50833
0.192152 0.577479 3.68105
0.130442 0.388627 3.75387
0.104704 0.438344 3.79289
0.0762516 0.391271 3.78086
0.199852 0.222519 3.64241
0.167206 0.195532 3.67242
0.0886288 0.1518 3.73425
0.258669 0.249781 3.53438
0.110476 0.587065 3.68967
0.0756053 0.534177 3.77731
0.128496 0.1426 3.68293
0.304192 0.380635 3.54759
0.0956228 0.308745 3.73889
0.0992632 0.303959 3.74361
0.102087 0.295895 3.74812
0.104815 0.28281 3.74584
0.111669 0.258235 3.73198
0.142798 0.339508 3.70946
0.150684 0.342645 3.70846
0.157594 0.346862 3.70901
0.177087 0.359058 3.7075
0.259997 0.404989 3.67325
0.0743034 0.557601 3.75224
0.0860502 0.598131 3.70515
0.100291 0.593441 3.69481
0.135741 0.341425 3.70645
0.262573 0.334988 3.635
0.0658873 0.60392 3.74014
0.120422 0.231372 3.72377
0.058024 0.549413 3.79564
0.0946605 0.495667 3.77983
0.0791658 0.213947 3.7455
0.178621 0.290498 3.68234
0.150241 0.42991 3.73377
0.1514 0.257052 3.70095
0.205186 0.432854 3.7229
0.174075 0.404486 3.7241
0.228318 0.390703 3.69914
0.0861193 0.180775 3.7449
0.111411 0.481688 3.76182
0.195121 0.261395 3.66511
0.162309 0.228703 3.68732
0.201811 0.327447 3.68006
0.284044 0.362586 3.6141
0.229682 0.313662 3.662
0.291527 0.329208 3.55811
0.196213 0.376207 3.70707
0.0921643 0.516373 3.75912
0.0956011 0.447028 3.82254
0.114391 0.441924 3.79509
0.0830093 0.464343 3.83964
0.103561 0.616907 3.71131
0.140874 0.629007 3.71643
0.173966 0.630584 3.71521
0.20174 0.625418 3.70507
0.220644 0.613673 3.69043
0.234809 0.571087 3.65349
0.306813 0.490247 3.54409
0.217566 0.544465 3.67272
0.192629 0.540098 3.68764
0.1607 0.541115 3.697
0.131073 0.546425 3.70046
0.108881 0.553966 3.70282
0.0941561 0.561418 3.70413
0.306356 0.474497 3.45302
0.114902 0.436082 3.78283
0.0766018 0.512757 3.7989
0.0769935 0.44494 3.84264
0.0630883 0.431377 3.83261
0.0774116 0.440221 3.83028
0.109511 0.427971 3.77462
0.0582722 0.428782 3.83945
0.0581422 0.420441 3.80934
0.0958514 0.578484 3.69185
0.0825565 0.574668 3.70795
0.0758566 0.572606 3.72707
0.206015 0.587504 3.67763
0.217427 0.593265 3.67617
