ply
format ascii 1.0
comment Created by Open3D
element vertex 468
property double x
property double y
property double z
end_header
-0.0373437 0.341928 3.92272
-0.034811 0.423194 3.97667
-0.0376897 0.391182 3.9152
-0.0550999 0.490552 3.939
-0.0347671 0.447049 3.98233
-0.0341326 0.475152 3.97014
-0.0346456 0.537555 3.9047
-0.203076 0.531326 3.80864
-0.0333912 0.588895 3.88907
-0.0329648 0.620777 3.89326
-0.0342709 0.75089 3.85707
-0.0372429 0.330202 3.92165
-0.0367637 0.319207 3.91487
-0.036155 0.31226 3.90447
-0.0386295 0.246209 3.89008
-0.0387248 0.232537 3.89455
-0.0382622 0.217087 3.89745
-0.0387822 0.200468 3.88728
-0.0396601 0.1866 3.8543
-0.0342995 0.410416 3.96566
-0.0570409 0.405746 3.93255
-0.290053 0.60478 3.69315
-0.131681 0.517753 3.83238
-0.154541 0.515292 3.83127
-0.178217 0.514576 3.82565
-0.211774 0.523486 3.80535
-0.114377 0.522992 3.83113
-0.166067 0.574422 3.83814
-0.139838 0.573253 3.83961
-0.190718 0.56976 3.8308
-0.206724 0.560735 3.82194
-0.230448 0.506101 3.79723
-0.121147 0.183135 3.82727
-0.212627 0.534315 3.80129
-0.299582 0.500514 3.68834
-0.256567 0.51663 3.77277
-0.151827 0.424196 3.86162
-0.0667284 0.344403 3.91849
-0.060103 0.318212 3.91131
-0.0944259 0.332356 3.90518
-0.109831 0.316081 3.88617
-0.0788449 0.312741 3.90101
-0.0928296 0.303559 3.88271
-0.138888 0.256951 3.8414
-0.053267 0.423715 3.97511
-0.056272 0.446457 3.98021
-0.239807 0.578398 3.81843
-0.105618 0.482783 3.86232
-0.106199 0.421196 3.91494
-0.108195 0.431933 3.90636
-0.218508 0.421505 3.83493
-0.0557073 0.471345 3.96302
-0.183304 0.605275 3.86248
-0.216536 0.596437 3.84328
-0.267377 0.653247 3.73943
-0.0819735 0.589868 3.88319
-0.118961 0.56493 3.8331
-0.153345 0.285447 3.83807
-0.266353 0.277082 3.62654
-0.0898578 0.406465 3.90673
-0.0715591 0.399733 3.91048
-0.129313 0.279468 3.84329
-0.11442 0.281804 3.84946
-0.229369 0.610091 3.83049
-0.106172 0.409601 3.90236
-0.139237 0.604477 3.87582
-0.143722 0.624763 3.87979
-0.174518 0.727149 3.82908
-0.247087 0.634067 3.79042
-0.157168 0.678413 3.85561
-0.25456 0.586 3.79715
-0.272413 0.595282 3.74879
-0.0640657 0.330559 3.91795
-0.0867715 0.321037 3.90459
-0.102071 0.310011 3.8868
-0.0843402 0.401675 3.90321
-0.121857 0.279921 3.84739
-0.115257 0.264864 3.85868
-0.110302 0.2843 3.84889
-0.0781714 0.419187 3.93931
-0.086052 0.303877 3.87803
-0.072919 0.309218 3.89117
-0.0561366 0.311772 3.90085
-0.0730272 0.191557 3.85583
-0.0719872 0.206283 3.88741
-0.0696096 0.221487 3.89443
-0.0661963 0.2374 3.8908
-0.0623858 0.248509 3.8865
-0.0924966 0.261152 3.86704
-0.0980321 0.257269 3.8705
-0.106497 0.250708 3.87249
-0.11371 0.243282 3.86828
-0.130125 0.340837 3.87702
-0.299553 0.384253 3.58956
-0.0371713 0.400059 3.93385
-0.100462 0.268313 3.85586
-0.107798 0.266785 3.85823
-0.065712 0.389874 3.90914
-0.100685 0.392486 3.88601
-0.0682521 0.394842 3.91107
-0.129027 0.469243 3.85443
-0.166729 0.452272 3.85062
-0.11187 0.419709 3.89351
-0.23072 0.695335 3.7878
-0.210761 0.662613 3.82486
-0.192171 0.623643 3.85655
-0.1238 0.23422 3.84842
-0.0893567 0.621479 3.89152
-0.10053 0.685897 3.87272
-0.111211 0.744976 3.85259
-0.199208 0.51702 3.81559
-0.255178 0.487419 3.78527
-0.104147 0.527457 3.82785
-0.231849 0.549504 3.80401
-0.0895579 0.497764 3.87005
-0.092807 0.432912 3.9382
-0.279146 0.467559 3.75819
-0.239068 0.474481 3.80703
-0.207985 0.46949 3.82932
-0.162629 0.475834 3.83857
-0.12996 0.486852 3.84202
-0.10646 0.498201 3.84825
-0.0579042 0.529983 3.89613
-0.274562 0.42027 3.76711
-0.249782 0.55007 3.79351
-0.045804 0.410833 3.96388
-0.103854 0.461215 3.87292
-0.3082 0.490066 3.60613
-0.0899865 0.509729 3.85224
-0.115605 0.413907 3.86934
-0.221149 0.534017 3.7968
-0.0940476 0.446099 3.9276
-0.28873 0.331751 3.60149
-0.10545 0.533852 3.82142
-0.0754437 0.461707 3.94941
-0.210775 0.235681 3.74973
-0.210052 0.206769 3.70863
-0.299847 0.400612 3.67973
-0.240341 0.263922 3.72305
-0.288056 0.550164 3.71169
-0.124058 0.162098 3.81247
-0.0462231 0.400473 3.93233
-0.123485 0.444114 3.86537
-0.276566 0.508788 3.7486
-0.177133 0.527599 3.82234
-0.155477 0.527423 3.82772
-0.122662 0.262323 3.85536
-0.267057 0.372586 3.76033
-0.0850807 0.126409 3.80606
-0.150027 0.161279 3.76406
-0.177034 0.180845 3.74022
-0.0342423 0.68852 3.87659
-0.0366113 0.118974 3.81195
-0.136236 0.529414 3.82898
-0.119743 0.532407 3.82582
-0.110073 0.532953 3.8216
-0.267206 0.551604 3.76911
-0.121353 0.546263 3.82914
-0.139218 0.551103 3.83395
-0.160126 0.5511 3.83256
-0.18167 0.547434 3.82701
-0.195942 0.542037 3.81959
-0.304268 0.55168 3.64459
-0.192134 0.529165 3.81518
-0.0380976 0.373878 3.91032
-0.112014 0.358673 3.88899
-0.0901362 0.41191 3.91723
-0.0699432 0.370652 3.90805
-0.0337022 0.563446 3.88689
-0.181698 0.208067 3.76886
-0.153842 0.185989 3.78841
-0.0855105 0.143014 3.8338
-0.23844 0.234888 3.66736
-0.110752 0.538905 3.82479
-0.0734466 0.495178 3.90381
-0.0367426 0.134532 3.83847
-0.120847 0.142077 3.78884
-0.289367 0.35066 3.68453
-0.0798686 0.253641 3.87785
-0.085391 0.246023 3.88156
-0.0920557 0.234428 3.88396
-0.0973102 0.221414 3.87943
-0.102837 0.210939 3.85571
-0.104462 0.294029 3.86534
-0.113752 0.296172 3.86536
-0.121411 0.300189 3.86496
-0.143914 0.315881 3.85898
-0.232038 0.367182 3.80931
-0.0738024 0.514869 3.88156
-0.0870537 0.551592 3.84039
-0.100958 0.548434 3.82961
-0.0979969 0.296995 3.86143
-0.230837 0.303745 3.77059
-0.0652314 0.55657 3.87116
-0.112972 0.199806 3.83829
-0.0345313 0.495748 3.9471
-0.0564055 0.509488 3.92065
-0.0347815 0.515292 3.92539
-0.0895537 0.461159 3.90569
-0.0376464 0.154134 3.85011
-0.0390573 0.172558 3.85055
-0.0786068 0.179056 3.84719
-0.159194 0.252117 3.82471
-0.134335 0.394067 3.86371
-0.138978 0.224371 3.82987
-0.184631 0.393253 3.85317
-0.153341 0.367819 3.86019
-0.198415 0.352089 3.83387
-0.0835675 0.161924 3.84498
-0.10254 0.446478 3.88856
-0.176497 0.234772 3.79922
-0.15018 0.207852 3.80905
-0.174837 0.284284 3.82484
-0.25661 0.331055 3.75102
-0.201126 0.279887 3.80075
-0.270807 0.304061 3.6934
-0.166072 0.333811 3.8493
-0.0886989 0.478374 3.88692
-0.0847494 0.424022 3.9444
-0.0988979 0.414455 3.91901
-0.0759409 0.440753 3.95997
-0.103411 0.570895 3.84602
-0.140372 0.583859 3.85092
-0.17407 0.585952 3.84889
-0.202427 0.58043 3.83813
-0.22174 0.568728 3.82318
-0.235904 0.526322 3.78904
-0.302679 0.450541 3.68222
-0.217359 0.498319 3.80913
-0.192092 0.494108 3.82378
-0.159766 0.496432 3.83175
-0.130575 0.503067 3.83432
-0.109446 0.510879 3.83672
-0.0955058 0.517607 3.83798
-0.304061 0.435893 3.58957
-0.0979681 0.406711 3.90748
-0.0738729 0.477853 3.92293
-0.069178 0.425236 3.96326
-0.0567359 0.413181 3.95449
-0.0691535 0.419944 3.95188
-0.0923579 0.398546 3.89977
-0.0528505 0.412039 3.96089
-0.0526379 0.402186 3.93288
-0.0972381 0.533607 3.82614
-0.0839714 0.53003 3.84208
-0.0764323 0.528 3.85928
-0.204974 0.538044 3.81224
-0.21906 0.549357 3.80919
-0.0139766 0.491441 3.93978
0.14212 0.539088 3.80536
-0.0148227 0.405423 3.9314
0.241424 0.622163 3.68704
0.0707627 0.522748 3.83372
0.095523 0.521108 3.83164
0.120169 0.520828 3.82467
0.154153 0.531769 3.802
0.0501014 0.527031 3.83124
0.109137 0.584028 3.83579
0.0810822 0.581036 3.83656
0.133855 0.580066 3.82685
0.150059 0.570927 3.81695
0.175394 0.513691 3.79126
0.0512048 0.179023 3.82389
0.152141 0.543484 3.79706
0.249001 0.513853 3.68211
0.203962 0.526565 3.76584
0.0880197 0.42529 3.85622
-0.0070415 0.344043 3.91774
-0.0117623 0.317864 3.91138
0.023504 0.331199 3.90428
0.0398344 0.315024 3.88665
0.00904329 0.31224 3.90273
0.0225257 0.302889 3.88487
0.069356 0.254667 3.83836
-0.0152416 0.4237 3.9738
-0.0116708 0.446549 3.97861
0.188526 0.591563 3.81148
0.0410084 0.485094 3.86111
0.0398318 0.421714 3.91303
0.0429657 0.432576 3.90418
0.164261 0.424211 3.82889
-0.0124685 0.471973 3.9631
0.125995 0.617067 3.85329
0.162632 0.609511 3.83463
0.216455 0.670311 3.73223
0.0173155 0.593578 3.88037
0.0565066 0.571014 3.83136
0.0842622 0.28361 3.8365
0.212777 0.280658 3.62584
0.0195442 0.4064 3.90553
-0.000777954 0.399017 3.90687
0.0568269 0.278808 3.84516
0.0443894 0.280997 3.8519
0.176395 0.62431 3.82125
0.0397528 0.409626 3.89979
0.0779413 0.612618 3.86862
0.082746 0.633644 3.8723
0.113422 0.737681 3.82263
0.195685 0.648892 3.78221
0.0942174 0.687985 3.84947
0.204204 0.600108 3.78984
0.2231 0.610527 3.74157
-0.00891155 0.330199 3.91779
0.0156526 0.320129 3.90505
0.0316389 0.309225 3.88786
0.0128147 0.401188 3.90051
0.0503987 0.279192 3.84916
0.0434153 0.263723 3.85806
0.0413588 0.283455 3.85167
0.0103222 0.419499 3.93987
0.0174809 0.303713 3.88104
0.00349424 0.30901 3.8934
-0.0145719 0.311824 3.90218
-0.0034495 0.190023 3.85145
-0.00367214 0.204989 3.88441
-0.00595266 0.220493 3.89262
-0.010331 0.236727 3.89036
-0.0139916 0.247998 3.8869
0.0201301 0.260227 3.86848
0.0256698 0.255904 3.86988
0.0343641 0.248918 3.86978
0.0410915 0.241327 3.86468
0.0614699 0.339798 3.87427
0.241694 0.394607 3.58694
0.0293153 0.267807 3.85909
0.0359226 0.265818 3.85942
-0.00833855 0.389673 3.90747
0.0296841 0.391731 3.88135
-0.00450052 0.394297 3.90829
0.0660493 0.471773 3.85265
0.106215 0.454935 3.84593
0.0459959 0.420208 3.89074
0.175859 0.710304 3.77957
0.154044 0.675859 3.8162
0.134505 0.636167 3.84753
0.0530213 0.231799 3.84469
0.0254707 0.626367 3.88691
0.0341075 0.690623 3.86873
0.0460465 0.750361 3.84733
0.141898 0.52406 3.81319
0.202955 0.49511 3.77809
0.0367311 0.531421 3.82888
0.177018 0.560317 3.79852
0.0237676 0.499797 3.86991
0.0265995 0.433101 3.93623
0.229992 0.476222 3.75168
0.184969 0.480789 3.8011
0.151663 0.47435 3.8242
0.102163 0.4797 3.83592
0.066994 0.490207 3.84097
0.0421987 0.500849 3.8474
-0.0106757 0.531157 3.89584
0.224447 0.426269 3.76193
0.198611 0.561799 3.78783
-0.0223328 0.410897 3.964
0.0377823 0.463073 3.87186
0.25257 0.505456 3.60177
0.0229619 0.512138 3.85203
0.0467116 0.414162 3.86514
0.162393 0.543759 3.79224
0.0292438 0.446696 3.9254
0.233038 0.339047 3.59911
0.0377327 0.538201 3.82353
0.00946167 0.462383 3.94824
0.153499 0.233054 3.74765
0.155138 0.20474 3.70839
0.246841 0.408965 3.67463
0.186874 0.263763 3.72089
0.236734 0.564758 3.70529
0.0557461 0.1581 3.81046
-0.028239 0.400525 3.93176
0.0591497 0.445601 3.86227
0.226174 0.519795 3.74184
0.115509 0.534214 3.82139
0.0939957 0.533604 3.82834
0.0510679 0.261232 3.8542
0.216247 0.376227 3.75488
0.0137628 0.124085 3.80502
0.0858596 0.157167 3.76436
0.11738 0.177072 3.7408
0.0740114 0.534971 3.83001
0.0550225 0.537357 3.82764
0.0428577 0.537529 3.82387
0.217433 0.56436 3.7624
0.0606637 0.552013 3.83063
0.0833477 0.557839 3.83339
0.104649 0.558356 3.83109
0.125522 0.555262 3.82449
0.138438 0.550413 3.81599
0.251357 0.568418 3.63875
0.1307 0.536311 3.81312
0.0418732 0.35775 3.8858
0.0208512 0.411537 3.91445
-0.00450767 0.370387 3.9066
0.120075 0.203541 3.76638
0.0887917 0.181051 3.78599
0.0145061 0.140329 3.83198
0.185645 0.235631 3.66846
0.0450864 0.54363 3.8273
0.0057485 0.496411 3.90335
0.0526029 0.138778 3.78918
0.237474 0.356065 3.6791
0.00501405 0.252989 3.87911
0.0108905 0.245011 3.88114
0.0180493 0.233074 3.88193
0.0230365 0.219736 3.87612
0.0304117 0.208954 3.85183
0.034908 0.293534 3.86849
0.043453 0.295472 3.86775
0.0515852 0.299417 3.86671
0.0754319 0.314598 3.85808
0.179301 0.368544 3.80312
0.0061224 0.516513 3.8813
0.0187179 0.554745 3.83948
0.0343125 0.553065 3.83079
0.0291078 0.29651 3.86514
0.175862 0.303518 3.76655
-0.00196302 0.558383 3.87018
0.0414904 0.19633 3.83338
-0.0118785 0.510084 3.91994
0.0231919 0.46212 3.90365
0.00287144 0.176972 3.84381
0.0927247 0.248505 3.81954
0.0663442 0.39392 3.85896
0.0706817 0.220347 3.82402
0.123973 0.393344 3.84554
0.0867529 0.367226 3.85511
0.139956 0.351398 3.82785
0.0104887 0.159743 3.84312
0.0370695 0.447544 3.88631
0.112858 0.230332 3.7947
0.0825223 0.20293 3.80389
0.109932 0.281909 3.82175
0.204922 0.332788 3.74577
0.142625 0.27741 3.79643
0.218905 0.306927 3.69015
0.101642 0.332441 3.84586
0.0217538 0.479857 3.8865
0.0183478 0.423993 3.94369
0.0315753 0.414197 3.9162
0.00865545 0.441094 3.95937
0.0376011 0.575677 3.84535
0.0783044 0.591242 3.84654
0.114594 0.595654 3.84254
0.144944 0.5916 3.83175
0.166167 0.580545 3.81694
0.180626 0.535977 3.78327
0.251387 0.461691 3.67745
0.161017 0.505105 3.80415
0.13449 0.499535 3.81999
0.0999865 0.501235 3.83007
0.0682796 0.507112 3.8342
0.0448644 0.514079 3.83567
0.0286 0.520361 3.83755
0.246966 0.449235 3.58694
0.0298888 0.406416 3.90464
0.00539586 0.479081 3.92292
0.00162935 0.425109 3.96207
-0.0107234 0.412905 3.95288
0.00159775 0.419821 3.95081
0.0227022 0.397675 3.8962
-0.0150619 0.411725 3.95938
-0.0201083 0.401972 3.9315
0.0282265 0.53731 3.8268
0.0160352 0.532548 3.84136
0.00877179 0.529852 3.85815
0.146186 0.546759 3.80781
0.161772 0.559576 3.80343
