ply
format ascii 1.0
comment Created by Open3D
element vertex 468
property double x
property double y
property double z
end_header
-0.0326056 0.381538 3.96016
-0.033815 0.456478 4.03142
-0.0355417 0.427924 3.96507
-0.052771 0.545723 3.99043
-0.0328037 0.485403 4.03835
-0.0316915 0.522224 4.02522
-0.0315258 0.605685 3.95301
-0.206727 0.607357 3.84587
-0.0306118 0.659727 3.93371
-0.0298655 0.694348 3.93772
-0.0269685 0.837334 3.90343
-0.0317346 0.369968 3.95752
-0.0308949 0.36262 3.95039
-0.0304675 0.361068 3.93916
-0.0312798 0.326846 3.93369
-0.0315 0.31775 3.93869
-0.0309648 0.30624 3.94503
-0.0313122 0.291231 3.94189
-0.033236 0.262662 3.91976
-0.0337613 0.441822 4.01913
-0.0586684 0.443129 3.98376
-0.293573 0.686117 3.72551
-0.131826 0.588337 3.86993
-0.155996 0.58663 3.86918
-0.180513 0.586515 3.86361
-0.215038 0.597059 3.84241
-0.112985 0.593241 3.86912
-0.167197 0.644981 3.87838
-0.140745 0.643909 3.87912
-0.191783 0.640444 3.87119
-0.208297 0.631683 3.86182
-0.235001 0.577823 3.83172
-0.127274 0.222477 3.88962
-0.216617 0.611406 3.83791
-0.306846 0.572172 3.71817
-0.261652 0.587998 3.80715
-0.159635 0.482834 3.90529
-0.067855 0.386099 3.95714
-0.0625426 0.363977 3.94587
-0.102995 0.382482 3.94079
-0.124812 0.374766 3.91624
-0.0884141 0.364629 3.93214
-0.108623 0.362384 3.90978
-0.151367 0.326908 3.87145
-0.0542167 0.457637 4.03021
-0.055837 0.485821 4.0361
-0.243182 0.651134 3.8582
-0.105658 0.546327 3.90459
-0.11371 0.469154 3.96464
-0.113734 0.483785 3.9548
-0.234657 0.485989 3.8724
-0.0539169 0.51898 4.01728
-0.183859 0.679806 3.90405
-0.218624 0.670821 3.88448
-0.267764 0.738284 3.77482
-0.0787315 0.66175 3.92532
-0.11927 0.63625 3.87144
-0.172299 0.355995 3.86612
-0.286144 0.321077 3.65842
-0.0976496 0.452517 3.9554
-0.0764263 0.443202 3.96036
-0.151858 0.357013 3.86489
-0.138449 0.356452 3.87119
-0.23214 0.686312 3.87113
-0.11551 0.459535 3.9507
-0.137791 0.678351 3.91808
-0.142123 0.701286 3.92333
-0.168865 0.814536 3.87117
-0.248595 0.714511 3.82879
-0.153706 0.761656 3.89858
-0.258286 0.660164 3.83567
-0.275545 0.672362 3.78392
-0.0655874 0.372637 3.95417
-0.0950386 0.371185 3.93706
-0.116492 0.368484 3.91474
-0.0920631 0.448276 3.95209
-0.145456 0.357082 3.86867
-0.131296 0.343655 3.88445
-0.133699 0.356006 3.87183
-0.0821184 0.458261 3.99127
-0.103247 0.36434 3.90527
-0.0836621 0.364304 3.92168
-0.0593224 0.362276 3.93434
-0.069687 0.265228 3.91781
-0.0656701 0.29491 3.93781
-0.0641601 0.310121 3.93961
-0.0632281 0.321214 3.93277
-0.0607567 0.328903 3.92782
-0.105438 0.339298 3.90006
-0.109151 0.337452 3.90427
-0.114027 0.332273 3.90729
-0.119024 0.323632 3.90243
-0.145581 0.395944 3.91015
-0.313104 0.445304 3.61818
-0.0364111 0.433849 3.98482
-0.119073 0.343974 3.88201
-0.125291 0.345021 3.88464
-0.068213 0.43061 3.95887
-0.109853 0.443419 3.93292
-0.0720639 0.436531 3.96088
-0.131909 0.532566 3.8961
-0.173816 0.516578 3.8916
-0.119362 0.472904 3.94065
-0.228257 0.782414 3.82638
-0.209822 0.745254 3.86585
-0.192659 0.701093 3.89829
-0.130941 0.302382 3.88668
-0.0865955 0.697343 3.93511
-0.0956144 0.768442 3.91675
-0.103643 0.831783 3.89783
-0.202326 0.589682 3.85315
-0.261504 0.557675 3.81906
-0.102178 0.598383 3.86552
-0.234603 0.621256 3.84177
-0.0880436 0.562441 3.91343
-0.0968888 0.476556 3.99006
-0.288333 0.53569 3.79077
-0.244905 0.544792 3.84156
-0.213159 0.539178 3.86453
-0.16618 0.543438 3.87613
-0.130925 0.553175 3.88061
-0.105421 0.564783 3.88842
-0.0550364 0.597554 3.94262
-0.290298 0.48488 3.80021
-0.253373 0.621808 3.83069
-0.0463439 0.443344 4.01754
-0.105859 0.520816 3.91709
-0.31701 0.564182 3.63372
-0.0876708 0.577578 3.89245
-0.123665 0.470199 3.91375
-0.223637 0.60776 3.83302
-0.0962306 0.494679 3.97848
-0.304742 0.38398 3.63265
-0.103934 0.606802 3.85825
-0.0750393 0.509502 4.00236
-0.23194 0.278355 3.79157
-0.227433 0.24034 3.74934
-0.31369 0.462256 3.70995
-0.264952 0.309001 3.76161
-0.292894 0.625434 3.74364
-0.130932 0.19236 3.87758
-0.0466324 0.435156 3.98354
-0.128476 0.503449 3.90879
-0.282223 0.579535 3.78151
-0.179894 0.602225 3.86009
-0.157362 0.60117 3.86553
-0.137221 0.339919 3.88022
-0.289415 0.43099 3.79442
-0.0868417 0.153146 3.87477
-0.159235 0.186489 3.8195
-0.189876 0.209146 3.78764
-0.028859 0.769772 3.92175
-0.0354907 0.14701 3.8831
-0.136801 0.602543 3.86664
-0.118666 0.605073 3.86282
-0.108468 0.605567 3.85826
-0.270956 0.623964 3.80458
-0.123124 0.625793 3.86558
-0.142789 0.633791 3.8702
-0.164884 0.63549 3.86928
-0.187127 0.630592 3.86421
-0.201362 0.622657 3.85665
-0.310458 0.630603 3.67388
-0.195758 0.604511 3.85252
-0.0348188 0.412421 3.95671
-0.121715 0.409548 3.92876
-0.0972808 0.455866 3.96682
-0.0709375 0.413282 3.95423
-0.0308317 0.633675 3.93272
-0.19664 0.245559 3.81634
-0.164264 0.218893 3.84502
-0.08723 0.174763 3.90475
-0.258838 0.273512 3.70226
-0.110053 0.614489 3.861
-0.0718082 0.555891 3.95114
-0.0343711 0.169047 3.91084
-0.126301 0.166985 3.85231
-0.30644 0.405099 3.71622
-0.0855267 0.333426 3.91538
-0.0893517 0.328384 3.92001
-0.0924962 0.319537 3.9232
-0.0959709 0.305939 3.92011
-0.104712 0.280599 3.90383
-0.126767 0.360767 3.88926
-0.134975 0.363661 3.88877
-0.142033 0.367803 3.88926
-0.165203 0.37879 3.88751
-0.257366 0.425036 3.84738
-0.0711213 0.580995 3.92599
-0.0838821 0.623619 3.87859
-0.0994282 0.620059 3.86701
-0.120093 0.362989 3.88579
-0.258674 0.355883 3.80888
-0.0619492 0.627271 3.91389
-0.116287 0.253073 3.89535
-0.0317259 0.550654 3.99961
-0.0538534 0.570757 3.96971
-0.0318817 0.577023 3.97564
-0.0897668 0.51585 3.95336
-0.0339496 0.198854 3.9228
-0.0337921 0.233455 3.92079
-0.0770445 0.236348 3.91527
-0.171089 0.310801 3.86073
-0.142995 0.449789 3.9068
-0.145232 0.278299 3.87634
-0.201546 0.45255 3.89681
-0.167355 0.424334 3.89932
-0.223561 0.409787 3.87431
-0.0847019 0.203021 3.91582
-0.105129 0.501936 3.9347
-0.19076 0.282854 3.8416
-0.158305 0.25116 3.86184
-0.193037 0.346153 3.85869
-0.282408 0.384235 3.78642
-0.224024 0.333846 3.83864
-0.292084 0.352838 3.72765
-0.187949 0.39466 3.88482
-0.0883194 0.538199 3.9323
-0.0892007 0.463727 3.99679
-0.106709 0.45977 3.96918
-0.0776255 0.481542 4.01465
-0.101333 0.64189 3.88499
-0.139424 0.654262 3.891
-0.173887 0.656604 3.88958
-0.2032 0.652061 3.87912
-0.223478 0.640805 3.86378
-0.239208 0.598445 3.82443
-0.313506 0.517438 3.71171
-0.220949 0.569849 3.84417
-0.194382 0.564894 3.85968
-0.160955 0.566149 3.86921
-0.130478 0.571597 3.87213
-0.107628 0.579394 3.87535
-0.0929283 0.586914 3.87658
-0.315698 0.503925 3.61684
-0.106768 0.454218 3.95638
-0.0724148 0.532735 3.97271
-0.0714436 0.461432 4.01749
-0.0579335 0.448235 4.00748
-0.0717631 0.456938 4.00496
-0.101181 0.44675 3.94801
-0.0537464 0.445526 4.01433
-0.0538149 0.438186 3.98385
-0.0953409 0.604721 3.86388
-0.0808025 0.600195 3.88078
-0.0731784 0.5972 3.90077
-0.20973 0.616498 3.84865
-0.221037 0.621612 3.84791
-0.0116499 0.546053 3.99148
0.14498 0.608815 3.84551
-0.0107906 0.441968 3.98178
0.252426 0.698561 3.72344
0.0718572 0.590157 3.87396
0.0973319 0.588644 3.87222
0.122333 0.588912 3.8653
0.15713 0.598937 3.84218
0.0503636 0.594397 3.87149
0.110342 0.648187 3.8792
0.082866 0.646966 3.8788
0.134868 0.643414 3.8712
0.151268 0.634342 3.86065
0.178332 0.58123 3.82922
0.0633376 0.216958 3.88625
0.155186 0.612904 3.83675
0.258326 0.57929 3.71468
0.2086 0.592496 3.80288
0.0979729 0.483938 3.90104
0.00562495 0.385895 3.95586
0.00431465 0.36387 3.94496
0.0450825 0.38145 3.93789
0.070211 0.37425 3.91374
0.033298 0.364206 3.93197
0.0548226 0.36252 3.90892
0.0965703 0.325232 3.86856
-0.0121209 0.457064 4.028
-0.00883905 0.485808 4.03392
0.193478 0.655863 3.85476
0.0426794 0.547591 3.90495
0.049584 0.469003 3.96033
0.0505012 0.484033 3.95121
0.178599 0.488126 3.86712
-0.00979933 0.519067 4.01766
0.128893 0.68473 3.89874
0.166694 0.675419 3.87961
0.225619 0.751301 3.77158
0.018053 0.663931 3.92437
0.0582099 0.63866 3.87171
0.119089 0.355441 3.86312
0.233353 0.316409 3.65595
0.0303214 0.451609 3.95118
0.00772204 0.442182 3.95446
0.0980064 0.357321 3.86334
0.087443 0.357323 3.86918
0.182106 0.692203 3.86572
0.0520214 0.459285 3.94532
0.0792037 0.682265 3.91385
0.08499 0.706072 3.91815
0.119272 0.823486 3.86721
0.202909 0.723857 3.82376
0.0983887 0.76835 3.8943
0.210479 0.666321 3.83196
0.230993 0.681298 3.77993
0.00569285 0.372315 3.95318
0.0383474 0.37057 3.93611
0.0623604 0.36822 3.91328
0.0238969 0.447199 3.94637
0.0928817 0.357584 3.86619
0.078227 0.34351 3.88149
0.0844443 0.356796 3.8703
0.0165873 0.45714 3.99065
0.0513201 0.365211 3.90466
0.0286888 0.364504 3.92187
0.0021116 0.362559 3.93492
0.00575578 0.264009 3.91592
0.00574633 0.29422 3.93813
0.00490727 0.309358 3.94075
0.00275472 0.320616 3.93434
0.000554339 0.328307 3.92958
0.0513819 0.339024 3.89912
0.0555684 0.337092 3.90232
0.0606847 0.331505 3.90443
0.0640454 0.322521 3.89973
0.0865152 0.396017 3.90454
0.258096 0.447666 3.61628
0.0662437 0.344294 3.88202
0.0723168 0.345241 3.88281
-0.0013709 0.429997 3.956
0.0425832 0.442938 3.92531
0.00315123 0.435842 3.95651
0.0695205 0.534337 3.89625
0.113419 0.518724 3.88922
0.0557442 0.473249 3.93615
0.183244 0.794501 3.82147
0.160061 0.753964 3.85997
0.138401 0.707021 3.89277
0.0734926 0.300328 3.88474
0.0272285 0.700376 3.93188
0.0384793 0.771946 3.91385
0.0522647 0.836571 3.89373
0.144424 0.59192 3.85369
0.207236 0.561698 3.81454
0.0368804 0.599126 3.86881
0.180004 0.624574 3.83948
0.0246085 0.563436 3.91459
0.0321969 0.475912 3.98694
0.236843 0.539848 3.78676
0.18868 0.548543 3.83844
0.155058 0.542533 3.86248
0.104981 0.545999 3.87665
0.0681649 0.555044 3.88218
0.0425798 0.565976 3.88963
-0.00837124 0.598201 3.94329
0.236423 0.487547 3.79566
0.203376 0.626654 3.82767
-0.0205652 0.442978 4.01718
0.0411562 0.52197 3.91684
0.266214 0.572949 3.63262
0.0229216 0.578516 3.89386
0.0568392 0.470652 3.90822
0.164231 0.60991 3.83234
0.0333932 0.494735 3.97552
0.25087 0.38245 3.62936
0.0380766 0.607431 3.86227
0.0122645 0.509646 4.00153
0.177977 0.270042 3.78617
0.173866 0.230142 3.74672
0.258652 0.464086 3.70528
0.213769 0.302467 3.75563
0.245367 0.634228 3.74039
0.0660402 0.185622 3.87513
-0.0262666 0.434863 3.98255
0.0650853 0.504657 3.90657
0.231955 0.584856 3.77766
0.117876 0.604005 3.8614
0.0959598 0.60314 3.86849
0.0836117 0.339462 3.87745
0.235775 0.430925 3.78795
0.016907 0.148991 3.87477
0.0951021 0.177205 3.81915
0.130931 0.198532 3.78689
0.0752799 0.604323 3.87003
0.0554857 0.606481 3.86716
0.0431289 0.606489 3.86303
0.223585 0.630186 3.80133
0.0627762 0.627306 3.86873
0.0859315 0.635511 3.87185
0.107323 0.636751 3.87039
0.128495 0.631825 3.86399
0.141703 0.623918 3.8556
0.263466 0.641889 3.67168
0.133463 0.606124 3.85308
0.0586355 0.409325 3.92366
0.0306283 0.454556 3.96154
0.00448813 0.412952 3.9522
0.138072 0.236509 3.81203
0.103048 0.20991 3.84135
0.0201537 0.170871 3.90372
0.206272 0.265975 3.70084
0.0458363 0.615274 3.86567
0.00732699 0.556428 3.95123
0.0585344 0.160005 3.85268
0.253451 0.403791 3.71011
0.0280029 0.332784 3.91642
0.0320747 0.327673 3.9204
0.0354247 0.318743 3.92357
0.0373838 0.304928 3.92021
0.0441424 0.278909 3.90332
0.0760447 0.361352 3.88772
0.0827393 0.363791 3.88731
0.0896896 0.367919 3.88717
0.109838 0.379217 3.88322
0.204105 0.424922 3.83992
0.00713115 0.581876 3.92709
0.0182563 0.624968 3.8791
0.034887 0.621599 3.87015
0.0706974 0.363972 3.88507
0.206388 0.352437 3.80141
-0.000593203 0.628331 3.91406
0.0543541 0.249257 3.8924
-0.00953505 0.571045 3.96946
0.025368 0.516298 3.95165
0.0115318 0.233992 3.91276
0.114411 0.307183 3.85698
0.0793937 0.450278 3.9014
0.0865253 0.273967 3.87237
0.143767 0.453072 3.88904
0.107618 0.424377 3.89306
0.168562 0.40911 3.86625
0.0183632 0.199976 3.91447
0.0413143 0.502701 3.93241
0.132407 0.276574 3.83699
0.0976002 0.244209 3.85727
0.138574 0.34434 3.85589
0.230443 0.381948 3.77893
0.170742 0.3295 3.83256
0.240182 0.348995 3.72231
0.133725 0.394867 3.87893
0.0234972 0.539157 3.93278
0.0249666 0.46276 3.99465
0.0420822 0.458743 3.9637
0.0128431 0.481048 4.01322
0.0380514 0.643688 3.88596
0.079308 0.656954 3.88931
0.115669 0.660053 3.88701
0.146483 0.65568 3.87646
0.16871 0.644336 3.86065
0.183473 0.601534 3.82188
0.261064 0.522166 3.7088
0.162924 0.572823 3.84263
0.135685 0.567726 3.85913
0.101305 0.568385 3.87051
0.0689892 0.573463 3.87449
0.0448304 0.580448 3.87654
0.028172 0.587687 3.87807
0.261844 0.51001 3.61634
0.0417563 0.453388 3.95054
0.00730941 0.533285 3.97306
0.00592492 0.460371 4.01517
-0.00746954 0.44703 4.00518
0.00627981 0.455507 4.00284
0.0349988 0.445849 3.94123
-0.012311 0.444678 4.01255
-0.0171469 0.437222 3.98194
0.0285047 0.605411 3.86608
0.0155914 0.600962 3.8816
0.00897089 0.598041 3.90082
0.149372 0.617808 3.8475
0.163717 0.624026 3.84573
