ply
format ascii 1.0
comment Created by Open3D
element vertex 468
property double x
property double y
property double z
end_header
0.0269435 0.245604 4.42229
0.0249978 0.326818 4.48393
0.0273421 0.300224 4.41816
0.00708531 0.404531 4.43891
0.0278806 0.351061 4.49037
0.0327246 0.381464 4.47456
0.0309937 0.458724 4.40039
-0.151677 0.467685 4.29184
0.0293228 0.518473 4.3806
0.0279173 0.549474 4.38394
0.0266914 0.657292 4.35028
0.0272137 0.232951 4.41826
0.0275545 0.222166 4.40892
0.0281498 0.216883 4.39642
0.0282952 0.208855 4.3939
0.0273061 0.197448 4.39804
0.0284318 0.182961 4.40118
0.0285217 0.167489 4.39668
0.0270929 0.145757 4.37176
0.0282322 0.312573 4.46755
0.0055016 0.314042 4.43605
-0.246366 0.551504 4.15458
-0.0784891 0.449041 4.31266
-0.10221 0.446423 4.3101
-0.125709 0.446512 4.30408
-0.156058 0.458839 4.28259
-0.0594533 0.455681 4.31671
-0.10913 0.505481 4.32442
-0.0818995 0.503949 4.32757
-0.13428 0.502187 4.31667
-0.149865 0.493842 4.30688
-0.173282 0.441957 4.27178
-0.0579692 0.118746 4.34116
-0.16082 0.472781 4.28341
-0.247649 0.459742 4.14755
-0.197851 0.459233 4.24229
-0.0921651 0.345708 4.35587
-0.00276351 0.249025 4.41753
0.00218655 0.222062 4.40189
-0.0342137 0.241916 4.39959
-0.0568816 0.232063 4.37633
-0.0212198 0.221701 4.38674
-0.0418434 0.219274 4.36893
-0.0853189 0.195071 4.33676
0.00810057 0.326703 4.48148
0.00752328 0.349958 4.48725
-0.181116 0.513567 4.29188
-0.0467734 0.407186 4.35416
-0.04655 0.33359 4.41458
-0.0470149 0.34663 4.40494
-0.164359 0.349051 4.31387
0.00751487 0.379247 4.46581
-0.121455 0.537871 4.34553
-0.15729 0.530051 4.32115
-0.21907 0.588331 4.20555
-0.0215999 0.522208 4.37253
-0.0630813 0.497861 4.32285
-0.106924 0.218964 4.3297
-0.222552 0.246731 4.09404
-0.0312057 0.320298 4.40817
-0.00632977 0.310701 4.41502
-0.0882494 0.217372 4.33125
-0.0712017 0.217648 4.33626
-0.170296 0.543543 4.30725
-0.0452959 0.322812 4.40062
-0.0765151 0.53662 4.36477
-0.0796203 0.553911 4.36799
-0.111314 0.637792 4.30677
-0.191357 0.565504 4.26286
-0.0955463 0.597749 4.33922
-0.198017 0.523135 4.26883
-0.221572 0.535439 4.21528
-0.000762862 0.233607 4.41198
-0.0282009 0.230207 4.39448
-0.0487725 0.225334 4.37538
-0.0236606 0.315226 4.40527
-0.0792955 0.216967 4.33489
-0.0619462 0.210528 4.35226
-0.0660672 0.219148 4.33558
-0.0207518 0.328182 4.43793
-0.0346182 0.22008 4.36261
-0.0166639 0.219633 4.3765
0.00413033 0.218077 4.38889
-0.00304092 0.147995 4.37183
-0.00211795 0.171359 4.39414
-0.00154293 0.186533 4.39697
-0.00146223 0.201065 4.39207
0.00169228 0.210332 4.38698
-0.0379353 0.213716 4.36182
-0.039096 0.209667 4.36782
-0.0423714 0.202611 4.3721
-0.0499973 0.194884 4.36819
-0.0749824 0.259465 4.37108
-0.257549 0.365258 4.05268
0.0241968 0.307681 4.4388
-0.0538744 0.215874 4.34531
-0.056793 0.213739 4.35098
-0.000845653 0.299875 4.41244
-0.0381609 0.308074 4.38919
-0.00327976 0.304774 4.41419
-0.0717446 0.39316 4.34435
-0.110506 0.376327 4.33762
-0.0507908 0.336015 4.39177
-0.171464 0.616937 4.25909
-0.148709 0.58701 4.30294
-0.131075 0.554674 4.33953
-0.0637599 0.177858 4.34807
-0.0268549 0.550415 4.38123
-0.0381471 0.601069 4.36132
-0.044718 0.649102 4.34014
-0.14465 0.450457 4.29311
-0.195438 0.425786 4.25607
-0.0513919 0.463048 4.31552
-0.174806 0.486067 4.27958
-0.0303341 0.422977 4.36301
-0.0319912 0.342534 4.43951
-0.223374 0.411548 4.22469
-0.182361 0.407834 4.28173
-0.152059 0.398335 4.30979
-0.10891 0.40369 4.32324
-0.0744623 0.414812 4.32948
-0.0489606 0.426205 4.33778
0.00427796 0.453407 4.38992
-0.224588 0.362934 4.23583
-0.191763 0.488871 4.26305
0.016416 0.313771 4.46511
-0.0453452 0.383601 4.36816
-0.267043 0.465657 4.06469
-0.0328663 0.439422 4.34284
-0.056442 0.334867 4.37071
-0.167179 0.472342 4.27578
-0.0308005 0.357857 4.42714
-0.244149 0.308022 4.06772
-0.055137 0.472051 4.3078
-0.0114721 0.371205 4.45005
-0.162401 0.181193 4.23845
-0.161958 0.156896 4.19103
-0.252385 0.363305 4.14569
-0.193594 0.215926 4.20233
-0.238602 0.501282 4.17478
-0.0646134 0.0954777 4.32818
0.0152454 0.308674 4.4379
-0.0635474 0.365333 4.35968
-0.218172 0.456492 4.21203
-0.126907 0.461188 4.30574
-0.105864 0.459822 4.30987
-0.0700594 0.206488 4.34807
-0.217498 0.316525 4.23347
-0.0260483 0.0564929 4.32584
-0.0998423 0.0992994 4.26787
-0.129153 0.12331 4.23356
0.0254765 0.603817 4.37026
0.0267743 0.0441992 4.33269
-0.084826 0.461862 4.31182
-0.0691785 0.466843 4.3103
-0.0607838 0.470262 4.30765
-0.20962 0.493501 4.23487
-0.0703446 0.482183 4.31208
-0.0867877 0.484745 4.31553
-0.10815 0.485704 4.31507
-0.12971 0.482903 4.30995
-0.143004 0.478201 4.30272
-0.263982 0.514073 4.10557
-0.141872 0.464446 4.29849
0.0258758 0.283767 4.41418
-0.0517349 0.273936 4.38714
-0.0302729 0.323512 4.41913
-0.0055233 0.280533 4.4115
0.0311965 0.489677 4.37931
-0.129256 0.148633 4.26947
-0.0959463 0.122634 4.29781
-0.0224551 0.0730575 4.35473
-0.194086 0.195562 4.13838
-0.0612789 0.476612 4.30909
-0.0127029 0.415315 4.40133
0.0288583 0.0624553 4.36105
-0.0672533 0.07613 4.30141
-0.239465 0.311179 4.15293
-0.0207556 0.212143 4.37532
-0.0229737 0.205273 4.38066
-0.0255205 0.194594 4.38473
-0.0304363 0.18145 4.38142
-0.0374354 0.161539 4.36017
-0.0591357 0.218444 4.35047
-0.0689324 0.220747 4.35105
-0.0760933 0.22439 4.35122
-0.097275 0.240901 4.34876
-0.178907 0.300109 4.28743
-0.0129739 0.439651 4.37553
-0.0286007 0.487353 4.33188
-0.0483932 0.4848 4.31636
-0.0525352 0.221379 4.34625
-0.183488 0.245682 4.25292
-0.00252931 0.486112 4.36275
-0.0453083 0.14118 4.34854
0.0323822 0.407223 4.44849
0.00730702 0.42698 4.418
0.0309383 0.432008 4.42378
-0.0277537 0.378326 4.40439
0.0301263 0.0890224 4.37322
0.029592 0.120043 4.37259
-0.00808986 0.124808 4.36776
-0.103016 0.187639 4.3228
-0.0754102 0.315002 4.36265
-0.0751882 0.161253 4.33425
-0.125693 0.317528 4.34506
-0.0980831 0.290616 4.35588
-0.145051 0.28053 4.32274
-0.0180871 0.0972298 4.36566
-0.0411527 0.364931 4.38609
-0.122388 0.172585 4.2994
-0.0880259 0.145078 4.31824
-0.12641 0.217815 4.31673
-0.208456 0.276643 4.22801
-0.150258 0.216585 4.28936
-0.223571 0.262908 4.16579
-0.116792 0.259311 4.34037
-0.0293136 0.400014 4.38318
-0.02519 0.331694 4.44342
-0.037903 0.325155 4.42022
-0.0155103 0.347965 4.46386
-0.0470513 0.506701 4.33616
-0.0812256 0.516679 4.3392
-0.113918 0.517841 4.33511
-0.143929 0.513443 4.32215
-0.163614 0.502799 4.30343
-0.178745 0.465353 4.26251
-0.255138 0.41264 4.14349
-0.161597 0.43202 4.28711
-0.137595 0.425441 4.30385
-0.105563 0.426724 4.31401
-0.0753028 0.433485 4.31914
-0.052651 0.441886 4.32428
-0.0385754 0.449965 4.32801
-0.26438 0.417122 4.04785
-0.0368471 0.318858 4.40774
-0.0134019 0.393912 4.4227
-0.00873716 0.330689 4.4673
0.00823468 0.317183 4.45547
-0.0082673 0.326445 4.45357
-0.0291023 0.311349 4.40088
0.0118092 0.314712 4.46243
0.00980727 0.31012 4.43728
-0.0439096 0.470648 4.31602
-0.0251216 0.463173 4.33261
-0.0158641 0.457453 4.35108
-0.15224 0.475044 4.29442
-0.161516 0.484853 4.29136
0.0544297 0.404063 4.44276
0.223097 0.475445 4.29198
0.0477482 0.313505 4.43302
0.338556 0.577226 4.14546
0.150398 0.452643 4.32476
0.177443 0.451263 4.32034
0.203303 0.452303 4.30945
0.240597 0.466636 4.2823
0.124141 0.458991 4.32303
0.186574 0.519135 4.33166
0.153119 0.517023 4.33172
0.214404 0.516832 4.31914
0.233137 0.508739 4.30391
0.260336 0.450622 4.26419
0.131665 0.102944 4.32484
0.233351 0.481995 4.28187
0.344495 0.466909 4.14148
0.290207 0.468842 4.23382
0.163162 0.347946 4.34313
0.0603826 0.249357 4.41581
0.0576331 0.22157 4.40254
0.0973453 0.240817 4.3947
0.121889 0.231302 4.37301
0.0867806 0.21994 4.38878
0.105438 0.218418 4.36887
0.156131 0.189994 4.32218
0.0460832 0.327242 4.47745
0.0518766 0.350835 4.48286
0.275792 0.530823 4.2863
0.111689 0.409079 4.35284
0.10983 0.332596 4.4059
0.113771 0.346154 4.39641
0.252675 0.350406 4.29952
0.0561157 0.378947 4.46774
0.200904 0.556392 4.33927
0.243607 0.54869 4.31495
0.30486 0.618576 4.20055
0.0829994 0.529237 4.37208
0.125408 0.508328 4.32808
0.177579 0.215024 4.32009
0.326253 0.218028 4.07629
0.0861299 0.318658 4.4007
0.0611136 0.310843 4.40287
0.148506 0.215745 4.3309
0.138216 0.216295 4.33398
0.257716 0.564744 4.29954
0.110524 0.321236 4.38945
0.147244 0.551723 4.3586
0.151672 0.570732 4.361
0.184687 0.662828 4.31006
0.280529 0.591073 4.25532
0.163082 0.617992 4.33972
0.292024 0.541761 4.26183
0.312914 0.557397 4.20588
0.0598218 0.233605 4.41176
0.09075 0.228502 4.3947
0.112993 0.224483 4.37335
0.0770188 0.313887 4.39477
0.141948 0.216067 4.3325
0.130361 0.209886 4.34345
0.136949 0.217018 4.33322
0.0777663 0.326198 4.43957
0.104437 0.218969 4.36318
0.0829166 0.218303 4.37918
0.0576815 0.217638 4.39213
0.0640657 0.146015 4.36161
0.0652595 0.16988 4.3885
0.0639435 0.185584 4.39428
0.0603946 0.200182 4.39266
0.0591152 0.209356 4.38871
0.106997 0.212836 4.35767
0.110399 0.209231 4.35934
0.116523 0.20212 4.35971
0.120935 0.19299 4.35532
0.140365 0.258891 4.35958
0.346608 0.354158 4.04474
0.121658 0.213716 4.34468
0.125168 0.212523 4.34555
0.0566671 0.298951 4.40829
0.0948873 0.307023 4.37253
0.058175 0.304487 4.4059
0.140605 0.395534 4.34251
0.18371 0.379948 4.33016
0.116628 0.335397 4.38154
0.255362 0.648177 4.25687
0.231442 0.612355 4.2984
0.209902 0.575351 4.3334
0.134376 0.17095 4.3364
0.0901861 0.560712 4.37848
0.097037 0.612874 4.36107
0.109663 0.664626 4.33806
0.227029 0.457379 4.29404
0.289196 0.432869 4.24488
0.108445 0.465476 4.32426
0.264186 0.498629 4.27626
0.0932257 0.424106 4.36499
0.0940176 0.34213 4.4334
0.323641 0.415756 4.21384
0.271573 0.414045 4.27291
0.233836 0.404115 4.30101
0.180085 0.407812 4.32214
0.141728 0.41769 4.33109
0.113463 0.428435 4.33885
0.0559778 0.454324 4.39208
0.322085 0.360608 4.22346
0.287853 0.501938 4.25854
0.0415324 0.313508 4.46594
0.107755 0.384382 4.36662
0.354338 0.4718 4.05967
0.0909128 0.441016 4.34649
0.114102 0.334699 4.35787
0.247307 0.482437 4.2735
0.0979727 0.357945 4.42028
0.340867 0.288399 4.05214
0.110059 0.473722 4.31964
0.078523 0.371108 4.44904
0.258107 0.15283 4.21356
0.260994 0.120791 4.16879
0.343721 0.356593 4.1325
0.297483 0.188701 4.17707
0.32912 0.516686 4.16754
0.137537 0.0743613 4.31265
0.0328554 0.308869 4.43654
0.13136 0.366878 4.35223
0.315699 0.464686 4.20558
0.195941 0.467694 4.31178
0.173944 0.465499 4.3211
0.137286 0.205164 4.33894
0.3166 0.307946 4.21331
0.0845356 0.0420124 4.31865
0.172659 0.0678616 4.25314
0.212966 0.0884369 4.21619
0.151656 0.466511 4.3227
0.131268 0.469782 4.32199
0.116749 0.472113 4.32014
0.308224 0.507513 4.22924
0.134671 0.487298 4.32485
0.157181 0.493156 4.32422
0.180044 0.494443 4.32186
0.203549 0.492433 4.3125
0.217932 0.488257 4.30166
0.350105 0.532001 4.09577
0.211776 0.471168 4.30212
0.113808 0.272169 4.37548
0.0846635 0.323014 4.40774
0.0618432 0.280326 4.40741
0.215361 0.120768 4.24418
0.177079 0.0961623 4.27541
0.0883263 0.060927 4.34544
0.297915 0.161058 4.11943
0.118399 0.478635 4.32287
0.0725161 0.416171 4.40152
0.132384 0.051082 4.29215
0.338625 0.297041 4.13206
0.0847384 0.21111 4.37522
0.0888384 0.204634 4.37767
0.0940425 0.193326 4.37888
0.0964639 0.179309 4.37457
0.105258 0.15584 4.35192
0.125822 0.217377 4.34911
0.132995 0.219905 4.35074
0.141219 0.223942 4.34959
0.163867 0.239238 4.34115
0.276518 0.294271 4.26631
0.0732263 0.440855 4.37772
0.0819119 0.491481 4.33363
0.103267 0.489184 4.32671
0.122407 0.219581 4.34681
0.280903 0.2297 4.22821
0.06338 0.489186 4.36327
0.119159 0.130414 4.33395
0.0541518 0.427636 4.41683
0.0893347 0.379271 4.39899
0.0745822 0.119322 4.35754
0.18111 0.176669 4.30161
0.138319 0.314702 4.34744
0.153428 0.149066 4.3137
0.206924 0.318282 4.32509
0.165722 0.290083 4.33964
0.233506 0.276179 4.30044
0.0854561 0.0882133 4.35737
0.105918 0.365599 4.37896
0.205092 0.153266 4.27444
0.167071 0.126004 4.29522
0.206066 0.208976 4.30167
0.309606 0.262124 4.20246
0.242944 0.200894 4.26451
0.327329 0.240301 4.14307
0.191055 0.256741 4.32462
0.0901101 0.400747 4.38384
0.0862263 0.330195 4.44045
0.0989961 0.324479 4.40851
0.0743183 0.347579 4.46174
0.104464 0.514375 4.34107
0.148622 0.52991 4.34021
0.18946 0.534041 4.33461
0.225521 0.53052 4.32016
0.251099 0.518992 4.29928
0.266239 0.475377 4.25709
0.348777 0.412574 4.13779
0.245017 0.439765 4.28032
0.215374 0.431969 4.30043
0.178909 0.431737 4.31626
0.144992 0.436913 4.32474
0.116266 0.444896 4.32641
0.0973036 0.452261 4.33099
0.350173 0.413966 4.04595
0.0974816 0.317746 4.39553
0.0729745 0.39408 4.42432
0.0651241 0.32968 4.4634
0.0528389 0.316578 4.45168
0.0656614 0.32502 4.45074
0.0882201 0.310129 4.38636
0.0480875 0.314929 4.45928
0.0407574 0.309622 4.43398
0.0959647 0.473277 4.32284
0.0811486 0.465682 4.33424
0.0738282 0.459885 4.35203
0.226317 0.484776 4.2928
0.246412 0.497902 4.28565
