ply
format ascii 1.0
comment Created by Open3D
element vertex 468
property double x
property double y
property double z
end_header
0.0408863 0.363959 3.83548
0.0401038 0.439007 3.90557
0.041581 0.413117 3.84172
0.0186771 0.520875 3.86737
0.0396023 0.465112 3.91263
0.0385156 0.498575 3.90092
0.0391563 0.575156 3.82952
-0.128408 0.576669 3.72423
0.039097 0.618446 3.80981
0.0391231 0.647789 3.8125
0.0395147 0.771785 3.77783
0.0406239 0.352431 3.83221
0.0401455 0.345446 3.82546
0.0397662 0.344753 3.81487
0.0423805 0.307788 3.80743
0.04221 0.299221 3.81307
0.0413346 0.288671 3.82008
0.0409551 0.275041 3.8184
0.0408149 0.249499 3.79971
0.0397466 0.425347 3.89326
0.0153899 0.426916 3.85709
-0.21943 0.651705 3.60824
-0.0596986 0.562013 3.74956
-0.0833491 0.560197 3.74842
-0.106904 0.559513 3.74243
-0.140746 0.567128 3.72118
-0.0401292 0.566514 3.74738
-0.0938923 0.607711 3.75743
-0.0687196 0.607498 3.7553
-0.11728 0.603729 3.7504
-0.133191 0.59636 3.74016
-0.160687 0.551086 3.70949
-0.0567123 0.211196 3.76228
-0.138358 0.579236 3.7167
-0.230414 0.548147 3.59988
-0.18792 0.559576 3.68461
-0.0882576 0.462838 3.77748
0.00122074 0.368894 3.83124
0.00336153 0.346928 3.8194
-0.0391876 0.364844 3.81251
-0.0643624 0.357884 3.78583
-0.026476 0.347559 3.80477
-0.0482163 0.346432 3.78039
-0.0895283 0.311479 3.7401
0.0182682 0.439711 3.90223
0.0152156 0.465379 3.90875
-0.172237 0.612559 3.73678
-0.0334867 0.521395 3.78124
-0.0450693 0.450334 3.83655
-0.0460312 0.463799 3.8276
-0.16272 0.467433 3.74485
0.016678 0.495874 3.89327
-0.109677 0.637613 3.7786
-0.14631 0.628981 3.76118
-0.19475 0.697071 3.65426
-0.00511249 0.62235 3.80132
-0.0462137 0.602211 3.74765
-0.111308 0.34208 3.7348
-0.210701 0.311164 3.54483
-0.0262615 0.435437 3.82704
-0.00439735 0.42672 3.83115
-0.0924022 0.342373 3.73344
-0.0811261 0.341602 3.73893
-0.159671 0.643136 3.74756
-0.0480454 0.441175 3.82203
-0.0620861 0.636937 3.79219
-0.0672515 0.657022 3.79641
-0.0966081 0.759708 3.74498
-0.175987 0.672086 3.70514
-0.0786446 0.712367 3.77065
-0.186525 0.621513 3.71488
-0.202266 0.6359 3.66239
0.001677 0.35502 3.82777
-0.0317604 0.353776 3.80926
-0.0560219 0.351757 3.7848
-0.0203888 0.431148 3.82284
-0.0869529 0.342207 3.73614
-0.0716388 0.326441 3.75168
-0.0774957 0.341024 3.74024
-0.0107437 0.440701 3.86514
-0.0446061 0.348796 3.77648
-0.0219801 0.348104 3.79515
0.00578882 0.346194 3.80946
0.000120873 0.250694 3.79456
0.00170535 0.277779 3.81315
0.00379249 0.29178 3.81428
0.00642348 0.302103 3.80676
0.0088277 0.309512 3.80188
-0.043582 0.32079 3.76999
-0.0479814 0.318865 3.77348
-0.0539433 0.313626 3.77595
-0.0579074 0.30577 3.77141
-0.0798838 0.379869 3.7786
-0.230537 0.430823 3.50568
0.0419669 0.418888 3.85991
-0.058594 0.327042 3.75182
-0.0653365 0.328027 3.75315
0.00501554 0.415162 3.83304
-0.0393034 0.426278 3.80279
0.000396772 0.420654 3.83318
-0.0598034 0.509121 3.77284
-0.10139 0.494981 3.76642
-0.0515591 0.453714 3.81272
-0.155571 0.734236 3.70202
-0.135885 0.698496 3.73942
-0.117771 0.656322 3.7721
-0.0663992 0.286792 3.75731
-0.013117 0.653821 3.80898
-0.0226932 0.71672 3.78833
-0.0339383 0.771184 3.76938
-0.128189 0.561563 3.73166
-0.187326 0.533746 3.69514
-0.0278942 0.571563 3.74445
-0.161151 0.587505 3.71994
-0.0157321 0.536145 3.79124
-0.0269205 0.457224 3.86254
-0.214072 0.513888 3.66908
-0.170594 0.52246 3.71788
-0.139388 0.517049 3.74
-0.0926583 0.520013 3.75382
-0.0574907 0.52841 3.7588
-0.032549 0.538612 3.76605
0.0163673 0.568483 3.81941
-0.21522 0.467129 3.6768
-0.181942 0.587974 3.70908
0.026304 0.426499 3.89146
-0.0338523 0.498153 3.79287
-0.234991 0.542712 3.5218
-0.0136927 0.550534 3.7702
-0.0528012 0.4517 3.78492
-0.147316 0.57637 3.71245
-0.0279909 0.473828 3.8515
-0.225127 0.371884 3.51892
-0.0293569 0.578921 3.73732
-0.00584862 0.487112 3.8774
-0.16134 0.267627 3.66494
-0.156449 0.231367 3.62966
-0.233826 0.446213 3.5904
-0.194019 0.297921 3.63726
-0.216488 0.596011 3.62469
-0.0591935 0.183287 3.75244
0.031287 0.420099 3.85769
-0.057652 0.481864 3.78283
-0.208526 0.552573 3.66014
-0.10263 0.57482 3.73876
-0.0820788 0.574599 3.74516
-0.077391 0.323092 3.74788
-0.215408 0.41559 3.66859
-0.0114899 0.148727 3.75338
-0.0857535 0.178384 3.69815
-0.117955 0.200213 3.66699
0.0398216 0.714189 3.79491
0.0407204 0.145752 3.76181
-0.0630978 0.57576 3.74595
-0.045098 0.577901 3.74298
-0.034118 0.578328 3.73837
-0.199051 0.590917 3.68399
-0.0506215 0.591119 3.74457
-0.0714047 0.595246 3.74944
-0.0906419 0.595663 3.74873
-0.11072 0.591931 3.74311
-0.124019 0.586261 3.73478
-0.230521 0.603202 3.55952
-0.117294 0.57557 3.73137
0.0415491 0.39668 3.8338
-0.0539002 0.393037 3.80004
-0.0260716 0.438343 3.837
0.000805002 0.397013 3.82958
0.0391267 0.597861 3.80915
-0.125671 0.23452 3.68941
-0.0936079 0.208335 3.71886
-0.0148135 0.167553 3.78058
-0.186374 0.26463 3.5871
-0.0361653 0.584098 3.74088
0.000388311 0.530067 3.82702
0.0402403 0.165331 3.78829
-0.0520695 0.160373 3.73119
-0.229806 0.391269 3.595
-0.0195568 0.314297 3.78752
-0.023908 0.309271 3.79173
-0.0280391 0.300872 3.79561
-0.0307319 0.288533 3.79251
-0.0380375 0.265405 3.77803
-0.0694379 0.345599 3.75804
-0.0764381 0.348124 3.75753
-0.0834899 0.352033 3.7576
-0.101888 0.363845 3.75478
-0.186648 0.409225 3.71722
0.00133654 0.553374 3.8034
-0.00851958 0.592507 3.75397
-0.0250878 0.589661 3.74499
-0.0636886 0.348046 3.75599
-0.188485 0.342803 3.67955
0.0102118 0.593892 3.78939
-0.0477203 0.24004 3.76858
0.0388755 0.524892 3.87552
0.0173027 0.543658 3.84502
0.0392465 0.549155 3.85125
-0.0188643 0.493172 3.82752
0.0402976 0.192358 3.80039
0.040533 0.223816 3.79967
-0.00605284 0.224396 3.79092
-0.104857 0.29706 3.72997
-0.0732483 0.431915 3.77761
-0.0786215 0.264423 3.7468
-0.131081 0.434373 3.76518
-0.0983471 0.407421 3.76815
-0.154113 0.393969 3.74133
-0.0131494 0.193569 3.79133
-0.0356021 0.480722 3.80854
-0.121117 0.270422 3.71229
-0.0885425 0.238936 3.73305
-0.127506 0.332972 3.72847
-0.210475 0.370472 3.65937
-0.156133 0.320815 3.7075
-0.218338 0.340742 3.60667
-0.122397 0.379616 3.75242
-0.0159789 0.513945 3.80888
-0.0192451 0.445468 3.86942
-0.0374675 0.441476 3.83975
-0.006878 0.461725 3.88819
-0.0256841 0.607139 3.76046
-0.063903 0.616794 3.76559
-0.0987555 0.618723 3.76551
-0.128538 0.614336 3.75611
-0.150168 0.604402 3.74077
-0.165195 0.568254 3.70276
-0.234925 0.497939 3.59399
-0.146352 0.543985 3.72171
-0.120564 0.539803 3.73706
-0.0881889 0.541015 3.7477
-0.0577717 0.545803 3.75067
-0.0346738 0.552769 3.75303
-0.0188714 0.559753 3.75427
-0.232879 0.486691 3.50577
-0.0378415 0.436282 3.82698
-0.000107614 0.509018 3.84879
-0.000187105 0.443154 3.88961
0.0130302 0.430738 3.87982
-0.000491863 0.438959 3.8774
-0.0315388 0.429232 3.81815
0.0179786 0.428419 3.88704
0.0220227 0.422374 3.8572
-0.0200515 0.577132 3.74117
-0.00681771 0.571785 3.7572
-0.000170881 0.568307 3.77737
-0.132267 0.582103 3.72714
-0.14604 0.58779 3.72561
0.0594224 0.520306 3.86628
0.2033 0.571796 3.72359
0.06617 0.426822 3.859
0.2863 0.641597 3.60676
0.134924 0.558522 3.74617
0.157033 0.556535 3.74542
0.179703 0.555528 3.74023
0.212644 0.562325 3.72083
0.117314 0.56357 3.74558
0.166823 0.601341 3.75539
0.14365 0.602207 3.75487
0.189178 0.59669 3.74894
0.204482 0.589416 3.73952
0.23165 0.546397 3.71077
0.135229 0.214389 3.76655
0.212781 0.573905 3.71649
0.299897 0.541423 3.60088
0.257672 0.55355 3.68694
0.16362 0.461925 3.78175
0.0787132 0.36924 3.83339
0.0749981 0.347392 3.82154
0.117477 0.365898 3.81667
0.142597 0.35901 3.79115
0.103709 0.348481 3.80768
0.126765 0.34724 3.78466
0.169747 0.312683 3.74654
0.0608611 0.439723 3.90401
0.0623514 0.465145 3.91039
0.237876 0.603975 3.73735
0.110615 0.51985 3.78102
0.122841 0.450196 3.84059
0.123022 0.463617 3.83125
0.232695 0.465549 3.74937
0.0607444 0.49549 3.89285
0.179905 0.628906 3.78047
0.213686 0.619999 3.76274
0.262344 0.686018 3.6537
0.0822784 0.619122 3.8007
0.12412 0.598054 3.74683
0.190401 0.343052 3.74113
0.282953 0.312429 3.54553
0.107092 0.435519 3.8316
0.0859763 0.426884 3.8368
0.174864 0.343087 3.73959
0.161972 0.342382 3.7455
0.226189 0.633101 3.74926
0.126173 0.44134 3.82764
0.136352 0.630234 3.79341
0.140825 0.649789 3.79798
0.169984 0.75188 3.74569
0.242912 0.66203 3.70647
0.153722 0.704949 3.77161
0.251977 0.61238 3.71569
0.26918 0.626529 3.66291
0.0774136 0.355511 3.8297
0.109959 0.354914 3.81244
0.134626 0.352978 3.78973
0.101919 0.431366 3.82839
0.168887 0.343035 3.74303
0.153443 0.327197 3.75865
0.156983 0.341606 3.74628
0.0895025 0.440481 3.86596
0.121533 0.349473 3.78073
0.0990307 0.348616 3.79771
0.0720518 0.346524 3.81077
0.0796053 0.251504 3.79791
0.0784465 0.2782 3.81537
0.0776132 0.292188 3.81569
0.0768833 0.302501 3.80775
0.0745661 0.309797 3.80253
0.124765 0.321581 3.77425
0.128604 0.319703 3.77902
0.134021 0.314384 3.78232
0.13874 0.306519 3.7776
0.158677 0.380909 3.78508
0.306122 0.427529 3.50575
0.139977 0.327703 3.75604
0.14712 0.328685 3.75906
0.0772527 0.415352 3.83625
0.120579 0.426855 3.81045
0.081285 0.420809 3.83771
0.135965 0.507499 3.77307
0.175243 0.49307 3.76892
0.12925 0.453636 3.81743
0.224979 0.723876 3.70303
0.205937 0.688547 3.74134
0.188504 0.646889 3.77383
0.146461 0.288348 3.76264
0.0895163 0.649603 3.80966
0.100792 0.712889 3.78903
0.110359 0.766839 3.77142
0.200212 0.557191 3.73051
0.257009 0.529076 3.6978
0.107309 0.56858 3.74202
0.230688 0.580856 3.7203
0.0932837 0.534726 3.79026
0.104296 0.456754 3.86531
0.2822 0.509221 3.67119
0.240998 0.518406 3.71934
0.21157 0.513785 3.74135
0.167501 0.51745 3.75361
0.1343 0.526229 3.75775
0.109945 0.536633 3.76493
0.061952 0.567631 3.81893
0.284032 0.464193 3.67955
0.249206 0.5807 3.70958
0.0526635 0.426542 3.89163
0.112283 0.496955 3.79342
0.308327 0.535317 3.52012
0.0928791 0.548833 3.76875
0.133669 0.451721 3.79041
0.220339 0.570716 3.71225
0.104049 0.473255 3.85414
0.299237 0.370892 3.51996
0.109513 0.576024 3.73434
0.0817617 0.486639 3.87807
0.234827 0.27125 3.66971
0.229011 0.235734 3.63168
0.306543 0.443038 3.59257
0.265161 0.300464 3.64192
0.285829 0.587708 3.62457
0.137519 0.187132 3.7553
0.0527058 0.42007 3.85859
0.13479 0.480997 3.78549
0.27726 0.546355 3.66179
0.177952 0.570224 3.73633
0.157368 0.570293 3.74172
0.159356 0.323827 3.75458
0.285015 0.4146 3.6733
0.0919198 0.15083 3.75408
0.163787 0.183072 3.69885
0.193942 0.205318 3.66789
0.138993 0.571763 3.74305
0.122851 0.574442 3.73978
0.113682 0.575235 3.73506
0.26584 0.58327 3.68476
0.127077 0.587478 3.74201
0.144616 0.59092 3.74783
0.163397 0.590982 3.74707
0.183588 0.586921 3.74189
0.197165 0.58119 3.73431
0.301469 0.594148 3.55802
0.192592 0.570785 3.72966
0.133429 0.393949 3.80571
0.106194 0.438375 3.84185
0.0803111 0.397452 3.83212
0.202002 0.238912 3.69394
0.170581 0.212927 3.72311
0.0934918 0.16974 3.78253
0.257846 0.267625 3.58782
0.115229 0.581109 3.73754
0.0779872 0.529106 3.82687
0.131379 0.164183 3.73172
0.301331 0.390215 3.59864
0.10209 0.31496 3.79005
0.10591 0.309845 3.79488
0.109182 0.301412 3.79882
0.112136 0.289043 3.796
0.117684 0.266734 3.78168
0.148328 0.346335 3.7638
0.156208 0.349003 3.76313
0.163056 0.35296 3.76374
0.180832 0.364769 3.76127
0.255737 0.409001 3.72416
0.0771085 0.552071 3.80261
0.0897479 0.590041 3.75314
0.104993 0.586749 3.74258
0.141537 0.348541 3.76097
0.259902 0.344278 3.6863
0.0687318 0.592341 3.78934
0.126128 0.242525 3.77302
0.0606156 0.543128 3.84524
0.0962625 0.492474 3.82898
0.0853972 0.225868 3.79408
0.182915 0.298965 3.73593
0.152134 0.431933 3.78344
0.156521 0.266898 3.75235
0.203478 0.433922 3.77251
0.175274 0.407601 3.7744
0.225973 0.394388 3.74911
0.0918311 0.195389 3.79369
0.113052 0.479951 3.81108
0.197928 0.27371 3.71765
0.166629 0.24247 3.7387
0.204098 0.334194 3.7338
0.280311 0.370892 3.66561
0.229274 0.322948 3.71404
0.289313 0.341523 3.61006
0.197468 0.380221 3.75922
0.0942989 0.512784 3.80845
0.0967501 0.445182 3.87123
0.115961 0.441518 3.84493
0.0844814 0.46132 3.8896
0.105469 0.603574 3.75914
0.140273 0.611425 3.76577
0.171964 0.611504 3.76592
0.199639 0.60671 3.7566
0.219531 0.596779 3.74143
0.235851 0.562473 3.70385
0.30579 0.492699 3.59452
0.218262 0.539766 3.72217
0.193511 0.536251 3.73706
0.162519 0.537748 3.74645
0.133955 0.543011 3.74861
0.112273 0.550306 3.75185
0.0981442 0.557622 3.75285
0.3077 0.481139 3.50395
0.116854 0.436569 3.83269
0.078452 0.508308 3.84844
0.0786417 0.443157 3.89158
0.0649904 0.430874 3.88204
0.0788919 0.438964 3.87923
0.111647 0.429654 3.82493
0.0604715 0.428472 3.88864
0.0607608 0.422437 3.85903
0.101122 0.574551 3.73963
0.0868569 0.56981 3.75636
0.0793542 0.566683 3.77689
0.205796 0.576863 3.72692
0.217492 0.581395 3.7261
