ply
format ascii 1.0
comment Created by Open3D
element vertex 468
property double x
property double y
property double z
end_header
-0.00427792 0.315125 4.0059
-0.00085913 0.412542 4.06344
-0.00253374 0.38189 4.00178
-0.0207841 0.486211 4.02973
-0.000730255 0.437007 4.07145
-0.000407079 0.466838 4.06166
-0.000329671 0.535568 3.99636
-0.165857 0.530215 3.89715
-0.000875636 0.575294 3.98148
-0.000809292 0.60334 3.98683
-0.00127681 0.723331 3.9549
-0.00442979 0.301931 4.00289
-0.00435085 0.2921 3.9943
-0.00408355 0.28799 3.98302
-0.00353416 0.281249 3.9813
-0.00361397 0.270783 3.98518
-0.00358371 0.257169 3.9895
-0.00330453 0.241971 3.98478
-0.00282813 0.217311 3.95811
-0.00119447 0.399168 4.051
-0.0224886 0.398823 4.01747
-0.243409 0.604568 3.78164
-0.100106 0.512781 3.92096
-0.122768 0.509572 3.92003
-0.144519 0.509614 3.91404
-0.173191 0.519264 3.89409
-0.0807227 0.520032 3.91965
-0.129476 0.558728 3.93155
-0.106111 0.559292 3.9313
-0.150992 0.55523 3.92443
-0.165747 0.549037 3.91435
-0.190975 0.50296 3.88254
-0.0923829 0.177266 3.93171
-0.173467 0.534512 3.88983
-0.253912 0.506022 3.77366
-0.216438 0.514841 3.85828
-0.114905 0.416296 3.94646
-0.0313686 0.319156 4.00217
-0.0265788 0.291972 3.99028
-0.0590891 0.310144 3.98757
-0.0773211 0.297096 3.9699
-0.0464096 0.289723 3.98076
-0.0628277 0.28595 3.96432
-0.10811 0.255633 3.93346
-0.0206668 0.412775 4.06135
-0.0236467 0.435484 4.06882
-0.202712 0.56768 3.90959
-0.0702133 0.478616 3.95051
-0.0756578 0.412229 3.99969
-0.0769942 0.423733 3.99182
-0.181027 0.412193 3.91635
-0.022125 0.463565 4.05358
-0.146924 0.589775 3.95409
-0.180099 0.582826 3.9357
-0.222387 0.647597 3.83036
-0.0460626 0.575881 3.97359
-0.0849161 0.555849 3.9234
-0.124755 0.278781 3.92716
-0.233641 0.283857 3.71163
-0.0583409 0.399767 3.99004
-0.0382899 0.392309 3.99485
-0.0985476 0.277829 3.93052
-0.0879517 0.280264 3.93731
-0.192733 0.597356 3.92275
-0.0756515 0.399824 3.98634
-0.102358 0.588453 3.96711
-0.106951 0.608133 3.97185
-0.132201 0.707136 3.92382
-0.206454 0.625146 3.88296
-0.117272 0.662323 3.94936
-0.216069 0.57682 3.88754
-0.229402 0.590841 3.83747
-0.0294638 0.303222 3.99923
-0.0519184 0.297766 3.9854
-0.0700187 0.291143 3.96926
-0.0516756 0.394886 3.98645
-0.0929191 0.278413 3.93422
-0.08359 0.275977 3.94962
-0.0855102 0.281993 3.9384
-0.0457277 0.411564 4.02438
-0.0581577 0.2871 3.96031
-0.0415678 0.288153 3.97085
-0.0231773 0.288273 3.9797
-0.0336735 0.218083 3.95783
-0.0318481 0.243952 3.9835
-0.0302008 0.259418 3.98713
-0.0280322 0.273138 3.98205
-0.0256982 0.281901 3.97802
-0.0627938 0.281788 3.95895
-0.0661041 0.278634 3.96329
-0.0713892 0.271774 3.96637
-0.0763338 0.262963 3.96168
-0.0962132 0.327644 3.96158
-0.256156 0.398967 3.67372
-0.00193759 0.39278 4.01884
-0.0736689 0.281296 3.94687
-0.0781522 0.279504 3.94964
-0.0307623 0.380696 3.99561
-0.066409 0.383814 3.96897
-0.0342577 0.386323 3.99594
-0.0938257 0.462779 3.94204
-0.129891 0.443938 3.93565
-0.0804393 0.411609 3.97795
-0.187014 0.682502 3.88125
-0.170471 0.649844 3.91866
-0.15485 0.608916 3.94811
-0.088387 0.241419 3.94409
-0.0538439 0.605414 3.98388
-0.0628509 0.667329 3.96714
-0.0722273 0.719497 3.94876
-0.162938 0.512254 3.90378
-0.214493 0.484587 3.86871
-0.0683962 0.526977 3.91608
-0.192182 0.543184 3.89375
-0.0539199 0.495375 3.95986
-0.0611215 0.42392 4.02392
-0.237555 0.466417 3.84228
-0.199142 0.469187 3.89043
-0.170005 0.462356 3.91262
-0.126993 0.469172 3.92467
-0.095207 0.481583 3.92962
-0.0710547 0.494515 3.93695
-0.0229967 0.528413 3.98651
-0.233348 0.416674 3.84927
-0.21119 0.543956 3.88208
-0.0126446 0.399983 4.04944
-0.0684694 0.457135 3.95987
-0.259238 0.502893 3.69094
-0.053285 0.508485 3.94042
-0.0820555 0.408295 3.95242
-0.17999 0.530561 3.88533
-0.0620979 0.437417 4.01425
-0.249668 0.342711 3.68627
-0.0686137 0.535671 3.90925
-0.042559 0.453121 4.03861
-0.188301 0.230806 3.84139
-0.186741 0.202445 3.79844
-0.254768 0.407613 3.76187
-0.213351 0.263433 3.81048
-0.242076 0.552381 3.79837
-0.0980056 0.151068 3.91795
-0.0110311 0.393757 4.01719
-0.0884328 0.437398 3.95092
-0.234754 0.508799 3.83326
-0.143528 0.524773 3.91104
-0.123559 0.52362 3.91697
-0.0894829 0.270654 3.94537
-0.227966 0.369019 3.84212
-0.053628 0.115835 3.91093
-0.125918 0.148851 3.86299
-0.154992 0.170746 3.83484
-0.001056 0.668121 3.97211
-0.00126208 0.111007 3.91771
-0.104248 0.525765 3.91806
-0.0861192 0.530428 3.91504
-0.0745559 0.533252 3.91002
-0.226408 0.546764 3.85689
-0.0880085 0.549749 3.91803
-0.107526 0.553906 3.92315
-0.127391 0.554399 3.92241
-0.147497 0.550048 3.91653
-0.160036 0.543506 3.90834
-0.254581 0.559403 3.73063
-0.156962 0.527525 3.90358
-0.00305627 0.360516 3.99695
-0.0760241 0.345524 3.97353
-0.0590674 0.404685 3.99954
-0.0339412 0.357125 3.99524
-0.000493994 0.556226 3.97845
-0.16074 0.199238 3.86665
-0.131318 0.174749 3.89107
-0.0551024 0.134449 3.94119
-0.21146 0.237154 3.75324
-0.0745352 0.542163 3.91306
-0.0386829 0.492994 3.99315
-0.00150356 0.129817 3.94672
-0.0929083 0.129778 3.89175
-0.247247 0.355645 3.76602
-0.045702 0.282425 3.96931
-0.0493277 0.276018 3.9741
-0.0533102 0.265724 3.97725
-0.0568487 0.251911 3.97345
-0.0641727 0.228377 3.95429
-0.0774845 0.282768 3.95039
-0.0843759 0.284286 3.95062
-0.0912671 0.28759 3.95038
-0.114157 0.304457 3.94467
-0.197322 0.358728 3.89202
-0.0381205 0.513638 3.9713
-0.0492849 0.548859 3.92753
-0.0644003 0.545477 3.91804
-0.0724883 0.285804 3.94754
-0.201903 0.29921 3.85625
-0.0296091 0.55081 3.95999
-0.0791716 0.203123 3.94061
-0.00027069 0.490881 4.03858
-0.022419 0.506835 4.01038
-0.000389745 0.51306 4.01622
-0.0551036 0.455657 3.99196
-0.0018894 0.156716 3.9603
-0.00230733 0.189021 3.95906
-0.0425705 0.190991 3.95459
-0.132238 0.245509 3.9189
-0.0998427 0.386108 3.94781
-0.10835 0.220672 3.92889
-0.149353 0.384951 3.9376
-0.120046 0.359034 3.94493
-0.168597 0.342839 3.91857
-0.0513319 0.160456 3.95389
-0.0689957 0.440507 3.97434
-0.153028 0.226891 3.89508
-0.12348 0.200185 3.91033
-0.149095 0.275834 3.91541
-0.222236 0.32785 3.83408
-0.176261 0.272422 3.89013
-0.235649 0.307604 3.77766
-0.138061 0.322307 3.93506
-0.0533397 0.475622 3.9752
-0.0534056 0.41496 4.02926
-0.0687139 0.405386 4.00282
-0.0435732 0.431501 4.04828
-0.0665909 0.561238 3.93559
-0.103628 0.56847 3.94209
-0.135795 0.569714 3.9416
-0.162811 0.567153 3.93202
-0.182119 0.558728 3.91613
-0.195919 0.523119 3.87604
-0.257859 0.457847 3.76646
-0.178761 0.493876 3.89417
-0.155887 0.488948 3.9096
-0.126072 0.490865 3.91978
-0.097135 0.498173 3.92252
-0.0743536 0.507656 3.925
-0.0587749 0.51649 3.92603
-0.257851 0.450928 3.6738
-0.0674252 0.397735 3.99059
-0.0390487 0.473803 4.01196
-0.0369308 0.415795 4.04914
-0.0233829 0.403285 4.03958
-0.0365581 0.411231 4.03694
-0.0596394 0.389423 3.98267
-0.0196445 0.401435 4.04616
-0.0178239 0.395174 4.01736
-0.0603384 0.534013 3.91346
-0.046361 0.529076 3.92897
-0.0395183 0.526509 3.94789
-0.167467 0.538733 3.90028
-0.17818 0.542041 3.89986
0.0199492 0.486484 4.03005
0.168076 0.536171 3.8963
0.0195589 0.399121 4.01724
0.24436 0.609577 3.78039
0.101801 0.516371 3.92096
0.124946 0.513673 3.91991
0.146902 0.513738 3.91375
0.175599 0.525059 3.89342
0.0820048 0.523061 3.91988
0.12997 0.564153 3.93093
0.105802 0.563623 3.93087
0.152378 0.56155 3.92369
0.167604 0.555846 3.91348
0.192997 0.507438 3.88162
0.0902055 0.176914 3.92973
0.175456 0.541172 3.88901
0.254776 0.510712 3.77241
0.217854 0.519959 3.85706
0.113735 0.417393 3.94566
0.0231939 0.319602 4.00234
0.0181835 0.292284 3.9905
0.0512099 0.310155 3.98811
0.0691881 0.297233 3.97053
0.0383413 0.28984 3.98138
0.054726 0.285881 3.96483
0.101617 0.255236 3.93225
0.0189454 0.413211 4.06099
0.0223649 0.435871 4.06846
0.20533 0.574874 3.90819
0.0696338 0.479677 3.95063
0.0734827 0.412738 3.99938
0.0750947 0.424172 3.99162
0.1815 0.414596 3.91537
0.0213585 0.463802 4.05365
0.147722 0.596353 3.95217
0.182003 0.589936 3.9336
0.222984 0.653028 3.82881
0.0448861 0.578402 3.97291
0.0844436 0.559106 3.92327
0.117944 0.278518 3.92624
0.23363 0.285555 3.71063
0.0555553 0.400066 3.98937
0.0350902 0.392267 3.99385
0.0896786 0.277232 3.93041
0.0801238 0.279619 3.9373
0.19471 0.604598 3.92047
0.0733211 0.399819 3.98598
0.101915 0.59334 3.96556
0.106629 0.613212 3.97031
0.130732 0.710786 3.92244
0.207949 0.631285 3.88108
0.11651 0.666554 3.94813
0.218285 0.583682 3.886
0.231116 0.596642 3.83604
0.0210144 0.303374 3.99944
0.0437255 0.297809 3.98632
0.0618379 0.291065 3.96992
0.04875 0.395038 3.9858
0.0843717 0.277969 3.93428
0.0759771 0.275622 3.94959
0.0781893 0.281496 3.93832
0.0439901 0.412517 4.02465
0.0504686 0.287002 3.96094
0.0337076 0.288147 3.97157
0.0151347 0.288538 3.98032
0.0285836 0.218119 3.95706
0.0255846 0.24409 3.9834
0.0234446 0.25956 3.9874
0.020879 0.273187 3.98248
0.0186953 0.281878 3.9784
0.0557095 0.281784 3.95923
0.0590807 0.278671 3.96336
0.0644167 0.271697 3.96619
0.0694548 0.262853 3.96133
0.0910842 0.327679 3.96162
0.255235 0.402169 3.67269
0.0665514 0.280924 3.9471
0.0705195 0.279081 3.94985
0.0266818 0.380538 3.99527
0.0630234 0.383383 3.96837
0.0306031 0.3863 3.99532
0.093503 0.464121 3.94198
0.129899 0.445751 3.93494
0.0780257 0.411749 3.97787
0.186711 0.687431 3.87975
0.171239 0.655599 3.91683
0.155546 0.615727 3.94631
0.0830798 0.241387 3.94331
0.0528162 0.608231 3.98283
0.0613615 0.669408 3.96627
0.070146 0.721359 3.94761
0.165486 0.517143 3.90333
0.216172 0.488567 3.86741
0.0692847 0.52956 3.91641
0.19446 0.549611 3.89276
0.053511 0.496394 3.96019
0.0595479 0.424773 4.02373
0.239123 0.470374 3.84116
0.200727 0.472712 3.88956
0.171016 0.465198 3.91217
0.127429 0.471424 3.92433
0.0954078 0.483497 3.92967
0.0710619 0.496065 3.93711
0.0224043 0.529 3.98647
0.234363 0.419992 3.84849
0.213135 0.549956 3.88094
0.0104599 0.400182 4.04942
0.067209 0.457788 3.96014
0.258749 0.507023 3.69007
0.0528508 0.509723 3.94089
0.0788273 0.408459 3.95219
0.182155 0.537112 3.88459
0.0607775 0.438032 4.01406
0.249192 0.34527 3.68478
0.0694264 0.538548 3.90963
0.0417465 0.453588 4.03847
0.187414 0.231283 3.83928
0.187172 0.202598 3.79702
0.25464 0.411155 3.76072
0.212919 0.264917 3.80874
0.243067 0.557604 3.79721
0.0965354 0.150534 3.91621
0.00718722 0.39384 4.01699
0.0870383 0.438057 3.95075
0.236019 0.513824 3.83198
0.145872 0.529842 3.91048
0.12586 0.528182 3.91674
0.0817336 0.270369 3.94516
0.228452 0.371842 3.84117
0.0515066 0.115241 3.91016
0.125403 0.147975 3.8616
0.155109 0.170132 3.83335
0.106094 0.530026 3.91802
0.0876805 0.534092 3.91501
0.0756138 0.536315 3.91035
0.228177 0.552717 3.85582
0.0891986 0.553352 3.91803
0.108919 0.558429 3.92298
0.12877 0.559595 3.92169
0.149219 0.555952 3.91576
0.161969 0.549891 3.90736
0.254744 0.563901 3.72952
0.159181 0.532948 3.90305
0.0714069 0.345349 3.97338
0.0566443 0.40546 3.99906
0.0283226 0.357183 3.99507
0.15959 0.198853 3.8642
0.130074 0.174061 3.88896
0.0530079 0.134014 3.94022
0.211741 0.238024 3.75214
0.0753562 0.545179 3.91361
0.0380019 0.493509 3.99323
0.0918255 0.128902 3.89099
0.24715 0.358589 3.7649
0.0387231 0.282509 3.96999
0.0423876 0.276157 3.97449
0.0465966 0.265802 3.97757
0.0504152 0.252073 3.97347
0.0593924 0.228385 3.95374
0.0694372 0.282452 3.9506
0.0759467 0.283991 3.95087
0.0828175 0.287207 3.9508
0.1076 0.304432 3.94457
0.197384 0.361102 3.8903
0.0376324 0.514384 3.97131
0.0485764 0.550795 3.92779
0.0643722 0.54795 3.91879
0.0648178 0.285523 3.94801
0.200758 0.301028 3.85444
0.0285319 0.551833 3.96011
0.0757413 0.202981 3.9392
0.0217665 0.507154 4.01024
0.0537936 0.456312 3.9921
0.0388109 0.19077 3.95363
0.128115 0.2453 3.91692
0.0968551 0.386305 3.94726
0.10463 0.220222 3.92717
0.148538 0.386577 3.93587
0.11694 0.359557 3.94419
0.16728 0.344422 3.91679
0.0486804 0.16023 3.95281
0.0673248 0.440902 3.9744
0.15057 0.226895 3.89275
0.12102 0.199832 3.90827
0.14477 0.276154 3.91385
0.222093 0.330342 3.83259
0.174073 0.273296 3.88796
0.235634 0.309964 3.77648
0.134107 0.322851 3.93366
0.0523227 0.476251 3.97562
0.051859 0.415945 4.02923
0.0665538 0.406042 4.00244
0.0422596 0.432251 4.0478
0.0655621 0.564067 3.93568
0.103184 0.57313 3.94124
0.136407 0.575649 3.94024
0.164464 0.573515 3.93067
0.18443 0.565538 3.91496
0.198038 0.528859 3.87503
0.258293 0.461692 3.76568
0.180761 0.498115 3.89376
0.15743 0.492329 3.90893
0.127281 0.493953 3.91965
0.0979579 0.500947 3.92272
0.0751685 0.509833 3.92516
0.0591118 0.518389 3.92653
0.25701 0.454579 3.67277
0.0647194 0.397852 3.99015
0.0379278 0.474214 4.01218
0.0353668 0.41666 4.04877
0.0214746 0.403779 4.03928
0.0347636 0.41224 4.03684
0.056789 0.389182 3.98224
0.0176584 0.401891 4.04596
0.01451 0.395396 4.01708
0.0607291 0.536421 3.91396
0.0462146 0.530723 3.92937
0.0389782 0.527606 3.94777
0.169384 0.545301 3.89919
0.180399 0.548904 3.89906
