ply
format ascii 1.0
comment Created by Open3D
element vertex 468
property double x
property double y
property double z
end_header
0.0912369 0.328016 3.89813
0.0926719 0.402616 3.95185
0.0933114 0.379711 3.89132
0.0693075 0.493952 3.91403
0.0910582 0.430296 3.95981
0.0883586 0.466229 3.94615
0.0951272 0.559544 3.87196
-0.0969315 0.577675 3.76686
0.0987109 0.626991 3.85139
0.101001 0.663197 3.85393
0.11003 0.797707 3.81759
0.0906658 0.314628 3.89563
0.0901624 0.303126 3.8869
0.0893646 0.297846 3.87557
0.0940669 0.270066 3.86636
0.0942103 0.257352 3.87073
0.0929599 0.240791 3.87399
0.0930953 0.22503 3.86857
0.0939325 0.201613 3.84251
0.0906309 0.387256 3.93672
0.0700815 0.390443 3.90345
-0.19642 0.694161 3.62841
-0.0253748 0.546854 3.79577
-0.0526033 0.545048 3.79244
-0.0779588 0.547127 3.78397
-0.112921 0.566219 3.76146
0.000596629 0.554708 3.79338
-0.0558625 0.628058 3.80936
-0.0230807 0.625783 3.80826
-0.0851322 0.624575 3.79865
-0.104799 0.615126 3.78393
-0.132975 0.547079 3.74453
-0.0126891 0.153387 3.80756
-0.105925 0.587306 3.75869
-0.211781 0.568715 3.62488
-0.160551 0.56815 3.71582
-0.0431132 0.428925 3.82262
0.0580656 0.33013 3.89305
0.0607641 0.300812 3.88216
0.0215666 0.316194 3.87499
0.000103888 0.301578 3.85486
0.0337914 0.295309 3.87003
0.0167003 0.289665 3.85194
-0.0322226 0.249115 3.80954
0.0715102 0.402504 3.94677
0.066346 0.429514 3.95339
-0.142395 0.636676 3.76805
0.012062 0.499327 3.82796
0.00955501 0.410607 3.8805
0.00623417 0.425729 3.87241
-0.130212 0.430688 3.78371
0.0659026 0.463389 3.9389
-0.0687347 0.664856 3.81734
-0.11047 0.656416 3.79488
-0.16188 0.741175 3.68061
0.0471429 0.636609 3.8435
0.00392376 0.615525 3.80214
-0.0522439 0.277335 3.80794
-0.204998 0.289452 3.57138
0.0325122 0.397332 3.8728
0.0549943 0.389774 3.87555
-0.0217805 0.277723 3.8163
-0.0113508 0.278908 3.82068
-0.123834 0.67536 3.7795
0.00805284 0.398954 3.86529
-0.016328 0.659988 3.83391
-0.0200956 0.681303 3.83693
-0.0445149 0.79393 3.78369
-0.14282 0.707314 3.73622
-0.0280474 0.739947 3.81376
-0.157142 0.650171 3.74343
-0.175066 0.670555 3.6875
0.0587712 0.313406 3.89028
0.0289817 0.303745 3.87475
0.00865196 0.295096 3.85557
0.0402288 0.393278 3.86697
-0.0154172 0.278181 3.8182
-0.00529247 0.269291 3.82971
-0.00978898 0.28006 3.82095
0.0420811 0.40224 3.90997
0.0184911 0.290377 3.84807
0.0375457 0.294009 3.86199
0.0614087 0.296241 3.87267
0.0570437 0.200751 3.83656
0.057821 0.225881 3.86376
0.0597317 0.242537 3.86998
0.0634605 0.259075 3.86717
0.0655601 0.269502 3.86343
0.0202102 0.272859 3.83956
0.0156202 0.268523 3.8421
0.00833502 0.259972 3.84339
0.00317908 0.250431 3.83899
-0.0210841 0.329298 3.84073
-0.2203 0.446387 3.53139
0.0947186 0.385094 3.9084
0.00624678 0.274686 3.82898
0.00111816 0.273007 3.83083
0.0613646 0.3777 3.88166
0.0213295 0.385585 3.84726
0.0587594 0.38329 3.87857
-0.0183142 0.482837 3.81915
-0.0622173 0.46495 3.80902
0.00243324 0.414309 3.85755
-0.113781 0.774898 3.73444
-0.0951 0.73196 3.7771
-0.0761357 0.686691 3.81093
-0.0113728 0.228342 3.82037
0.0403028 0.671789 3.85051
0.0360456 0.73756 3.83246
0.0279677 0.80004 3.80922
-0.100455 0.554038 3.77131
-0.162445 0.526336 3.72729
0.0176567 0.563141 3.79373
-0.133376 0.602086 3.75669
0.0317151 0.517145 3.83917
0.0253938 0.4201 3.90623
-0.196218 0.506634 3.69929
-0.146191 0.503999 3.75456
-0.110012 0.492543 3.78096
-0.0565563 0.496742 3.79835
-0.0183191 0.50793 3.80544
0.0108855 0.52104 3.81297
0.0710097 0.553507 3.86343
-0.197182 0.443504 3.70997
-0.154795 0.604688 3.74072
0.0775706 0.387826 3.93544
0.0144994 0.471229 3.84165
-0.218923 0.578764 3.54227
0.0345568 0.537273 3.81841
0.00358232 0.415822 3.8327
-0.118848 0.585838 3.75211
0.0224061 0.438272 3.89495
-0.218226 0.370781 3.54317
0.0191968 0.575151 3.78839
0.0427447 0.453249 3.92187
-0.139155 0.212441 3.70543
-0.143441 0.178102 3.66152
-0.219517 0.444012 3.6187
-0.17751 0.252446 3.67175
-0.193478 0.625081 3.64989
-0.0206203 0.122081 3.79603
0.0853644 0.386169 3.90636
-0.0106303 0.450774 3.82952
-0.184938 0.563921 3.68836
-0.0718662 0.565543 3.7833
-0.0497319 0.561838 3.79086
-0.0120854 0.264166 3.82528
-0.195164 0.384119 3.70371
0.0291592 0.0855454 3.79784
-0.057036 0.117684 3.73668
-0.0964901 0.141448 3.70321
0.106625 0.732348 3.83859
0.0867644 0.0864343 3.80938
-0.0268381 0.562962 3.79214
-0.00485648 0.567266 3.79101
0.0114299 0.571297 3.78801
-0.174021 0.611877 3.71217
-0.00465645 0.59493 3.79673
-0.0276632 0.60464 3.79888
-0.0508991 0.607481 3.79775
-0.0752471 0.604376 3.78964
-0.0898319 0.597702 3.77907
-0.21133 0.644658 3.57917
-0.0865821 0.57103 3.7751
0.0939326 0.364514 3.88727
0.00363558 0.346381 3.85349
0.0332438 0.401582 3.87963
0.0569371 0.359159 3.88213
0.0966407 0.594426 3.85078
-0.0979365 0.176263 3.73324
-0.060841 0.148207 3.76254
0.0280953 0.105319 3.82543
-0.177991 0.224127 3.61419
0.0116868 0.582322 3.79259
0.0515853 0.508628 3.8738
0.0870078 0.106406 3.83718
-0.0165822 0.0977985 3.77279
-0.217301 0.37596 3.62259
0.0414119 0.271297 3.85321
0.0367272 0.263273 3.85616
0.0310395 0.250567 3.85783
0.0279377 0.235472 3.85288
0.0173145 0.210595 3.83123
-0.000772362 0.283895 3.83463
-0.00797938 0.285975 3.83519
-0.016172 0.289449 3.83435
-0.0410533 0.305745 3.82509
-0.15602 0.367085 3.75562
0.052754 0.537957 3.85011
0.0450579 0.595948 3.80412
0.0260466 0.593021 3.79645
0.00253344 0.287137 3.83358
-0.160334 0.296199 3.72018
0.0649522 0.593007 3.83488
0.0013556 0.18325 3.8155
0.0905683 0.498168 3.92009
0.0705471 0.522674 3.88809
0.0936836 0.528219 3.89464
0.0318456 0.464917 3.87249
0.088276 0.135927 3.84867
0.090937 0.171691 3.84607
0.0454959 0.170165 3.83483
-0.0599486 0.236147 3.78989
-0.0198265 0.392847 3.8248
-0.0331743 0.205085 3.80004
-0.0868977 0.394619 3.80862
-0.0466839 0.363859 3.82074
-0.112458 0.347098 3.78751
0.0337324 0.134783 3.83642
0.0148689 0.449247 3.85433
-0.0861337 0.211245 3.76389
-0.0494708 0.180451 3.78253
-0.0823668 0.271432 3.79041
-0.189173 0.332993 3.69493
-0.121602 0.263744 3.75553
-0.207001 0.311229 3.6371
-0.0695544 0.325764 3.80908
0.0333419 0.490429 3.85744
0.0336295 0.40648 3.91197
0.0193077 0.402026 3.88271
0.0447648 0.425377 3.93271
0.0248136 0.620823 3.81274
-0.0180589 0.638326 3.81522
-0.0591065 0.642053 3.81214
-0.094773 0.63685 3.80026
-0.120557 0.624146 3.78059
-0.136923 0.576237 3.73709
-0.219814 0.507175 3.62214
-0.119247 0.534009 3.75965
-0.0904177 0.524616 3.77698
-0.055098 0.523407 3.79108
-0.020967 0.529122 3.79793
0.00791714 0.539221 3.79891
0.0276439 0.549147 3.80288
-0.219251 0.514124 3.52929
0.0203182 0.395662 3.86981
0.0499393 0.482144 3.8962
0.0530237 0.405218 3.93303
0.0654096 0.391814 3.92217
0.0527798 0.400669 3.92066
0.0284522 0.38856 3.86071
0.0699859 0.389591 3.92993
0.0769438 0.387129 3.90386
0.0314666 0.574512 3.79159
0.0446866 0.566065 3.80527
0.0522402 0.559822 3.82383
-0.0983729 0.592248 3.76976
-0.118411 0.602557 3.76644
0.114067 0.496126 3.91011
0.277483 0.580985 3.76493
0.113627 0.391131 3.90539
0.379981 0.695135 3.6262
0.204793 0.549139 3.788
0.228713 0.548488 3.78643
0.252244 0.552233 3.78024
0.282188 0.571117 3.75892
0.184757 0.555628 3.78893
0.233909 0.624774 3.79944
0.20689 0.621638 3.80081
0.259773 0.621511 3.7921
0.276505 0.612345 3.78218
0.301558 0.553561 3.74838
0.178313 0.171005 3.81986
0.286206 0.58965 3.75617
0.381634 0.58272 3.62866
0.328433 0.575617 3.71941
0.21524 0.436 3.83182
0.122056 0.332042 3.89367
0.116048 0.303663 3.8807
0.154051 0.3223 3.87676
0.174887 0.310314 3.85417
0.138506 0.301667 3.86679
0.15748 0.298249 3.84823
0.201976 0.262577 3.81588
0.110987 0.402399 3.94978
0.112145 0.429606 3.95667
0.309429 0.635121 3.76528
0.169145 0.502899 3.82721
0.167021 0.415348 3.88477
0.1685 0.4307 3.87649
0.289322 0.443517 3.79478
0.112739 0.46513 3.93675
0.248988 0.656959 3.81672
0.284415 0.650946 3.79337
0.351891 0.735792 3.67502
0.148642 0.633756 3.8417
0.18704 0.612733 3.79407
0.222247 0.29256 3.80941
0.352335 0.326002 3.58857
0.151175 0.400366 3.87664
0.127924 0.390494 3.88537
0.200689 0.290778 3.81019
0.183616 0.291155 3.81516
0.298786 0.668619 3.77821
0.166828 0.40428 3.87208
0.204608 0.652762 3.83445
0.208833 0.672912 3.83755
0.246398 0.784913 3.77647
0.322513 0.701552 3.73404
0.226971 0.731738 3.80908
0.327657 0.648988 3.74094
0.353694 0.670043 3.68719
0.119706 0.316069 3.88968
0.146604 0.310248 3.87315
0.166136 0.303528 3.85435
0.144399 0.395985 3.874
0.192279 0.290155 3.81371
0.178981 0.279028 3.83089
0.177966 0.292446 3.81514
0.13886 0.405717 3.90628
0.149546 0.299234 3.84335
0.132894 0.300347 3.85738
0.112763 0.299357 3.86935
0.124682 0.204565 3.8439
0.123183 0.229426 3.86677
0.122528 0.246187 3.87056
0.122405 0.26276 3.86523
0.1199 0.273073 3.86042
0.156647 0.281076 3.83787
0.158817 0.275862 3.84418
0.162962 0.26726 3.8494
0.170217 0.25887 3.84521
0.194847 0.338868 3.84774
0.390995 0.473256 3.54161
0.168604 0.285605 3.82304
0.173138 0.283081 3.82897
0.121901 0.38005 3.88528
0.160087 0.390059 3.85989
0.124718 0.384701 3.88564
0.194808 0.488103 3.82022
0.23411 0.472165 3.81486
0.172833 0.420061 3.86394
0.306164 0.765125 3.72905
0.280675 0.722724 3.7745
0.259257 0.678133 3.80928
0.182299 0.241323 3.82673
0.155897 0.666553 3.85071
0.170517 0.732744 3.83022
0.181939 0.793 3.80916
0.27121 0.559563 3.76918
0.326667 0.536038 3.73493
0.174428 0.564945 3.78539
0.302514 0.604293 3.75492
0.152124 0.52028 3.83537
0.152164 0.422748 3.90864
0.354783 0.52107 3.70698
0.310212 0.514304 3.76046
0.278026 0.50119 3.78687
0.232766 0.50313 3.79893
0.198575 0.512383 3.80414
0.172099 0.524005 3.81095
0.120245 0.554405 3.8608
0.353344 0.463147 3.71985
0.321025 0.608718 3.73872
0.102321 0.388588 3.93432
0.166567 0.475831 3.84117
0.401642 0.595106 3.54442
0.155483 0.539572 3.81386
0.178593 0.421252 3.84211
0.29365 0.58837 3.74989
0.152037 0.441537 3.89793
0.37738 0.4024 3.55948
0.176148 0.577938 3.77591
0.131896 0.456009 3.92117
0.287847 0.24458 3.72655
0.287585 0.215592 3.68199
0.38513 0.467321 3.63167
0.321363 0.285442 3.69311
0.371399 0.631966 3.64999
0.183671 0.143829 3.8081
0.103735 0.38614 3.90736
0.186263 0.456285 3.83446
0.35115 0.574458 3.6913
0.253486 0.568369 3.77935
0.232163 0.563868 3.78412
0.186307 0.274584 3.82678
0.345447 0.406658 3.72017
0.140442 0.0997278 3.80383
0.218764 0.148958 3.74954
0.251268 0.177118 3.7195
0.211298 0.5641 3.78477
0.193521 0.568776 3.78152
0.183098 0.573837 3.77621
0.34072 0.616574 3.71124
0.192824 0.596915 3.78398
0.21069 0.604917 3.78857
0.232108 0.608223 3.789
0.25428 0.605372 3.7839
0.268505 0.598717 3.77569
0.3975 0.652713 3.57982
0.267915 0.574704 3.77156
0.172778 0.353883 3.86161
0.151115 0.40329 3.8858
0.126188 0.361918 3.88512
0.252082 0.20608 3.75448
0.21793 0.175279 3.78114
0.139172 0.117638 3.83186
0.321573 0.262865 3.63192
0.181775 0.585927 3.77829
0.134434 0.510695 3.87206
0.183112 0.122391 3.78072
0.372404 0.403245 3.64205
0.140918 0.277336 3.85012
0.14384 0.269364 3.85552
0.146788 0.256829 3.85946
0.151382 0.242816 3.85548
0.157159 0.220512 3.83653
0.172974 0.29484 3.82945
0.183422 0.296995 3.83012
0.191379 0.300686 3.83043
0.21449 0.318788 3.82686
0.305503 0.385386 3.7735
0.135931 0.539531 3.84693
0.153681 0.595383 3.80055
0.170751 0.593979 3.78498
0.164825 0.298498 3.82683
0.309102 0.321546 3.73995
0.129185 0.592532 3.83318
0.167326 0.196813 3.82657
0.116539 0.523251 3.88797
0.148878 0.467782 3.87472
0.129772 0.177101 3.84264
0.222324 0.253977 3.80366
0.197355 0.40025 3.83577
0.196153 0.221591 3.81473
0.249754 0.40465 3.82409
0.218661 0.373656 3.83172
0.268841 0.362206 3.80439
0.13675 0.145103 3.84172
0.162982 0.453457 3.85791
0.243114 0.235458 3.7821
0.210008 0.20189 3.80054
0.244206 0.290287 3.79837
0.335966 0.358371 3.7161
0.273446 0.287064 3.77401
0.353421 0.342821 3.65725
0.236505 0.339469 3.81834
0.150153 0.493888 3.85477
0.144703 0.409525 3.91152
0.158799 0.404941 3.88931
0.134815 0.427697 3.93285
0.171547 0.61933 3.80593
0.20683 0.633569 3.81064
0.240135 0.636061 3.80842
0.269599 0.632151 3.79653
0.29069 0.621867 3.77828
0.30754 0.581245 3.7382
0.387826 0.526545 3.62752
0.289075 0.540834 3.76306
0.263926 0.530753 3.77958
0.231422 0.527818 3.79023
0.200577 0.532274 3.79444
0.177148 0.540739 3.79678
0.161696 0.550468 3.79927
0.398241 0.536601 3.53237
0.158147 0.399406 3.87729
0.133316 0.485262 3.89326
0.12775 0.4069 3.93489
0.111635 0.392478 3.92515
0.12731 0.402604 3.92148
0.151355 0.392125 3.87129
0.108086 0.389641 3.93216
0.109829 0.38748 3.90646
0.166124 0.575546 3.78378
0.149459 0.566377 3.80184
0.139834 0.56002 3.82196
0.278025 0.593662 3.76703
0.288834 0.602063 3.76673
