ply
format ascii 1.0
comment Created by Open3D
element vertex 468
property double x
property double y
property double z
end_header
-0.0123223 0.38784 3.90986
-0.0145455 0.463818 3.96172
-0.0128991 0.438544 3.90459
-0.0320224 0.548477 3.92701
-0.0147862 0.489431 3.96757
-0.0142251 0.523976 3.95625
-0.0124023 0.608534 3.89168
-0.175541 0.626602 3.80422
-0.011899 0.680236 3.86975
-0.0117819 0.7162 3.87239
-0.0128578 0.841058 3.84339
-0.012118 0.376853 3.90762
-0.0116992 0.368043 3.90043
-0.0112915 0.363869 3.89052
-0.0103637 0.356797 3.88799
-0.0102473 0.347344 3.8918
-0.00975199 0.3359 3.89608
-0.00913012 0.324287 3.89223
-0.00770976 0.305931 3.86963
-0.0139579 0.452118 3.95077
-0.031733 0.452264 3.91968
-0.261613 0.725014 3.69539
-0.10554 0.603473 3.82956
-0.128482 0.60198 3.82808
-0.151172 0.602524 3.82181
-0.182258 0.618731 3.80139
-0.0872807 0.607681 3.82602
-0.141468 0.677169 3.82831
-0.114689 0.67407 3.82994
-0.165392 0.672311 3.82206
-0.181033 0.661753 3.8149
-0.199878 0.600007 3.79201
-0.083324 0.278298 3.84482
-0.185043 0.634899 3.79621
-0.268204 0.614245 3.69231
-0.226011 0.618813 3.76885
-0.119325 0.493404 3.85773
-0.0363116 0.39166 3.90698
-0.0312153 0.369145 3.89792
-0.0594496 0.385581 3.89592
-0.0733019 0.378057 3.88245
-0.0474181 0.368435 3.89112
-0.06033 0.36637 3.87811
-0.0992867 0.34635 3.84956
-0.0312681 0.46516 3.95994
-0.0348257 0.489924 3.96518
-0.212159 0.684285 3.8078
-0.0765773 0.55631 3.85645
-0.0734547 0.473472 3.90399
-0.075036 0.487673 3.89644
-0.187227 0.499363 3.83046
-0.0337897 0.521465 3.94962
-0.1596 0.711908 3.84288
-0.190494 0.703079 3.82639
-0.239108 0.770405 3.73679
-0.0612076 0.688738 3.86239
-0.0924501 0.661603 3.82481
-0.115934 0.366064 3.84377
-0.231329 0.386998 3.64089
-0.058357 0.458095 3.89674
-0.0431378 0.449919 3.89826
-0.0893178 0.36377 3.84826
-0.0797022 0.365151 3.85517
-0.203023 0.718845 3.81576
-0.0726787 0.463175 3.89215
-0.117847 0.709956 3.855
-0.12208 0.73004 3.85888
-0.147269 0.829544 3.81748
-0.221046 0.745025 3.78256
-0.132103 0.778841 3.84095
-0.226893 0.695155 3.7883
-0.244856 0.708727 3.74634
-0.034175 0.378934 3.90563
-0.0530211 0.37511 3.89493
-0.0669302 0.371938 3.88233
-0.0532565 0.453205 3.89214
-0.0840187 0.364065 3.85215
-0.0764457 0.360565 3.86495
-0.0782742 0.367144 3.85536
-0.050732 0.46603 3.92736
-0.0558943 0.367495 3.874
-0.0428694 0.366507 3.88212
-0.0280271 0.365285 3.88875
-0.033998 0.307871 3.86972
-0.0335211 0.327375 3.89172
-0.0330658 0.339691 3.89467
-0.0317034 0.350269 3.89024
-0.0298255 0.358165 3.88652
-0.0594024 0.362569 3.87289
-0.0625137 0.360142 3.87608
-0.066789 0.355318 3.87902
-0.0709748 0.348231 3.87539
-0.0952274 0.404058 3.8736
-0.263095 0.505336 3.60407
-0.0137274 0.445091 3.92067
-0.0678931 0.363697 3.86332
-0.0716555 0.362565 3.86522
-0.0368707 0.439532 3.89899
-0.0664445 0.447106 3.87712
-0.0399564 0.444412 3.89924
-0.0980921 0.542895 3.84956
-0.135489 0.526654 3.84483
-0.0774093 0.47706 3.88455
-0.203148 0.806197 3.77977
-0.185488 0.769331 3.81298
-0.168062 0.73122 3.83911
-0.0823155 0.331662 3.85958
-0.0684791 0.722661 3.86951
-0.0762211 0.77895 3.85726
-0.086034 0.840014 3.83903
-0.170935 0.607885 3.81165
-0.224282 0.581256 3.78186
-0.0759326 0.612651 3.82215
-0.202705 0.651169 3.79846
-0.0625417 0.571416 3.86292
-0.0638981 0.481781 3.9258
-0.248082 0.565406 3.7578
-0.207954 0.562007 3.80356
-0.177125 0.551537 3.82544
-0.132177 0.555442 3.83366
-0.100622 0.565818 3.83751
-0.0788646 0.576513 3.84257
-0.0337257 0.602801 3.88369
-0.241604 0.512054 3.76742
-0.22131 0.655104 3.78836
-0.0240042 0.453179 3.94943
-0.0723455 0.529057 3.86731
-0.274998 0.615964 3.61745
-0.0628428 0.588013 3.84476
-0.0797328 0.475046 3.86323
-0.191273 0.633851 3.79202
-0.0646234 0.499312 3.91633
-0.251528 0.446952 3.61628
-0.0768625 0.622229 3.81609
-0.0505888 0.513569 3.93693
-0.178196 0.328662 3.76533
-0.177288 0.30488 3.72358
-0.263527 0.507546 3.68619
-0.208509 0.360613 3.73575
-0.258563 0.664523 3.71316
-0.0871282 0.257942 3.83086
-0.021585 0.445983 3.91903
-0.0907034 0.511947 3.86026
-0.245801 0.614249 3.74721
-0.150543 0.617027 3.81852
-0.129785 0.615073 3.82379
-0.0818526 0.356888 3.86111
-0.232938 0.463392 3.76243
-0.0489894 0.226924 3.82434
-0.112319 0.257608 3.78193
-0.141465 0.276511 3.75735
-0.0123605 0.776544 3.86153
-0.00486864 0.221092 3.83041
-0.110235 0.616382 3.82439
-0.0922551 0.619227 3.82067
-0.0813275 0.62029 3.81621
-0.238593 0.659976 3.76531
-0.0966984 0.646702 3.82168
-0.117272 0.658227 3.82312
-0.139379 0.660903 3.82204
-0.16077 0.656159 3.81752
-0.173149 0.647498 3.81173
-0.273795 0.675049 3.65116
-0.165147 0.621153 3.81082
-0.0124884 0.422455 3.90061
-0.0772117 0.41544 3.88241
-0.059489 0.461907 3.90545
-0.0395466 0.420909 3.89948
-0.011878 0.645459 3.87212
-0.146535 0.30016 3.78636
-0.117568 0.279293 3.80696
-0.050568 0.240651 3.85186
-0.2059 0.339049 3.68037
-0.0830907 0.631173 3.81883
-0.0477707 0.561352 3.8943
-0.00503598 0.235504 3.85672
-0.0825161 0.240464 3.80744
-0.252689 0.454491 3.69205
-0.0460836 0.360417 3.88045
-0.0492009 0.355418 3.88443
-0.0521216 0.347532 3.88813
-0.054275 0.336316 3.88541
-0.0603491 0.318357 3.86813
-0.0714841 0.365666 3.86625
-0.0778902 0.367816 3.86628
-0.0841539 0.371825 3.86601
-0.109036 0.386612 3.86051
-0.200553 0.44891 3.80909
-0.0482578 0.588228 3.8716
-0.0599424 0.640523 3.8309
-0.0735075 0.638253 3.82235
-0.0674092 0.367982 3.86338
-0.198941 0.392368 3.77804
-0.0410291 0.642254 3.85812
-0.0729963 0.298612 3.85474
-0.0135975 0.552148 3.93411
-0.0331651 0.57409 3.90864
-0.013053 0.578706 3.91304
-0.0602767 0.521848 3.89643
-0.00553238 0.256973 3.86846
-0.0065197 0.282808 3.8672
-0.0405294 0.285284 3.864
-0.122465 0.338463 3.83527
-0.0999746 0.457612 3.85994
-0.0998011 0.31617 3.84466
-0.153359 0.465894 3.85122
-0.1208 0.435371 3.85898
-0.168784 0.428671 3.83638
-0.0475132 0.260887 3.86318
-0.0701518 0.508421 3.88084
-0.140997 0.323049 3.81304
-0.112239 0.29954 3.8257
-0.140719 0.365628 3.83245
-0.223157 0.422798 3.75633
-0.169019 0.365298 3.80997
-0.236292 0.405443 3.70359
-0.134801 0.405876 3.85103
-0.0601242 0.545516 3.87971
-0.0571639 0.470513 3.9317
-0.0672964 0.464861 3.90728
-0.0511457 0.486611 3.94611
-0.0783293 0.667078 3.83603
-0.115392 0.684775 3.83815
-0.148451 0.688 3.83547
-0.17536 0.682912 3.82661
-0.193484 0.671303 3.81498
-0.20564 0.626509 3.78407
-0.269236 0.561107 3.68807
-0.186959 0.588544 3.80485
-0.16238 0.580054 3.81922
-0.131154 0.580577 3.82769
-0.102647 0.586402 3.83158
-0.0821629 0.592983 3.83113
-0.0680135 0.599486 3.8318
-0.269266 0.560934 3.60343
-0.065607 0.458418 3.89648
-0.0480492 0.537486 3.91263
-0.0449407 0.468604 3.94913
-0.0335082 0.457437 3.9401
-0.0440122 0.465033 3.93852
-0.0601317 0.450905 3.88927
-0.0299999 0.455106 3.94612
-0.0276983 0.448153 3.91952
-0.0689247 0.619592 3.81938
-0.0566574 0.61276 3.83353
-0.0499615 0.607542 3.84881
-0.179942 0.640685 3.80523
-0.190899 0.650071 3.80377
0.00532878 0.547909 3.92689
0.156096 0.622182 3.80191
0.00475637 0.451059 3.91924
0.243167 0.722526 3.69199
0.0863157 0.601061 3.82879
0.109496 0.599268 3.82668
0.132375 0.599272 3.82002
0.164075 0.614365 3.79893
0.0671504 0.605582 3.82544
0.12073 0.672844 3.82681
0.0939906 0.670368 3.82855
0.144804 0.667646 3.81968
0.160755 0.657094 3.81235
0.1825 0.596044 3.7892
0.074281 0.274597 3.84297
0.165719 0.630245 3.79369
0.253663 0.610787 3.68874
0.209297 0.614226 3.76512
0.100375 0.489965 3.85473
0.0125014 0.39024 3.90598
0.00875516 0.367817 3.89716
0.0377703 0.382241 3.89446
0.0538532 0.37398 3.88094
0.026637 0.365839 3.88999
0.0407334 0.363036 3.87689
0.0861534 0.341566 3.84761
0.00294744 0.464495 3.95944
0.00621023 0.489162 3.96468
0.191978 0.67837 3.8051
0.0559151 0.554207 3.8551
0.0493053 0.469465 3.90281
0.0518643 0.483847 3.89523
0.17251 0.495023 3.82659
0.0057209 0.520753 3.94942
0.137733 0.705786 3.84106
0.169237 0.69656 3.82414
0.218839 0.767202 3.73364
0.0382695 0.686214 3.86189
0.0714858 0.658576 3.82388
0.101273 0.360784 3.84185
0.224591 0.381346 3.63734
0.0331501 0.454597 3.89605
0.0174339 0.447653 3.8973
0.0733381 0.358821 3.84767
0.0631692 0.360477 3.85424
0.181221 0.711968 3.81332
0.0493172 0.459087 3.89095
0.0955792 0.705035 3.85346
0.0998726 0.725078 3.85708
0.12429 0.827386 3.81582
0.199989 0.740159 3.77969
0.109199 0.775335 3.83927
0.206673 0.689425 3.7853
0.225224 0.704613 3.74281
0.0109157 0.37743 3.90475
0.03154 0.37207 3.89367
0.0472883 0.368268 3.88071
0.0281698 0.450044 3.89129
0.0677194 0.359203 3.85137
0.0603984 0.356267 3.86366
0.061161 0.362376 3.85451
0.0242372 0.4636 3.92688
0.0366079 0.36451 3.87288
0.022685 0.364152 3.88109
0.00637467 0.364085 3.88797
0.0195377 0.306305 3.86865
0.0162201 0.325531 3.89057
0.0144591 0.338158 3.89341
0.0121011 0.34889 3.88912
0.0100186 0.3569 3.88557
0.0424046 0.359562 3.8714
0.0456905 0.356836 3.87442
0.050754 0.351594 3.87703
0.0556054 0.344426 3.87372
0.0755577 0.400084 3.87136
0.251856 0.501775 3.60091
0.0512053 0.360048 3.86234
0.0552953 0.358614 3.86393
0.011178 0.437899 3.89835
0.0429755 0.443395 3.87576
0.0141525 0.442623 3.8985
0.0787711 0.540401 3.84782
0.117768 0.523428 3.84195
0.0547164 0.473085 3.88312
0.181602 0.803231 3.77716
0.163271 0.764518 3.81058
0.14592 0.724769 3.83694
0.0693294 0.327822 3.85795
0.0457364 0.719848 3.86877
0.0526059 0.777319 3.85621
0.061867 0.83883 3.83766
0.152587 0.603982 3.80916
0.208384 0.577126 3.7781
0.0548986 0.610557 3.82196
0.183637 0.646359 3.79595
0.0407237 0.569787 3.86212
0.0385502 0.478702 3.92478
0.233764 0.561278 3.75399
0.191518 0.558124 3.79991
0.160163 0.548291 3.82214
0.113846 0.552801 3.83153
0.081203 0.563517 3.83589
0.0586 0.574578 3.84134
0.00949943 0.60198 3.88358
0.22837 0.507274 3.76346
0.202982 0.649917 3.78497
-0.00332854 0.45284 3.94924
0.0505963 0.526469 3.86599
0.260775 0.613349 3.61377
0.041206 0.586449 3.84394
0.0572997 0.471217 3.86146
0.172501 0.629326 3.78967
0.0401443 0.496338 3.91518
0.242529 0.44235 3.61314
0.055673 0.619983 3.81596
0.0244448 0.511952 3.93629
0.171527 0.322107 3.76232
0.172191 0.298841 3.72122
0.251397 0.50305 3.68216
0.201569 0.354108 3.732
0.241222 0.661193 3.70904
0.0793568 0.253867 3.8293
-0.00573018 0.445659 3.91893
0.0704097 0.508848 3.85811
0.230283 0.610152 3.74349
0.130488 0.613427 3.81661
0.109795 0.612184 3.82245
0.0664334 0.352492 3.85999
0.221289 0.457887 3.75794
0.0401871 0.224691 3.82331
0.105915 0.252322 3.7803
0.136039 0.270706 3.75553
0.0903336 0.613904 3.82368
0.0720071 0.617015 3.82061
0.0603671 0.618238 3.81636
0.220723 0.655423 3.76157
0.076623 0.643654 3.82122
0.0973476 0.654651 3.82216
0.119091 0.656801 3.82028
0.140658 0.651648 3.81516
0.153372 0.642926 3.80903
0.256936 0.672864 3.64744
0.145253 0.616999 3.80873
0.0555496 0.412086 3.88048
0.0339732 0.458484 3.9044
0.0151761 0.419343 3.89873
0.139808 0.294075 3.78384
0.110742 0.27384 3.80473
0.0413968 0.238558 3.85083
0.200434 0.332866 3.67749
0.0622501 0.628638 3.81874
0.023689 0.559979 3.89381
0.0750821 0.236546 3.80617
0.242492 0.449306 3.68759
0.0277498 0.358201 3.8791
0.0311588 0.353012 3.88291
0.0349455 0.344716 3.88645
0.0381942 0.33342 3.88403
0.0471878 0.315428 3.86674
0.0535353 0.361552 3.86508
0.0600322 0.363327 3.86528
0.0667622 0.367131 3.86497
0.0915824 0.382089 3.85846
0.188502 0.443391 3.80484
0.0250022 0.587017 3.87123
0.0376685 0.638336 3.83022
0.0520063 0.635986 3.82207
0.0487365 0.36413 3.86229
0.189083 0.386058 3.77419
0.0178374 0.640742 3.85769
0.0625488 0.295156 3.85312
0.00787998 0.573306 3.90824
0.0364838 0.519536 3.89508
0.0287714 0.283522 3.86309
0.110955 0.333068 3.83248
0.0786733 0.453844 3.85737
0.0895808 0.311495 3.84233
0.137052 0.461515 3.84737
0.101481 0.431399 3.85606
0.155027 0.423403 3.83237
0.0372652 0.258973 3.86217
0.0476948 0.505382 3.87942
0.131775 0.317271 3.81015
0.103735 0.294434 3.82317
0.127849 0.360106 3.82956
0.212855 0.416534 3.75191
0.159208 0.359133 3.80663
0.228187 0.39943 3.69931
0.118351 0.401166 3.84782
0.0371263 0.543504 3.87866
0.0311042 0.467738 3.93109
0.0425211 0.460834 3.90584
0.02375 0.484703 3.9455
0.0563104 0.663981 3.83534
0.0937572 0.680356 3.83678
0.127075 0.68301 3.83364
0.154396 0.677815 3.82467
0.173429 0.666236 3.81266
0.187826 0.621939 3.78118
0.256019 0.557162 3.6843
0.169339 0.58505 3.80185
0.144333 0.576958 3.81663
0.11237 0.577997 3.82582
0.0832643 0.584159 3.83024
0.0619191 0.590971 3.83003
0.0469439 0.597753 3.83116
0.256685 0.557929 3.59998
0.0413807 0.454515 3.89529
0.0224576 0.536188 3.91201
0.0174738 0.467076 3.94861
0.00669881 0.456435 3.93965
0.0171294 0.463245 3.93779
0.0360441 0.447266 3.88823
0.00312792 0.454359 3.94575
0.000664409 0.447333 3.91908
0.0473238 0.617444 3.81905
0.0348098 0.610966 3.83293
0.0276258 0.606082 3.84836
0.160509 0.636033 3.80254
0.171446 0.645257 3.80095
