ply
format ascii 1.0
comment Created by Open3D
element vertex 468
property double x
property double y
property double z
end_header
0.0408411 0.371455 3.85886
0.0433138 0.443866 3.92624
0.0440732 0.418447 3.86289
0.0214864 0.527108 3.88842
0.0428265 0.47075 3.93357
0.041432 0.504446 3.92166
0.0419032 0.583245 3.84867
-0.137168 0.586087 3.74525
0.0416186 0.643715 3.82694
0.0415078 0.678138 3.82963
0.0411705 0.79878 3.79807
0.0401219 0.360254 3.85601
0.0393913 0.352935 3.84922
0.0387959 0.351585 3.83878
0.0425071 0.311111 3.82806
0.0423 0.302021 3.83346
0.0412453 0.29054 3.83936
0.0409814 0.276734 3.83629
0.0414256 0.251411 3.81551
0.0427002 0.429649 3.9135
0.0211033 0.431561 3.87869
-0.232382 0.674065 3.62091
-0.0660502 0.565103 3.77416
-0.091598 0.563526 3.77177
-0.11572 0.564975 3.76426
-0.149106 0.576861 3.74157
-0.0438905 0.570566 3.77059
-0.0992383 0.628744 3.77936
-0.0718706 0.62689 3.77824
-0.124461 0.624509 3.77057
-0.141665 0.615028 3.75955
-0.169399 0.560963 3.7282
-0.0532654 0.213644 3.78235
-0.146109 0.591113 3.73633
-0.242868 0.563706 3.61424
-0.196657 0.57463 3.70104
-0.0899478 0.467666 3.80138
0.00324577 0.375428 3.85462
0.004292 0.354015 3.84381
-0.0358389 0.370681 3.83703
-0.0608805 0.364271 3.81243
-0.0240716 0.354069 3.83062
-0.0451067 0.353366 3.80796
-0.0860028 0.317741 3.76712
0.0224811 0.444394 3.9227
0.0192521 0.470674 3.92953
-0.181287 0.640284 3.74953
-0.033623 0.526713 3.80396
-0.0375122 0.454212 3.85959
-0.0395935 0.467791 3.85115
-0.171049 0.471451 3.76616
0.0200149 0.50173 3.91413
-0.118407 0.671044 3.79146
-0.154956 0.660694 3.77197
-0.206312 0.722941 3.66801
-0.00935725 0.649971 3.81764
-0.0477199 0.618067 3.77197
-0.107897 0.348587 3.76346
-0.216934 0.317988 3.56072
-0.0181375 0.439678 3.85053
0.00334817 0.431053 3.85264
-0.0876505 0.350681 3.76335
-0.0761779 0.349997 3.7691
-0.169524 0.67706 3.75884
-0.0398748 0.444714 3.84518
-0.0703374 0.66935 3.80716
-0.0753924 0.690949 3.81131
-0.102881 0.787886 3.76337
-0.187722 0.700727 3.71881
-0.0858681 0.741674 3.78853
-0.196858 0.650538 3.72723
-0.214337 0.660889 3.67619
0.00296353 0.362104 3.85145
-0.029166 0.360286 3.83445
-0.0528395 0.358606 3.81189
-0.0118543 0.435332 3.84477
-0.082048 0.350525 3.76589
-0.0674632 0.333784 3.77982
-0.0726595 0.349317 3.76983
-0.00473322 0.444848 3.88701
-0.041744 0.355647 3.80446
-0.0197913 0.354637 3.82157
0.00637696 0.352773 3.83444
0.00232631 0.253305 3.81112
0.00352639 0.280198 3.83174
0.00525885 0.294252 3.83425
0.00799516 0.305296 3.82798
0.0105083 0.313026 3.82342
-0.0398276 0.326534 3.79517
-0.0443408 0.32444 3.79842
-0.0505654 0.319174 3.80128
-0.054505 0.311222 3.79675
-0.0764047 0.385213 3.80409
-0.240725 0.444324 3.51957
0.0448578 0.424136 3.88106
-0.0543827 0.334111 3.77942
-0.06113 0.335222 3.78099
0.0113535 0.420038 3.85491
-0.0314161 0.430462 3.82575
0.00763783 0.425233 3.85449
-0.0619462 0.513775 3.79567
-0.106222 0.499586 3.78765
-0.0447862 0.457482 3.83656
-0.165511 0.761984 3.71773
-0.146792 0.729047 3.75497
-0.127551 0.691473 3.7862
-0.0638175 0.291321 3.7817
-0.0175605 0.684965 3.82518
-0.0256086 0.742977 3.80801
-0.0364237 0.798668 3.78961
-0.137061 0.568996 3.75241
-0.19733 0.543298 3.71379
-0.029502 0.576781 3.76798
-0.16935 0.605692 3.73687
-0.0151484 0.542356 3.8131
-0.0209073 0.461609 3.88465
-0.225301 0.52349 3.68658
-0.180462 0.529711 3.73832
-0.147987 0.523097 3.76226
-0.098454 0.525063 3.77568
-0.061264 0.533185 3.78157
-0.034211 0.543911 3.78851
0.0188408 0.576371 3.83913
-0.226296 0.473431 3.69582
-0.190825 0.608972 3.72464
0.0301554 0.430976 3.91204
-0.0316747 0.503471 3.81698
-0.248012 0.560574 3.5337
-0.0138809 0.557329 3.79234
-0.0468651 0.456107 3.80999
-0.155363 0.589251 3.73111
-0.0226886 0.478363 3.87416
-0.233884 0.382162 3.53322
-0.0297615 0.585515 3.76156
-0.00195788 0.492489 3.89907
-0.163664 0.2696 3.68721
-0.15899 0.233771 3.64857
-0.245059 0.455961 3.60662
-0.199004 0.300463 3.65795
-0.228816 0.615725 3.63865
-0.055402 0.185666 3.77163
0.0355175 0.425324 3.87897
-0.0566127 0.486726 3.80725
-0.218694 0.567963 3.67597
-0.112034 0.579798 3.7617
-0.0906094 0.577784 3.76875
-0.0731914 0.330391 3.77621
-0.225283 0.420403 3.68904
-0.00877754 0.151109 3.77117
-0.0834055 0.181469 3.717
-0.117546 0.202843 3.68625
0.0416073 0.739937 3.81551
0.0416884 0.148055 3.7791
-0.069469 0.578519 3.76973
-0.0491809 0.581633 3.76689
-0.035875 0.583336 3.7621
-0.209417 0.613014 3.69839
-0.0534822 0.602077 3.76919
-0.0757126 0.608683 3.77221
-0.0964629 0.610268 3.77093
-0.117835 0.606563 3.76433
-0.131628 0.600114 3.75571
-0.244083 0.623065 3.57137
-0.126678 0.5829 3.7532
0.043229 0.402774 3.8553
-0.0488203 0.397654 3.82354
-0.018045 0.44257 3.85933
0.00468191 0.402247 3.8513
0.041413 0.613484 3.82826
-0.124635 0.237232 3.71141
-0.0907945 0.211111 3.73948
-0.0115771 0.169109 3.79872
-0.190608 0.268374 3.60424
-0.0370528 0.592186 3.76506
0.00255447 0.536631 3.84858
0.0411058 0.166578 3.80595
-0.0488401 0.163177 3.74931
-0.239662 0.398413 3.6125
-0.0166547 0.318837 3.81079
-0.0211462 0.313636 3.81462
-0.0255417 0.305052 3.81881
-0.0280049 0.292319 3.81502
-0.0355136 0.268644 3.79869
-0.0654299 0.353221 3.78675
-0.0725711 0.355728 3.78618
-0.0797078 0.359344 3.78626
-0.0988473 0.369974 3.78238
-0.19494 0.41243 3.73943
0.00291129 0.560775 3.8243
-0.00942066 0.605477 3.7773
-0.025459 0.600349 3.76848
-0.0598439 0.355756 3.78531
-0.194217 0.345521 3.70226
0.0105233 0.608892 3.81056
-0.0451201 0.242529 3.78873
0.0417709 0.531193 3.89606
0.0199725 0.550249 3.86532
0.0420278 0.555842 3.87137
-0.0156439 0.498609 3.85017
0.0411107 0.192888 3.81711
0.0414451 0.224694 3.81611
-0.00335819 0.225972 3.80817
-0.102617 0.301677 3.75553
-0.0694571 0.436447 3.80187
-0.0762207 0.268118 3.76986
-0.135479 0.438435 3.78869
-0.0977549 0.412097 3.79298
-0.158805 0.397572 3.76642
-0.0098291 0.19498 3.8091
-0.0314508 0.485376 3.83243
-0.119835 0.273712 3.73615
-0.0859809 0.24215 3.75541
-0.126732 0.337583 3.75535
-0.218619 0.374206 3.68049
-0.158299 0.323396 3.73228
-0.225954 0.345567 3.62524
-0.122413 0.384451 3.77819
-0.0137976 0.519962 3.83179
-0.0130562 0.44953 3.89108
-0.0295736 0.445326 3.86221
-0.001399 0.466725 3.90869
-0.0291615 0.627011 3.78317
-0.0693746 0.641278 3.78531
-0.105432 0.644099 3.78288
-0.135897 0.639101 3.77256
-0.158096 0.626682 3.75659
-0.173335 0.582079 3.71991
-0.246811 0.510379 3.60965
-0.155393 0.552232 3.74225
-0.128753 0.546162 3.75787
-0.0950019 0.545621 3.76945
-0.0627261 0.549924 3.77497
-0.0373063 0.557697 3.77552
-0.0202816 0.566005 3.77766
-0.244261 0.502543 3.51858
-0.0295042 0.440083 3.84975
0.00268313 0.515292 3.8708
0.00524146 0.447698 3.91057
0.0178397 0.434894 3.90078
0.00500805 0.443318 3.8987
-0.0233133 0.433227 3.84065
0.022415 0.432634 3.90769
0.0271696 0.427245 3.87855
-0.0199417 0.584535 3.76484
-0.00695299 0.580112 3.78019
0.000569361 0.577098 3.79838
-0.139907 0.595154 3.74729
-0.154472 0.60413 3.74472
0.0620862 0.526558 3.88697
0.212264 0.582697 3.74621
0.0653963 0.431214 3.87996
0.297419 0.665986 3.62167
0.141752 0.561806 3.77119
0.165671 0.560607 3.76979
0.188987 0.562128 3.76332
0.220743 0.573598 3.74221
0.122454 0.567751 3.76903
0.172632 0.623802 3.7779
0.147265 0.622262 3.77809
0.19735 0.619344 3.77022
0.213741 0.610069 3.76088
0.240625 0.557805 3.73106
0.132412 0.218374 3.78602
0.221068 0.587307 3.73756
0.31031 0.560339 3.61753
0.266123 0.57097 3.70484
0.165739 0.466818 3.80627
0.0762967 0.375399 3.85646
0.0717418 0.354203 3.84531
0.111835 0.370921 3.84057
0.135076 0.364211 3.81666
0.0977201 0.354268 3.83239
0.118924 0.353014 3.81092
0.162 0.318404 3.77229
0.0626862 0.444359 3.92454
0.0641412 0.470334 3.93117
0.248478 0.63485 3.75229
0.113205 0.525161 3.80349
0.1183 0.453165 3.86246
0.119038 0.466667 3.85375
0.240468 0.470888 3.7727
0.0629509 0.50131 3.91348
0.192343 0.664587 3.79586
0.225342 0.654576 3.77592
0.272821 0.713072 3.66965
0.0907148 0.647681 3.81882
0.126404 0.614357 3.77111
0.182391 0.34877 3.76816
0.287691 0.324772 3.56253
0.102446 0.438752 3.85363
0.0822771 0.430506 3.85733
0.16426 0.349514 3.76754
0.150764 0.348814 3.77367
0.238497 0.670039 3.7632
0.120228 0.443833 3.84935
0.148433 0.664211 3.81133
0.152499 0.685359 3.81619
0.177087 0.779968 3.76577
0.254824 0.692686 3.72278
0.163211 0.735104 3.79195
0.263265 0.644497 3.73018
0.280471 0.654113 3.67906
0.0746771 0.362348 3.85307
0.104361 0.360719 3.83697
0.127192 0.358613 3.81584
0.0971006 0.434684 3.8491
0.158076 0.349415 3.771
0.144264 0.333125 3.78559
0.145848 0.348195 3.77384
0.0881643 0.44424 3.88662
0.113293 0.355232 3.8073
0.0927578 0.354565 3.82277
0.0683571 0.352933 3.83499
0.078385 0.254348 3.8147
0.0762502 0.28059 3.83367
0.0757388 0.294689 3.83538
0.0750106 0.305588 3.82853
0.0726599 0.313243 3.82362
0.118151 0.326441 3.79844
0.12184 0.324301 3.80344
0.12678 0.319123 3.80728
0.131712 0.311524 3.80264
0.153578 0.385613 3.81031
0.315201 0.445648 3.52102
0.131584 0.333508 3.78213
0.138107 0.334503 3.78554
0.0750617 0.419708 3.85703
0.114798 0.429824 3.83259
0.0782867 0.424648 3.85816
0.139857 0.512195 3.79611
0.181385 0.498127 3.79091
0.124572 0.456546 3.84007
0.234516 0.752219 3.72107
0.217779 0.72064 3.75998
0.201098 0.684524 3.79089
0.141229 0.293234 3.7866
0.0980647 0.681663 3.82776
0.10659 0.739439 3.81013
0.114691 0.794103 3.79293
0.209111 0.56605 3.75251
0.266567 0.540442 3.71827
0.11075 0.574271 3.76532
0.239607 0.601414 3.73875
0.0957102 0.540975 3.81177
0.102503 0.460562 3.88662
0.292419 0.521461 3.6907
0.25078 0.527062 3.74182
0.220405 0.52072 3.7651
0.17475 0.523007 3.77615
0.139857 0.531187 3.78091
0.11376 0.542122 3.78732
0.0643373 0.575578 3.83834
0.294342 0.473128 3.70079
0.258151 0.604493 3.72665
0.0543257 0.43074 3.91191
0.112489 0.50205 3.81702
0.3199 0.556826 3.53388
0.0959512 0.555615 3.79056
0.129234 0.455262 3.81482
0.228836 0.585432 3.73205
0.102201 0.477205 3.87594
0.306676 0.386243 3.53574
0.111389 0.583202 3.75762
0.0824203 0.49175 3.89916
0.235021 0.277256 3.69244
0.23006 0.243241 3.65103
0.316933 0.457018 3.6112
0.267602 0.307599 3.66384
0.296882 0.61029 3.64058
0.134793 0.191778 3.77378
0.0543688 0.425165 3.87962
0.13505 0.485531 3.80986
0.286502 0.564572 3.67937
0.188002 0.576331 3.76098
0.166868 0.574127 3.76643
0.150092 0.329912 3.78164
0.293084 0.422368 3.69634
0.0912608 0.154648 3.77121
0.162417 0.189792 3.71665
0.193204 0.212474 3.68688
0.146443 0.575004 3.76737
0.128312 0.578405 3.76342
0.117258 0.580677 3.75798
0.275663 0.608151 3.70102
0.129907 0.599226 3.76601
0.148762 0.605234 3.77067
0.169236 0.606739 3.76965
0.190793 0.602971 3.7641
0.204899 0.596425 3.75649
0.313485 0.616844 3.57194
0.202388 0.579474 3.75302
0.128453 0.39785 3.82859
0.102328 0.441672 3.8631
0.0785751 0.402304 3.85329
0.199982 0.245144 3.71575
0.167786 0.218858 3.74316
0.0918406 0.172497 3.79987
0.260663 0.276875 3.60546
0.117245 0.589867 3.76075
0.0801155 0.535812 3.84825
0.13004 0.169605 3.74899
0.309545 0.401946 3.61856
0.0979793 0.319015 3.81235
0.101661 0.313921 3.8172
0.104746 0.305193 3.82145
0.107684 0.292757 3.81811
0.11425 0.270274 3.80207
0.138351 0.352347 3.79083
0.146848 0.355031 3.79013
0.153813 0.358632 3.79091
0.174401 0.370162 3.78795
0.261827 0.414186 3.74841
0.0796483 0.559575 3.82305
0.0931628 0.603503 3.7769
0.107267 0.597848 3.76533
0.131281 0.354848 3.7884
0.262803 0.350033 3.71046
0.0719329 0.607738 3.81066
0.123488 0.245975 3.79294
0.0632069 0.549741 3.8652
0.0965132 0.49762 3.85125
0.0841675 0.22803 3.81148
0.178046 0.304421 3.76064
0.148933 0.435942 3.80731
0.152508 0.271579 3.77523
0.20695 0.438552 3.79748
0.173848 0.412211 3.7996
0.228201 0.399257 3.77561
0.0904176 0.197695 3.81053
0.111531 0.484169 3.83421
0.194977 0.279192 3.74119
0.163338 0.247783 3.76046
0.200051 0.339507 3.75953
0.285944 0.378177 3.68915
0.228556 0.327748 3.73916
0.294693 0.351074 3.63058
0.194914 0.385121 3.78475
0.095467 0.518782 3.83099
0.0950283 0.448689 3.89195
0.111435 0.444434 3.86636
0.0848364 0.466079 3.90943
0.111076 0.624305 3.78285
0.148088 0.636882 3.787
0.181227 0.638533 3.78504
0.209376 0.633418 3.77463
0.229078 0.621482 3.75909
0.24443 0.578413 3.72255
0.316585 0.509022 3.61211
0.22749 0.549296 3.74416
0.202511 0.543647 3.75921
0.170434 0.542973 3.76928
0.139978 0.547472 3.77348
0.116821 0.55537 3.77464
0.101474 0.56399 3.77629
0.318236 0.501166 3.51824
0.111409 0.439234 3.85417
0.0804212 0.514462 3.86995
0.0787036 0.447425 3.91207
0.0649841 0.434841 3.90258
0.078463 0.442937 3.89984
0.106047 0.432576 3.8463
0.061233 0.432475 3.9091
0.0610736 0.427125 3.88003
0.103056 0.582217 3.76296
0.0893269 0.578177 3.77945
0.0819734 0.575458 3.79792
0.213755 0.591483 3.74822
0.226256 0.599689 3.74709
