ply
format ascii 1.0
comment Created by Open3D
element vertex 468
property double x
property double y
property double z
end_header
0.0201406 0.361389 3.90169
0.0214165 0.45262 3.96413
0.02138 0.42393 3.90148
-0.000310267 0.540261 3.92839
0.0211825 0.480455 3.97175
0.0204978 0.516194 3.961
0.0204041 0.599825 3.89093
-0.152215 0.60031 3.79156
0.0201888 0.66282 3.87115
0.0202976 0.697705 3.87436
0.0207718 0.813578 3.84392
0.0197664 0.347991 3.89814
0.0194151 0.338685 3.89013
0.0191254 0.335601 3.87908
0.0181928 0.329083 3.87948
0.0180745 0.318371 3.88443
0.0175211 0.304906 3.89066
0.017033 0.289544 3.88895
0.0170305 0.262669 3.86774
0.0209449 0.438309 3.95148
-0.00197619 0.439495 3.91684
-0.241751 0.686881 3.67268
-0.0829466 0.581661 3.81779
-0.107268 0.579285 3.81582
-0.13069 0.579396 3.80888
-0.163064 0.590207 3.78793
-0.062286 0.587989 3.81471
-0.114951 0.641772 3.82557
-0.0897344 0.641046 3.82439
-0.138569 0.637041 3.81747
-0.15465 0.627626 3.80702
-0.183849 0.572518 3.77549
-0.0771231 0.219614 3.83332
-0.161256 0.604786 3.78359
-0.25693 0.576104 3.66463
-0.21149 0.587123 3.74982
-0.106049 0.472953 3.84344
-0.0132182 0.366217 3.89812
-0.0104214 0.339793 3.88589
-0.0477388 0.360055 3.88192
-0.0701748 0.35181 3.86153
-0.0356197 0.339854 3.87478
-0.0549426 0.339007 3.85573
-0.101223 0.312131 3.82278
0.0003602 0.453126 3.96128
-0.00307507 0.479963 3.96836
-0.194731 0.65486 3.79869
-0.0535921 0.538789 3.84601
-0.0591008 0.459703 3.89859
-0.0611285 0.473744 3.89055
-0.180787 0.475329 3.81055
-0.0019738 0.512984 3.9532
-0.136501 0.687092 3.8395
-0.17032 0.675597 3.82099
-0.216669 0.735222 3.71984
-0.0303119 0.66924 3.86272
-0.0671945 0.633677 3.81752
-0.120812 0.338315 3.81635
-0.236631 0.328512 3.604
-0.0405429 0.444752 3.88972
-0.0198933 0.436252 3.89219
-0.0959197 0.338412 3.81819
-0.0845596 0.339508 3.82453
-0.184273 0.691869 3.80868
-0.0609125 0.448138 3.88477
-0.0905011 0.687413 3.85371
-0.0955307 0.708561 3.85827
-0.118409 0.799904 3.81242
-0.200499 0.714362 3.77
-0.104311 0.755694 3.83616
-0.209662 0.664949 3.77749
-0.226019 0.67459 3.72768
-0.0123776 0.350453 3.89479
-0.0406572 0.347626 3.87944
-0.0623721 0.34497 3.86071
-0.0343714 0.439816 3.88434
-0.0900662 0.338777 3.82139
-0.0788585 0.331862 3.83763
-0.0816123 0.340308 3.82549
-0.0264963 0.453523 3.92507
-0.050621 0.340763 3.85171
-0.0309612 0.338897 3.86496
-0.00777669 0.337038 3.87552
-0.0183532 0.263429 3.86504
-0.0164599 0.291875 3.88571
-0.0145414 0.307918 3.88721
-0.012033 0.321255 3.88031
-0.00978343 0.330143 3.8758
-0.0546165 0.334125 3.85108
-0.0587836 0.331196 3.85529
-0.0645547 0.324486 3.85879
-0.069178 0.315187 3.8544
-0.0901873 0.380429 3.8526
-0.258091 0.455972 3.56551
0.021968 0.432161 3.91866
-0.0672087 0.335575 3.83606
-0.0728174 0.335007 3.83835
-0.0112261 0.424079 3.89433
-0.0523374 0.43155 3.86676
-0.0152457 0.429957 3.89385
-0.0800758 0.52351 3.83748
-0.121091 0.506238 3.83014
-0.0657269 0.461888 3.87623
-0.178048 0.774098 3.76939
-0.162199 0.742751 3.80486
-0.145467 0.707328 3.83451
-0.0802687 0.292758 3.83789
-0.0382148 0.703896 3.87104
-0.0455562 0.757536 3.85443
-0.0543337 0.811422 3.83733
-0.151244 0.582613 3.7978
-0.211407 0.553047 3.76154
-0.0491918 0.594698 3.81166
-0.183269 0.619794 3.78569
-0.0359732 0.556149 3.85538
-0.0429496 0.469663 3.92349
-0.238525 0.53302 3.73454
-0.194375 0.537329 3.7845
-0.162437 0.529812 3.80744
-0.114904 0.534418 3.81933
-0.0797846 0.5453 3.82472
-0.0539487 0.557739 3.83141
-0.00286174 0.59246 3.88121
-0.237036 0.479933 3.74197
-0.2046 0.623137 3.77372
0.00833375 0.439431 3.95005
-0.052251 0.513299 3.85752
-0.261508 0.573081 3.58328
-0.0346056 0.572172 3.83519
-0.0677811 0.459637 3.85053
-0.16945 0.602959 3.77891
-0.0446654 0.486844 3.91344
-0.252545 0.393004 3.57802
-0.0498841 0.603767 3.80541
-0.0238525 0.502846 3.93803
-0.184667 0.275517 3.73553
-0.181792 0.242191 3.69337
-0.259785 0.465937 3.65318
-0.216382 0.308493 3.70418
-0.241639 0.62896 3.68926
-0.0817977 0.191427 3.82011
0.0120253 0.433168 3.91672
-0.0754792 0.493769 3.84816
-0.233259 0.580407 3.72501
-0.127445 0.595558 3.80648
-0.106589 0.594383 3.8128
-0.0848667 0.326889 3.83347
-0.234586 0.426602 3.73441
-0.0354281 0.155788 3.81665
-0.110129 0.187719 3.7631
-0.14304 0.210033 3.73232
0.0207498 0.755814 3.86056
0.0168178 0.152203 3.82469
-0.0865426 0.595852 3.81393
-0.0675297 0.599563 3.81073
-0.0555739 0.601798 3.80584
-0.222878 0.62687 3.74827
-0.071408 0.617675 3.81413
-0.0926387 0.62215 3.81824
-0.112804 0.622616 3.81707
-0.133302 0.618432 3.81092
-0.146807 0.612413 3.80282
-0.255347 0.635896 3.62228
-0.141814 0.597855 3.79862
0.0210402 0.403973 3.89565
-0.0657953 0.39479 3.86805
-0.0406161 0.448859 3.89868
-0.015194 0.401975 3.89306
0.0200569 0.631386 3.87137
-0.149432 0.24235 3.76122
-0.116869 0.216436 3.78893
-0.0376637 0.174873 3.84674
-0.211485 0.278424 3.64688
-0.0565329 0.609717 3.80918
-0.0193676 0.550227 3.89002
0.016268 0.171982 3.85391
-0.0758884 0.168725 3.79504
-0.254011 0.408059 3.65825
-0.0341283 0.33223 3.8646
-0.0381916 0.326028 3.86958
-0.0423161 0.315672 3.87416
-0.0455047 0.301336 3.8712
-0.0534082 0.275684 3.85417
-0.0729323 0.339621 3.83875
-0.080324 0.341831 3.8389
-0.0875258 0.345964 3.83888
-0.110865 0.361622 3.83408
-0.203129 0.416456 3.78456
-0.0187052 0.575848 3.86645
-0.0302916 0.622998 3.82164
-0.0455876 0.617458 3.81297
-0.0672702 0.342555 3.83653
-0.20631 0.350477 3.74906
-0.010404 0.626295 3.85399
-0.0658359 0.248413 3.84228
0.0204336 0.544872 3.93676
-0.00209692 0.564969 3.90696
0.020476 0.571139 3.91291
-0.0370736 0.50887 3.89051
0.0162072 0.200043 3.86763
0.0166593 0.233791 3.86764
-0.025984 0.234586 3.86089
-0.122357 0.298731 3.80926
-0.0889888 0.438201 3.84438
-0.0967654 0.26952 3.82414
-0.147368 0.442037 3.83296
-0.113617 0.412675 3.83884
-0.170038 0.399337 3.81302
-0.0343586 0.202024 3.8595
-0.0526497 0.493598 3.87255
-0.142137 0.275217 3.78779
-0.109802 0.245481 3.80701
-0.143294 0.332517 3.80592
-0.229146 0.380845 3.72635
-0.174412 0.324802 3.78205
-0.241736 0.355004 3.67015
-0.135601 0.380273 3.82679
-0.0351938 0.531903 3.87264
-0.0346663 0.457912 3.92957
-0.0513362 0.450922 3.9016
-0.024059 0.47594 3.94725
-0.0496589 0.644744 3.82826
-0.0886895 0.657499 3.83191
-0.122722 0.658849 3.83038
-0.151286 0.653235 3.82055
-0.171893 0.640699 3.80531
-0.187971 0.595385 3.76853
-0.261733 0.521679 3.65795
-0.169831 0.563124 3.78839
-0.144497 0.55722 3.80343
-0.111766 0.558436 3.8139
-0.0807732 0.564633 3.81867
-0.0566429 0.57343 3.81928
-0.0401866 0.582255 3.82118
-0.259843 0.514771 3.56618
-0.0511417 0.444089 3.8892
-0.0193169 0.527157 3.91064
-0.0171022 0.456713 3.94903
-0.00389922 0.443728 3.93928
-0.0168797 0.452308 3.9371
-0.0445146 0.436034 3.88091
0.000542654 0.441308 3.94601
0.00368284 0.43513 3.91663
-0.0407732 0.602363 3.80886
-0.0272982 0.59679 3.82399
-0.0201534 0.593142 3.84165
-0.15497 0.608009 3.79476
-0.167872 0.617506 3.79273
0.0413537 0.540359 3.92805
0.188592 0.602766 3.79245
0.0448128 0.439925 3.91776
0.274443 0.687557 3.67233
0.119517 0.582475 3.81706
0.143101 0.580557 3.81553
0.166389 0.581025 3.809
0.197893 0.592674 3.78892
0.100128 0.588445 3.81456
0.151372 0.642314 3.82515
0.126928 0.641308 3.82478
0.174886 0.637938 3.8174
0.190764 0.62884 3.80776
0.218437 0.574657 3.77746
0.109168 0.222365 3.83539
0.19763 0.607314 3.78448
0.289386 0.579227 3.66634
0.245381 0.589561 3.75232
0.143589 0.474347 3.8462
0.0524367 0.366602 3.89865
0.0479508 0.339978 3.88622
0.0848896 0.360677 3.88313
0.105531 0.352412 3.86278
0.0716209 0.340216 3.87503
0.0900604 0.339235 3.85639
0.133804 0.313336 3.82487
0.0418335 0.453406 3.96212
0.0444373 0.480211 3.96933
0.228619 0.656063 3.80044
0.0923905 0.539173 3.84661
0.099488 0.460599 3.90059
0.1007 0.474771 3.8926
0.214954 0.477856 3.81347
0.0429371 0.513173 3.95312
0.172959 0.686556 3.84227
0.205634 0.676011 3.82327
0.250838 0.735088 3.72025
0.0698636 0.668677 3.86347
0.105609 0.633615 3.81742
0.153954 0.339588 3.81836
0.267806 0.334716 3.60542
0.082454 0.445754 3.89155
0.062201 0.436868 3.89455
0.129734 0.338779 3.81893
0.117558 0.339887 3.8257
0.219199 0.69206 3.81104
0.101055 0.449226 3.88732
0.128598 0.686514 3.8562
0.133295 0.707579 3.86084
0.155955 0.79911 3.81336
0.234789 0.714782 3.77213
0.142899 0.754791 3.83786
0.243294 0.666176 3.77906
0.259358 0.675828 3.72897
0.0505943 0.350757 3.89512
0.0774408 0.34826 3.87999
0.0977987 0.345603 3.86147
0.0767493 0.440704 3.88687
0.123599 0.339201 3.82254
0.111558 0.332421 3.83935
0.114145 0.34072 3.82634
0.0680262 0.454178 3.92544
0.0849751 0.341018 3.85226
0.0666489 0.339167 3.86501
0.0448015 0.337285 3.87541
0.0515053 0.264067 3.86632
0.0496489 0.292278 3.8863
0.048523 0.308304 3.88753
0.047351 0.321495 3.88038
0.04517 0.330353 3.87545
0.0879464 0.335018 3.8521
0.0915669 0.331956 3.85679
0.0966084 0.325187 3.86096
0.101318 0.315926 3.85646
0.126804 0.38175 3.8554
0.291995 0.46056 3.56625
0.100156 0.336285 3.83659
0.105555 0.335514 3.83972
0.0536348 0.424627 3.89554
0.0936466 0.43265 3.8702
0.0576162 0.430463 3.8957
0.118241 0.52431 3.83841
0.158222 0.507589 3.83213
0.10539 0.462933 3.87872
0.213369 0.773522 3.77054
0.198225 0.742139 3.80738
0.182204 0.706647 3.83712
0.112538 0.294186 3.83987
0.0774938 0.702952 3.87243
0.0855257 0.757055 3.85549
0.0937933 0.810979 3.83853
0.186338 0.58481 3.79851
0.245154 0.555594 3.7643
0.0883969 0.595 3.81087
0.217814 0.62141 3.78709
0.0752213 0.556344 3.85541
0.083548 0.470294 3.92495
0.271093 0.536202 3.73699
0.228701 0.53965 3.78676
0.197863 0.531567 3.80959
0.152104 0.53566 3.82037
0.117941 0.545987 3.82538
0.0924954 0.558112 3.83173
0.0433376 0.592424 3.88107
0.269681 0.483548 3.7446
0.237903 0.624962 3.77513
0.0334492 0.439609 3.94989
0.0920115 0.513787 3.85829
0.295392 0.575924 3.58318
0.0742751 0.572284 3.83515
0.108585 0.460719 3.85366
0.205483 0.605192 3.77976
0.0841198 0.487353 3.9149
0.285216 0.398513 3.57938
0.0893439 0.60427 3.8041
0.0637117 0.503227 3.93874
0.215622 0.280745 3.73873
0.212542 0.248212 3.69535
0.293309 0.470456 3.65572
0.246994 0.31417 3.70723
0.275014 0.630908 3.69053
0.113839 0.194876 3.82169
0.0319221 0.433401 3.91717
0.114208 0.494664 3.84997
0.266355 0.583056 3.72718
0.164214 0.597199 3.80659
0.143371 0.595602 3.81215
0.117696 0.327504 3.83501
0.266947 0.430779 3.73764
0.0685689 0.15765 3.81708
0.142735 0.192405 3.76392
0.174994 0.215473 3.73351
0.123519 0.596676 3.81329
0.105604 0.600204 3.80963
0.0947748 0.60229 3.80447
0.255634 0.628974 3.75008
0.108358 0.618279 3.81316
0.127914 0.623108 3.81829
0.14804 0.62408 3.81681
0.168809 0.620477 3.81115
0.182458 0.614711 3.80366
0.289115 0.637434 3.62208
0.178573 0.599986 3.79909
0.104507 0.395856 3.8705
0.0824339 0.449827 3.90113
0.0558336 0.402591 3.894
0.181193 0.247217 3.76409
0.148539 0.220811 3.79154
0.0696881 0.176743 3.84784
0.24225 0.284576 3.64806
0.0953113 0.610201 3.8077
0.0596332 0.550489 3.89039
0.108768 0.172298 3.7959
0.286208 0.413235 3.66091
0.0687159 0.332831 3.86511
0.072146 0.326595 3.87014
0.0754752 0.316217 3.87507
0.0783722 0.301984 3.87232
0.0856855 0.276694 3.8554
0.106636 0.339925 3.83956
0.114405 0.342389 3.83952
0.121612 0.346438 3.84
0.145547 0.363034 3.83634
0.235269 0.419957 3.78833
0.0588015 0.575881 3.8663
0.0707614 0.622818 3.82184
0.0850444 0.617614 3.81203
0.100782 0.342738 3.83712
0.237895 0.354885 3.75253
0.0504435 0.626143 3.85429
0.097531 0.250364 3.8441
0.0427444 0.565206 3.90723
0.0769618 0.509271 3.89176
0.0584667 0.235746 3.86211
0.15473 0.301199 3.81239
0.128097 0.439728 3.84752
0.128262 0.271831 3.82689
0.182493 0.444282 3.83722
0.150411 0.414496 3.84223
0.203212 0.402266 3.81737
0.0664281 0.203499 3.86036
0.0922906 0.494163 3.87435
0.174259 0.279098 3.79073
0.141877 0.248896 3.80997
0.175949 0.334946 3.80843
0.260545 0.385544 3.73001
0.205639 0.328604 3.78542
0.272929 0.360562 3.67286
0.169675 0.38234 3.82992
0.0752037 0.532235 3.87301
0.0755695 0.458623 3.93051
0.0922639 0.451985 3.90407
0.0654949 0.476408 3.94772
0.0894414 0.644445 3.82845
0.127211 0.657545 3.83308
0.16004 0.658967 3.83173
0.187843 0.653796 3.82189
0.207249 0.641793 3.80694
0.222661 0.597611 3.77034
0.294719 0.52539 3.65947
0.204966 0.565151 3.79027
0.180423 0.558928 3.80491
0.148265 0.559582 3.81461
0.11805 0.565401 3.81875
0.0950361 0.57388 3.81962
0.0793996 0.582434 3.82112
0.293838 0.518362 3.56576
0.0919356 0.445218 3.89196
0.0601344 0.527456 3.91096
0.0589627 0.457391 3.95016
0.0452359 0.444235 3.9402
0.0585025 0.452953 3.93799
0.0856461 0.436936 3.88386
0.0409815 0.441653 3.94682
0.0397505 0.435416 3.9176
0.0808903 0.602631 3.80837
0.0672066 0.596791 3.82415
0.0602647 0.593075 3.84182
0.190956 0.610572 3.7955
0.203299 0.619394 3.79423
