ply
format ascii 1.0
comment Created by Open3D
element vertex 468
property double x
property double y
property double z
end_header
-0.0106542 0.370369 3.94801
-0.00970547 0.428133 4.01523
-0.0105545 0.407918 3.95292
-0.0291697 0.50141 3.98104
-0.00938308 0.450781 4.02295
-0.00883908 0.48102 4.01263
-0.00831762 0.549691 3.94745
-0.175423 0.552829 3.84983
-0.00760986 0.594399 3.92992
-0.00720798 0.620937 3.93469
-0.00630685 0.720159 3.9077
-0.0105862 0.362289 3.94452
-0.0106467 0.357681 3.93695
-0.0106831 0.357131 3.92657
-0.0115549 0.358277 3.9256
-0.011816 0.354043 3.93032
-0.0117232 0.347321 3.93768
-0.0117717 0.337223 3.93844
-0.0111962 0.304908 3.92235
-0.00990106 0.417127 4.00271
-0.0351148 0.419277 3.96946
-0.257903 0.616757 3.73677
-0.104923 0.53867 3.87417
-0.128727 0.536753 3.87286
-0.152062 0.536576 3.8666
-0.183296 0.544948 3.84659
-0.0856901 0.542989 3.87182
-0.140242 0.580171 3.88267
-0.115423 0.579999 3.88239
-0.162603 0.576786 3.87513
-0.177444 0.570442 3.86573
-0.202389 0.530767 3.83506
-0.103588 0.25304 3.8921
-0.184589 0.556535 3.84224
-0.2726 0.529679 3.728
-0.229282 0.540434 3.81133
-0.131402 0.455147 3.90091
-0.0432411 0.373629 3.94549
-0.0390778 0.358484 3.93336
-0.0764203 0.370994 3.93124
-0.0970898 0.366759 3.91281
-0.0635136 0.359353 3.92318
-0.0826215 0.359111 3.90652
-0.124597 0.340638 3.87872
-0.030785 0.428967 4.01328
-0.032982 0.451247 4.02035
-0.212817 0.588736 3.86029
-0.0799118 0.505179 3.90243
-0.0896092 0.440543 3.95241
-0.089413 0.452598 3.94439
-0.203388 0.458165 3.87009
-0.0311756 0.478585 4.00506
-0.159616 0.610581 3.90304
-0.191283 0.603301 3.88436
-0.235231 0.654637 3.78426
-0.057068 0.597085 3.9225
-0.0930585 0.575278 3.87459
-0.146286 0.357104 3.87133
-0.263384 0.332229 3.66733
-0.0733181 0.427972 3.94317
-0.0527188 0.420438 3.94635
-0.121243 0.360431 3.87182
-0.110083 0.360923 3.87838
-0.204067 0.61569 3.87182
-0.0912392 0.433429 3.93895
-0.115803 0.610022 3.91599
-0.120762 0.627182 3.9212
-0.143486 0.70625 3.87673
-0.219034 0.636388 3.83399
-0.129979 0.668458 3.90061
-0.227005 0.596632 3.83894
-0.242101 0.605659 3.7912
-0.0415844 0.363886 3.94191
-0.0689954 0.363156 3.92814
-0.0893526 0.362557 3.91158
-0.0675502 0.424654 3.93905
-0.115436 0.361006 3.87529
-0.102052 0.358563 3.89156
-0.106879 0.360837 3.87934
-0.0587586 0.430794 3.97734
-0.0779078 0.360984 3.90241
-0.0588916 0.359845 3.91374
-0.0361673 0.35791 3.92286
-0.0422948 0.30678 3.92044
-0.0397176 0.338465 3.93604
-0.0388294 0.349014 3.93532
-0.0380685 0.35483 3.9272
-0.0365164 0.358353 3.92236
-0.0793471 0.359816 3.90262
-0.0819461 0.358982 3.90721
-0.0855601 0.3558 3.91182
-0.0896765 0.349095 3.90835
-0.118421 0.384624 3.90719
-0.280993 0.43371 3.63064
-0.010734 0.412189 3.97032
-0.0921678 0.359535 3.8893
-0.0966337 0.360202 3.89187
-0.0439162 0.410471 3.94696
-0.0842648 0.421163 3.92207
-0.0483366 0.41511 3.94731
-0.104424 0.494058 3.89445
-0.144483 0.481428 3.88875
-0.0940067 0.444752 3.93081
-0.19989 0.685271 3.83388
-0.184096 0.658287 3.86945
-0.168501 0.626972 3.89834
-0.102697 0.32629 3.89434
-0.0649957 0.623612 3.93235
-0.0726926 0.671405 3.9181
-0.0810846 0.716841 3.90197
-0.172047 0.539014 3.8564
-0.22892 0.515322 3.82198
-0.0741048 0.547267 3.86795
-0.202356 0.564638 3.84608
-0.0629641 0.517793 3.91097
-0.0733937 0.445064 3.97646
-0.255725 0.49883 3.79558
-0.212786 0.504543 3.84375
-0.182576 0.499595 3.86597
-0.137067 0.502975 3.87691
-0.103364 0.510999 3.88172
-0.0791664 0.520189 3.88827
-0.0310284 0.543881 3.93766
-0.257151 0.458383 3.80284
-0.222181 0.566877 3.83495
-0.0230697 0.418305 4.00134
-0.07962 0.484261 3.91284
-0.279443 0.526242 3.64722
-0.0613897 0.530098 3.89168
-0.0966357 0.443623 3.90659
-0.19082 0.553718 3.83781
-0.0731796 0.460251 3.96674
-0.277023 0.383766 3.64279
-0.0756651 0.554072 3.8616
-0.0521164 0.471561 3.99049
-0.216471 0.29324 3.79695
-0.214462 0.261508 3.75513
-0.27998 0.443528 3.71674
-0.245755 0.31955 3.76619
-0.257641 0.570831 3.75283
-0.111288 0.221759 3.87958
-0.0213831 0.413041 3.96863
-0.101309 0.470372 3.9044
-0.249617 0.534317 3.78719
-0.150627 0.548495 3.86371
-0.129246 0.547752 3.86943
-0.107448 0.354928 3.88753
-0.258206 0.416058 3.79594
-0.0649296 0.185765 3.87586
-0.143432 0.213565 3.8234
-0.176966 0.233406 3.79298
-0.00682538 0.672088 3.92324
-0.0105779 0.182938 3.88303
-0.109098 0.549331 3.87041
-0.0907558 0.552028 3.86674
-0.0799677 0.553005 3.86186
-0.23914 0.569232 3.81029
-0.0966816 0.568805 3.86975
-0.117601 0.57408 3.87396
-0.138593 0.574792 3.87348
-0.159251 0.570882 3.86812
-0.171753 0.564716 3.8607
-0.27233 0.576144 3.68614
-0.165207 0.550494 3.85638
-0.010554 0.396745 3.94626
-0.0959065 0.394359 3.92212
-0.0735782 0.42993 3.95288
-0.04612 0.39714 3.94441
-0.00781348 0.572823 3.92951
-0.181339 0.265948 3.82209
-0.147988 0.24285 3.84947
-0.0651791 0.209864 3.9052
-0.24142 0.291815 3.70899
-0.0822102 0.560138 3.8649
-0.0474693 0.511109 3.94494
-0.0108711 0.205852 3.91128
-0.10739 0.19677 3.8548
-0.276382 0.397952 3.72139
-0.0596359 0.35945 3.91355
-0.0623577 0.356984 3.9188
-0.0642888 0.352157 3.92459
-0.0665838 0.342257 3.92343
-0.0754397 0.314582 3.91027
-0.0994231 0.35994 3.89181
-0.106417 0.361157 3.89147
-0.113428 0.363783 3.89189
-0.138142 0.372394 3.88898
-0.228116 0.410789 3.84538
-0.0465955 0.531724 3.9223
-0.057242 0.566422 3.87936
-0.07195 0.56363 3.8698
-0.0939963 0.361756 3.88914
-0.235194 0.35696 3.81027
-0.0378897 0.568438 3.91189
-0.0900264 0.284266 3.90084
-0.00871634 0.504904 3.98966
-0.0306247 0.521994 3.96235
-0.00853434 0.526664 3.96783
-0.0650602 0.478903 3.9448
-0.01122 0.237039 3.92367
-0.0112713 0.273119 3.92217
-0.0505505 0.274875 3.91717
-0.148767 0.324075 3.86712
-0.116906 0.428559 3.90154
-0.121468 0.301042 3.88342
-0.173153 0.432164 3.89269
-0.140876 0.409437 3.89691
-0.197344 0.398771 3.87256
-0.0598933 0.240537 3.91654
-0.0801465 0.468228 3.92728
-0.171511 0.298865 3.84695
-0.137916 0.273558 3.86664
-0.170817 0.349179 3.86279
-0.255449 0.379391 3.78847
-0.203558 0.338781 3.84144
-0.26694 0.356047 3.73275
-0.162952 0.385663 3.88419
-0.0631315 0.497764 3.92736
-0.0663312 0.434715 3.98216
-0.0830545 0.43285 3.95561
-0.0545705 0.448161 3.9997
-0.0760648 0.580549 3.88689
-0.114653 0.589197 3.89258
-0.147085 0.590441 3.89161
-0.173907 0.587236 3.88156
-0.192353 0.578993 3.86678
-0.206911 0.547313 3.82845
-0.278998 0.487092 3.72071
-0.189304 0.524144 3.84729
-0.164883 0.519868 3.8621
-0.133128 0.520962 3.87175
-0.103128 0.525859 3.87545
-0.0807085 0.532122 3.87668
-0.0657719 0.537958 3.87789
-0.279915 0.479821 3.63057
-0.0828943 0.428968 3.94354
-0.0480536 0.491825 3.96417
-0.0485595 0.432056 4.00164
-0.0356945 0.422357 3.99162
-0.0489806 0.429178 3.98965
-0.0767256 0.423343 3.93564
-0.0310623 0.420055 3.99804
-0.0296702 0.415451 3.96911
-0.0670485 0.552248 3.86565
-0.0538519 0.547952 3.88077
-0.047478 0.545002 3.89884
-0.179005 0.560186 3.85266
-0.188976 0.563553 3.85209
0.0120954 0.502058 3.98126
0.165041 0.557777 3.84854
0.0152489 0.41929 3.96871
0.249059 0.625351 3.73494
0.0931606 0.541524 3.87486
0.117695 0.540142 3.87316
0.141574 0.540482 3.86659
0.173818 0.550284 3.84533
0.0730488 0.545238 3.87215
0.130236 0.585142 3.88185
0.104557 0.583865 3.88165
0.15326 0.582366 3.87418
0.1687 0.576305 3.86435
0.192834 0.536376 3.83337
0.0831201 0.254976 3.89032
0.174499 0.562113 3.84069
0.263612 0.538389 3.72504
0.220506 0.547369 3.80881
0.116606 0.458144 3.89915
0.0227977 0.374057 3.94518
0.0187377 0.359075 3.93314
0.0568082 0.372066 3.93106
0.0777818 0.368562 3.91231
0.0440887 0.360369 3.923
0.0629848 0.36074 3.90633
0.104016 0.342989 3.87781
0.0118615 0.429211 4.01259
0.0148835 0.45174 4.01964
0.204903 0.596663 3.85826
0.0652479 0.507095 3.90253
0.0727796 0.442153 3.95074
0.0732832 0.454338 3.94321
0.191106 0.462812 3.86729
0.0135956 0.479178 4.00526
0.149078 0.617091 3.90024
0.182206 0.610741 3.88133
0.227125 0.662642 3.78215
0.0429277 0.599286 3.92151
0.0810513 0.57816 3.87455
0.126636 0.359864 3.87054
0.252109 0.338628 3.66337
0.0548639 0.428858 3.94211
0.033146 0.421094 3.94464
0.0994596 0.362953 3.87193
0.0893757 0.363454 3.87819
0.195473 0.623729 3.86895
0.0739179 0.435077 3.93728
0.103337 0.614727 3.91373
0.108477 0.632244 3.91895
0.133104 0.71114 3.87489
0.210724 0.644267 3.83145
0.118134 0.673295 3.89875
0.219115 0.605041 3.83681
0.233688 0.613991 3.78893
0.0214576 0.364226 3.9418
0.0493192 0.364075 3.92796
0.0700179 0.364079 3.91116
0.0485367 0.425415 3.93713
0.0940771 0.363551 3.87521
0.0805688 0.36094 3.89123
0.0872473 0.3633 3.87904
0.0407503 0.431328 3.97697
0.0591782 0.362857 3.90209
0.0395046 0.36104 3.91366
0.0160109 0.358572 3.92323
0.020833 0.30747 3.91965
0.0170518 0.339374 3.93569
0.0159794 0.34975 3.93525
0.0153523 0.355447 3.9271
0.0142557 0.35908 3.92238
0.0584804 0.361655 3.90217
0.0609179 0.36088 3.90665
0.064408 0.357876 3.91077
0.0678912 0.351226 3.90748
0.100221 0.386849 3.90582
0.268767 0.441977 3.62722
0.0718111 0.361669 3.88948
0.0757319 0.36249 3.89151
0.0233087 0.41107 3.94596
0.065223 0.422526 3.91954
0.0281039 0.415722 3.94602
0.0904194 0.496603 3.89419
0.131039 0.484818 3.88732
0.0774491 0.446585 3.92931
0.191199 0.692163 3.83167
0.174743 0.665035 3.8668
0.158047 0.633928 3.89528
0.0820662 0.328365 3.89341
0.0513995 0.626368 3.9305
0.0594823 0.673825 3.91697
0.0694056 0.719513 3.90034
0.162071 0.543515 3.85575
0.219627 0.521594 3.81955
0.0608439 0.54903 3.86864
0.19398 0.571346 3.84431
0.047997 0.519375 3.91129
0.0563358 0.446246 3.97552
0.246961 0.505976 3.79266
0.202357 0.509925 3.84182
0.170928 0.504063 3.86483
0.124047 0.506335 3.8764
0.0898628 0.513538 3.88176
0.0652793 0.522067 3.88847
0.0149226 0.544581 3.93778
0.247246 0.464952 3.8
0.214167 0.57445 3.83319
0.00364645 0.418481 4.00116
0.0640697 0.486049 3.91259
0.267784 0.535123 3.64458
0.0465475 0.53153 3.89196
0.0789913 0.445448 3.90449
0.181356 0.55952 3.83637
0.0569549 0.461605 3.96596
0.265518 0.391149 3.63894
0.0624439 0.555894 3.86237
0.0356854 0.472637 3.99012
0.202372 0.297812 3.79301
0.20127 0.266407 3.75153
0.269477 0.45139 3.71355
0.233682 0.325227 3.76188
0.248331 0.579303 3.75039
0.0912446 0.224118 3.87744
-5.97599e-06 0.413144 3.9684
0.0862797 0.472741 3.90341
0.241273 0.542039 3.78451
0.139393 0.5524 3.8632
0.117929 0.551245 3.86957
0.0858197 0.357359 3.88739
0.247603 0.422478 3.79207
0.0445395 0.18706 3.87472
0.125537 0.216724 3.82121
0.161245 0.237275 3.79019
0.0973815 0.552466 3.87074
0.0784256 0.554582 3.86732
0.0670468 0.555017 3.86277
0.231148 0.577338 3.80802
0.0852713 0.571249 3.87032
0.107269 0.577548 3.87382
0.128404 0.579013 3.87275
0.149215 0.5758 3.86695
0.16202 0.570035 3.85914
0.261445 0.58513 3.68393
0.154353 0.554883 3.85542
0.0772094 0.396178 3.92063
0.0554569 0.430794 3.95141
0.0257426 0.397857 3.94387
0.165031 0.269529 3.81866
0.129559 0.245913 3.84659
0.0442916 0.211028 3.90396
0.229349 0.297568 3.7054
0.0695462 0.562181 3.86597
0.0313962 0.512208 3.94505
0.0878039 0.199417 3.85322
0.266054 0.405226 3.71772
0.0381119 0.360723 3.91337
0.0405376 0.358286 3.91845
0.0422369 0.353669 3.92418
0.044023 0.343932 3.92288
0.0543427 0.316094 3.90944
0.0800649 0.362086 3.89161
0.0863858 0.363441 3.89165
0.0934866 0.366029 3.89172
0.119341 0.375231 3.88778
0.216131 0.41608 3.84179
0.0309047 0.532852 3.9226
0.0425976 0.568024 3.87982
0.0584003 0.565457 3.87038
0.07515 0.364093 3.88908
0.222309 0.362272 3.80614
0.0227728 0.569415 3.91196
0.0694764 0.285923 3.89933
0.0141154 0.522575 3.96211
0.048973 0.480327 3.94426
0.0289576 0.275625 3.91631
0.130259 0.326644 3.86495
0.0998065 0.431027 3.89946
0.101884 0.303143 3.88137
0.159053 0.435965 3.88955
0.124563 0.412362 3.89476
0.183365 0.403019 3.86876
0.03867 0.241444 3.91548
0.0643101 0.469905 3.92652
0.154162 0.302009 3.84405
0.118646 0.276041 3.86399
0.153088 0.352433 3.86107
0.244493 0.385434 3.78394
0.18852 0.342902 3.838
0.256449 0.362552 3.72873
0.146462 0.389119 3.88222
0.047331 0.499349 3.92749
0.0488344 0.435479 3.98165
0.0657034 0.434035 3.95381
0.0369478 0.448886 3.99929
0.0625554 0.582879 3.88725
0.102341 0.592948 3.89138
0.136244 0.595835 3.88955
0.164168 0.593454 3.87967
0.183742 0.585758 3.8649
0.198016 0.553485 3.82662
0.269455 0.49543 3.71773
0.178975 0.529146 3.84604
0.153603 0.524034 3.86115
0.121181 0.52432 3.87147
0.0904157 0.528562 3.87578
0.0674331 0.534059 3.87681
0.0516615 0.539488 3.87811
0.267845 0.488435 3.62787
0.0649424 0.430128 3.94167
0.031212 0.492915 3.96413
0.0304072 0.432505 4.0007
0.0168939 0.422484 3.99089
0.0306758 0.429405 3.98901
0.0578286 0.424414 3.93345
0.0119975 0.420164 3.99747
0.00889281 0.415493 3.96846
0.0532413 0.553781 3.86601
0.0393368 0.54922 3.88113
0.0324163 0.546213 3.89869
0.16913 0.565592 3.85105
0.180274 0.569767 3.8503
