ply
format ascii 1.0
comment Created by Open3D
element vertex 468
property double x
property double y
property double z
end_header
0.0065694 0.211 4.31504
0.00586539 0.29163 4.36358
0.0051512 0.268554 4.30852
-0.0163388 0.366344 4.32508
0.00633494 0.313114 4.37111
0.0064059 0.340835 4.35884
0.00375169 0.420181 4.28455
-0.171889 0.429571 4.18665
0.00265757 0.47177 4.26231
0.00202766 0.502427 4.2609
0.000442792 0.616874 4.21521
0.0067127 0.198847 4.31206
0.00654004 0.187207 4.3015
0.00620653 0.180231 4.28986
0.00541536 0.139242 4.27031
0.00527314 0.126299 4.27233
0.00530062 0.109357 4.27338
0.00456779 0.094361 4.26502
0.00264954 0.0745078 4.23876
0.0059761 0.278802 4.35054
-0.0151022 0.281844 4.32123
-0.261203 0.537232 4.05481
-0.103856 0.408244 4.21026
-0.127145 0.404729 4.20793
-0.150166 0.406584 4.20162
-0.181569 0.41989 4.18405
-0.0849916 0.416932 4.21048
-0.132987 0.46574 4.22509
-0.108481 0.466432 4.22355
-0.156536 0.463137 4.21814
-0.173387 0.456564 4.20713
-0.201808 0.406605 4.17379
-0.099503 0.0440393 4.22206
-0.180007 0.436044 4.1793
-0.275069 0.435181 4.06544
-0.229187 0.426969 4.14809
-0.119267 0.307342 4.24617
-0.025596 0.213771 4.31021
-0.0187634 0.185005 4.29637
-0.0581708 0.200007 4.29287
-0.0761427 0.183857 4.27
-0.040872 0.179872 4.28353
-0.0568516 0.172438 4.26548
-0.107967 0.129832 4.22997
-0.0144735 0.291396 4.3611
-0.0177717 0.311191 4.3672
-0.209567 0.477587 4.19142
-0.0731855 0.369349 4.24574
-0.0740394 0.297591 4.30086
-0.0760649 0.308787 4.29297
-0.191603 0.307612 4.21302
-0.0170862 0.34003 4.3506
-0.150518 0.498687 4.23501
-0.185036 0.492017 4.21482
-0.2358 0.571715 4.09799
-0.0467925 0.478503 4.25465
-0.0871766 0.462508 4.21693
-0.123041 0.158318 4.22617
-0.252948 0.198602 4.02973
-0.053757 0.287605 4.29315
-0.0319037 0.277159 4.29929
-0.0933696 0.155026 4.2271
-0.0786204 0.153675 4.23345
-0.198778 0.50889 4.19944
-0.0730525 0.285632 4.2878
-0.104909 0.494845 4.24906
-0.109542 0.512283 4.25003
-0.13571 0.609692 4.18543
-0.216247 0.539207 4.15515
-0.120642 0.565099 4.21868
-0.224335 0.490878 4.16703
-0.242576 0.513083 4.11265
-0.0229687 0.19809 4.30588
-0.0492007 0.188836 4.28976
-0.0666995 0.177342 4.27029
-0.0467434 0.282686 4.28901
-0.085749 0.153606 4.23033
-0.0777641 0.142353 4.24451
-0.0750507 0.155175 4.23446
-0.041078 0.295313 4.32394
-0.0503211 0.171915 4.26185
-0.0346158 0.177632 4.27542
-0.0152729 0.179708 4.28547
-0.0328774 0.0770552 4.24064
-0.0296151 0.098033 4.26464
-0.0261468 0.113235 4.27074
-0.0231181 0.130747 4.26913
-0.0198104 0.141735 4.26624
-0.0548426 0.146824 4.24891
-0.0596243 0.141286 4.25352
-0.0671114 0.132234 4.25689
-0.0750563 0.12465 4.2524
-0.0963678 0.212259 4.26385
-0.280305 0.339479 3.98441
0.00507992 0.276835 4.32413
-0.0643668 0.149651 4.23949
-0.0705348 0.146621 4.24363
-0.0244919 0.265543 4.30155
-0.064157 0.272631 4.27282
-0.0276574 0.271299 4.30027
-0.0989853 0.354458 4.23875
-0.137094 0.337711 4.23182
-0.0794338 0.29807 4.2797
-0.195229 0.594803 4.14572
-0.177179 0.557569 4.19072
-0.159487 0.517817 4.22577
-0.0905632 0.109621 4.2367
-0.0537855 0.506424 4.26013
-0.0635941 0.56434 4.23453
-0.0728485 0.614285 4.20969
-0.170255 0.411047 4.19247
-0.228652 0.391787 4.16144
-0.0726934 0.426827 4.20838
-0.200904 0.450833 4.18185
-0.05521 0.384675 4.25439
-0.0584468 0.306348 4.32387
-0.254938 0.377554 4.13699
-0.212331 0.371594 4.18438
-0.18128 0.360828 4.20695
-0.134319 0.365049 4.21862
-0.100608 0.375814 4.22415
-0.0744509 0.387419 4.23067
-0.0206981 0.415985 4.27538
-0.250626 0.32385 4.1474
-0.220383 0.454569 4.16729
-0.00538753 0.279422 4.34889
-0.0712874 0.346851 4.2593
-0.284401 0.44998 3.98555
-0.0556032 0.403041 4.23327
-0.0822057 0.300205 4.25638
-0.190303 0.436589 4.17549
-0.0602406 0.319778 4.3135
-0.272225 0.27304 4.00131
-0.072899 0.437088 4.20041
-0.0386829 0.331096 4.33607
-0.2023 0.117663 4.14806
-0.20523 0.0888876 4.10941
-0.277116 0.332418 4.06684
-0.228089 0.158569 4.12051
-0.259106 0.480024 4.08163
-0.109186 0.0136516 4.20935
-0.00373334 0.278168 4.3226
-0.0916687 0.327258 4.25095
-0.25042 0.42671 4.12324
-0.14792 0.421204 4.20024
-0.127185 0.419266 4.20572
-0.0860885 0.138878 4.24105
-0.244551 0.272792 4.14649
-0.0631162 -0.0343868 4.19875
-0.14446 0.0194708 4.16015
-0.174337 0.0494597 4.1383
0.00101944 0.562055 4.2397
-0.000529741 -0.0447044 4.20205
-0.108325 0.421543 4.20739
-0.0909181 0.428204 4.20522
-0.0796945 0.433945 4.20069
-0.238022 0.462353 4.14118
-0.091016 0.440754 4.20613
-0.110124 0.439364 4.20916
-0.128184 0.439455 4.20784
-0.147755 0.438075 4.20264
-0.161846 0.436351 4.1955
-0.276544 0.501632 4.01482
-0.161815 0.425431 4.19318
0.00531142 0.250755 4.3048
-0.0758711 0.231313 4.27737
-0.0549596 0.292394 4.30038
-0.0292418 0.245074 4.30119
0.0031051 0.446817 4.26309
-0.175113 0.0782533 4.16994
-0.144505 0.0463644 4.19013
-0.0615195 -0.0125265 4.22623
-0.229444 0.136113 4.06823
-0.0785347 0.439401 4.20274
-0.0373624 0.378397 4.28729
9.86395e-05 -0.0233413 4.22796
-0.108548 -0.0100669 4.18353
-0.26861 0.272366 4.07537
-0.0397706 0.145231 4.25835
-0.044719 0.136556 4.26185
-0.050877 0.123511 4.26397
-0.0569581 0.109882 4.25837
-0.066508 0.0906646 4.24078
-0.0691422 0.162882 4.24789
-0.0790573 0.165584 4.24796
-0.0880609 0.169404 4.24794
-0.112565 0.188499 4.24333
-0.207827 0.253591 4.19269
-0.0374279 0.402668 4.26394
-0.0512548 0.451772 4.21916
-0.0669768 0.450446 4.20858
-0.0624184 0.166026 4.24732
-0.212524 0.193607 4.1617
-0.0289065 0.446335 4.24752
-0.0835318 0.0702092 4.23028
0.00569439 0.368057 4.3335
-0.0191191 0.390286 4.301
0.004425 0.394668 4.30727
-0.0549231 0.341561 4.29005
0.00104563 0.00919923 4.24077
0.00195381 0.0455035 4.2403
-0.0431768 0.0513394 4.23925
-0.136848 0.123444 4.21742
-0.10017 0.277456 4.2495
-0.114413 0.0931072 4.22399
-0.154478 0.275634 4.23714
-0.121122 0.248275 4.24629
-0.173176 0.2333 4.21882
-0.0545902 0.0187478 4.23793
-0.0699182 0.32827 4.27465
-0.162734 0.106012 4.19637
-0.132842 0.073331 4.20909
-0.151819 0.158816 4.21475
-0.237362 0.228378 4.14155
-0.184475 0.157689 4.19093
-0.254334 0.214525 4.09027
-0.138174 0.210022 4.23287
-0.05391 0.363159 4.27267
-0.049512 0.297748 4.32782
-0.0653953 0.290471 4.30461
-0.0391098 0.310791 4.34736
-0.0684795 0.469659 4.22504
-0.106334 0.479838 4.23045
-0.139632 0.480292 4.23008
-0.16834 0.475625 4.2204
-0.189261 0.466259 4.2029
-0.206736 0.430891 4.16544
-0.279926 0.385385 4.06512
-0.189473 0.395408 4.18596
-0.164895 0.387792 4.20056
-0.132533 0.386635 4.21102
-0.102001 0.393069 4.21531
-0.0786297 0.403081 4.2176
-0.0622109 0.413043 4.21959
-0.282821 0.397533 3.97576
-0.0636809 0.283949 4.29243
-0.0366556 0.356938 4.30864
-0.0310476 0.296017 4.3486
-0.0156638 0.282337 4.33951
-0.030502 0.292902 4.33641
-0.0559599 0.27639 4.285
-0.0121471 0.280118 4.34625
-0.0107806 0.278792 4.32128
-0.0634128 0.437453 4.20624
-0.0490792 0.428144 4.22102
-0.0405981 0.420962 4.23948
-0.171722 0.435545 4.18864
-0.187031 0.448145 4.19135
0.0266506 0.365789 4.32614
0.175431 0.427563 4.18974
0.0269115 0.282127 4.32098
0.265005 0.535374 4.05788
0.110425 0.406239 4.2127
0.134002 0.402741 4.21128
0.156924 0.404477 4.20431
0.187459 0.417572 4.18669
0.090831 0.415054 4.21226
0.138187 0.463774 4.22813
0.113533 0.46467 4.22513
0.162086 0.461066 4.2213
0.178529 0.454613 4.20934
0.209263 0.40404 4.1752
0.106106 0.0404802 4.21827
0.182831 0.433791 4.18206
0.2805 0.431214 4.06653
0.235495 0.424108 4.14912
0.128965 0.30636 4.24667
0.0382398 0.214229 4.31084
0.0319039 0.184763 4.29716
0.0707518 0.200411 4.2938
0.0883478 0.183757 4.27247
0.0545123 0.179264 4.28617
0.0696338 0.171498 4.26851
0.119972 0.127843 4.23086
0.0266018 0.291974 4.36048
0.0302555 0.311612 4.36677
0.215687 0.474671 4.19286
0.0811143 0.368323 4.24615
0.0856889 0.297623 4.30043
0.0872513 0.30867 4.29238
0.202513 0.305071 4.21531
0.0292977 0.339619 4.35104
0.155701 0.496325 4.23574
0.190116 0.489515 4.21624
0.237646 0.571425 4.10084
0.0520343 0.47727 4.25534
0.0919481 0.461018 4.21845
0.134612 0.156637 4.22896
0.263919 0.189435 4.02803
0.0650791 0.288397 4.29241
0.0434863 0.278205 4.29755
0.104043 0.153207 4.23275
0.0916248 0.152198 4.23826
0.203048 0.506314 4.20002
0.0851554 0.285881 4.28698
0.110255 0.493963 4.24885
0.114312 0.511816 4.24995
0.138376 0.610949 4.18804
0.220112 0.538236 4.15667
0.123821 0.565202 4.22023
0.229629 0.488031 4.16836
0.246767 0.510909 4.11486
0.0358108 0.198377 4.30672
0.0622426 0.188324 4.29181
0.0791188 0.177278 4.2734
0.0580311 0.283646 4.28797
0.0973228 0.152199 4.23542
0.0910144 0.14152 4.24733
0.0888804 0.153481 4.23969
0.0536688 0.2955 4.32514
0.0641672 0.170749 4.26574
0.0481508 0.176531 4.27841
0.0283185 0.178949 4.28724
0.0394807 0.0765543 4.23922
0.0393804 0.097262 4.26443
0.037426 0.112497 4.2713
0.0339435 0.130472 4.27024
0.0307089 0.14102 4.2678
0.0676734 0.146101 4.25184
0.072992 0.140705 4.25505
0.0809832 0.13151 4.2577
0.0878038 0.123696 4.25234
0.108436 0.211818 4.26482
0.2868 0.331738 3.98469
0.0774142 0.148105 4.24366
0.0837978 0.145315 4.24671
0.0364991 0.265924 4.30085
0.0752287 0.272962 4.27167
0.03967 0.27205 4.29881
0.107246 0.352968 4.23976
0.146304 0.33612 4.23303
0.0899056 0.298187 4.27952
0.197758 0.595837 4.14806
0.181269 0.557068 4.19167
0.163934 0.515961 4.22621
0.101922 0.10761 4.2364
0.0586749 0.505774 4.26038
0.0663722 0.564911 4.23504
0.0751484 0.615866 4.21027
0.176869 0.409139 4.19484
0.236325 0.389395 4.16191
0.0774868 0.424739 4.21025
0.20676 0.447957 4.1841
0.062614 0.383564 4.25561
0.070626 0.306644 4.32344
0.263282 0.373646 4.13834
0.221025 0.369218 4.18562
0.19014 0.359029 4.20809
0.14235 0.363051 4.22042
0.108045 0.373969 4.22582
0.0814546 0.386283 4.23136
0.0275102 0.415263 4.27564
0.260517 0.319338 4.1497
0.227355 0.451803 4.16877
0.0175894 0.279321 4.34922
0.0797172 0.345915 4.25995
0.287937 0.444676 3.98742
0.0613802 0.401545 4.23469
0.0913923 0.299746 4.25618
0.194446 0.434075 4.17849
0.0720483 0.319842 4.31303
0.280978 0.265155 4.00004
0.0768449 0.43473 4.20301
0.050666 0.331057 4.33629
0.212584 0.110434 4.14419
0.215635 0.080309 4.10397
0.284373 0.326281 4.06686
0.239596 0.151161 4.11864
0.264058 0.477078 4.08364
0.114185 0.00840963 4.20432
0.0142392 0.278158 4.32268
0.100991 0.326498 4.2513
0.256908 0.423274 4.12415
0.152785 0.419305 4.20317
0.13254 0.417295 4.20904
0.0986482 0.137865 4.24363
0.255495 0.267732 4.14764
0.0633051 -0.0376425 4.19532
0.148717 0.0121854 4.15455
0.18153 0.0413622 4.13214
0.113222 0.41982 4.20985
0.095766 0.425506 4.20799
0.0836667 0.43156 4.20305
0.244677 0.459258 4.14276
0.0946424 0.438716 4.20902
0.113334 0.437685 4.21207
0.130859 0.437846 4.21134
0.150481 0.436391 4.20658
0.165276 0.434753 4.19876
0.280252 0.498115 4.01729
0.166226 0.423486 4.19638
0.0879596 0.23126 4.27719
0.0664619 0.293584 4.29925
0.0404654 0.245325 4.3011
0.183829 0.0720426 4.16402
0.151655 0.0402823 4.18383
0.0638392 -0.015282 4.22319
0.240839 0.126794 4.06518
0.0820861 0.436901 4.20553
0.0452016 0.37795 4.28761
0.110703 -0.0161274 4.17888
0.27819 0.265892 4.07398
0.0520403 0.144125 4.26056
0.0570687 0.135699 4.26334
0.0629118 0.12236 4.26455
0.0677725 0.108506 4.25817
0.0759564 0.0886995 4.24034
0.0817129 0.162022 4.25185
0.0909328 0.164605 4.25259
0.0994787 0.168821 4.25189
0.124008 0.187057 4.24664
0.219819 0.250134 4.19426
0.0442963 0.401849 4.26448
0.0554515 0.450647 4.21888
0.0707819 0.44862 4.21084
0.0768475 0.164338 4.25189
0.224008 0.188323 4.16143
0.0345599 0.445541 4.24786
0.0919919 0.0675788 4.22766
0.0274196 0.389978 4.30102
0.0641579 0.341518 4.28968
0.048894 0.0501981 4.23691
0.148345 0.120577 4.21558
0.11026 0.276625 4.24912
0.125033 0.0901411 4.22082
0.165414 0.273705 4.23782
0.132113 0.247014 4.24683
0.18482 0.230347 4.21992
0.0586005 0.016796 4.23557
0.0801279 0.327734 4.27419
0.173191 0.101275 4.19255
0.141509 0.0692645 4.20386
0.163368 0.155591 4.21607
0.248683 0.222824 4.14161
0.195903 0.153083 4.18977
0.265162 0.207189 4.08883
0.149344 0.208163 4.23421
0.0623009 0.362417 4.2732
0.0622072 0.298083 4.32784
0.0778106 0.291344 4.30352
0.051303 0.311187 4.34683
0.0730941 0.468404 4.22567
0.111456 0.478786 4.23128
0.145152 0.479014 4.23192
0.173913 0.473618 4.22271
0.195079 0.46404 4.20482
0.212397 0.428282 4.16723
0.28605 0.379572 4.06679
0.197056 0.393377 4.18735
0.172498 0.3858 4.20178
0.140007 0.384816 4.21269
0.108911 0.391232 4.21744
0.0851092 0.401687 4.21842
0.0680365 0.411565 4.22059
0.287444 0.390975 3.97743
0.0755147 0.284652 4.29144
0.0459839 0.35612 4.30951
0.0433072 0.296448 4.34836
0.0287853 0.282896 4.33919
0.0426763 0.293394 4.33645
0.0676923 0.276842 4.28362
0.0248036 0.280487 4.34585
0.0215947 0.278935 4.32116
0.0672601 0.435591 4.20782
0.0540018 0.426627 4.22153
0.0464156 0.419863 4.24008
0.174753 0.43364 4.1915
0.192294 0.445732 4.1932
