ply
format ascii 1.0
comment Created by Open3D
element vertex 468
property double x
property double y
property double z
end_header
0.00187696 0.33847 3.94364
0.00134464 0.409237 3.99449
0.0018763 0.384366 3.93771
-0.017499 0.483414 3.96183
0.00117345 0.433328 4.00139
0.000968089 0.463541 3.99123
0.00131634 0.534785 3.92788
-0.165571 0.538803 3.84001
0.00118461 0.59897 3.91143
0.00129232 0.633569 3.91602
0.00146298 0.752298 3.89066
0.00163252 0.327736 3.9416
0.00179741 0.319182 3.93441
0.00187626 0.315201 3.92438
0.0026736 0.30133 3.92086
0.00276789 0.291667 3.92428
0.00270071 0.279683 3.92775
0.0027116 0.267171 3.92209
0.00275289 0.249154 3.89722
0.00118445 0.396837 3.98331
-0.0154611 0.396935 3.95251
-0.254149 0.631001 3.7272
-0.0990541 0.514163 3.86682
-0.122693 0.512871 3.86426
-0.144669 0.515375 3.85704
-0.173512 0.53046 3.83612
-0.0785795 0.520237 3.86314
-0.128007 0.583778 3.8713
-0.102577 0.58076 3.8721
-0.151772 0.580041 3.86265
-0.16776 0.570756 3.85337
-0.192053 0.51453 3.82409
-0.0764187 0.219109 3.87476
-0.173082 0.545905 3.83148
-0.259266 0.52501 3.72064
-0.217259 0.531583 3.79957
-0.11057 0.422848 3.88912
-0.0237612 0.341371 3.94017
-0.020407 0.319354 3.93142
-0.0497483 0.332746 3.92785
-0.0668084 0.322505 3.91257
-0.0388194 0.316498 3.92346
-0.0533815 0.31298 3.90859
-0.0930549 0.284779 3.8771
-0.0159551 0.409607 3.99233
-0.0190715 0.432932 3.99847
-0.205483 0.598309 3.84235
-0.0658042 0.480206 3.89052
-0.0620703 0.412563 3.93746
-0.0643773 0.4245 3.93049
-0.182182 0.423151 3.85923
-0.0184284 0.460611 3.98424
-0.15038 0.627027 3.88121
-0.182783 0.61769 3.86265
-0.232729 0.677282 3.7718
-0.0487287 0.605235 3.90392
-0.0806637 0.57053 3.86664
-0.109448 0.305798 3.87269
-0.222392 0.307781 3.66589
-0.0454377 0.399472 3.92927
-0.0278096 0.393217 3.93045
-0.0845579 0.306331 3.87671
-0.074843 0.308123 3.88323
-0.196999 0.634306 3.85161
-0.06209 0.402171 3.9252
-0.106845 0.624789 3.89551
-0.111404 0.645853 3.89991
-0.137062 0.739375 3.8611
-0.214926 0.656415 3.81835
-0.121623 0.693638 3.88284
-0.220476 0.608695 3.82232
-0.237826 0.618784 3.77896
-0.022616 0.328826 3.93869
-0.0436574 0.322953 3.92704
-0.0601349 0.317536 3.91266
-0.0396398 0.395498 3.92395
-0.0794261 0.306917 3.8801
-0.0715499 0.301929 3.89275
-0.0727944 0.309405 3.88369
-0.0365254 0.408338 3.96022
-0.0494893 0.31422 3.90509
-0.0346386 0.315354 3.91482
-0.0175749 0.315628 3.92241
-0.0259956 0.249022 3.89673
-0.0240941 0.268952 3.92102
-0.0228897 0.282293 3.9253
-0.0209583 0.294002 3.92183
-0.0189045 0.301958 3.91834
-0.0528993 0.304551 3.90147
-0.0563936 0.301953 3.90491
-0.0614194 0.296224 3.90788
-0.0655167 0.28845 3.9037
-0.0864029 0.345227 3.9027
-0.252269 0.418546 3.62818
0.00194741 0.391228 3.95367
-0.0623347 0.305579 3.89093
-0.0665835 0.304651 3.89302
-0.0217545 0.384023 3.93168
-0.0540919 0.388315 3.90849
-0.0245106 0.388378 3.93146
-0.0901887 0.46638 3.88312
-0.12865 0.450812 3.87578
-0.0675298 0.413857 3.91785
-0.195579 0.714232 3.81923
-0.178171 0.682727 3.85224
-0.159583 0.647371 3.87774
-0.0766231 0.270653 3.88651
-0.0563887 0.639276 3.91228
-0.0638283 0.69438 3.90108
-0.0733964 0.750584 3.88503
-0.163249 0.520767 3.84596
-0.216424 0.496897 3.81178
-0.0650761 0.526827 3.86027
-0.193314 0.562803 3.8326
-0.0499252 0.495901 3.89798
-0.0508382 0.422211 3.95906
-0.239595 0.480367 3.7865
-0.201038 0.480085 3.83382
-0.170673 0.471645 3.8561
-0.125784 0.475164 3.86611
-0.0928262 0.484703 3.87159
-0.0682917 0.496067 3.87736
-0.0200348 0.528418 3.91973
-0.234443 0.43053 3.79514
-0.21283 0.567081 3.82095
-0.00880229 0.397798 3.98208
-0.0615096 0.458295 3.90137
-0.265143 0.524739 3.6431
-0.0502252 0.509442 3.88046
-0.0696413 0.411388 3.89568
-0.180231 0.544485 3.82682
-0.0523404 0.436663 3.95017
-0.241415 0.363326 3.64038
-0.0643484 0.536142 3.85491
-0.0363988 0.451405 3.97116
-0.170556 0.260609 3.79203
-0.167762 0.237156 3.74943
-0.253648 0.423446 3.71191
-0.201796 0.287173 3.76207
-0.249372 0.57462 3.7432
-0.0785847 0.201731 3.86149
-0.00546151 0.392088 3.95206
-0.0818598 0.441124 3.89345
-0.237271 0.526665 3.77686
-0.143364 0.528887 3.85523
-0.123382 0.525565 3.86134
-0.0768541 0.297424 3.88902
-0.227151 0.384067 3.79018
-0.0400327 0.177819 3.85477
-0.101825 0.199964 3.81044
-0.131224 0.214373 3.78444
0.00146569 0.692551 3.90659
0.00129162 0.174473 3.86128
-0.103175 0.526412 3.86244
-0.0836694 0.530076 3.85931
-0.0708129 0.532798 3.85474
-0.23031 0.571577 3.79729
-0.0849773 0.556995 3.86279
-0.105441 0.566217 3.86501
-0.126182 0.56871 3.86347
-0.146996 0.564593 3.85703
-0.159816 0.557315 3.8496
-0.263881 0.58256 3.67948
-0.156571 0.533696 3.84693
0.0019331 0.369444 3.93337
-0.0657462 0.358271 3.91214
-0.0464418 0.403224 3.93736
-0.0257518 0.366964 3.93161
0.00118081 0.566553 3.91131
-0.137771 0.236426 3.81426
-0.108644 0.219328 3.83657
-0.0424883 0.188063 3.8828
-0.197073 0.265373 3.7055
-0.0705344 0.544268 3.85813
-0.0341552 0.491627 3.92865
0.00141754 0.185962 3.88833
-0.0725293 0.187382 3.83726
-0.243737 0.37273 3.71763
-0.0375563 0.303345 3.9108
-0.0410171 0.297907 3.91464
-0.0446458 0.288919 3.91785
-0.0471819 0.27705 3.91402
-0.0542751 0.258076 3.89491
-0.0663465 0.310305 3.89486
-0.0728283 0.311762 3.89492
-0.0791735 0.314667 3.89495
-0.102288 0.327104 3.88896
-0.196973 0.373265 3.83725
-0.0345965 0.513779 3.90728
-0.0475755 0.557082 3.87
-0.0609373 0.551307 3.86186
-0.0619876 0.313109 3.89287
-0.194127 0.31899 3.80543
-0.0281504 0.561716 3.89751
-0.0670682 0.237947 3.88255
0.00106582 0.487372 3.96919
-0.0190497 0.504412 3.94305
0.00128078 0.509686 3.948
-0.048087 0.455321 3.92988
0.0018003 0.203641 3.90006
0.00230742 0.227247 3.89867
-0.0336147 0.227134 3.89425
-0.114522 0.275191 3.86304
-0.0892338 0.39323 3.89024
-0.0926322 0.253608 3.87197
-0.147053 0.395214 3.88049
-0.112026 0.370759 3.88768
-0.16405 0.358186 3.86505
-0.0405686 0.204569 3.89414
-0.0596179 0.441403 3.91459
-0.132558 0.259206 3.84099
-0.104125 0.238352 3.85486
-0.133414 0.301369 3.86109
-0.217948 0.345433 3.78352
-0.16274 0.296831 3.83752
-0.228611 0.326957 3.72954
-0.12859 0.341339 3.8788
-0.0474665 0.475245 3.91392
-0.0435592 0.412157 3.9644
-0.0553344 0.405204 3.94002
-0.0359543 0.428749 3.97904
-0.066417 0.580311 3.87661
-0.103601 0.595469 3.87829
-0.136576 0.598716 3.87501
-0.16409 0.594473 3.86478
-0.183596 0.583197 3.85072
-0.196382 0.538324 3.81646
-0.259582 0.474167 3.71501
-0.179579 0.504087 3.83714
-0.15585 0.496515 3.85124
-0.12486 0.495662 3.86125
-0.0954877 0.500664 3.86711
-0.0721611 0.508719 3.86685
-0.0563884 0.517257 3.86877
-0.259182 0.471584 3.62798
-0.0539109 0.398903 3.92887
-0.0339305 0.471872 3.94683
-0.0297733 0.412235 3.98151
-0.0179168 0.401096 3.97266
-0.029131 0.407997 3.9708
-0.0476279 0.392163 3.92105
-0.0147607 0.399218 3.97866
-0.0114323 0.393464 3.95225
-0.0564018 0.534918 3.85782
-0.0440091 0.531249 3.87116
-0.0369258 0.528939 3.88576
-0.167123 0.551462 3.84173
-0.179515 0.560096 3.84003
0.0197443 0.483151 3.96156
0.166736 0.535668 3.84113
0.0186393 0.396785 3.95247
0.251974 0.628427 3.72851
0.100395 0.512196 3.86703
0.123988 0.510854 3.86473
0.145757 0.51345 3.85782
0.173745 0.527519 3.83737
0.0805809 0.518301 3.86347
0.128797 0.580301 3.87168
0.103958 0.577886 3.87283
0.152043 0.576122 3.86342
0.167677 0.566706 3.85461
0.192246 0.512681 3.8258
0.0793498 0.219456 3.87492
0.174049 0.542479 3.83269
0.258362 0.523447 3.72184
0.217021 0.529691 3.80152
0.112792 0.42236 3.89018
0.0270737 0.341159 3.93985
0.0235744 0.319159 3.93102
0.0529707 0.332396 3.92718
0.070032 0.322171 3.91172
0.0416992 0.316149 3.92265
0.0567367 0.312503 3.90763
0.0971456 0.2846 3.87686
0.0182877 0.409528 3.99251
0.0209247 0.432626 3.99876
0.203455 0.59459 3.84411
0.0681224 0.479349 3.89072
0.0643332 0.411722 3.93717
0.0663235 0.423543 3.93036
0.183348 0.422896 3.86076
0.0203208 0.460441 3.98399
0.150364 0.623033 3.88317
0.181478 0.613649 3.86462
0.230599 0.674246 3.77372
0.0510217 0.603825 3.90454
0.082877 0.568205 3.86672
0.113429 0.305418 3.872
0.223093 0.308283 3.66484
0.0485252 0.398866 3.92943
0.0314612 0.392747 3.93092
0.0894202 0.305766 3.87522
0.0788894 0.307498 3.88208
0.194954 0.630009 3.85379
0.0644109 0.401358 3.92519
0.108448 0.621876 3.89749
0.112626 0.642817 3.90181
0.137469 0.736993 3.8625
0.212772 0.653117 3.82065
0.122748 0.690976 3.88436
0.218397 0.605104 3.82417
0.235708 0.615885 3.78069
0.0257577 0.328617 3.93827
0.0468818 0.322666 3.92619
0.0634127 0.317147 3.91181
0.0431046 0.394844 3.92409
0.0839764 0.306327 3.87888
0.0758128 0.301349 3.89211
0.0763681 0.308696 3.88243
0.0391328 0.407842 3.95959
0.0523549 0.313747 3.90422
0.0374827 0.314803 3.91397
0.020875 0.31542 3.9217
0.030794 0.249033 3.89715
0.0288975 0.268645 3.92102
0.0279198 0.281989 3.92511
0.0259785 0.293686 3.92134
0.0237542 0.301685 3.91781
0.0571378 0.304248 3.9008
0.0604842 0.301563 3.90455
0.0653704 0.295717 3.90765
0.0696499 0.287948 3.90334
0.0895186 0.344748 3.90257
0.253403 0.418374 3.62824
0.0663628 0.305108 3.88966
0.0707917 0.303935 3.89227
0.0254958 0.383657 3.93177
0.0577002 0.387663 3.90906
0.0281457 0.388045 3.93173
0.0925028 0.465564 3.88353
0.130917 0.4502 3.87697
0.0698562 0.413024 3.91802
0.194321 0.711372 3.82123
0.177033 0.679191 3.85462
0.159186 0.643205 3.8797
0.0805246 0.27047 3.88649
0.0587301 0.637643 3.91317
0.0662084 0.693118 3.90178
0.0753143 0.749277 3.8863
0.163935 0.518363 3.84702
0.216401 0.49578 3.81372
0.0676791 0.524887 3.86011
0.192488 0.559332 3.83387
0.0526183 0.495125 3.8979
0.0528196 0.421338 3.95901
0.239175 0.479564 3.78805
0.2013 0.479244 3.83543
0.171825 0.471037 3.85761
0.127932 0.474474 3.86698
0.0951174 0.483772 3.8719
0.0706865 0.495106 3.87768
0.0228415 0.528077 3.91967
0.234717 0.43016 3.79623
0.211507 0.564139 3.82239
0.0111037 0.397691 3.98189
0.0640293 0.457444 3.90125
0.264976 0.523246 3.64353
0.0530609 0.508487 3.88043
0.07276 0.410606 3.89585
0.180732 0.540982 3.82776
0.0538719 0.435695 3.95017
0.242273 0.363554 3.64005
0.0668992 0.534023 3.85417
0.0379786 0.450894 3.97106
0.171811 0.260887 3.79192
0.168425 0.237734 3.74864
0.254785 0.423185 3.71255
0.202767 0.287361 3.76192
0.248302 0.572587 3.74461
0.0807906 0.202172 3.86101
0.00934017 0.391978 3.95218
0.0841602 0.440426 3.89383
0.236542 0.525059 3.77844
0.144976 0.52611 3.85612
0.125013 0.523014 3.86192
0.08128 0.296845 3.88846
0.227945 0.383973 3.7911
0.0421246 0.178032 3.85433
0.103442 0.200485 3.80906
0.132288 0.21505 3.78313
0.104837 0.523923 3.86281
0.0859341 0.52786 3.85944
0.0734089 0.530722 3.85451
0.228814 0.569151 3.79881
0.0864817 0.554641 3.86284
0.106309 0.563482 3.86546
0.126978 0.565595 3.864
0.147629 0.561361 3.85817
0.160373 0.553941 3.85096
0.263061 0.580545 3.68036
0.158135 0.530843 3.84789
0.0690689 0.357886 3.91216
0.0492886 0.402623 3.93747
0.0294502 0.366842 3.93158
0.139348 0.236973 3.81407
0.110485 0.219946 3.83641
0.0447504 0.188369 3.88285
0.1977 0.265812 3.70448
0.0727534 0.542203 3.85775
0.0368728 0.491165 3.92866
0.0745024 0.187818 3.83622
0.244614 0.372903 3.71807
0.0421826 0.303057 3.9102
0.0456731 0.297535 3.91412
0.0491303 0.288381 3.91754
0.0518292 0.276527 3.91357
0.0585546 0.257864 3.89498
0.0700089 0.309659 3.89385
0.0765279 0.311132 3.89381
0.0830536 0.314096 3.89367
0.105744 0.326614 3.88838
0.197834 0.373056 3.83909
0.0374958 0.513171 3.90712
0.0505066 0.55565 3.87028
0.063544 0.549474 3.86146
0.0651465 0.312449 3.89168
0.195503 0.318953 3.80615
0.0305738 0.560856 3.89756
0.0704779 0.238218 3.88294
0.0214526 0.504123 3.94305
0.0501887 0.45458 3.93003
0.0377586 0.22739 3.89485
0.117429 0.275246 3.86331
0.0921539 0.392642 3.891
0.095698 0.253893 3.87242
0.148859 0.394864 3.88241
0.114531 0.370256 3.8884
0.165429 0.357988 3.86668
0.0436638 0.204749 3.89438
0.0616385 0.440442 3.91466
0.134661 0.259477 3.84119
0.106928 0.238749 3.85529
0.136271 0.301274 3.861
0.218723 0.345315 3.78448
0.164236 0.29693 3.8382
0.229548 0.327132 3.72943
0.130956 0.341076 3.87941
0.0500555 0.474471 3.91367
0.0457321 0.411534 3.96409
0.0577552 0.404434 3.94012
0.0381177 0.428157 3.97915
0.0689548 0.578294 3.87702
0.105604 0.592552 3.8794
0.137371 0.594917 3.87633
0.164018 0.590574 3.86614
0.182845 0.579294 3.85213
0.196274 0.535722 3.81812
0.25962 0.473334 3.71581
0.180252 0.502423 3.83848
0.15711 0.495381 3.85262
0.126623 0.494429 3.86217
0.0973441 0.499268 3.86737
0.0745503 0.507337 3.86715
0.0590478 0.515988 3.86875
0.259626 0.470833 3.62807
0.0566026 0.398247 3.92904
0.0363041 0.471514 3.94676
0.0320337 0.411911 3.98142
0.0202308 0.400957 3.97277
0.0314062 0.4077 3.9707
0.0508176 0.391493 3.92149
0.0171375 0.399082 3.97869
0.0149858 0.393399 3.95239
0.0593344 0.533074 3.85771
0.0467609 0.529909 3.8712
0.0397854 0.527941 3.88581
0.167935 0.547987 3.84271
0.179137 0.556396 3.8416
