ply
format ascii 1.0
comment Created by Open3D
element vertex 468
property double x
property double y
property double z
end_header
-0.0186608 0.36913 4.01432
-0.0215371 0.435195 4.08427
-0.0210752 0.410559 4.01986
-0.0397417 0.517921 4.04407
-0.0209772 0.461784 4.09169
-0.0194348 0.495344 4.07931
-0.0185718 0.573408 4.00509
-0.19394 0.580828 3.9006
-0.0183042 0.63136 3.98286
-0.018096 0.664574 3.98556
-0.0171536 0.787386 3.95324
-0.0178798 0.358448 4.01153
-0.0167947 0.351744 4.00478
-0.0159152 0.351061 3.99449
-0.0166235 0.310765 3.98392
-0.0168217 0.302496 3.98926
-0.0159312 0.29202 3.99575
-0.015846 0.278534 3.99366
-0.0166169 0.251814 3.97376
-0.0208925 0.421105 4.0716
-0.0440872 0.423621 4.03745
-0.283326 0.661799 3.77521
-0.119422 0.559535 3.9253
-0.144489 0.558605 3.92418
-0.16914 0.559847 3.91792
-0.203505 0.572047 3.89696
-0.0996364 0.564384 3.92317
-0.153063 0.620471 3.93239
-0.126569 0.617937 3.93257
-0.178778 0.616937 3.92502
-0.196089 0.608241 3.9154
-0.224432 0.555745 3.88565
-0.109537 0.217832 3.94301
-0.203463 0.585593 3.89193
-0.296011 0.556865 3.7703
-0.250559 0.568358 3.85966
-0.148044 0.463727 3.9617
-0.0552149 0.374066 4.01183
-0.0505106 0.353955 4.00052
-0.0918859 0.371835 3.99503
-0.115632 0.366927 3.96931
-0.077765 0.355516 3.98627
-0.0995347 0.355353 3.96318
-0.140459 0.321939 3.92322
-0.0412717 0.436269 4.08274
-0.0429948 0.462216 4.08919
-0.232371 0.631693 3.90833
-0.0923467 0.520396 3.9587
-0.0981271 0.448585 4.0193
-0.0987036 0.462089 4.01026
-0.226642 0.469259 3.92803
-0.0413881 0.492859 4.07111
-0.173247 0.659421 3.95207
-0.208001 0.650824 3.93231
-0.257207 0.708293 3.82368
-0.0678533 0.636992 3.97487
-0.104587 0.609272 3.92518
-0.162173 0.352373 3.91917
-0.27103 0.321668 3.71586
-0.0817766 0.433647 4.01011
-0.0612548 0.424321 4.01431
-0.144075 0.35436 3.91739
-0.130665 0.352773 3.92313
-0.221866 0.666479 3.91942
-0.0999101 0.439896 4.00593
-0.127269 0.656345 3.96718
-0.131612 0.676961 3.97234
-0.157427 0.771725 3.92033
-0.238689 0.687926 3.87757
-0.142901 0.726736 3.94725
-0.247886 0.641129 3.88558
-0.265698 0.649977 3.83342
-0.0534302 0.361566 4.00834
-0.0842264 0.36165 3.99082
-0.107452 0.361133 3.96802
-0.0764551 0.429466 4.00584
-0.137858 0.354067 3.92056
-0.122643 0.336573 3.93535
-0.125546 0.351536 3.92363
-0.0672655 0.437587 4.04442
-0.0939252 0.357265 3.95927
-0.0729603 0.355919 3.97653
-0.0471664 0.352851 3.98974
-0.054771 0.255211 3.97157
-0.0520306 0.283224 3.9892
-0.0512789 0.296804 3.99013
-0.0504401 0.306826 3.98307
-0.0478906 0.313705 3.97801
-0.0954595 0.328087 3.95013
-0.0991322 0.326299 3.95499
-0.104102 0.321857 3.95873
-0.108724 0.314473 3.954
-0.134562 0.385109 3.96313
-0.299931 0.441973 3.67297
-0.0225912 0.41527 4.03847
-0.109781 0.335693 3.93235
-0.116542 0.337381 3.93573
-0.0532005 0.413379 4.01405
-0.094647 0.426064 3.98848
-0.0569852 0.418447 4.01513
-0.11997 0.508493 3.95125
-0.16381 0.495466 3.94647
-0.104217 0.452736 3.99627
-0.216998 0.745973 3.87527
-0.199684 0.714958 3.91537
-0.182148 0.678981 3.94697
-0.118827 0.29507 3.93853
-0.0754682 0.670122 3.98387
-0.084443 0.728876 3.96568
-0.0927965 0.784068 3.94783
-0.190984 0.564173 3.90727
-0.251539 0.538389 3.87295
-0.0878752 0.569962 3.91942
-0.223151 0.599077 3.89391
-0.0744506 0.534976 3.96725
-0.0820302 0.454652 4.04414
-0.278645 0.519311 3.84484
-0.23533 0.525341 3.89647
-0.203565 0.518504 3.91984
-0.155609 0.520214 3.9309
-0.119036 0.527757 3.93552
-0.0923366 0.537718 3.94227
-0.0415949 0.566789 3.99465
-0.281886 0.47163 3.85507
-0.24235 0.60139 3.88195
-0.0330373 0.422753 4.07024
-0.0920299 0.497024 3.97247
-0.305297 0.55306 3.68581
-0.0738872 0.549857 3.94573
-0.109185 0.451542 3.97012
-0.211789 0.583932 3.88675
-0.0819167 0.471469 4.03293
-0.290653 0.382711 3.68863
-0.0887649 0.578396 3.91183
-0.0612647 0.484456 4.05672
-0.215166 0.27674 3.84688
-0.209608 0.241601 3.80601
-0.303196 0.454352 3.76424
-0.250528 0.306473 3.81806
-0.282446 0.606364 3.79444
-0.11172 0.190646 3.93189
-0.0323563 0.416539 4.03712
-0.115601 0.481656 3.96515
-0.27157 0.561667 3.83361
-0.167795 0.574412 3.91524
-0.145279 0.572281 3.92068
-0.128362 0.333889 3.9316
-0.281021 0.421099 3.85034
-0.0678208 0.152762 3.93019
-0.139495 0.18803 3.87398
-0.170437 0.210548 3.84265
-0.0180668 0.727956 3.97097
-0.0170699 0.145101 3.93849
-0.124144 0.5728 3.92155
-0.105296 0.575269 3.91737
-0.0941811 0.576664 3.91204
-0.260457 0.604747 3.8558
-0.108115 0.594294 3.92016
-0.128143 0.600881 3.92457
-0.149659 0.602888 3.92406
-0.172044 0.599687 3.91846
-0.186771 0.593683 3.911
-0.299681 0.612925 3.72467
-0.183115 0.577538 3.90747
-0.0202354 0.396884 4.01172
-0.108899 0.395853 3.98317
-0.0817309 0.436096 4.0203
-0.0569183 0.397884 4.00935
-0.0180928 0.602862 3.98421
-0.178048 0.244658 3.87065
-0.144742 0.218114 3.8992
-0.0684403 0.171339 3.95914
-0.242318 0.274593 3.75957
-0.0949476 0.584766 3.91474
-0.0581502 0.528121 4.00449
-0.0163019 0.164507 3.96552
-0.106857 0.167775 3.90714
-0.29564 0.399634 3.77198
-0.0741502 0.320082 3.96543
-0.0780265 0.315546 3.97027
-0.0810325 0.307746 3.97443
-0.0839179 0.29554 3.97121
-0.0915184 0.271781 3.95591
-0.118888 0.35582 3.94152
-0.127326 0.358831 3.94078
-0.134444 0.362792 3.94144
-0.155536 0.37187 3.93957
-0.24936 0.412939 3.90287
-0.0574702 0.552044 3.97884
-0.0702672 0.596282 3.93142
-0.0847757 0.592228 3.9197
-0.111834 0.357667 3.93895
-0.247509 0.349361 3.86464
-0.0490445 0.598526 3.9661
-0.100448 0.246312 3.94886
-0.0190246 0.521607 4.05316
-0.0406412 0.5409 4.02208
-0.0190574 0.546087 4.02801
-0.0758425 0.491463 4.0078
-0.0161293 0.191525 3.9767
-0.0164677 0.224226 3.97546
-0.0604472 0.228108 3.9697
-0.156542 0.306317 3.91272
-0.129896 0.433175 3.96235
-0.129968 0.272795 3.92861
-0.191785 0.436588 3.95305
-0.155748 0.410339 3.9537
-0.21382 0.398121 3.93011
-0.0669065 0.196898 3.96957
-0.0910343 0.479342 3.99007
-0.173671 0.279778 3.89474
-0.140312 0.247903 3.91557
-0.18057 0.341486 3.91182
-0.272523 0.376961 3.84291
-0.210775 0.328348 3.89252
-0.27952 0.349242 3.78431
-0.177162 0.385061 3.93791
-0.0744066 0.512421 3.98672
-0.0744145 0.442445 4.04976
-0.0909288 0.43957 4.02343
-0.0637388 0.458864 4.06756
-0.0884984 0.616973 3.9372
-0.127073 0.631252 3.94167
-0.161615 0.634528 3.94025
-0.191296 0.630311 3.93004
-0.21214 0.618851 3.91466
-0.228113 0.576318 3.87713
-0.302644 0.506018 3.76504
-0.210627 0.547262 3.89874
-0.183969 0.541014 3.91376
-0.149997 0.540405 3.92359
-0.118258 0.544469 3.92754
-0.0944251 0.55153 3.9291
-0.0791135 0.558966 3.93071
-0.303277 0.497494 3.66972
-0.0910124 0.434825 4.01086
-0.0588457 0.50671 4.02679
-0.0576158 0.439951 4.07015
-0.0440648 0.427242 4.06034
-0.057486 0.435846 4.05771
-0.0858542 0.428267 4.0029
-0.04013 0.424701 4.06712
-0.0394757 0.419194 4.0373
-0.0802205 0.577063 3.91719
-0.0667314 0.571955 3.934
-0.0594257 0.568502 3.9534
-0.195908 0.589292 3.90284
-0.209236 0.597902 3.90166
0.00108947 0.517526 4.04513
0.161208 0.576064 3.89938
0.00250858 0.421839 4.03575
0.260643 0.664375 3.77362
0.088384 0.556948 3.92831
0.11434 0.555682 3.92617
0.139164 0.55674 3.91872
0.173762 0.567592 3.89565
0.0661784 0.562099 3.92517
0.123027 0.6171 3.93327
0.0956385 0.615335 3.93238
0.148382 0.612921 3.92442
0.16584 0.603878 3.91369
0.194957 0.552358 3.88217
0.0839399 0.209639 3.93936
0.170915 0.580545 3.89019
0.2727 0.554514 3.76674
0.222969 0.564955 3.85472
0.116317 0.461434 3.95683
0.0218051 0.37207 4.01031
0.0214797 0.352345 3.99921
0.064553 0.367365 3.99186
0.0927775 0.361754 3.96586
0.0527861 0.352174 3.98526
0.076834 0.351592 3.96149
0.12154 0.315267 3.91962
-0.00028588 0.435322 4.08083
0.00292393 0.461414 4.08756
0.204326 0.627504 3.90481
0.05748 0.519077 3.95884
0.0629276 0.445897 4.01578
0.0644649 0.460034 4.00727
0.199774 0.465954 3.92152
0.00241006 0.492281 4.07179
0.140329 0.656053 3.94759
0.177383 0.646618 3.92826
0.232629 0.711726 3.82136
0.032141 0.635844 3.97369
0.0714242 0.607188 3.92574
0.144911 0.345793 3.91515
0.25801 0.308293 3.71135
0.0436665 0.430776 4.00663
0.0212863 0.422534 4.00927
0.125159 0.348757 3.91417
0.113754 0.348081 3.92018
0.191604 0.662747 3.91462
0.0661122 0.43739 4.00126
0.0926429 0.654017 3.96323
0.0976255 0.675234 3.96757
0.1272 0.774928 3.91776
0.211385 0.68826 3.87353
0.108512 0.727549 3.94397
0.220648 0.637932 3.88221
0.240083 0.649781 3.83008
0.0223843 0.3597 4.00695
0.0578093 0.357738 3.98924
0.0848693 0.356531 3.9653
0.0374587 0.42691 4.00115
0.119761 0.348826 3.91709
0.103391 0.33196 3.93197
0.109935 0.347094 3.92101
0.0291152 0.434793 4.04413
0.0734132 0.3543 3.95785
0.0482887 0.353366 3.9761
0.0195505 0.351895 3.9898
0.0249733 0.253052 3.96953
0.0241433 0.281169 3.98937
0.0227804 0.294888 3.99133
0.0204275 0.304888 3.98431
0.0180663 0.311911 3.97951
0.0738633 0.32459 3.94884
0.0783021 0.32277 3.95245
0.0840638 0.317953 3.95552
0.0879138 0.310096 3.9508
0.107979 0.381351 3.95761
0.278015 0.435192 3.67016
0.0902392 0.331768 3.93179
0.0970348 0.333128 3.93304
0.0133464 0.411919 4.01128
0.0582763 0.423807 3.98162
0.0170505 0.416822 4.01116
0.0860296 0.507014 3.95078
0.131951 0.493609 3.94336
0.0705592 0.450607 3.99238
0.190154 0.749657 3.87184
0.169329 0.715231 3.91019
0.149389 0.676257 3.94226
0.0972738 0.289484 3.93604
0.0402835 0.669594 3.98112
0.0488564 0.729623 3.96306
0.0608061 0.785985 3.94467
0.161129 0.560282 3.90682
0.224159 0.535017 3.86749
0.052087 0.567642 3.92231
0.19361 0.594671 3.89126
0.0387672 0.533878 3.96826
0.0450137 0.452248 4.04159
0.254412 0.51527 3.83958
0.206861 0.522477 3.89226
0.173597 0.516448 3.91677
0.122922 0.518477 3.93038
0.0849138 0.526026 3.93629
0.0576746 0.53615 3.94304
0.0045409 0.566365 3.99528
0.257625 0.466367 3.84887
0.215576 0.597959 3.87885
-0.00789664 0.421808 4.06992
0.0559939 0.495783 3.97216
0.280436 0.55171 3.68465
0.0373787 0.548632 3.94689
0.0729609 0.449635 3.96516
0.180427 0.579016 3.88522
0.0465972 0.469598 4.03072
0.273091 0.372583 3.68385
0.0529319 0.575618 3.91556
0.0248668 0.483214 4.05601
0.202362 0.261073 3.83977
0.198481 0.223393 3.80099
0.279504 0.447322 3.75813
0.239169 0.291688 3.80984
0.25676 0.60586 3.79122
0.0860375 0.180363 3.92896
-0.0127576 0.416123 4.03628
0.0814955 0.48007 3.96249
0.246465 0.558359 3.8294
0.134573 0.570595 3.91568
0.112669 0.569036 3.9228
0.109278 0.328638 3.92811
0.259737 0.413387 3.84176
0.0356404 0.146512 3.93007
0.116073 0.173477 3.87209
0.153712 0.193442 3.84005
0.0916358 0.56992 3.92402
0.0714325 0.572814 3.92104
0.0584962 0.574097 3.9163
0.235488 0.60218 3.85249
0.0770073 0.591491 3.923
0.0996706 0.597776 3.92622
0.120445 0.599044 3.92491
0.141822 0.595351 3.9183
0.155947 0.589041 3.90967
0.274514 0.614137 3.72301
0.150047 0.573216 3.90735
0.0776537 0.392917 3.97842
0.0435228 0.43308 4.01569
0.0202166 0.396282 4.00743
0.160437 0.229512 3.86504
0.12431 0.204075 3.89492
0.0386882 0.165806 3.958
0.231461 0.258399 3.75555
0.0604127 0.581852 3.91901
0.0207543 0.527324 4.00461
0.0785084 0.157192 3.90677
0.277155 0.389706 3.76375
0.0482359 0.316994 3.96604
0.0524582 0.312457 3.97011
0.0562249 0.304502 3.97426
0.0585736 0.29226 3.97108
0.0660408 0.267519 3.95546
0.100755 0.351316 3.93893
0.107825 0.353679 3.93828
0.114967 0.357093 3.93819
0.133916 0.366969 3.93466
0.228118 0.406553 3.894
0.0206758 0.551255 3.97995
0.0325774 0.594737 3.93154
0.0485459 0.590197 3.92243
0.0950041 0.353978 3.93721
0.231906 0.338705 3.85513
0.0129488 0.597889 3.96625
0.0760269 0.239717 3.94555
0.00316806 0.540421 4.02187
0.0392849 0.490228 4.00602
0.0311526 0.224532 3.96691
0.137594 0.297622 3.90854
0.0971445 0.43073 3.95711
0.109438 0.264469 3.92478
0.164989 0.432872 3.94461
0.127909 0.407027 3.94742
0.19166 0.392305 3.92099
0.0372968 0.192503 3.96799
0.055993 0.477816 3.98804
0.154746 0.26795 3.88953
0.119498 0.236673 3.9105
0.162595 0.333504 3.90841
0.25603 0.366921 3.83337
0.195003 0.317577 3.88535
0.265453 0.336778 3.7766
0.156414 0.380528 3.93186
0.0375887 0.511404 3.98716
0.0372702 0.439413 4.04805
0.0551495 0.436538 4.01874
0.0246648 0.456751 4.06629
0.05224 0.614769 3.93768
0.0925928 0.628219 3.94026
0.128559 0.631133 3.93814
0.159305 0.626483 3.92734
0.181659 0.61477 3.91144
0.198644 0.5722 3.87397
0.27852 0.501277 3.76128
0.180549 0.544171 3.89643
0.153474 0.53867 3.91241
0.11885 0.538246 3.924
0.0858651 0.542449 3.9291
0.0605491 0.549646 3.92998
0.0433661 0.557352 3.93184
0.278922 0.493575 3.66907
0.0554461 0.432004 4.00587
0.0206735 0.505843 4.02722
0.0179385 0.437624 4.06824
0.00504386 0.425372 4.05826
0.018696 0.433136 4.05598
0.049532 0.425743 3.99682
0.000316839 0.423237 4.06549
-0.00367387 0.417878 4.03573
0.0429724 0.574775 3.91934
0.0301967 0.570602 3.93464
0.0229566 0.567504 3.95346
0.164462 0.584236 3.90105
0.17895 0.593247 3.89874
