ply
format ascii 1.0
comment Created by Open3D
element vertex 468
property double x
property double y
property double z
end_header
-0.0105985 0.367224 3.92134
-0.00954949 0.459694 3.99049
-0.0108039 0.429089 3.92369
-0.0307176 0.550329 3.95236
-0.0092558 0.488576 3.99836
-0.00869782 0.525891 3.98673
-0.00856002 0.61148 3.91665
-0.18314 0.615178 3.80877
-0.00844935 0.659385 3.90043
-0.00841195 0.692482 3.90556
-0.00788938 0.83643 3.87141
-0.0105369 0.354249 3.91766
-0.0102367 0.346467 3.90931
-0.00991496 0.344868 3.89765
-0.00929783 0.342209 3.89833
-0.00926338 0.334431 3.90338
-0.00870843 0.324026 3.91097
-0.00838608 0.310275 3.91088
-0.00813624 0.278314 3.89192
-0.00968287 0.445196 3.97755
-0.0366715 0.445854 3.94115
-0.282098 0.697264 3.6921
-0.10918 0.596815 3.83218
-0.133682 0.594646 3.83151
-0.158607 0.593664 3.82615
-0.193272 0.603869 3.80593
-0.08952 0.602273 3.8312
-0.145149 0.645293 3.84386
-0.119662 0.645735 3.84324
-0.16849 0.641005 3.83715
-0.184387 0.634003 3.82709
-0.216553 0.583904 3.79509
-0.109224 0.223594 3.85918
-0.193416 0.618711 3.80184
-0.298442 0.581238 3.68163
-0.247786 0.594336 3.77144
-0.138681 0.482416 3.86444
-0.0452965 0.372113 3.91845
-0.0408166 0.347674 3.90517
-0.0809809 0.366365 3.90229
-0.104212 0.357177 3.88047
-0.067188 0.347591 3.89308
-0.0885006 0.345532 3.87313
-0.135313 0.317411 3.84145
-0.0319122 0.460572 3.98866
-0.0346811 0.488498 3.99571
-0.225283 0.652203 3.82752
-0.0838884 0.550872 3.86609
-0.095895 0.469267 3.92192
-0.0960863 0.484112 3.91255
-0.214126 0.484512 3.83277
-0.0325683 0.522467 3.97856
-0.162623 0.677625 3.87308
-0.198917 0.669148 3.85473
-0.254984 0.747287 3.74303
-0.0548773 0.66161 3.8921
-0.0973222 0.640822 3.83418
-0.158405 0.341115 3.83344
-0.285837 0.319111 3.61762
-0.078209 0.452716 3.91218
-0.0563278 0.443877 3.91726
-0.132639 0.342058 3.83324
-0.12085 0.343636 3.84001
-0.213961 0.685038 3.84143
-0.0980235 0.45826 3.9077
-0.114649 0.676613 3.8853
-0.120418 0.699192 3.89062
-0.152107 0.817244 3.83895
-0.233453 0.719037 3.79788
-0.134214 0.762596 3.86568
-0.242254 0.662231 3.80494
-0.26215 0.679302 3.75109
-0.0434315 0.356842 3.91471
-0.0729613 0.35404 3.89863
-0.0958888 0.350756 3.87892
-0.0722663 0.448105 3.9088
-0.126614 0.342835 3.83686
-0.111425 0.339552 3.855
-0.117351 0.344261 3.84129
-0.0614759 0.46066 3.94926
-0.0836509 0.347754 3.86839
-0.0623625 0.347391 3.88227
-0.0375378 0.345838 3.89331
-0.0436314 0.278027 3.89022
-0.040991 0.311216 3.90819
-0.0398412 0.326131 3.90787
-0.039239 0.336016 3.89958
-0.0375596 0.342612 3.89429
-0.0856661 0.343314 3.8695
-0.0885428 0.341607 3.87439
-0.092839 0.336176 3.87806
-0.097349 0.326949 3.87383
-0.12634 0.385661 3.87331
-0.308193 0.451003 3.57687
-0.0109073 0.437298 3.94234
-0.100543 0.342452 3.85284
-0.105633 0.342356 3.85545
-0.0467415 0.430726 3.91751
-0.0903825 0.440724 3.8898
-0.0514309 0.436981 3.91847
-0.10986 0.53553 3.85727
-0.151688 0.517317 3.85269
-0.101503 0.472241 3.89789
-0.213564 0.788452 3.79507
-0.192307 0.74759 3.83413
-0.172508 0.698769 3.86671
-0.110335 0.301355 3.85852
-0.0638285 0.696117 3.9024
-0.0753022 0.768898 3.88333
-0.0860596 0.832282 3.86477
-0.180471 0.596627 3.81615
-0.246775 0.562611 3.78161
-0.078013 0.607718 3.82745
-0.214864 0.626121 3.80828
-0.0660213 0.568003 3.87579
-0.0776725 0.477989 3.94805
-0.27675 0.540364 3.75371
-0.227692 0.547657 3.804
-0.193633 0.540651 3.82654
-0.144133 0.546474 3.83858
-0.108436 0.558116 3.84272
-0.0829347 0.570704 3.85058
-0.032722 0.603598 3.90598
-0.275932 0.48557 3.76121
-0.237954 0.626317 3.79752
-0.0233637 0.446391 3.97589
-0.0847455 0.523753 3.87674
-0.307831 0.575416 3.59563
-0.0643613 0.583996 3.8546
-0.104563 0.469157 3.87045
-0.201101 0.614528 3.79776
-0.0778409 0.496307 3.93691
-0.302369 0.385589 3.59097
-0.0799652 0.616407 3.8202
-0.0552525 0.512259 3.96257
-0.228765 0.2721 3.75542
-0.226239 0.234158 3.71203
-0.304773 0.465906 3.6692
-0.262533 0.304528 3.72254
-0.281087 0.634857 3.70898
-0.115173 0.192231 3.84592
-0.0221318 0.438518 3.94067
-0.107761 0.50426 3.86769
-0.271487 0.586308 3.74543
-0.155934 0.611084 3.82202
-0.13347 0.610319 3.82761
-0.117436 0.334032 3.85046
-0.275718 0.429368 3.75345
-0.0651701 0.153909 3.8418
-0.147614 0.1823 3.78552
-0.183975 0.203028 3.75271
-0.00825722 0.7694 3.88864
-0.0085427 0.150152 3.84954
-0.113256 0.611952 3.82894
-0.0948984 0.614948 3.82542
-0.0843287 0.61556 3.82075
-0.258014 0.629308 3.77156
-0.100415 0.632469 3.82847
-0.121239 0.638202 3.83416
-0.142791 0.63882 3.83348
-0.164629 0.63431 3.82829
-0.178491 0.627518 3.82044
-0.299081 0.642894 3.63801
-0.171653 0.612952 3.81501
-0.0107498 0.409131 3.91721
-0.101858 0.40203 3.89041
-0.0779265 0.456666 3.92323
-0.048652 0.408604 3.91557
-0.00823898 0.636882 3.89728
-0.190616 0.239579 3.78285
-0.154431 0.214992 3.8128
-0.0666023 0.17758 3.87427
-0.259009 0.269016 3.66266
-0.0865063 0.623281 3.82374
-0.0500458 0.560934 3.91264
-0.00847226 0.174991 3.88046
-0.1093 0.165431 3.81927
-0.29978 0.405747 3.67444
-0.0634748 0.343289 3.88329
-0.0664062 0.338768 3.88882
-0.0688167 0.330666 3.89353
-0.0716374 0.317289 3.89156
-0.0803812 0.287749 3.877
-0.108264 0.344681 3.85595
-0.115545 0.346353 3.85571
-0.122997 0.350078 3.85599
-0.148418 0.365195 3.85251
-0.240842 0.421622 3.80675
-0.0488538 0.587024 3.88871
-0.0595807 0.630004 3.83994
-0.0757233 0.627556 3.82956
-0.102335 0.347513 3.85235
-0.249137 0.350995 3.7691
-0.0390792 0.631381 3.8767
-0.0954576 0.255661 3.86723
-0.00861973 0.555458 3.96175
-0.0321972 0.576273 3.93222
-0.00861529 0.582729 3.93825
-0.0690843 0.518561 3.91253
-0.0085082 0.207587 3.89489
-0.00856578 0.245536 3.89313
-0.0530495 0.244813 3.88746
-0.159337 0.301696 3.8298
-0.125115 0.447014 3.8658
-0.129403 0.274483 3.8474
-0.181668 0.450144 3.85616
-0.14946 0.419288 3.86029
-0.207359 0.40439 3.83416
-0.0626091 0.208312 3.88734
-0.085651 0.503555 3.8932
-0.181338 0.276063 3.80891
-0.14574 0.247447 3.83053
-0.182376 0.33422 3.82502
-0.272207 0.38094 3.74543
-0.214999 0.32609 3.80234
-0.288598 0.351074 3.68694
-0.172985 0.384311 3.84772
-0.0668693 0.542432 3.89306
-0.0695205 0.465725 3.95463
-0.0884927 0.459864 3.92592
-0.0575437 0.48407 3.97418
-0.0772497 0.645297 3.84831
-0.116437 0.654893 3.85636
-0.150937 0.656358 3.85687
-0.180743 0.652598 3.84716
-0.201938 0.643199 3.83167
-0.221204 0.60489 3.78925
-0.305123 0.524418 3.67327
-0.201023 0.574944 3.80697
-0.174072 0.569548 3.82263
-0.139655 0.571808 3.83213
-0.108127 0.578426 3.83402
-0.0846418 0.58686 3.83728
-0.0690442 0.594476 3.83806
-0.308219 0.512902 3.57731
-0.0886463 0.453371 3.91302
-0.0507691 0.536813 3.93347
-0.0507768 0.464215 3.97575
-0.036686 0.451085 3.96523
-0.0508847 0.45959 3.96279
-0.0820067 0.445159 3.9047
-0.0317469 0.448536 3.97235
-0.0308482 0.44116 3.941
-0.071163 0.613735 3.82499
-0.05681 0.60748 3.84181
-0.0498783 0.603598 3.86302
-0.186851 0.622499 3.81265
-0.19828 0.626249 3.81287
0.0131005 0.550608 3.95278
0.167839 0.618106 3.80893
0.0165661 0.445415 3.94011
0.274432 0.703264 3.68985
0.0950498 0.599132 3.83446
0.120281 0.597306 3.83348
0.145615 0.596711 3.82742
0.179851 0.606845 3.80606
0.0742073 0.604048 3.83289
0.130849 0.64817 3.84444
0.105252 0.648129 3.84331
0.154042 0.644085 3.83742
0.169954 0.637237 3.82738
0.204314 0.587109 3.79417
0.0925081 0.22153 3.85652
0.178104 0.621744 3.80166
0.289478 0.585226 3.67887
0.23645 0.597825 3.76926
0.123675 0.48324 3.86265
0.0245769 0.372037 3.91794
0.0213319 0.347531 3.90443
0.0613244 0.365783 3.90102
0.0852935 0.356692 3.87924
0.0487601 0.347188 3.89259
0.0701649 0.345167 3.87214
0.117336 0.316365 3.83918
0.0134016 0.460529 3.98765
0.0165715 0.488682 3.99466
0.21367 0.656157 3.82598
0.0684664 0.552034 3.86639
0.078521 0.469095 3.91968
0.0793637 0.484032 3.91063
0.202903 0.486032 3.83056
0.0150484 0.522659 3.97869
0.148003 0.681799 3.87095
0.185979 0.67322 3.85257
0.245924 0.753637 3.74056
0.0382632 0.663353 3.89182
0.0819288 0.642701 3.83481
0.139834 0.340174 3.83143
0.277415 0.316669 3.61274
0.0593585 0.452044 3.90966
0.0365097 0.443289 3.91417
0.112261 0.341163 3.83255
0.102279 0.342901 3.83876
0.201358 0.689482 3.83876
0.0808248 0.457543 3.90494
0.098434 0.67988 3.88362
0.104382 0.7028 3.88857
0.138669 0.821919 3.83716
0.222735 0.724594 3.79531
0.118709 0.766756 3.86396
0.231364 0.666696 3.80335
0.253045 0.684412 3.74898
0.0234351 0.356575 3.91416
0.0537322 0.353617 3.89797
0.0772827 0.350255 3.87778
0.0530183 0.447228 3.90579
0.107004 0.342141 3.83611
0.0933402 0.338909 3.85343
0.0997516 0.343505 3.84012
0.0434065 0.460733 3.94868
0.0664429 0.347471 3.8673
0.0444487 0.346949 3.88165
0.0187993 0.345869 3.89326
0.0277045 0.277567 3.88861
0.0247158 0.31134 3.90736
0.0231104 0.326124 3.90741
0.0212985 0.335993 3.89933
0.0195747 0.342462 3.89427
0.0687025 0.342938 3.86824
0.0719015 0.341215 3.87252
0.0763429 0.335726 3.87599
0.080257 0.326527 3.87171
0.107686 0.385544 3.8708
0.297819 0.452125 3.57326
0.0832836 0.341832 3.85215
0.0880344 0.341784 3.85414
0.0261117 0.430303 3.91591
0.0711683 0.439877 3.88611
0.0312364 0.436674 3.91617
0.0951924 0.537004 3.85768
0.138202 0.519087 3.85193
0.0844394 0.471994 3.89579
0.202615 0.79448 3.79268
0.179393 0.752826 3.83144
0.157547 0.70345 3.86436
0.0935007 0.300475 3.85655
0.0470841 0.69818 3.90133
0.0590698 0.771077 3.88224
0.0714379 0.834648 3.86298
0.167282 0.599586 3.81671
0.235653 0.565759 3.7795
0.0615407 0.608937 3.82929
0.202205 0.629657 3.80755
0.0500162 0.569055 3.87647
0.0602934 0.478226 3.94641
0.267098 0.543297 3.75137
0.215965 0.550644 3.80261
0.181227 0.543317 3.82617
0.130294 0.548634 3.83915
0.0935617 0.559961 3.84388
0.0676612 0.57201 3.85138
0.0158484 0.604167 3.90621
0.26634 0.48755 3.75863
0.227133 0.630304 3.79618
0.00441908 0.446412 3.9757
0.0682231 0.524552 3.87666
0.297715 0.579112 3.59316
0.0478604 0.585116 3.85556
0.0860427 0.468954 3.86791
0.186714 0.617637 3.79795
0.0613703 0.496469 3.9354
0.293317 0.384784 3.58643
0.0632313 0.617646 3.82243
0.0383858 0.512658 3.96201
0.216395 0.268952 3.75052
0.215679 0.22994 3.70798
0.294718 0.467293 3.66558
0.252611 0.301841 3.71733
0.271793 0.639655 3.70652
0.0990235 0.189535 3.84346
0.000374149 0.438417 3.94023
0.0919303 0.504962 3.86677
0.261373 0.589919 3.74297
0.140908 0.614004 3.82306
0.118852 0.613018 3.8296
0.0989104 0.333344 3.84904
0.265866 0.429788 3.74946
0.0482335 0.152312 3.84068
0.132432 0.178552 3.78337
0.170861 0.19893 3.74977
0.0985137 0.614423 3.83083
0.0793613 0.616892 3.82773
0.0678843 0.617093 3.82324
0.248355 0.63361 3.76969
0.0854556 0.634149 3.83013
0.107614 0.640311 3.83507
0.128787 0.641127 3.83399
0.150188 0.636967 3.82849
0.163717 0.630338 3.82019
0.289997 0.647991 3.63536
0.156323 0.615815 3.81558
0.0829085 0.40175 3.888
0.059504 0.456246 3.92045
0.0281226 0.408532 3.91455
0.176281 0.23617 3.77872
0.139022 0.211471 3.80909
0.0500088 0.175952 3.87243
0.249925 0.265404 3.65837
0.0702109 0.624548 3.82622
0.0330209 0.561505 3.9128
0.0929411 0.162744 3.81791
0.290843 0.405429 3.66969
0.0459814 0.343107 3.88275
0.0492701 0.338696 3.88802
0.0520944 0.330607 3.8928
0.0545889 0.317302 3.89056
0.0642125 0.28712 3.87581
0.0902362 0.344017 3.8545
0.0967207 0.345739 3.85478
0.103971 0.349523 3.85499
0.12956 0.364996 3.85061
0.230125 0.421968 3.80246
0.0321422 0.58783 3.88919
0.0420634 0.631262 3.84042
0.0590392 0.62895 3.83145
0.0851684 0.347111 3.8515
0.237401 0.34977 3.76419
0.022357 0.632261 3.87709
0.0790227 0.254304 3.86472
0.0151421 0.576634 3.93212
0.0522371 0.519242 3.9118
0.0363613 0.243888 3.88585
0.142397 0.300079 3.82641
0.107503 0.44696 3.86292
0.112799 0.272755 3.84419
0.1682 0.450777 3.85265
0.132655 0.419333 3.85743
0.194219 0.404467 3.83001
0.0457699 0.207092 3.88568
0.0692633 0.504047 3.89203
0.165591 0.273685 3.8051
0.129161 0.24476 3.82671
0.165668 0.333452 3.82204
0.262091 0.380205 3.74037
0.201231 0.324539 3.79782
0.279684 0.349397 3.68174
0.156721 0.384217 3.84435
0.0499886 0.543271 3.89342
0.0520353 0.465781 3.95342
0.0708707 0.459454 3.92311
0.0397523 0.484114 3.97286
0.0602209 0.647039 3.84915
0.100517 0.657506 3.85593
0.135852 0.659813 3.85622
0.16615 0.656126 3.8465
0.188611 0.646809 3.8307
0.208681 0.608173 3.7882
0.295434 0.527064 3.67052
0.188353 0.578011 3.80664
0.161255 0.572421 3.82272
0.126156 0.574221 3.83313
0.0933593 0.580552 3.83564
0.0693375 0.58835 3.8384
0.0526422 0.595758 3.83926
0.297563 0.51553 3.57444
0.0706337 0.452635 3.91004
0.0331351 0.5374 3.93364
0.0325749 0.464243 3.97441
0.0182358 0.450755 3.96417
0.0327098 0.459449 3.96169
0.0634062 0.444198 3.90145
0.0131872 0.448419 3.97137
0.00993052 0.440788 3.93996
0.0538801 0.614814 3.82662
0.0398377 0.60854 3.84278
0.0331659 0.604504 3.86313
0.171795 0.625385 3.81237
0.184322 0.629521 3.81222
