ply
format ascii 1.0
comment Created by Open3D
element vertex 468
property double x
property double y
property double z
end_header
-0.0142193 0.288633 4.15394
-0.018947 0.360757 4.2091
-0.018432 0.339323 4.14922
-0.0379568 0.426278 4.16698
-0.0183551 0.381326 4.21592
-0.0175625 0.40682 4.20292
-0.0181029 0.471878 4.12602
-0.189935 0.475701 4.0243
-0.0186914 0.511841 4.10312
-0.0186277 0.538556 4.10343
-0.0181071 0.654671 4.06262
-0.0135382 0.277854 4.15267
-0.0129784 0.269314 4.14561
-0.0126745 0.265731 4.13571
-0.0158965 0.179854 4.09176
-0.0157986 0.16819 4.09521
-0.0156302 0.154853 4.0972
-0.0170919 0.142927 4.08651
-0.0199855 0.131443 4.05935
-0.0186634 0.348944 4.19693
-0.0374855 0.351464 4.16447
-0.279738 0.558567 3.89205
-0.121551 0.454107 4.04875
-0.145166 0.452002 4.04787
-0.168092 0.454085 4.04215
-0.199166 0.466891 4.02201
-0.101898 0.461082 4.04771
-0.150499 0.510943 4.05765
-0.125475 0.509672 4.05696
-0.174783 0.508271 4.05106
-0.191389 0.501125 4.04088
-0.21928 0.452966 4.01184
-0.117789 0.124213 4.04773
-0.197985 0.48117 4.01616
-0.292159 0.465337 3.89779
-0.24583 0.467054 3.98464
-0.137699 0.369889 4.08719
-0.047813 0.291233 4.14927
-0.040549 0.268706 4.14074
-0.0795517 0.281423 4.13335
-0.0982458 0.268769 4.10841
-0.0626516 0.264644 4.12705
-0.0792549 0.259143 4.10486
-0.130003 0.21065 4.05545
-0.0375578 0.361001 4.20699
-0.0397184 0.379803 4.21286
-0.227079 0.516979 4.03002
-0.0899806 0.424192 4.08476
-0.0898213 0.365421 4.14475
-0.0916214 0.375145 4.13599
-0.21123 0.368325 4.05692
-0.0387561 0.404938 4.19425
-0.168244 0.535459 4.07348
-0.202717 0.530499 4.05439
-0.253727 0.595444 3.93728
-0.0658653 0.514708 4.09426
-0.104402 0.503807 4.04966
-0.143751 0.243637 4.05562
-0.268899 0.249923 3.85999
-0.0719451 0.355711 4.13566
-0.0521923 0.347571 4.14185
-0.120295 0.239311 4.0576
-0.105492 0.237961 4.06355
-0.216333 0.544768 4.03936
-0.0896081 0.355116 4.13204
-0.123052 0.530639 4.08715
-0.127404 0.547653 4.08993
-0.155114 0.642826 4.0308
-0.233679 0.570783 3.9948
-0.139401 0.599648 4.06171
-0.242258 0.526841 4.00542
-0.260632 0.542149 3.95077
-0.0448748 0.278078 4.14744
-0.0710481 0.27175 4.13114
-0.0891805 0.263718 4.10909
-0.0656583 0.351573 4.13225
-0.113045 0.238049 4.06114
-0.104974 0.215279 4.0679
-0.100646 0.238806 4.06398
-0.0605427 0.362735 4.16877
-0.0729713 0.259934 4.10222
-0.0568038 0.264516 4.11901
-0.0365284 0.265694 4.13117
-0.0592751 0.136293 4.06132
-0.0548874 0.148759 4.08646
-0.0512679 0.160528 4.09348
-0.0475611 0.174146 4.09088
-0.0437237 0.183978 4.08756
-0.0796621 0.204472 4.07115
-0.0853991 0.200865 4.07507
-0.0937672 0.195345 4.07802
-0.101796 0.190285 4.07357
-0.116792 0.290758 4.10005
-0.297551 0.369961 3.81112
-0.0195468 0.346079 4.16664
-0.0897554 0.216689 4.06328
-0.0975199 0.216275 4.06692
-0.046301 0.337766 4.14245
-0.0827647 0.343011 4.11504
-0.0488642 0.342362 4.14278
-0.115591 0.411458 4.07856
-0.155237 0.396228 4.07415
-0.0955868 0.365375 4.1225
-0.213944 0.623636 3.98757
-0.195192 0.591127 4.03135
-0.176971 0.55309 4.06518
-0.115271 0.183009 4.05924
-0.073489 0.541349 4.10106
-0.0826886 0.601358 4.07949
-0.0920839 0.651433 4.05672
-0.187995 0.458679 4.03195
-0.245457 0.437941 3.99963
-0.0896872 0.468881 4.04421
-0.218435 0.492788 4.01773
-0.0725593 0.437957 4.09275
-0.0758445 0.373507 4.16828
-0.271663 0.422207 3.97429
-0.228828 0.423317 4.02401
-0.197733 0.4158 4.04711
-0.151682 0.419189 4.05845
-0.11743 0.428204 4.06231
-0.0911927 0.438561 4.06843
-0.0411615 0.466324 4.11593
-0.26966 0.37582 3.98682
-0.237598 0.493881 4.00434
-0.029215 0.349536 4.19527
-0.0876115 0.405452 4.09895
-0.302882 0.469802 3.81428
-0.0730223 0.451461 4.07091
-0.099057 0.365249 4.09672
-0.207196 0.480012 4.01168
-0.076729 0.38539 4.15715
-0.289744 0.313267 3.83012
-0.0897157 0.477745 4.03549
-0.0579586 0.396526 4.17997
-0.214654 0.190794 3.9772
-0.216329 0.161338 3.94198
-0.297034 0.371923 3.89939
-0.242922 0.222994 3.95284
-0.27751 0.507935 3.91626
-0.123871 0.099162 4.03836
-0.0277076 0.347114 4.16519
-0.108619 0.388934 4.09178
-0.267335 0.463482 3.95919
-0.166471 0.467504 4.03883
-0.145709 0.464706 4.04435
-0.112342 0.214448 4.06555
-0.265214 0.329295 3.98486
-0.0804571 0.0567802 4.03313
-0.156084 0.103446 3.99233
-0.184649 0.128943 3.97015
-0.0182851 0.601443 4.08464
-0.0231507 0.0469684 4.0379
-0.125859 0.465975 4.04507
-0.107756 0.470524 4.04171
-0.0962224 0.474612 4.03627
-0.255466 0.498773 3.97776
-0.10792 0.489128 4.04336
-0.126588 0.492312 4.04823
-0.145854 0.4937 4.04742
-0.166359 0.491264 4.042
-0.180815 0.486935 4.0338
-0.295846 0.520317 3.84712
-0.180476 0.471598 4.03118
-0.0173082 0.322351 4.14321
-0.0955718 0.307283 4.11634
-0.0729367 0.359362 4.1444
-0.0507873 0.318686 4.13983
-0.018301 0.492559 4.10414
-0.186071 0.15787 3.99628
-0.156418 0.130183 4.01655
-0.07925 0.0745068 4.0569
-0.242476 0.197994 3.90175
-0.09525 0.48294 4.03841
-0.056305 0.434221 4.12762
-0.0224248 0.0641391 4.06006
-0.122727 0.0778462 4.01657
-0.289098 0.319029 3.90892
-0.0645366 0.192844 4.0798
-0.0703797 0.186105 4.08273
-0.0773236 0.176427 4.08431
-0.083662 0.166097 4.07898
-0.0933633 0.156334 4.06241
-0.0938484 0.250986 4.08359
-0.103303 0.25352 4.08333
-0.111353 0.256808 4.083
-0.133029 0.270463 4.07692
-0.228406 0.317174 4.03357
-0.0564515 0.453954 4.10273
-0.0702466 0.491479 4.05436
-0.0849665 0.490159 4.04342
-0.0869416 0.253805 4.08212
-0.230919 0.259279 3.99656
-0.0490191 0.489651 4.0867
-0.106103 0.144695 4.05294
-0.017651 0.429277 4.17559
-0.0395989 0.445457 4.14273
-0.018075 0.450622 4.14875
-0.0722026 0.402224 4.13179
-0.0220683 0.0891084 4.0672
-0.0210931 0.114482 4.06237
-0.0671314 0.121938 4.06054
-0.153408 0.204778 4.04235
-0.117416 0.344259 4.08902
-0.133561 0.172448 4.04704
-0.174205 0.340187 4.07757
-0.139218 0.317794 4.08321
-0.191782 0.301819 4.05635
-0.07502 0.0986206 4.0639
-0.0858874 0.390238 4.11576
-0.175867 0.18587 4.02213
-0.147921 0.155008 4.03277
-0.168087 0.239496 4.04455
-0.25707 0.288541 3.97806
-0.200073 0.232321 4.02272
-0.27218 0.268948 3.92265
-0.155823 0.285761 4.0689
-0.0716158 0.420189 4.11204
-0.0680713 0.36548 4.17335
-0.0823704 0.359263 4.14889
-0.0588858 0.378444 4.19201
-0.0870251 0.506907 4.05948
-0.124191 0.518196 4.06504
-0.157763 0.520834 4.06462
-0.186477 0.517377 4.05497
-0.20709 0.508335 4.03901
-0.223444 0.47312 4.00206
-0.297735 0.419728 3.89705
-0.206655 0.444157 4.02484
-0.181771 0.437833 4.04003
-0.149634 0.436926 4.05014
-0.118831 0.441987 4.05292
-0.0952865 0.450316 4.05484
-0.0795011 0.458846 4.05588
-0.300931 0.42099 3.80307
-0.0809157 0.353423 4.13663
-0.0562107 0.416363 4.15034
-0.0521492 0.364691 4.19418
-0.0385115 0.352881 4.18539
-0.0514015 0.361176 4.18188
-0.0746501 0.346643 4.12882
-0.0353586 0.350796 4.19238
-0.0336902 0.348283 4.16463
-0.081012 0.477413 4.04104
-0.0671736 0.471388 4.05751
-0.0591727 0.467497 4.07747
-0.190025 0.483656 4.02624
-0.204419 0.491926 4.02626
0.00221491 0.426012 4.16782
0.157543 0.476619 4.02442
0.000462108 0.351203 4.16402
0.253389 0.560778 3.89256
0.0893298 0.455321 4.05029
0.114112 0.453097 4.04907
0.137728 0.454939 4.04268
0.169133 0.467577 4.02198
0.0683134 0.462209 4.04846
0.119212 0.511827 4.05913
0.0926959 0.510787 4.05741
0.144038 0.508998 4.05164
0.16109 0.501745 4.04077
0.190161 0.45355 4.01024
0.0782819 0.120725 4.0439
0.165495 0.482035 4.01604
0.26563 0.46554 3.89576
0.217774 0.467244 3.9825
0.107288 0.369802 4.08572
0.0207958 0.29119 4.14919
0.0171636 0.268219 4.14137
0.055857 0.281072 4.13288
0.0765604 0.267911 4.10912
0.0412591 0.263566 4.12881
0.0588335 0.257908 4.10722
0.105186 0.208896 4.05488
0.000437398 0.361001 4.20614
0.00401849 0.37989 4.21201
0.200009 0.517237 4.02902
0.0564125 0.424259 4.08523
0.0568951 0.36521 4.14398
0.0591095 0.37509 4.13525
0.184635 0.36814 4.05537
0.00359357 0.404751 4.19479
0.136574 0.537036 4.07173
0.173511 0.531298 4.0531
0.226299 0.598858 3.93739
0.0297885 0.515454 4.09422
0.0696302 0.504746 4.05023
0.120885 0.241996 4.05688
0.238997 0.244534 3.85812
0.0369861 0.355576 4.1351
0.0170736 0.347702 4.13988
0.0986618 0.237792 4.06018
0.0860396 0.236554 4.06637
0.187795 0.54581 4.03755
0.0575978 0.355006 4.13089
0.0886179 0.532292 4.08571
0.0936296 0.54971 4.08795
0.123403 0.646034 4.03018
0.20666 0.573046 3.99375
0.105976 0.60203 4.06086
0.215309 0.527304 4.00422
0.233981 0.543448 3.94996
0.0199473 0.277821 4.14778
0.048291 0.270961 4.13216
0.0681761 0.262776 4.11057
0.0307422 0.351578 4.13058
0.0926361 0.236708 4.06335
0.0829517 0.214013 4.06828
0.0822606 0.23731 4.06723
0.0251421 0.362281 4.16984
0.0541434 0.258898 4.10498
0.0358471 0.263353 4.12136
0.0139541 0.265063 4.13263
0.021422 0.135499 4.05897
0.0228802 0.147962 4.08544
0.0211092 0.159603 4.0934
0.017523 0.173177 4.09138
0.0136615 0.182998 4.089
0.0547381 0.202976 4.0731
0.0607074 0.19956 4.07532
0.0696127 0.194208 4.07689
0.0763069 0.188984 4.07197
0.0912445 0.29019 4.09937
0.265436 0.367201 3.8096
0.0670425 0.214966 4.06616
0.0751406 0.214753 4.0682
0.0110234 0.337551 4.1418
0.0491074 0.343143 4.11272
0.0135688 0.342388 4.14148
0.0833327 0.411523 4.07892
0.125351 0.39646 4.07327
0.0632002 0.365338 4.12148
0.185171 0.627529 3.98696
0.165682 0.593764 4.02983
0.145426 0.554901 4.06369
0.086568 0.181078 4.05776
0.0379219 0.542754 4.10024
0.0477752 0.602979 4.07845
0.0584889 0.653473 4.05552
0.158117 0.45943 4.03196
0.217893 0.438514 3.99689
0.0542204 0.469814 4.04563
0.189294 0.492967 4.01708
0.0384344 0.43798 4.09386
0.0414462 0.373358 4.16758
0.245752 0.422177 3.97204
0.201071 0.423891 4.02211
0.168844 0.416472 4.04589
0.120443 0.419589 4.05835
0.0843598 0.428527 4.06312
0.0574193 0.438955 4.06904
0.00489393 0.466389 4.11638
0.243025 0.37501 3.98494
0.21056 0.494131 4.00342
-0.00734568 0.349315 4.1955
0.0538736 0.405284 4.09933
0.272404 0.469672 3.81423
0.037598 0.451871 4.07196
0.0651295 0.365254 4.09515
0.175812 0.480802 4.01153
0.0433633 0.385164 4.15664
0.258387 0.308975 3.82736
0.0536868 0.478468 4.03759
0.0239647 0.396311 4.18007
0.184079 0.185283 3.97337
0.185258 0.154566 3.9381
0.267286 0.369803 3.89608
0.214922 0.217845 3.94946
0.250286 0.508928 3.91528
0.0826847 0.094618 4.03433
-0.011329 0.347083 4.16508
0.0763397 0.388979 4.09107
0.240484 0.463398 3.95698
0.133972 0.468566 4.03924
0.113082 0.466147 4.04541
0.0899393 0.213144 4.06577
0.238753 0.327325 3.98211
0.0349716 0.053693 4.03109
0.115537 0.0973595 3.98866
0.148576 0.122258 3.96626
0.0928587 0.46759 4.04656
0.0736533 0.471945 4.0437
0.060554 0.475491 4.03843
0.229528 0.499012 3.97663
0.0744446 0.489428 4.04537
0.0950064 0.492673 4.04968
0.114432 0.49385 4.04913
0.13493 0.491564 4.04307
0.148989 0.487368 4.03448
0.267137 0.521477 3.8473
0.147938 0.472655 4.03152
0.0668792 0.307073 4.11542
0.0377428 0.359492 4.143
0.0185113 0.318459 4.1392
0.151845 0.152701 3.99134
0.118941 0.124798 4.01158
0.0355803 0.0717805 4.05479
0.212827 0.191457 3.89965
0.0600734 0.483184 4.04114
0.0208956 0.434073 4.12776
0.0790853 0.0728673 4.01362
0.260413 0.316028 3.90462
0.0365589 0.191284 4.08169
0.0424912 0.18472 4.08344
0.0491304 0.17512 4.08423
0.0539647 0.164949 4.07797
0.0602451 0.154327 4.06087
0.0751203 0.249581 4.08646
0.0835448 0.252234 4.08589
0.0911006 0.255574 4.08515
0.109601 0.269061 4.07823
0.203151 0.315576 4.03149
0.0209609 0.454011 4.10351
0.0329391 0.492338 4.05441
0.0485722 0.490828 4.0453
0.0695729 0.252432 4.08571
0.204216 0.255947 3.99382
0.0124551 0.490073 4.08673
0.0697833 0.142096 4.04973
0.00375328 0.445505 4.14264
0.0377241 0.402064 4.13118
0.0263384 0.120435 4.05782
0.125544 0.202224 4.04013
0.086076 0.344204 4.08747
0.101743 0.1698 4.04368
0.146622 0.339515 4.07517
0.111304 0.317015 4.08186
0.165699 0.300196 4.05452
0.0326682 0.0965704 4.06192
0.0526648 0.39022 4.11515
0.144726 0.182061 4.01834
0.112918 0.151063 4.02825
0.142449 0.237083 4.0448
0.230801 0.285585 3.97477
0.173259 0.229068 4.02024
0.244051 0.264828 3.91968
0.131338 0.284313 4.06899
0.0368253 0.420002 4.11253
0.0333977 0.365102 4.17332
0.0490106 0.359177 4.14722
0.0233681 0.378034 4.19176
0.0504644 0.50761 4.05987
0.0896562 0.519494 4.06453
0.125297 0.522156 4.06409
0.155772 0.518219 4.05453
0.177787 0.508766 4.03816
0.194074 0.473449 4.00076
0.269468 0.418694 3.8952
0.176886 0.444835 4.02363
0.151476 0.438504 4.03908
0.118405 0.437635 4.05017
0.0863201 0.442737 4.05359
0.0615826 0.451166 4.05514
0.0445234 0.459691 4.05652
0.269002 0.419318 3.80336
0.047764 0.353424 4.13507
0.0205554 0.41616 4.1507
0.0161274 0.364338 4.19362
0.00312713 0.352665 4.18473
0.0157666 0.360826 4.18156
0.0411204 0.346712 4.12684
-0.000453384 0.350748 4.19174
-0.00429222 0.348053 4.16409
0.0441522 0.478217 4.04231
0.0310895 0.472112 4.0581
0.0236034 0.467896 4.07761
0.157971 0.48429 4.02635
0.174252 0.492603 4.02548
