ply
format ascii 1.0
comment Created by Open3D
element vertex 468
property double x
property double y
property double z
end_header
0.013494 0.421011 3.84895
0.0186928 0.49581 3.89904
0.016756 0.46984 3.84845
0.0018056 0.575047 3.86282
0.0192392 0.520225 3.90277
0.0194266 0.552728 3.89071
0.0194994 0.631724 3.82707
-0.12681 0.637889 3.74948
0.0191839 0.704576 3.80185
0.0190549 0.738867 3.80172
0.0188595 0.834475 3.77846
0.0129986 0.410203 3.84721
0.012675 0.402015 3.84206
0.0127723 0.398693 3.83378
0.0137017 0.344603 3.82399
0.0133748 0.333593 3.82832
0.0129289 0.321738 3.8329
0.0128913 0.309696 3.82854
0.0134921 0.299932 3.80937
0.0181683 0.483902 3.89008
-0.00357666 0.48297 3.86133
-0.208616 0.719385 3.65017
-0.0634307 0.62048 3.77277
-0.0845606 0.618398 3.77123
-0.105897 0.618263 3.76553
-0.1349 0.631144 3.74654
-0.0466931 0.625196 3.76944
-0.100588 0.691159 3.76744
-0.0758436 0.68898 3.76817
-0.122123 0.684624 3.76156
-0.13564 0.672837 3.75563
-0.152043 0.613611 3.73874
-0.0609808 0.292871 3.77917
-0.136183 0.644159 3.74169
-0.218059 0.618978 3.64938
-0.176966 0.629355 3.71665
-0.0877959 0.521014 3.80005
-0.0171011 0.424595 3.84542
-0.0131864 0.402565 3.83826
-0.0470036 0.417827 3.83238
-0.0631914 0.409034 3.81445
-0.0343547 0.400886 3.82859
-0.0487705 0.396823 3.81212
-0.0876867 0.364945 3.7771
0.00111394 0.496524 3.89683
-0.00135779 0.520221 3.90011
-0.164365 0.695651 3.74751
-0.0435665 0.579517 3.79689
-0.04931 0.50404 3.84521
-0.050842 0.517442 3.8375
-0.147823 0.527084 3.77454
0.000236202 0.549842 3.88493
-0.121081 0.728084 3.77604
-0.146596 0.716234 3.76251
-0.188357 0.762554 3.68461
-0.0298076 0.71128 3.79568
-0.0543148 0.677572 3.76487
-0.101157 0.392197 3.77326
-0.187616 0.403342 3.60958
-0.0347502 0.489316 3.83953
-0.0188497 0.48096 3.84112
-0.0840357 0.385078 3.7775
-0.0721031 0.384712 3.78326
-0.158148 0.729616 3.75252
-0.0508448 0.494588 3.83476
-0.0842072 0.729638 3.78682
-0.0886599 0.74771 3.78969
-0.105507 0.82133 3.75441
-0.17395 0.745113 3.72313
-0.0949451 0.781826 3.77422
-0.177391 0.704375 3.7303
-0.193592 0.709514 3.69295
-0.0158496 0.411942 3.84417
-0.0403864 0.407335 3.83126
-0.0563667 0.402703 3.81473
-0.0304436 0.484497 3.8354
-0.0782552 0.384425 3.78082
-0.0700431 0.367431 3.79108
-0.0683121 0.385908 3.78343
-0.0225303 0.496747 3.86775
-0.0436973 0.398331 3.80875
-0.0292602 0.399736 3.82116
-0.0101921 0.399673 3.83037
-0.0189125 0.30295 3.80745
-0.0200002 0.313885 3.82588
-0.0183029 0.325524 3.82862
-0.0149988 0.337362 3.82415
-0.0117741 0.346809 3.8206
-0.0473419 0.361202 3.80193
-0.0523145 0.358012 3.80413
-0.0594385 0.352928 3.80605
-0.0650329 0.347437 3.8028
-0.0765107 0.433176 3.80735
-0.213033 0.514151 3.5753
0.0177026 0.476002 3.86337
-0.0565266 0.369442 3.79138
-0.0634881 0.368502 3.79213
-0.0121301 0.47051 3.84215
-0.0458816 0.478927 3.82111
-0.0154479 0.475611 3.84239
-0.0646395 0.567371 3.79128
-0.0991063 0.55281 3.78727
-0.0545981 0.507212 3.82698
-0.156954 0.79797 3.72084
-0.143793 0.770505 3.74927
-0.129549 0.744976 3.77229
-0.0710504 0.341932 3.78819
-0.0369593 0.742464 3.79947
-0.0421444 0.782637 3.7892
-0.0489728 0.832155 3.77387
-0.124112 0.622328 3.75586
-0.176033 0.596489 3.72955
-0.0362622 0.630169 3.76626
-0.154309 0.660923 3.74133
-0.0289123 0.593708 3.80253
-0.0360353 0.51211 3.86497
-0.199112 0.579888 3.70845
-0.160901 0.582059 3.74895
-0.133687 0.575079 3.76853
-0.0929459 0.578415 3.77626
-0.0635476 0.587493 3.77944
-0.0431908 0.597675 3.78348
-0.000144208 0.625113 3.82045
-0.19575 0.533168 3.71788
-0.172225 0.665456 3.73143
0.00695664 0.484637 3.88859
-0.0431608 0.555077 3.80869
-0.223245 0.61699 3.58512
-0.0275998 0.608723 3.78602
-0.0569144 0.50506 3.80711
-0.143087 0.644296 3.73753
-0.0369766 0.528843 3.85517
-0.205548 0.460307 3.58713
-0.0375045 0.637713 3.76104
-0.0187652 0.542168 3.87372
-0.142303 0.350674 3.71096
-0.140714 0.324351 3.67998
-0.216503 0.520763 3.64669
-0.167575 0.381746 3.68884
-0.207131 0.666806 3.66571
-0.0642984 0.272002 3.76872
0.00891808 0.476727 3.86171
-0.0622387 0.539166 3.80273
-0.196204 0.62369 3.69763
-0.103113 0.630447 3.76272
-0.0839976 0.629475 3.76777
-0.0763587 0.366497 3.78797
-0.19077 0.486488 3.71332
-0.0287162 0.238337 3.7672
-0.0872483 0.272917 3.72852
-0.111688 0.294694 3.7074
0.0188621 0.782353 3.79375
0.0147556 0.233327 3.77293
-0.0664969 0.631445 3.76821
-0.0503131 0.634872 3.76526
-0.0409093 0.636129 3.76124
-0.188373 0.668824 3.71104
-0.0571154 0.657481 3.76503
-0.0767662 0.665906 3.76613
-0.0962012 0.666668 3.76512
-0.114798 0.661659 3.76079
-0.125819 0.654235 3.75581
-0.220409 0.672465 3.61286
-0.116634 0.633507 3.75572
0.0158556 0.453971 3.8437
-0.0587237 0.446092 3.82106
-0.0345341 0.49285 3.84752
-0.0164789 0.451872 3.84059
0.0194485 0.667921 3.80773
-0.11612 0.320039 3.72665
-0.0911109 0.296449 3.74545
-0.0293037 0.253382 3.78848
-0.164543 0.357553 3.64504
-0.0439505 0.644852 3.76315
-0.0147912 0.585675 3.83171
0.0142143 0.248243 3.79309
-0.0611184 0.253018 3.75164
-0.208479 0.47061 3.65239
-0.0318505 0.352769 3.81231
-0.0366854 0.346373 3.81498
-0.0422418 0.337393 3.81792
-0.0460843 0.327249 3.81556
-0.0497506 0.319454 3.80019
-0.0623556 0.392405 3.7965
-0.069921 0.394967 3.79541
-0.0765879 0.399781 3.79507
-0.0914808 0.415103 3.79074
-0.162309 0.476395 3.75399
-0.0141801 0.610141 3.81007
-0.0242158 0.6583 3.77164
-0.0355698 0.654956 3.76486
-0.0563457 0.395062 3.79431
-0.161438 0.417237 3.72442
-0.00780228 0.662828 3.79581
-0.0548458 0.310108 3.78793
0.0194768 0.579139 3.8688
0.00028216 0.598592 3.84416
0.0194762 0.603694 3.8479
-0.0303203 0.549146 3.83567
0.0141483 0.268273 3.80149
0.0139235 0.287273 3.80293
-0.0214495 0.290838 3.79832
-0.100828 0.36123 3.76465
-0.0744878 0.487361 3.80205
-0.0811238 0.333828 3.77465
-0.119162 0.493816 3.79251
-0.0922094 0.464248 3.7971
-0.134116 0.457331 3.7761
-0.0263954 0.27261 3.79638
-0.0435447 0.536679 3.82195
-0.113565 0.345152 3.74745
-0.0881771 0.318206 3.75937
-0.115461 0.392977 3.76433
-0.182774 0.446206 3.70718
-0.137944 0.390638 3.74759
-0.192788 0.423793 3.66223
-0.107017 0.436446 3.78543
-0.0286257 0.570265 3.81912
-0.0292129 0.501153 3.87119
-0.0430442 0.495783 3.84863
-0.0198197 0.516502 3.88301
-0.0426713 0.685438 3.77337
-0.0784983 0.701977 3.7735
-0.108657 0.703565 3.77102
-0.131961 0.696075 3.76347
-0.146681 0.682056 3.75383
-0.156835 0.636727 3.73024
-0.219674 0.570117 3.64735
-0.13972 0.604982 3.75016
-0.117895 0.598771 3.76271
-0.0891743 0.599837 3.77031
-0.0629288 0.605621 3.77395
-0.0438503 0.612268 3.77341
-0.0308091 0.618692 3.77437
-0.217937 0.565558 3.57398
-0.0430583 0.489962 3.83913
-0.0148704 0.563924 3.85019
-0.0143155 0.499368 3.88696
-0.0041539 0.488272 3.87948
-0.0145383 0.495535 3.87771
-0.0387911 0.482597 3.83266
3.83319e-05 0.486118 3.88521
0.00146352 0.478787 3.86167
-0.0302304 0.636728 3.76378
-0.0205977 0.631564 3.77595
-0.0153985 0.62769 3.78913
-0.131901 0.648715 3.74994
-0.143277 0.660215 3.74658
0.0369228 0.575632 3.86288
0.165125 0.644517 3.7493
0.0392044 0.483431 3.86206
0.240723 0.726273 3.65107
0.101143 0.623594 3.77261
0.1219 0.622113 3.77117
0.142951 0.622661 3.76572
0.171965 0.638012 3.74652
0.0849839 0.62752 3.76897
0.13764 0.698537 3.76692
0.112674 0.694647 3.76796
0.159985 0.69336 3.7609
0.173788 0.681797 3.75543
0.187574 0.619669 3.73883
0.0908008 0.296039 3.77938
0.174348 0.652334 3.74154
0.248585 0.627112 3.65074
0.211293 0.637327 3.71688
0.120802 0.523112 3.80092
0.043969 0.425116 3.84612
0.0383981 0.402914 3.83907
0.0726923 0.418547 3.83406
0.0876237 0.409611 3.81616
0.0588255 0.401337 3.82971
0.0727732 0.397101 3.8134
0.113146 0.366485 3.77819
0.0361059 0.496999 3.89728
0.0393317 0.520818 3.90041
0.2019 0.707706 3.74657
0.0795258 0.581081 3.79757
0.0843554 0.505618 3.84698
0.08569 0.519245 3.83925
0.179148 0.530732 3.77436
0.0384809 0.550401 3.88521
0.159438 0.738923 3.77425
0.184941 0.728215 3.76068
0.222884 0.769259 3.68545
0.0680221 0.714858 3.79432
0.0918504 0.681212 3.76484
0.12699 0.393387 3.77375
0.21661 0.411814 3.61032
0.0696516 0.490534 3.84153
0.0535136 0.481543 3.84245
0.107806 0.385458 3.77822
0.0963726 0.384847 3.78415
0.196319 0.742426 3.75095
0.0853117 0.495848 3.83671
0.122247 0.737739 3.78589
0.126439 0.756285 3.78887
0.141733 0.825456 3.7549
0.209933 0.754685 3.72316
0.132014 0.787836 3.77448
0.213933 0.716384 3.72991
0.227519 0.718882 3.69361
0.0416392 0.412371 3.84503
0.0653514 0.407855 3.83281
0.0805514 0.403078 3.81612
0.0651884 0.485389 3.83694
0.102099 0.38473 3.7816
0.0941945 0.368668 3.79257
0.0932923 0.38616 3.78386
0.058423 0.497678 3.86855
0.0679222 0.398489 3.8099
0.0539477 0.400005 3.82218
0.0354605 0.39992 3.83085
0.0465427 0.304101 3.80786
0.0458706 0.31497 3.82669
0.0441324 0.32648 3.82954
0.0416975 0.338262 3.82496
0.039071 0.347337 3.82122
0.0728515 0.362215 3.80315
0.0774874 0.359346 3.80551
0.0840002 0.354701 3.80756
0.0895206 0.349338 3.80401
0.105358 0.434623 3.80916
0.242023 0.522234 3.57662
0.0816973 0.369995 3.79231
0.0880957 0.369346 3.7932
0.0461012 0.470771 3.84296
0.0797705 0.479753 3.82299
0.0497439 0.475846 3.84348
0.0995877 0.569136 3.79153
0.132514 0.555163 3.78742
0.0891094 0.508815 3.82877
0.19263 0.803968 3.72158
0.18127 0.779335 3.7493
0.167864 0.756274 3.77093
0.0974168 0.344095 3.78885
0.0748261 0.747009 3.7985
0.0791577 0.785419 3.78951
0.0854706 0.834201 3.77424
0.161281 0.627993 3.75644
0.209577 0.602515 3.73019
0.075305 0.632206 3.76595
0.191412 0.670458 3.74084
0.0658612 0.595095 3.80288
0.0720365 0.513547 3.86616
0.231079 0.586651 3.70906
0.194496 0.586829 3.74982
0.167361 0.578516 3.76887
0.127571 0.580871 3.77618
0.0994453 0.589533 3.7794
0.0797907 0.599318 3.78393
0.0388147 0.625904 3.82043
0.226656 0.539353 3.71852
0.207708 0.675243 3.73159
0.0291429 0.484836 3.8888
0.0785761 0.556562 3.80969
0.252256 0.624079 3.58582
0.0650564 0.609996 3.78606
0.0911195 0.506495 3.80871
0.180794 0.652616 3.73722
0.0729309 0.530356 3.85658
0.234582 0.468936 3.58826
0.0768224 0.640301 3.76068
0.0561797 0.543271 3.87428
0.172068 0.356974 3.7112
0.170913 0.331809 3.68054
0.24646 0.529215 3.64824
0.196835 0.388983 3.68929
0.238981 0.674989 3.66685
0.094362 0.275843 3.76892
0.026742 0.476897 3.86197
0.0965476 0.540903 3.80383
0.228868 0.631818 3.69845
0.141759 0.635246 3.76251
0.122678 0.633423 3.76733
0.100394 0.367697 3.7893
0.220861 0.492991 3.71422
0.0589833 0.240414 3.76745
0.118451 0.278282 3.72903
0.142536 0.301114 3.70776
0.104911 0.634689 3.76777
0.0890922 0.637523 3.76456
0.0800106 0.638662 3.76085
0.222434 0.6787 3.7115
0.0952771 0.661486 3.76485
0.114188 0.671436 3.76607
0.133814 0.673729 3.76475
0.152865 0.669808 3.76044
0.164075 0.662655 3.7555
0.251072 0.679139 3.6138
0.155257 0.639174 3.75582
0.0896152 0.447177 3.82275
0.0698397 0.494101 3.84899
0.0478993 0.45248 3.84139
0.146635 0.325634 3.72722
0.121203 0.301545 3.74607
0.059201 0.25539 3.78845
0.193921 0.365555 3.64582
0.0827 0.647769 3.76259
0.0524138 0.586638 3.83218
0.0917777 0.256997 3.75213
0.237852 0.479163 3.65396
0.058257 0.353792 3.81353
0.0626503 0.347586 3.81633
0.0676121 0.339133 3.81949
0.071357 0.329245 3.81664
0.0765943 0.32163 3.80081
0.0860081 0.392611 3.79787
0.0934975 0.395315 3.79696
0.0999231 0.399847 3.79651
0.118231 0.416182 3.79175
0.191859 0.481205 3.75438
0.0520921 0.611231 3.81028
0.0628531 0.660527 3.7721
0.0741885 0.65752 3.76445
0.080414 0.395149 3.79522
0.190698 0.422959 3.72496
0.0463425 0.664337 3.79584
0.0832365 0.312628 3.78815
0.0383457 0.599216 3.84425
0.0666371 0.550526 3.83671
0.0502067 0.292307 3.79857
0.128843 0.363911 3.76492
0.107367 0.488806 3.80365
0.109218 0.336733 3.77521
0.149873 0.496846 3.79306
0.12317 0.466238 3.79851
0.163304 0.460827 3.77633
0.0559091 0.274323 3.79649
0.0785568 0.538088 3.82355
0.143095 0.349335 3.74762
0.117546 0.322129 3.75966
0.143326 0.395659 3.76482
0.212244 0.452804 3.70824
0.166518 0.395215 3.748
0.222025 0.431948 3.6635
0.13558 0.438345 3.78648
0.0652387 0.571575 3.81986
0.0650357 0.50242 3.87229
0.0780815 0.497167 3.85025
0.0570726 0.517693 3.88413
0.0808677 0.689359 3.77379
0.115812 0.7088 3.77297
0.146119 0.711916 3.76953
0.169967 0.705716 3.76255
0.184713 0.692349 3.75311
0.193123 0.644889 3.73009
0.24997 0.578081 3.64824
0.175642 0.610208 3.75048
0.153318 0.602753 3.76292
0.125102 0.602861 3.77014
0.0996853 0.608118 3.77393
0.0814547 0.61416 3.77346
0.0688867 0.620226 3.77435
0.246845 0.57306 3.57488
0.0777489 0.491171 3.84083
0.0527234 0.565037 3.85071
0.0510097 0.500095 3.88776
0.0399328 0.488827 3.88021
0.0507888 0.496419 3.87837
0.0730426 0.483407 3.83425
0.0358741 0.486404 3.88574
0.0340509 0.47913 3.86222
0.0692118 0.638891 3.76365
0.0590149 0.633067 3.77576
0.0533866 0.628889 3.78898
0.170146 0.657019 3.74956
0.181208 0.66941 3.74621
