ply
format ascii 1.0
comment Created by Open3D
element vertex 468
property double x
property double y
property double z
end_header
0.102405 0.351673 3.86776
0.099914 0.431842 3.92623
0.101902 0.408969 3.86282
0.0765439 0.515164 3.89006
0.0987642 0.457208 3.93488
0.0966975 0.490212 3.9226
0.103407 0.574134 3.85099
-0.0915372 0.584501 3.74039
0.107254 0.624538 3.83211
0.109392 0.655693 3.83579
0.118234 0.785171 3.80232
0.102806 0.339161 3.86429
0.102819 0.328991 3.85473
0.102156 0.32484 3.84241
0.102824 0.320529 3.8412
0.10269 0.310029 3.8459
0.100741 0.295612 3.85036
0.0993494 0.280396 3.84624
0.0978093 0.253517 3.8192
0.0979788 0.417955 3.91121
0.0755373 0.419911 3.87534
-0.196728 0.688871 3.60219
-0.0173939 0.559963 3.76962
-0.0454316 0.557082 3.76651
-0.0721643 0.558252 3.75779
-0.107635 0.574254 3.73477
0.00804897 0.568028 3.76787
-0.0511675 0.622685 3.78207
-0.0195678 0.621692 3.77974
-0.0791053 0.62044 3.77238
-0.097866 0.613689 3.75852
-0.129606 0.556426 3.71755
-0.0121631 0.196711 3.77861
-0.100735 0.591809 3.73215
-0.209111 0.574329 3.59536
-0.158804 0.574276 3.68853
-0.0359549 0.451162 3.79178
0.0695377 0.353695 3.86299
0.074142 0.326832 3.8503
0.0340475 0.340261 3.84553
0.0123436 0.325785 3.82654
0.0470035 0.321654 3.8391
0.0291561 0.316069 3.82171
-0.0239778 0.281675 3.78259
0.0770286 0.431535 3.92075
0.0724664 0.455696 3.9283
-0.141231 0.633886 3.74558
0.0179364 0.518179 3.80022
0.0113352 0.437369 3.85077
0.00888196 0.451129 3.84253
-0.123691 0.450863 3.75367
0.07282 0.487186 3.91457
-0.0658542 0.657375 3.79631
-0.108987 0.650354 3.77368
-0.16321 0.731834 3.65703
0.0548208 0.631638 3.82358
0.00777943 0.615705 3.77342
-0.0433616 0.303942 3.77771
-0.202205 0.319412 3.52819
0.0352635 0.424918 3.8424
0.0592747 0.417585 3.84585
-0.00795629 0.305459 3.78865
0.00090936 0.307959 3.7933
-0.123107 0.668505 3.7577
0.0103148 0.425833 3.83503
-0.0107074 0.651804 3.81346
-0.0151715 0.672192 3.81708
-0.042261 0.780555 3.76488
-0.143022 0.700328 3.71378
-0.0244304 0.73011 3.79378
-0.156807 0.646452 3.72042
-0.175701 0.666379 3.66329
0.0711557 0.337722 3.8598
0.042101 0.328614 3.84489
0.0214923 0.320207 3.8265
0.0433974 0.420607 3.83687
-0.0021584 0.306459 3.79092
0.00650081 0.304936 3.80581
0.00114078 0.309229 3.79328
0.045653 0.431369 3.88229
0.0311371 0.31733 3.81688
0.0512164 0.320974 3.82948
0.0754401 0.323301 3.83992
0.0624003 0.251231 3.81403
0.0662139 0.279578 3.8427
0.0692943 0.295732 3.84768
0.0735588 0.310312 3.84345
0.0756716 0.318905 3.83893
0.0300286 0.313845 3.81548
0.0257673 0.310134 3.81904
0.0191213 0.302268 3.82133
0.0137016 0.292833 3.81707
-0.0129095 0.354046 3.8123
-0.214702 0.460737 3.49055
0.102551 0.415256 3.88061
0.0157846 0.310987 3.80422
0.0121295 0.309263 3.80657
0.0673095 0.406097 3.85203
0.025118 0.412133 3.81607
0.0636166 0.411474 3.84903
-0.0117928 0.502129 3.79029
-0.0552607 0.48365 3.7798
0.00554419 0.440042 3.82695
-0.114116 0.763101 3.71388
-0.0935353 0.723254 3.75603
-0.0737284 0.678388 3.78967
-0.00346233 0.268106 3.79612
0.0475848 0.663337 3.8322
0.0416568 0.728543 3.81398
0.0330095 0.786776 3.79197
-0.0952628 0.563673 3.74493
-0.159252 0.537346 3.69938
0.0244272 0.576109 3.76756
-0.12998 0.604613 3.73193
0.0376472 0.535057 3.81249
0.0283836 0.446856 3.87835
-0.192856 0.518913 3.66991
-0.141683 0.517439 3.72635
-0.104524 0.507326 3.75265
-0.0504962 0.51255 3.77011
-0.0117966 0.524651 3.77784
0.0174636 0.537552 3.78605
0.077875 0.568215 3.84108
-0.192486 0.461197 3.67835
-0.153646 0.60646 3.71611
0.0838625 0.418219 3.90959
0.0201524 0.492746 3.81172
-0.214127 0.582244 3.50817
0.0412214 0.552458 3.79229
0.00807236 0.440575 3.8004
-0.113365 0.59084 3.72612
0.0260045 0.463574 3.86694
-0.213687 0.392406 3.50092
0.0247244 0.585763 3.7617
0.048216 0.477613 3.8961
-0.140035 0.249475 3.66841
-0.144372 0.21787 3.62128
-0.214966 0.460003 3.58309
-0.176401 0.287334 3.63307
-0.192213 0.625595 3.62262
-0.0222236 0.165992 3.76343
0.0922673 0.416104 3.87808
-0.00448328 0.472449 3.79864
-0.183076 0.570176 3.66049
-0.065521 0.575022 3.75715
-0.0424955 0.57249 3.76537
-0.000140554 0.299069 3.80106
-0.189897 0.406826 3.66918
0.0297161 0.131655 3.76271
-0.0599715 0.159761 3.70007
-0.0994004 0.182488 3.66551
0.114908 0.724546 3.82129
0.0909697 0.133098 3.77543
-0.0195441 0.574517 3.76694
0.00222006 0.579379 3.76563
0.0173116 0.583106 3.76209
-0.17308 0.612998 3.68697
0.000704162 0.59711 3.76913
-0.0235457 0.600968 3.77098
-0.0463154 0.602096 3.76969
-0.0698099 0.600125 3.76213
-0.0844161 0.596679 3.752
-0.209135 0.643505 3.54871
-0.0807496 0.579376 3.74873
0.103129 0.391361 3.85852
0.0104966 0.372076 3.8246
0.0353351 0.429234 3.85026
0.0649142 0.385548 3.85356
0.105109 0.600678 3.83015
-0.100765 0.214675 3.69808
-0.0634586 0.18879 3.72828
0.0282782 0.152189 3.79435
-0.177245 0.260543 3.57206
0.0170495 0.590461 3.76594
0.0576434 0.527779 3.84842
0.0906526 0.153795 3.80747
-0.0184181 0.141948 3.73766
-0.21289 0.39855 3.58511
0.0514394 0.317254 3.82891
0.0467026 0.310296 3.8331
0.041029 0.299012 3.83635
0.0370868 0.284427 3.83212
0.024341 0.256973 3.8089
0.011836 0.310531 3.80617
0.00520208 0.311645 3.80737
-0.00302088 0.314556 3.80656
-0.032147 0.330264 3.79595
-0.14983 0.392277 3.72269
0.0591469 0.553919 3.82537
0.0519018 0.602331 3.77849
0.0313082 0.599667 3.77019
0.0147419 0.313988 3.8038
-0.156483 0.326882 3.68427
0.0723181 0.598939 3.81204
0.00520018 0.226904 3.79048
0.0987805 0.519354 3.89718
0.0772377 0.540969 3.8656
0.101818 0.546636 3.87275
0.0368818 0.487348 3.84467
0.0915736 0.184154 3.8225
0.094444 0.221349 3.82173
0.0490138 0.218503 3.81088
-0.0568521 0.268473 3.7598
-0.0148349 0.417464 3.79337
-0.0294393 0.243061 3.77281
-0.0805075 0.418385 3.77714
-0.0409934 0.388523 3.79003
-0.107658 0.372797 3.75423
0.0352032 0.182122 3.80933
0.0191465 0.472662 3.82453
-0.0865158 0.246713 3.73065
-0.0488764 0.219245 3.75121
-0.077946 0.29975 3.7577
-0.184836 0.360249 3.65847
-0.119382 0.295654 3.7214
-0.20384 0.340415 3.59811
-0.0637667 0.349829 3.77758
0.0390101 0.510745 3.82948
0.0365148 0.435094 3.88454
0.0210135 0.429399 3.85312
0.0488628 0.452146 3.90645
0.0310176 0.620352 3.78716
-0.0134554 0.633098 3.79021
-0.0545765 0.636689 3.78826
-0.0901343 0.633305 3.77654
-0.116351 0.623226 3.75684
-0.133849 0.582013 3.71108
-0.216245 0.517963 3.58901
-0.114466 0.544903 3.73226
-0.0857829 0.536693 3.74977
-0.04909 0.537026 3.76409
-0.0136568 0.543843 3.77057
0.0150547 0.553969 3.77262
0.0349268 0.56318 3.77655
-0.213291 0.522591 3.49145
0.0225991 0.42283 3.83967
0.0562488 0.503895 3.87011
0.0569517 0.434244 3.90657
0.0706328 0.421604 3.89574
0.0569002 0.430053 3.8935
0.031773 0.415749 3.83054
0.0756513 0.419716 3.90377
0.0828155 0.416723 3.87572
0.0372607 0.585395 3.76504
0.0516508 0.577752 3.77968
0.0590206 0.5721 3.79912
-0.0932424 0.593965 3.74316
-0.112305 0.60453 3.74061
0.123297 0.517199 3.88661
0.289401 0.588647 3.73616
0.123805 0.421662 3.87862
0.396827 0.687696 3.6015
0.213043 0.564244 3.75958
0.237624 0.562571 3.75766
0.26232 0.564856 3.75132
0.295112 0.579632 3.73064
0.193375 0.570743 3.76182
0.246535 0.619244 3.77323
0.220115 0.618093 3.77516
0.27177 0.617008 3.7651
0.288369 0.610787 3.75392
0.314707 0.563944 3.71925
0.18793 0.214172 3.79223
0.298719 0.594348 3.72773
0.398175 0.585969 3.59634
0.34392 0.581693 3.69147
0.226711 0.459742 3.79909
0.133944 0.35688 3.86363
0.128391 0.33011 3.84916
0.166736 0.34848 3.84689
0.188738 0.336654 3.82544
0.151758 0.328936 3.83601
0.171785 0.325996 3.81873
0.215267 0.297298 3.78952
0.119835 0.43222 3.92469
0.121919 0.456741 3.93227
0.325892 0.630507 3.74436
0.179382 0.522338 3.79921
0.18134 0.443792 3.85799
0.182219 0.45806 3.84904
0.300285 0.465056 3.76106
0.122152 0.48911 3.91287
0.263747 0.647832 3.79856
0.300262 0.642826 3.77498
0.369612 0.725499 3.65547
0.157585 0.628415 3.82172
0.199943 0.613652 3.76809
0.239093 0.321581 3.78096
0.371557 0.351915 3.5437
0.164605 0.42979 3.84928
0.140031 0.420124 3.85783
0.215218 0.320822 3.78175
0.198652 0.32212 3.7886
0.316328 0.659817 3.76031
0.181386 0.433372 3.84469
0.216803 0.643902 3.81481
0.22242 0.663469 3.81953
0.26182 0.772574 3.76238
0.3403 0.693542 3.71519
0.241879 0.722202 3.79243
0.344494 0.643087 3.71955
0.370371 0.663925 3.66395
0.131625 0.34125 3.85912
0.159405 0.336464 3.84271
0.180032 0.330271 3.82504
0.157234 0.425103 3.84683
0.206724 0.320871 3.78634
0.190781 0.316947 3.8061
0.193767 0.323544 3.78924
0.149847 0.435721 3.88094
0.16445 0.327116 3.81343
0.146242 0.32786 3.82545
0.125084 0.326624 3.8365
0.128057 0.255556 3.82012
0.128399 0.283435 3.84454
0.128527 0.299603 3.84716
0.129405 0.313869 3.84094
0.127823 0.322367 3.8357
0.167529 0.323135 3.81432
0.168861 0.319093 3.82082
0.17238 0.311337 3.826
0.178797 0.302953 3.82128
0.208588 0.365901 3.81894
0.409199 0.483812 3.49703
0.181238 0.323127 3.79912
0.185041 0.321164 3.80455
0.133106 0.409592 3.85711
0.174028 0.419082 3.83066
0.136209 0.414372 3.85794
0.204676 0.508354 3.78987
0.243997 0.492082 3.78319
0.186934 0.447762 3.8353
0.32357 0.753615 3.7133
0.298473 0.713762 3.7575
0.275716 0.668327 3.79167
0.190748 0.281877 3.80135
0.165935 0.657949 3.83268
0.182233 0.724298 3.81382
0.194118 0.780847 3.79455
0.28289 0.570394 3.74047
0.340522 0.54818 3.70441
0.183967 0.578833 3.75918
0.316816 0.605811 3.72924
0.162245 0.538241 3.80897
0.164305 0.451035 3.88293
0.368894 0.533121 3.67393
0.322514 0.529161 3.72903
0.288889 0.517543 3.75528
0.242427 0.520082 3.76852
0.207829 0.530118 3.7748
0.181499 0.54145 3.78305
0.12967 0.568948 3.83909
0.365961 0.480318 3.68356
0.336956 0.609296 3.714
0.110872 0.419243 3.90901
0.178151 0.498069 3.81152
0.417946 0.59496 3.50784
0.164805 0.555281 3.78745
0.192337 0.448322 3.81102
0.306664 0.593315 3.72179
0.164273 0.468033 3.87183
0.396072 0.420146 3.51374
0.186982 0.589009 3.75024
0.142696 0.48075 3.89658
0.305535 0.280257 3.69086
0.305474 0.252619 3.64269
0.400229 0.48115 3.5909
0.339862 0.318102 3.65399
0.387226 0.630142 3.62213
0.195054 0.186818 3.77795
0.112768 0.416419 3.87964
0.197726 0.479543 3.80291
0.366993 0.579899 3.66199
0.263324 0.579833 3.75056
0.240274 0.576685 3.75557
0.198069 0.311624 3.80116
0.359483 0.428736 3.68111
0.148602 0.144373 3.77072
0.231685 0.188876 3.71547
0.266675 0.215639 3.68376
0.219234 0.577748 3.75735
0.20207 0.582567 3.755
0.192894 0.58656 3.75056
0.35683 0.615955 3.68588
0.203231 0.599122 3.75695
0.220718 0.601382 3.76162
0.241827 0.602905 3.76054
0.264351 0.601319 3.75494
0.279435 0.597902 3.74681
0.413407 0.648431 3.54908
0.278862 0.584519 3.74303
0.185549 0.381673 3.83282
0.16398 0.432871 3.85955
0.137052 0.389362 3.85703
0.268725 0.243905 3.7218
0.232522 0.215153 3.74983
0.147191 0.163934 3.80326
0.340412 0.295497 3.58967
0.192427 0.593965 3.75252
0.14446 0.529898 3.84699
0.193868 0.164564 3.74754
0.388162 0.423426 3.59951
0.149988 0.323706 3.82604
0.151981 0.317006 3.83188
0.153578 0.305996 3.83674
0.157241 0.292472 3.83321
0.161986 0.267178 3.8127
0.187926 0.323066 3.80187
0.197777 0.324607 3.80233
0.205883 0.328007 3.80224
0.230065 0.345684 3.79853
0.318881 0.410912 3.73748
0.145977 0.555476 3.82266
0.164281 0.602397 3.77525
0.181497 0.60099 3.76003
0.180855 0.326453 3.79885
0.325845 0.351545 3.70278
0.139215 0.598867 3.81051
0.174014 0.240911 3.80108
0.125728 0.541768 3.8658
0.160105 0.490875 3.84755
0.134529 0.225579 3.81792
0.237627 0.287816 3.77607
0.21105 0.427175 3.80504
0.206881 0.260542 3.78821
0.262818 0.430168 3.79133
0.233099 0.4006 3.80139
0.284436 0.389449 3.77109
0.143404 0.192108 3.81617
0.175247 0.478058 3.82915
0.259559 0.271334 3.75188
0.223397 0.241147 3.77097
0.262263 0.320085 3.76889
0.351923 0.384462 3.67656
0.290795 0.31941 3.74144
0.371151 0.369283 3.61511
0.252979 0.365727 3.78885
0.161107 0.514572 3.82738
0.156164 0.43923 3.88668
0.172883 0.434439 3.86302
0.145286 0.455348 3.90842
0.182748 0.61922 3.78083
0.219446 0.628984 3.78721
0.253413 0.630561 3.7857
0.283785 0.627483 3.77312
0.304912 0.619731 3.75396
0.321791 0.587104 3.71101
0.403428 0.534733 3.5909
0.300925 0.552791 3.73313
0.274427 0.544493 3.75022
0.240802 0.543044 3.761
0.209865 0.548516 3.76498
0.186284 0.556752 3.76931
0.171352 0.565528 3.77199
0.414913 0.541054 3.49145
0.172467 0.428773 3.85032
0.143623 0.506853 3.86772
0.138171 0.436864 3.91021
0.121197 0.423438 3.89984
0.137632 0.43298 3.89649
0.164897 0.421432 3.84349
0.117337 0.420701 3.907
0.11933 0.417933 3.87939
0.176852 0.587363 3.7578
0.159318 0.579104 3.77613
0.149558 0.573168 3.79742
0.289568 0.595475 3.73879
0.301948 0.603793 3.73859
