ply
format ascii 1.0
comment Created by Open3D
element vertex 468
property double x
property double y
property double z
end_header
-0.015345 0.374337 3.93844
-0.0139764 0.441984 4.00253
-0.0156219 0.414999 3.94281
-0.034195 0.526473 3.96289
-0.0137649 0.469576 4.00844
-0.0139213 0.504197 3.99592
-0.0159376 0.584689 3.92365
-0.186099 0.584867 3.82802
-0.0169726 0.654655 3.89896
-0.0170763 0.691621 3.90047
-0.0173187 0.815354 3.86893
-0.0153672 0.363626 3.93652
-0.0152603 0.356317 3.93085
-0.0152105 0.35448 3.92148
-0.0179909 0.290518 3.90619
-0.0180409 0.280705 3.91118
-0.0179921 0.269277 3.91669
-0.0181917 0.256033 3.91258
-0.0188616 0.238831 3.89289
-0.0142256 0.42758 3.99134
-0.0363515 0.42807 3.9587
-0.270925 0.67464 3.70902
-0.115955 0.564045 3.85437
-0.13968 0.562691 3.85256
-0.162928 0.564134 3.84593
-0.195448 0.576408 3.8246
-0.0965779 0.569249 3.85122
-0.148985 0.635941 3.85551
-0.122627 0.633234 3.85607
-0.174164 0.63062 3.84781
-0.190874 0.619125 3.83949
-0.214578 0.560019 3.81388
-0.10516 0.220257 3.86346
-0.195418 0.59021 3.81908
-0.283317 0.562948 3.70715
-0.23985 0.574265 3.78832
-0.140097 0.466665 3.88773
-0.0520072 0.378519 3.93538
-0.0491335 0.357957 3.92648
-0.0889857 0.374075 3.91941
-0.11271 0.367696 3.89487
-0.075951 0.357738 3.9133
-0.0967646 0.355748 3.89057
-0.139435 0.316559 3.84896
-0.032978 0.442621 4.00047
-0.0353597 0.469562 4.00586
-0.223753 0.644208 3.82944
-0.0871903 0.5257 3.88424
-0.0891908 0.451618 3.94137
-0.0907767 0.465538 3.93307
-0.215223 0.471604 3.85549
-0.0347756 0.501026 3.98881
-0.16864 0.677555 3.86774
-0.200907 0.666303 3.84952
-0.247598 0.724848 3.75157
-0.0677706 0.658967 3.89139
-0.100681 0.621944 3.8505
-0.158056 0.349976 3.84578
-0.252013 0.324466 3.66136
-0.0728694 0.43614 3.93338
-0.0534184 0.427347 3.93614
-0.143069 0.349816 3.84516
-0.129871 0.34762 3.85112
-0.21365 0.682014 3.83743
-0.0913251 0.442251 3.92888
-0.12589 0.677556 3.88246
-0.129836 0.699421 3.88625
-0.154186 0.796467 3.83888
-0.230218 0.703838 3.79969
-0.139456 0.749034 3.86376
-0.238178 0.654143 3.80864
-0.254648 0.662773 3.76159
-0.0513582 0.36629 3.93313
-0.0822213 0.36414 3.91662
-0.104988 0.361983 3.8942
-0.067901 0.431689 3.92856
-0.13713 0.349102 3.84852
-0.1239 0.326154 3.86078
-0.12467 0.346809 3.8514
-0.0587825 0.442176 3.9658
-0.0918422 0.357858 3.88742
-0.071084 0.357818 3.90455
-0.0462343 0.356215 3.91725
-0.0575074 0.24209 3.89071
-0.0563741 0.261223 3.90918
-0.0550656 0.274366 3.91155
-0.0530191 0.285455 3.90559
-0.0500995 0.293927 3.90129
-0.0963308 0.313648 3.87513
-0.101148 0.311734 3.87835
-0.107541 0.307031 3.88159
-0.11254 0.300108 3.87719
-0.127829 0.386157 3.888
-0.280821 0.445397 3.62032
-0.0153409 0.420379 3.96016
-0.109307 0.324908 3.8596
-0.117236 0.326266 3.86137
-0.0464295 0.416534 3.93627
-0.0863436 0.427731 3.91185
-0.0496023 0.421746 3.93714
-0.113627 0.513047 3.87755
-0.155708 0.499202 3.87247
-0.0961689 0.455284 3.91993
-0.211124 0.766573 3.79728
-0.19412 0.733686 3.83328
-0.177082 0.697909 3.86286
-0.119578 0.287061 3.86243
-0.0751301 0.695096 3.89776
-0.0825255 0.752985 3.88144
-0.0916466 0.811335 3.86347
-0.183404 0.568215 3.83511
-0.240524 0.542331 3.80239
-0.0842547 0.57518 3.84778
-0.21445 0.607322 3.81908
-0.0698841 0.541369 3.89146
-0.0737043 0.459562 3.96431
-0.265842 0.52324 3.77672
-0.224878 0.528755 3.82507
-0.19429 0.522361 3.84763
-0.148311 0.524566 3.858
-0.113539 0.532389 3.86263
-0.0881906 0.543147 3.86846
-0.037919 0.576883 3.91455
-0.266932 0.473937 3.78749
-0.232921 0.610872 3.80777
-0.0257617 0.42879 3.98993
-0.0853064 0.501847 3.89811
-0.28984 0.559505 3.63047
-0.0701133 0.556363 3.87124
-0.100457 0.45339 3.89566
-0.203497 0.589104 3.81422
-0.0746732 0.476779 3.95372
-0.271482 0.386015 3.63521
-0.0845992 0.583746 3.84093
-0.0548898 0.49156 3.97548
-0.200794 0.277325 3.77929
-0.194586 0.245087 3.74332
-0.286438 0.45682 3.70375
-0.234366 0.306601 3.75426
-0.27035 0.615496 3.72744
-0.1047 0.197914 3.85324
-0.0244249 0.421296 3.95872
-0.108459 0.485443 3.89126
-0.26041 0.567697 3.76525
-0.16102 0.577935 3.84311
-0.140128 0.576122 3.84893
-0.13004 0.324353 3.85753
-0.264812 0.422429 3.78371
-0.063674 0.165695 3.85255
-0.128096 0.196988 3.80242
-0.157301 0.21702 3.77548
-0.0173237 0.753199 3.88698
-0.0195194 0.16014 3.86048
-0.120287 0.577054 3.84985
-0.101616 0.579894 3.84613
-0.0900442 0.581466 3.84116
-0.250442 0.614677 3.78364
-0.105019 0.603813 3.8477
-0.125329 0.612568 3.85055
-0.146137 0.614462 3.84932
-0.167258 0.60969 3.84397
-0.180969 0.601777 3.83691
-0.285073 0.622036 3.6643
-0.175624 0.581155 3.83506
-0.0157088 0.401136 3.93515
-0.102332 0.397333 3.90717
-0.0726459 0.439134 3.9424
-0.0519753 0.400825 3.93204
-0.0164807 0.619621 3.90285
-0.165576 0.247052 3.7988
-0.135427 0.223246 3.82389
-0.0655928 0.179208 3.8779
-0.225308 0.276922 3.7023
-0.0909916 0.591448 3.84343
-0.0530569 0.535738 3.92594
-0.0190716 0.174577 3.88376
-0.0984817 0.179058 3.83195
-0.278927 0.401217 3.71172
-0.0757535 0.302223 3.88968
-0.0804598 0.296839 3.89304
-0.0848971 0.288166 3.89662
-0.0880444 0.276618 3.89339
-0.0936085 0.260736 3.87829
-0.117 0.353837 3.86926
-0.125376 0.357187 3.86803
-0.132064 0.361485 3.86833
-0.148698 0.371396 3.86563
-0.235484 0.414138 3.83245
-0.0533879 0.560271 3.90122
-0.0676021 0.606931 3.85656
-0.0812488 0.600908 3.84699
-0.11005 0.355893 3.86736
-0.232192 0.349124 3.79667
-0.0469571 0.613026 3.88738
-0.100043 0.242792 3.86977
-0.0147073 0.530922 3.97082
-0.0362583 0.549778 3.94124
-0.0154038 0.555853 3.94646
-0.0696248 0.497259 3.93024
-0.018949 0.195233 3.89271
-0.0189345 0.219473 3.89174
-0.0616147 0.222778 3.88634
-0.150925 0.304009 3.83827
-0.121087 0.434568 3.88797
-0.127685 0.270425 3.85193
-0.181498 0.438066 3.87854
-0.146495 0.411419 3.87962
-0.200958 0.398771 3.85736
-0.06549 0.198854 3.88664
-0.0841091 0.483684 3.91433
-0.163989 0.27938 3.82108
-0.134261 0.249424 3.83877
-0.1721 0.339985 3.83908
-0.256057 0.377787 3.77693
-0.198982 0.327242 3.8215
-0.262516 0.349877 3.72366
-0.167352 0.385684 3.86434
-0.0685648 0.518415 3.91057
-0.0659939 0.447154 3.97039
-0.08206 0.442547 3.94488
-0.0554568 0.465009 3.98572
-0.0861627 0.631682 3.86066
-0.123832 0.647625 3.86231
-0.15734 0.650133 3.85971
-0.185496 0.644018 3.84988
-0.204835 0.630123 3.83631
-0.218302 0.58187 3.80471
-0.287449 0.510008 3.70386
-0.201384 0.551372 3.82701
-0.176064 0.545454 3.8414
-0.144007 0.544862 3.85125
-0.114026 0.549298 3.85602
-0.0911832 0.556791 3.85648
-0.075897 0.565016 3.85775
-0.28587 0.502373 3.61718
-0.0824154 0.437206 3.93347
-0.0527444 0.514061 3.94745
-0.0490105 0.445627 3.98903
-0.0369106 0.432782 3.98013
-0.049355 0.441062 3.97775
-0.0777054 0.430335 3.92559
-0.0328377 0.430347 3.9865
-0.0314668 0.423646 3.95875
-0.0763936 0.583019 3.84528
-0.0638998 0.579591 3.86018
-0.0564448 0.57712 3.87713
-0.189004 0.595666 3.82924
-0.20225 0.605948 3.82697
0.00449643 0.526866 3.96344
0.154031 0.589159 3.82894
0.00641999 0.428146 3.95848
0.241827 0.679836 3.71093
0.08441 0.566591 3.85638
0.10882 0.565572 3.85427
0.132275 0.567147 3.84765
0.164261 0.580264 3.82564
0.0637524 0.57124 3.85255
0.118024 0.641563 3.85672
0.0906754 0.638082 3.85682
0.143553 0.636146 3.84883
0.1604 0.624427 3.84015
0.183892 0.563035 3.81454
0.0683974 0.218262 3.86321
0.163027 0.595044 3.81981
0.252478 0.565942 3.7084
0.209158 0.578023 3.78892
0.109771 0.466991 3.88717
0.0218602 0.378185 3.93494
0.0191755 0.357207 3.92633
0.0590975 0.373021 3.91904
0.081882 0.366078 3.89445
0.0461155 0.356457 3.91345
0.0660997 0.35432 3.89064
0.105106 0.314313 3.84785
0.00522539 0.442691 4.00016
0.00784029 0.469877 4.00543
0.195523 0.65093 3.82983
0.0557189 0.526764 3.88531
0.0602153 0.452315 3.94144
0.0616244 0.466291 3.93314
0.185672 0.47195 3.85508
0.00653559 0.501318 3.98908
0.138421 0.684995 3.86603
0.1718 0.673614 3.84863
0.21847 0.731158 3.7527
0.0341962 0.661746 3.8905
0.0677012 0.625742 3.85124
0.125087 0.348093 3.84467
0.216032 0.323691 3.66365
0.0431167 0.436594 3.9335
0.0231858 0.427422 3.93504
0.109279 0.347255 3.84439
0.0972605 0.345337 3.85027
0.185127 0.689958 3.83664
0.062305 0.442496 3.92868
0.0936041 0.683457 3.88081
0.0977526 0.705658 3.88454
0.121867 0.801635 3.8387
0.201699 0.71083 3.80006
0.106866 0.754444 3.8631
0.209927 0.660663 3.80921
0.226132 0.66855 3.76263
0.0211639 0.365609 3.93283
0.0521186 0.363017 3.91671
0.0742954 0.360449 3.89409
0.0376689 0.431943 3.92782
0.103777 0.346579 3.84719
0.0895642 0.323798 3.85946
0.0927352 0.344783 3.85082
0.0303321 0.442498 3.96663
0.0617454 0.356488 3.88759
0.0412807 0.356709 3.90494
0.0165135 0.355496 3.91759
0.0207232 0.240801 3.88977
0.0206944 0.260007 3.90883
0.0196144 0.273183 3.91148
0.0172075 0.284345 3.90597
0.0141702 0.292961 3.90176
0.0620163 0.312084 3.87473
0.0668394 0.309831 3.87788
0.0733101 0.304818 3.88016
0.077632 0.297893 3.87575
0.0966696 0.385202 3.88697
0.245656 0.446287 3.62215
0.0753651 0.323073 3.85939
0.0831081 0.32416 3.86061
0.0157244 0.416527 3.93583
0.0558762 0.42776 3.91069
0.0191659 0.421708 3.9363
0.0825152 0.514054 3.87835
0.125282 0.500058 3.87259
0.0666613 0.455688 3.92002
0.180693 0.773118 3.79717
0.164132 0.740783 3.83275
0.146875 0.705745 3.86165
0.0843649 0.284756 3.86156
0.0418987 0.698499 3.89635
0.048826 0.755682 3.88075
0.0581977 0.814169 3.86283
0.152724 0.571804 3.83647
0.210413 0.544782 3.80255
0.0504646 0.576999 3.84937
0.184258 0.612325 3.82006
0.038207 0.542571 3.89255
0.0450086 0.460251 3.96438
0.235988 0.525296 3.77747
0.195036 0.530781 3.82571
0.164463 0.524014 3.8483
0.117095 0.525883 3.8591
0.0816127 0.53382 3.86384
0.0561127 0.544511 3.86973
0.0061467 0.577538 3.91507
0.236364 0.474836 3.7881
0.20359 0.616032 3.80882
-0.00266589 0.428831 3.98998
0.0544837 0.502749 3.89921
0.25638 0.562214 3.63234
0.037362 0.557611 3.87236
0.0696909 0.453661 3.89508
0.171513 0.593695 3.81503
0.0459324 0.477437 3.9541
0.235784 0.385691 3.63686
0.0506325 0.58594 3.84275
0.0264707 0.492171 3.97589
0.164946 0.27583 3.78002
0.157869 0.243379 3.74536
0.253652 0.457459 3.7047
0.199328 0.305583 3.75495
0.240253 0.619871 3.72885
0.0672825 0.196081 3.85362
-0.00638018 0.421382 3.95856
0.0780855 0.486244 3.89144
0.229891 0.571202 3.76602
0.129458 0.581533 3.84417
0.108504 0.579407 3.85042
0.095514 0.321872 3.85611
0.23328 0.422343 3.78383
0.0249643 0.164439 3.85343
0.0898961 0.194837 3.80442
0.119678 0.214953 3.77783
0.0879665 0.579896 3.85142
0.0685396 0.582324 3.8479
0.0561076 0.583665 3.84319
0.221295 0.619872 3.78469
0.0725187 0.607085 3.84945
0.0937107 0.616583 3.85193
0.114707 0.618968 3.85073
0.135819 0.614584 3.84476
0.149241 0.606786 3.83779
0.253689 0.626022 3.66566
0.143874 0.584983 3.8362
0.0714934 0.396743 3.90629
0.043278 0.439654 3.94195
0.0211969 0.400801 3.93169
0.128772 0.245186 3.7997
0.0980184 0.221365 3.82467
0.0281076 0.178036 3.87833
0.18885 0.275917 3.70478
0.0572966 0.593858 3.84565
0.0221809 0.536412 3.92658
0.0599647 0.177162 3.83354
0.245433 0.400949 3.7125
0.0404657 0.300747 3.8901
0.0454152 0.295044 3.89319
0.0498519 0.286339 3.89643
0.0524796 0.274576 3.89286
0.0574873 0.25864 3.87764
0.0859658 0.351886 3.86894
0.0934121 0.355161 3.86784
0.100164 0.359392 3.86766
0.11676 0.369925 3.86473
0.204756 0.413781 3.83156
0.0215817 0.561262 3.90212
0.0334195 0.608969 3.85701
0.0472784 0.603481 3.84839
0.0795647 0.354076 3.86723
0.199102 0.348307 3.79599
0.0139299 0.614259 3.88751
0.0636137 0.240967 3.8687
0.00547516 0.550302 3.94138
0.0395143 0.498065 3.93074
0.0243637 0.221544 3.88573
0.116296 0.302204 3.83766
0.0906931 0.434669 3.88756
0.0920157 0.268392 3.85105
0.151358 0.43794 3.87677
0.115814 0.410909 3.87853
0.170271 0.398048 3.85567
0.0283861 0.197696 3.88643
0.0541395 0.484419 3.91474
0.128304 0.277827 3.82119
0.0978025 0.247471 3.83822
0.139094 0.33891 3.83885
0.223571 0.377248 3.77681
0.165387 0.326122 3.82096
0.228142 0.349363 3.72477
0.136502 0.384761 3.86334
0.0375735 0.519344 3.91164
0.0379036 0.447636 3.97077
0.0531294 0.443133 3.94468
0.0273689 0.465472 3.98612
0.0523486 0.63493 3.86157
0.0912613 0.652739 3.86235
0.126007 0.656232 3.85919
0.155015 0.650092 3.84998
0.174831 0.635969 3.83662
0.187397 0.586068 3.80551
0.255703 0.511882 3.70523
0.170797 0.554055 3.8278
0.145528 0.547704 3.84234
0.112918 0.546946 3.8525
0.0822 0.551258 3.85744
0.0587013 0.558352 3.85735
0.0429116 0.566468 3.85869
0.251342 0.504158 3.61943
0.0530476 0.437545 3.93302
0.0227703 0.514678 3.94821
0.0211196 0.445846 3.98883
0.00852594 0.432841 3.9798
0.0211573 0.441184 3.97771
0.0478269 0.430345 3.92452
0.00447406 0.430407 3.9864
0.00120799 0.423679 3.95847
0.0421969 0.585064 3.84632
0.0304685 0.581017 3.8607
0.0236488 0.578354 3.87736
0.157054 0.600481 3.82984
0.171295 0.611012 3.82743
