ply
format ascii 1.0
comment Created by Open3D
element vertex 468
property double x
property double y
property double z
end_header
0.00960752 0.328875 3.82751
0.0114468 0.419506 3.87768
0.010484 0.384207 3.81657
-0.00947977 0.48742 3.84031
0.0111516 0.443651 3.88289
0.0106597 0.471793 3.87077
0.00984585 0.534334 3.80479
-0.157473 0.531448 3.71163
0.00930491 0.589673 3.78837
0.00917016 0.622635 3.79257
0.0086809 0.740577 3.75916
0.00942632 0.317428 3.82671
0.00952161 0.306859 3.81988
0.00968016 0.300157 3.80954
0.00997464 0.223178 3.793
0.0101443 0.209252 3.7973
0.0103759 0.19384 3.79843
0.0111601 0.177761 3.78616
0.0132785 0.167553 3.74941
0.0110667 0.406695 3.86661
-0.0073858 0.401884 3.83305
-0.255138 0.60381 3.59602
-0.0891523 0.513448 3.73867
-0.112846 0.511275 3.73744
-0.135869 0.511674 3.7307
-0.166377 0.522021 3.7088
-0.0693791 0.518981 3.736
-0.124277 0.575638 3.74137
-0.0974328 0.5742 3.74233
-0.148114 0.570353 3.73327
-0.163353 0.560897 3.72407
-0.187212 0.503039 3.69952
-0.0708901 0.169278 3.72483
-0.166438 0.535786 3.70338
-0.262072 0.499244 3.5917
-0.216114 0.515593 3.67415
-0.101841 0.415596 3.76452
-0.0172645 0.33088 3.82288
-0.0107941 0.305615 3.8172
-0.0425444 0.318144 3.81083
-0.0564006 0.301233 3.79509
-0.0275921 0.299378 3.80932
-0.0396893 0.289911 3.79307
-0.0877141 0.24129 3.74861
-0.00689662 0.420185 3.87516
-0.0104984 0.442788 3.88032
-0.202487 0.581238 3.71713
-0.0591455 0.477519 3.76625
-0.0559017 0.414385 3.81687
-0.0583382 0.424952 3.80852
-0.171581 0.411997 3.73993
-0.0100271 0.468045 3.86405
-0.146833 0.610503 3.75775
-0.179715 0.600839 3.7399
-0.232769 0.653468 3.64097
-0.0413308 0.593186 3.78083
-0.0739415 0.564711 3.73636
-0.099712 0.270198 3.74686
-0.218783 0.271339 3.53404
-0.0380694 0.400087 3.80818
-0.020337 0.393117 3.8105
-0.0739218 0.263003 3.7561
-0.0611336 0.265453 3.76275
-0.194291 0.614596 3.72724
-0.0547404 0.401193 3.80435
-0.101433 0.609742 3.77169
-0.106861 0.630253 3.77538
-0.135726 0.724263 3.72887
-0.213105 0.635918 3.6899
-0.118821 0.678844 3.75455
-0.218258 0.588595 3.69586
-0.236843 0.596006 3.64965
-0.0145564 0.317257 3.8234
-0.0348116 0.30734 3.81183
-0.0486975 0.295694 3.79622
-0.0318072 0.394732 3.80399
-0.0674654 0.263249 3.76023
-0.0628249 0.246922 3.76843
-0.0578727 0.268517 3.76237
-0.0291866 0.415705 3.84106
-0.033917 0.290488 3.78927
-0.0217771 0.296236 3.8001
-0.00712895 0.299609 3.80763
-0.0210076 0.172207 3.75049
-0.0225191 0.183889 3.78629
-0.0201644 0.198369 3.79565
-0.0161076 0.214111 3.79439
-0.0122401 0.225619 3.79085
-0.0411957 0.241016 3.77564
-0.0468877 0.237131 3.77742
-0.0555162 0.231089 3.77783
-0.0625437 0.224824 3.773
-0.0754666 0.328292 3.78296
-0.253475 0.381631 3.49535
0.0111404 0.395871 3.83466
-0.0486727 0.250429 3.76806
-0.0555653 0.248424 3.76887
-0.014087 0.38229 3.80994
-0.0463716 0.382434 3.78665
-0.0169811 0.387727 3.81136
-0.0822522 0.462465 3.75902
-0.119926 0.443979 3.75445
-0.0610115 0.411602 3.79588
-0.195618 0.695036 3.68776
-0.17623 0.664632 3.72312
-0.156542 0.62945 3.75255
-0.0732516 0.217954 3.7523
-0.049908 0.625884 3.78802
-0.0592929 0.68323 3.77284
-0.0700036 0.738434 3.75263
-0.155311 0.514702 3.71971
-0.213977 0.483116 3.68796
-0.056302 0.524011 3.73276
-0.189442 0.550098 3.705
-0.0434513 0.493837 3.7734
-0.0444509 0.428289 3.83899
-0.238902 0.463654 3.66224
-0.196453 0.468485 3.71081
-0.164428 0.462587 3.73336
-0.117747 0.469127 3.74306
-0.0845493 0.480915 3.74639
-0.0608156 0.49327 3.75228
-0.012556 0.527243 3.79672
-0.229404 0.413436 3.67301
-0.210964 0.551537 3.69419
0.000377052 0.407262 3.86506
-0.0549282 0.455864 3.77716
-0.267749 0.488363 3.51037
-0.0430353 0.505967 3.75562
-0.0623176 0.404972 3.77164
-0.174979 0.534023 3.6988
-0.0462719 0.440991 3.82885
-0.24216 0.327899 3.50778
-0.0564221 0.531727 3.72667
-0.0294473 0.457869 3.8502
-0.163072 0.224729 3.65528
-0.164256 0.197096 3.61428
-0.254381 0.396638 3.58472
-0.191337 0.255282 3.62986
-0.250455 0.549984 3.61379
-0.0743015 0.148804 3.71054
0.00320307 0.396455 3.83284
-0.0743214 0.4367 3.7691
-0.238086 0.507867 3.65056
-0.133439 0.525184 3.72713
-0.113157 0.523856 3.73365
-0.0699095 0.245332 3.765
-0.218167 0.365034 3.66675
-0.0330485 0.112574 3.70277
-0.102396 0.149257 3.66531
-0.131366 0.169953 3.64432
0.00906369 0.682958 3.7784
0.0171089 0.106208 3.70867
-0.0932945 0.525476 3.73472
-0.074433 0.528797 3.73164
-0.0620513 0.529853 3.72726
-0.229996 0.552616 3.6696
-0.0773716 0.550452 3.73328
-0.0986423 0.557903 3.7365
-0.119887 0.558449 3.73492
-0.140525 0.553631 3.72876
-0.15295 0.546471 3.72138
-0.266286 0.550515 3.54762
-0.147354 0.528261 3.71892
0.0103943 0.365101 3.81216
-0.0578559 0.34684 3.79222
-0.0395938 0.406224 3.81773
-0.0190258 0.360797 3.80955
0.00970654 0.561762 3.78706
-0.134952 0.195851 3.67187
-0.106191 0.173142 3.68858
-0.0344067 0.128885 3.72952
-0.19153 0.227139 3.57524
-0.0630595 0.539222 3.73002
-0.0273898 0.492002 3.80561
0.0160346 0.121671 3.7342
-0.0709099 0.129135 3.68779
-0.241825 0.345366 3.58979
-0.0286977 0.232003 3.78428
-0.0345609 0.224373 3.78693
-0.0417732 0.213193 3.78717
-0.0471407 0.20116 3.78141
-0.0522595 0.193641 3.75575
-0.0507868 0.279491 3.77799
-0.0593445 0.281412 3.7777
-0.0669118 0.285217 3.77704
-0.0890102 0.301723 3.76812
-0.181818 0.357774 3.71554
-0.0278143 0.511839 3.78327
-0.0397945 0.550006 3.7428
-0.0534494 0.546781 3.73438
-0.0451169 0.282757 3.77446
-0.179693 0.293916 3.67712
-0.0206176 0.555515 3.77163
-0.0624677 0.184383 3.73583
0.0103117 0.492416 3.84769
-0.0114211 0.506515 3.82102
0.0101044 0.512183 3.82575
-0.0417757 0.456389 3.80747
0.0150172 0.140472 3.74487
0.0141238 0.156617 3.74436
-0.0260416 0.162632 3.74085
-0.110555 0.237844 3.72889
-0.0810264 0.383873 3.76631
-0.090315 0.209694 3.73067
-0.133581 0.383193 3.75591
-0.0999765 0.357062 3.76421
-0.146274 0.341172 3.73904
-0.0317946 0.147411 3.74011
-0.0532053 0.440334 3.79115
-0.128912 0.221467 3.70256
-0.101298 0.194402 3.70864
-0.123968 0.27055 3.73202
-0.206526 0.323156 3.6576
-0.151766 0.267785 3.70694
-0.222152 0.297777 3.60021
-0.112854 0.320978 3.75584
-0.0410579 0.474343 3.79018
-0.0366236 0.419991 3.84548
-0.0487562 0.407999 3.81982
-0.0286884 0.43727 3.86078
-0.0584168 0.57122 3.74888
-0.0983038 0.584856 3.75154
-0.132927 0.58713 3.74849
-0.160947 0.5821 3.73828
-0.179662 0.570304 3.72362
-0.192805 0.525572 3.6904
-0.261541 0.448457 3.58705
-0.173576 0.494454 3.71198
-0.149074 0.489439 3.72718
-0.116641 0.491515 3.73655
-0.0866084 0.498009 3.73942
-0.0639521 0.506454 3.74086
-0.0484939 0.513793 3.74193
-0.26061 0.433799 3.49539
-0.0468192 0.399069 3.80864
-0.0269136 0.47463 3.82483
-0.0219061 0.421893 3.86354
-0.00968344 0.40962 3.85477
-0.0213099 0.416593 3.85236
-0.0398827 0.389986 3.80057
-0.00623822 0.408388 3.86124
-0.00325107 0.398032 3.83312
-0.0481274 0.5308 3.73021
-0.0362356 0.526884 3.74498
-0.0297592 0.52497 3.7611
-0.160625 0.54112 3.7135
-0.174606 0.549653 3.71074
0.0301893 0.487245 3.84019
0.178024 0.529411 3.71262
0.0288423 0.402213 3.83308
0.27361 0.599772 3.5976
0.108924 0.511941 3.73889
0.13307 0.509638 3.73783
0.156172 0.509665 3.73166
0.186319 0.520224 3.70967
0.0890777 0.517674 3.73628
0.143237 0.574919 3.74216
0.116219 0.573442 3.74308
0.167279 0.569494 3.73431
0.182583 0.559673 3.72553
0.207039 0.500828 3.70088
0.0970768 0.169497 3.72408
0.186518 0.534045 3.70451
0.279962 0.496793 3.59337
0.23513 0.513846 3.67598
0.122506 0.414397 3.76496
0.035206 0.331425 3.82213
0.0284715 0.305981 3.816
0.0586661 0.319158 3.80955
0.0707656 0.30236 3.79256
0.0435135 0.300171 3.80722
0.0541156 0.290598 3.79016
0.102904 0.241488 3.74612
0.0291629 0.42032 3.87535
0.0324492 0.4428 3.88057
0.221596 0.58088 3.71833
0.0797155 0.476599 3.76668
0.0758417 0.413834 3.81709
0.078371 0.42417 3.80902
0.191237 0.410256 3.74003
0.0313389 0.467778 3.8638
0.165994 0.610804 3.75841
0.198683 0.600829 3.74075
0.251052 0.649717 3.64262
0.0601597 0.593243 3.78075
0.0931944 0.56391 3.73708
0.113349 0.270445 3.7438
0.239404 0.27142 3.5328
0.0586077 0.399963 3.8086
0.0412757 0.392894 3.81079
0.0859718 0.263776 3.75202
0.0731653 0.266143 3.75891
0.213543 0.614612 3.72835
0.0744001 0.400389 3.80463
0.120422 0.609931 3.77225
0.125381 0.630694 3.77621
0.152557 0.721874 3.73036
0.232032 0.634035 3.69176
0.137026 0.678083 3.75591
0.237564 0.587888 3.6971
0.256064 0.593527 3.65152
0.0322917 0.317756 3.82246
0.0507558 0.308128 3.81001
0.0630573 0.296743 3.7936
0.0524945 0.394457 3.8043
0.0792727 0.264127 3.7564
0.076013 0.247675 3.76541
0.0699375 0.269229 3.75854
0.0500591 0.415841 3.84072
0.0482308 0.291222 3.7861
0.0380641 0.296894 3.79803
0.0246889 0.299826 3.80632
0.0459272 0.172089 3.74978
0.0429421 0.18365 3.78525
0.0396595 0.198312 3.79438
0.0351002 0.214298 3.79276
0.0312476 0.225854 3.78911
0.0562816 0.241899 3.77273
0.0619459 0.237937 3.77479
0.0706225 0.231601 3.7756
0.0781287 0.224913 3.77079
0.0919167 0.328298 3.78166
0.272857 0.379894 3.49529
0.0622809 0.251199 3.76434
0.0688651 0.249052 3.76593
0.0350471 0.381989 3.80968
0.0663305 0.381766 3.78698
0.0377582 0.387684 3.81164
0.103208 0.461246 3.75941
0.140723 0.442382 3.75466
0.0804494 0.410605 3.79633
0.212756 0.692126 3.68985
0.194752 0.663474 3.72503
0.175483 0.629688 3.75334
0.0913233 0.21803 3.75027
0.0684079 0.626023 3.78818
0.0771559 0.682456 3.7736
0.0868178 0.737016 3.75366
0.175557 0.512789 3.72089
0.2332 0.480967 3.68968
0.0761979 0.522952 3.73297
0.208938 0.54872 3.70654
0.0640092 0.493122 3.77379
0.0651767 0.428044 3.83935
0.257303 0.461515 3.66375
0.215919 0.466269 3.71229
0.184539 0.460544 3.73463
0.138617 0.4675 3.74334
0.105378 0.479695 3.74687
0.0813544 0.492264 3.75262
0.03252 0.527028 3.79663
0.248353 0.411515 3.67361
0.22983 0.55016 3.69581
0.0215463 0.407325 3.86484
0.0756087 0.455047 3.77716
0.286817 0.485118 3.51103
0.0634498 0.505117 3.75607
0.0825517 0.403859 3.77177
0.19498 0.532234 3.69986
0.0665312 0.440365 3.82933
0.262316 0.326975 3.50725
0.076161 0.530841 3.7267
0.0502349 0.457526 3.8505
0.183731 0.22618 3.65424
0.186863 0.199319 3.61357
0.273438 0.395084 3.58548
0.210723 0.256413 3.62873
0.269198 0.547243 3.61548
0.103242 0.149633 3.70983
0.0191192 0.396418 3.83296
0.0950183 0.435599 3.76947
0.256393 0.505989 3.65222
0.15415 0.52339 3.72789
0.133492 0.521991 3.73398
0.0833343 0.246117 3.76218
0.237239 0.364075 3.66663
0.066439 0.113056 3.7023
0.131182 0.150547 3.66477
0.156983 0.171717 3.64346
0.113127 0.523861 3.73514
0.0940349 0.527412 3.73163
0.0819191 0.528689 3.7272
0.248468 0.551046 3.67105
0.0966637 0.549418 3.73371
0.117819 0.556624 3.73728
0.13925 0.557007 3.73569
0.160111 0.551894 3.73019
0.172812 0.544741 3.72265
0.285126 0.546367 3.54893
0.16834 0.526186 3.71981
0.0757165 0.346575 3.79158
0.0600975 0.406188 3.8181
0.0387879 0.360896 3.80923
0.158209 0.197075 3.6713
0.131629 0.174498 3.68828
0.0652482 0.129305 3.72918
0.212631 0.228402 3.57391
0.0824684 0.538219 3.72995
0.0481889 0.491646 3.80592
0.1023 0.130081 3.68771
0.260798 0.3446 3.5901
0.0459234 0.232695 3.78202
0.0517941 0.224751 3.7846
0.0591596 0.213241 3.78533
0.0653915 0.20087 3.77945
0.0736009 0.193371 3.75374
0.0634199 0.280242 3.77427
0.0719811 0.282307 3.77387
0.0794305 0.285971 3.77345
0.103279 0.30193 3.76531
0.200712 0.356947 3.71452
0.0482875 0.511294 3.78335
0.0595505 0.549556 3.74361
0.0728456 0.546085 3.73444
0.0578333 0.2834 3.7707
0.198335 0.294313 3.67564
0.0401015 0.555176 3.77195
0.0858994 0.184582 3.73436
0.0319471 0.506218 3.82124
0.0623218 0.455929 3.80809
0.0528811 0.162755 3.74082
0.128313 0.237987 3.72713
0.100509 0.382847 3.76648
0.110865 0.20987 3.72939
0.153267 0.382231 3.75564
0.118274 0.356338 3.76349
0.165057 0.340561 3.73761
0.0606194 0.147419 3.73936
0.0737444 0.439408 3.79166
0.149736 0.222213 3.7015
0.124473 0.195127 3.70796
0.140258 0.270593 3.72938
0.22543 0.32296 3.65656
0.169883 0.268131 3.70526
0.241446 0.297999 3.59954
0.128756 0.3204 3.754
0.0618815 0.473655 3.79034
0.0573066 0.420116 3.84552
0.0688016 0.407663 3.82033
0.0501714 0.437323 3.86117
0.0778492 0.570866 3.7496
0.1174 0.584568 3.7522
0.152065 0.586695 3.74916
0.180177 0.581177 3.73912
0.198941 0.569371 3.72511
0.212409 0.523867 3.69209
0.279938 0.446209 3.58804
0.193745 0.492409 3.71353
0.169332 0.487387 3.72831
0.136986 0.489852 3.73738
0.106676 0.496854 3.74
0.0840761 0.50535 3.74107
0.0686042 0.512887 3.74225
0.28006 0.431179 3.49501
0.0665288 0.398497 3.80907
0.0479362 0.474195 3.82514
0.0434888 0.422329 3.86376
0.0308122 0.410037 3.85483
0.0423512 0.417169 3.85239
0.0596932 0.389191 3.80098
0.0278022 0.408773 3.86125
0.0251129 0.398287 3.83316
0.0679193 0.529813 3.73071
0.0560018 0.526177 3.74536
0.0496529 0.524484 3.7615
0.180458 0.539362 3.71477
0.193917 0.548316 3.71233
