ply
format ascii 1.0
comment Created by Open3D
element vertex 468
property double x
property double y
property double z
end_header
-0.0069615 0.324537 4.10133
-0.00625758 0.396835 4.15653
-0.00666329 0.37657 4.09856
-0.0257586 0.469617 4.1227
-0.00602947 0.418866 4.16469
-0.0053662 0.447768 4.15448
-0.00523066 0.520572 4.0855
-0.174237 0.524343 3.99233
-0.00521222 0.580729 4.06733
-0.00525627 0.610757 4.07061
-0.00617445 0.701305 4.03779
-0.00707256 0.31336 4.09781
-0.00694802 0.304472 4.08947
-0.00671173 0.300967 4.07907
-0.00780036 0.294123 4.07889
-0.00780041 0.283876 4.08286
-0.00760845 0.270604 4.08785
-0.00742169 0.257504 4.08498
-0.00698914 0.239344 4.06284
-0.00608228 0.385382 4.14409
-0.0274184 0.388252 4.11278
-0.247824 0.611551 3.87029
-0.107373 0.502696 4.01706
-0.130712 0.500937 4.01515
-0.152512 0.503156 4.00839
-0.180957 0.516645 3.98863
-0.0874445 0.509738 4.01408
-0.136955 0.56399 4.02685
-0.111853 0.562302 4.02647
-0.160744 0.560738 4.01912
-0.176508 0.552623 4.00877
-0.197938 0.504065 3.97626
-0.0944579 0.211776 4.03544
-0.18185 0.531107 3.98416
-0.256978 0.522312 3.86812
-0.221455 0.522652 3.95104
-0.122881 0.415839 4.04595
-0.0368313 0.328279 4.09816
-0.0323843 0.304848 4.08592
-0.0673509 0.3209 4.08358
-0.0867125 0.311999 4.0654
-0.0543255 0.303665 4.07598
-0.0716303 0.301922 4.05975
-0.11616 0.279408 4.03168
-0.0256758 0.39712 4.15462
-0.0287186 0.417878 4.16194
-0.210379 0.580662 3.99796
-0.07646 0.470271 4.0453
-0.080131 0.40297 4.09637
-0.0817706 0.414422 4.08925
-0.190046 0.419169 4.01275
-0.0273832 0.445641 4.14675
-0.160155 0.605533 4.04002
-0.190322 0.597557 4.02001
-0.228359 0.646941 3.91649
-0.0582743 0.587056 4.06101
-0.0901151 0.554971 4.01946
-0.133092 0.301188 4.02512
-0.230926 0.330402 3.81637
-0.0628927 0.392179 4.0879
-0.0435333 0.385278 4.09108
-0.109352 0.299714 4.02692
-0.0974812 0.300395 4.034
-0.202586 0.612443 4.00809
-0.0804917 0.393146 4.08381
-0.117885 0.604017 4.05504
-0.121907 0.620969 4.05919
-0.139724 0.691319 4.00857
-0.215393 0.629068 3.96904
-0.128801 0.656323 4.035
-0.223115 0.591134 3.97636
-0.235485 0.599624 3.92662
-0.0350917 0.314755 4.09454
-0.060322 0.310477 4.08068
-0.0792371 0.306489 4.06472
-0.0568658 0.388386 4.0827
-0.103325 0.29955 4.03064
-0.0936949 0.293869 4.04706
-0.094184 0.301649 4.03482
-0.0503921 0.399147 4.11925
-0.0661022 0.30292 4.05627
-0.0489534 0.302618 4.06697
-0.0289744 0.301894 4.07598
-0.0390906 0.240261 4.06231
-0.0381198 0.259552 4.08315
-0.0368071 0.273214 4.08561
-0.0348311 0.286497 4.07974
-0.0323812 0.295037 4.07574
-0.0715235 0.297533 4.05623
-0.0752501 0.293875 4.06108
-0.0808808 0.286945 4.06549
-0.0859669 0.279589 4.06123
-0.105023 0.337575 4.0582
-0.255568 0.437336 3.7755
-0.00677805 0.383008 4.11415
-0.0825511 0.298931 4.04345
-0.0877235 0.296947 4.04698
-0.0361947 0.375568 4.09294
-0.0729014 0.381046 4.06784
-0.0396471 0.38021 4.0922
-0.101374 0.457178 4.03784
-0.138689 0.443129 4.03068
-0.0855636 0.404996 4.07619
-0.194774 0.673929 3.96637
-0.182341 0.649177 4.0051
-0.168679 0.6226 4.03522
-0.0959946 0.264313 4.0442
-0.0656958 0.615149 4.06981
-0.0713687 0.655314 4.05179
-0.078503 0.698436 4.03344
-0.170868 0.507869 3.99788
-0.220478 0.489758 3.96349
-0.0745008 0.517154 4.01068
-0.199719 0.547786 3.98594
-0.0597503 0.484959 4.05346
-0.0657524 0.411231 4.11943
-0.242437 0.477135 3.93746
-0.206426 0.472739 3.98627
-0.17834 0.463392 4.0092
-0.135414 0.466533 4.01954
-0.103071 0.47538 4.02493
-0.0778548 0.486102 4.03096
-0.028047 0.515036 4.07624
-0.239455 0.431996 3.94589
-0.216917 0.553278 3.97348
-0.0174679 0.386302 4.14274
-0.0742611 0.449352 4.05736
-0.261491 0.529039 3.78727
-0.059601 0.499356 4.03363
-0.0881373 0.405055 4.05294
-0.188671 0.530797 3.97919
-0.0669619 0.424963 4.1102
-0.247654 0.385624 3.78932
-0.0740559 0.52636 4.004
-0.047607 0.437402 4.133
-0.187158 0.26921 3.94573
-0.183813 0.249515 3.90365
-0.257504 0.434435 3.86114
-0.21306 0.300607 3.91467
-0.246681 0.564187 3.88995
-0.0985788 0.192335 4.02262
-0.0158829 0.383952 4.11276
-0.0951901 0.432761 4.04984
-0.238623 0.520126 3.92678
-0.152073 0.51552 4.00669
-0.131953 0.512873 4.01212
-0.099855 0.28981 4.0427
-0.233876 0.390287 3.94154
-0.0559891 0.16266 4.01713
-0.124353 0.197444 3.96759
-0.152102 0.218983 3.9393
-0.00584909 0.654316 4.05622
-0.00626052 0.15672 4.02396
-0.111701 0.514128 4.01285
-0.0929266 0.51885 4.00947
-0.0806361 0.523021 4.00415
-0.231538 0.558992 3.94858
-0.0936922 0.539439 4.01382
-0.113474 0.544183 4.01799
-0.133892 0.545404 4.01704
-0.154516 0.542584 4.01126
-0.167689 0.53751 4.0035
-0.258471 0.575328 3.82295
-0.165467 0.519872 3.99903
-0.00675077 0.360464 4.09417
-0.0842574 0.3498 4.07073
-0.0634119 0.395682 4.09575
-0.0393883 0.357185 4.09247
-0.00513072 0.55018 4.06738
-0.158851 0.239495 3.97045
-0.129987 0.21632 3.99567
-0.0574877 0.174028 4.04603
-0.208706 0.284722 3.85779
-0.0800286 0.532003 4.0076
-0.0440361 0.479555 4.08655
-0.0062445 0.16896 4.05159
-0.0935625 0.177497 3.99708
-0.249138 0.387343 3.86768
-0.0538887 0.296681 4.06681
-0.0578107 0.290251 4.07192
-0.0616866 0.279996 4.07647
-0.0650348 0.267979 4.07317
-0.0710825 0.250398 4.05579
-0.0868581 0.300892 4.04547
-0.0947037 0.302541 4.04549
-0.101759 0.305809 4.0455
-0.123103 0.320945 4.04082
-0.204968 0.374988 3.99056
-0.0435948 0.501802 4.06328
-0.0564295 0.544598 4.02214
-0.0699915 0.539662 4.0118
-0.0807604 0.303567 4.04378
-0.206055 0.32667 3.95809
-0.0360267 0.5465 4.0522
-0.0832823 0.23166 4.04446
-0.00519071 0.472667 4.13085
-0.027342 0.490989 4.10125
-0.00533494 0.495949 4.10704
-0.0604297 0.444825 4.08804
-0.00646434 0.189538 4.06361
-0.00669092 0.216166 4.06341
-0.0466615 0.218231 4.05904
-0.136182 0.272932 4.01846
-0.107017 0.387305 4.04759
-0.112285 0.249345 4.03084
-0.157888 0.390789 4.03745
-0.12789 0.365916 4.04409
-0.176047 0.357086 4.01962
-0.0544704 0.193605 4.05719
-0.0742772 0.432235 4.07215
-0.153981 0.259895 3.99695
-0.124708 0.235082 4.01422
-0.154291 0.300354 4.01438
-0.22671 0.35464 3.93562
-0.17982 0.299917 3.99093
-0.236176 0.343135 3.88078
-0.145409 0.337932 4.03275
-0.0588396 0.464833 4.07073
-0.0578427 0.401931 4.12383
-0.0727788 0.39617 4.09944
-0.0485849 0.416155 4.14132
-0.0760701 0.565479 4.02978
-0.114048 0.578044 4.03362
-0.146638 0.579739 4.03165
-0.173119 0.57563 4.02172
-0.191235 0.565488 4.00592
-0.202516 0.526527 3.96896
-0.260531 0.478851 3.86354
-0.1866 0.493667 3.98958
-0.163903 0.486667 4.00409
-0.134118 0.485638 4.01423
-0.104657 0.490335 4.0193
-0.0812779 0.498819 4.01919
-0.0652519 0.507346 4.0209
-0.258842 0.484302 3.773
-0.0720025 0.390472 4.08769
-0.0443361 0.459691 4.10645
-0.0417412 0.400781 4.14289
-0.0282503 0.389988 4.13362
-0.0411121 0.397712 4.13126
-0.0652804 0.384246 4.08018
-0.0243465 0.387764 4.13991
-0.0228585 0.385106 4.11263
-0.0657149 0.525732 4.00828
-0.0525029 0.520727 4.02294
-0.0453547 0.517429 4.03967
-0.175551 0.533877 3.99502
-0.187584 0.543871 3.99442
0.0153884 0.469754 4.12293
0.168478 0.529036 3.99096
0.0153086 0.388414 4.11218
0.240998 0.616352 3.8701
0.101289 0.505696 4.01688
0.124954 0.504197 4.01458
0.147129 0.506332 4.00748
0.176171 0.521131 3.98746
0.0804633 0.51221 4.01392
0.130896 0.567651 4.02615
0.104917 0.565331 4.02525
0.155082 0.565362 4.01765
0.171438 0.557574 4.00714
0.192611 0.507488 3.97451
0.0847593 0.210293 4.03306
0.175903 0.536244 3.98269
0.251899 0.525668 3.86756
0.216008 0.526325 3.94904
0.115498 0.416851 4.04323
0.0236781 0.328323 4.09782
0.0193712 0.304813 4.08565
0.0553786 0.320707 4.083
0.075028 0.311787 4.06508
0.0423224 0.30329 4.07603
0.0595836 0.301537 4.05979
0.105115 0.278677 4.02995
0.0137749 0.397463 4.15379
0.0175615 0.418145 4.16116
0.20521 0.585291 3.99576
0.0678226 0.471227 4.04435
0.0704899 0.403493 4.09484
0.0728582 0.414983 4.08771
0.185179 0.420763 4.01028
0.0167458 0.445709 4.14669
0.152515 0.609042 4.03663
0.183839 0.601768 4.01722
0.22111 0.652227 3.91559
0.0485964 0.587811 4.0595
0.0823836 0.557141 4.0187
0.122432 0.300506 4.02393
0.226929 0.32901 3.81622
0.0520398 0.392692 4.08617
0.0318489 0.385595 4.0888
0.0962094 0.299133 4.02706
0.0855611 0.299995 4.03389
0.196129 0.616909 4.00496
0.0712226 0.393458 4.08181
0.109068 0.606323 4.05167
0.113098 0.623352 4.05569
0.129832 0.694956 4.00694
0.208908 0.633905 3.96677
0.118979 0.659382 4.03278
0.217437 0.595838 3.97419
0.229227 0.604341 3.92517
0.0220374 0.314742 4.09424
0.0480582 0.310243 4.08079
0.0673048 0.306268 4.06446
0.0456846 0.388773 4.08083
0.0906383 0.299171 4.03044
0.0810284 0.293707 4.04626
0.083161 0.301271 4.03476
0.039592 0.399686 4.11915
0.0550768 0.302627 4.05648
0.0372638 0.302377 4.06729
0.0163382 0.301762 4.07622
0.0262348 0.240012 4.06106
0.0241259 0.259495 4.08255
0.0223848 0.273227 4.08524
0.0198082 0.286461 4.07985
0.0175272 0.295076 4.07577
0.0584316 0.297652 4.05594
0.0623632 0.293948 4.06015
0.068377 0.287016 4.06424
0.0734508 0.279497 4.0597
0.0951948 0.337477 4.05662
0.248448 0.438232 3.77573
0.0698716 0.298726 4.04367
0.0749775 0.296872 4.04642
0.0241391 0.375648 4.09186
0.0623111 0.381067 4.06525
0.0277246 0.380363 4.09048
0.0934469 0.45835 4.03656
0.131688 0.444697 4.02853
0.0764439 0.405426 4.07424
0.186616 0.678878 3.96452
0.174609 0.653493 4.00198
0.160739 0.626389 4.03181
0.0849756 0.263657 4.04276
0.0560119 0.616238 4.06793
0.0604938 0.656937 4.05024
0.0674573 0.700654 4.03188
0.165976 0.511808 3.99668
0.215685 0.492748 3.96128
0.0669387 0.519382 4.01103
0.194449 0.552247 3.98441
0.0507371 0.485747 4.05318
0.0560357 0.411921 4.11803
0.238311 0.479745 3.93586
0.201534 0.475458 3.98427
0.17259 0.465702 4.00713
0.128224 0.468462 4.01835
0.0951738 0.477039 4.02403
0.0695648 0.487368 4.03038
0.0178395 0.515356 4.07619
0.235334 0.433595 3.94456
0.211908 0.557536 3.9718
0.00577584 0.38642 4.1427
0.0652713 0.449971 4.05652
0.253973 0.532005 3.78787
0.0503549 0.500294 4.03377
0.0779975 0.4054 4.05094
0.183222 0.535767 3.97789
0.0576763 0.42552 4.1088
0.241977 0.385446 3.78899
0.0664507 0.528502 4.00483
0.0378081 0.43776 4.1323
0.182616 0.266904 3.94322
0.180227 0.246336 3.90203
0.251719 0.435755 3.85999
0.209899 0.298971 3.91249
0.240368 0.568257 3.88912
0.0891832 0.190192 4.0206
0.00226928 0.384104 4.11245
0.0869444 0.433514 4.04791
0.233846 0.523546 3.92522
0.146058 0.51946 4.00563
0.125635 0.516684 4.01158
0.0872629 0.289672 4.04179
0.230256 0.390853 3.93954
0.0444923 0.161075 4.01631
0.116375 0.194106 3.96617
0.146426 0.215391 3.93784
0.10519 0.517696 4.01263
0.085996 0.521761 4.00969
0.0730956 0.525438 4.00471
0.226594 0.563194 3.94698
0.0872156 0.541884 4.01385
0.107697 0.547296 4.01746
0.127982 0.54933 4.01618
0.148921 0.547337 4.00987
0.16237 0.542601 4.00183
0.250826 0.579173 3.82324
0.159442 0.524146 3.99778
0.0739982 0.349666 4.06895
0.0525356 0.396487 4.09388
0.0271749 0.357256 4.09157
0.152618 0.236714 3.96765
0.122458 0.213451 3.993
0.0464817 0.172773 4.04459
0.205301 0.282091 3.85706
0.0727379 0.53406 4.00842
0.0340951 0.479978 4.08609
0.0835154 0.174883 3.99627
0.244784 0.387564 3.86603
0.0396536 0.296599 4.06695
0.0438227 0.290457 4.07121
0.0481382 0.28012 4.07584
0.051532 0.267983 4.07243
0.0593505 0.249775 4.05467
0.0750785 0.300594 4.0454
0.0826108 0.302315 4.04551
0.0897642 0.305392 4.04553
0.112614 0.320632 4.03999
0.201095 0.375649 3.98755
0.033808 0.502327 4.06309
0.0469636 0.545743 4.02158
0.0614905 0.541294 4.01236
0.0698273 0.303219 4.04415
0.201764 0.326043 3.95521
0.0262027 0.547065 4.0516
0.0731479 0.230478 4.04223
0.0171542 0.491268 4.10087
0.0508201 0.445304 4.08695
0.0347137 0.217656 4.05763
0.127492 0.271836 4.01582
0.0977625 0.387769 4.04481
0.103305 0.247985 4.02832
0.151933 0.39183 4.03406
0.119456 0.366392 4.04151
0.170816 0.357505 4.01641
0.0431609 0.192757 4.05604
0.0652626 0.432777 4.07074
0.146651 0.258152 3.9938
0.116234 0.23304 4.01124
0.145823 0.299494 4.01231
0.223279 0.354486 3.93325
0.174328 0.29878 3.98782
0.232869 0.342261 3.87938
0.137391 0.337825 4.03034
0.0492247 0.465283 4.07038
0.0476876 0.402612 4.12314
0.06291 0.396837 4.09752
0.0378551 0.416529 4.14003
0.067087 0.566833 4.02869
0.105801 0.580782 4.03175
0.139266 0.583608 4.02963
0.166862 0.580086 4.01968
0.185808 0.570299 4.00409
0.197325 0.530735 3.96721
0.255015 0.481098 3.86296
0.18127 0.49707 3.98784
0.157832 0.489419 4.00238
0.127372 0.488107 4.0131
0.09763 0.492665 4.0188
0.0736821 0.500758 4.0187
0.0569812 0.508876 4.02091
0.251001 0.48612 3.77371
0.0618807 0.390936 4.08567
0.0339429 0.460033 4.10613
0.0306039 0.401227 4.14211
0.017242 0.390285 4.13287
0.030267 0.398261 4.1305
0.0549534 0.384268 4.07787
0.013116 0.388008 4.13937
0.00998203 0.385159 4.11196
0.0574017 0.527556 4.00854
0.0437013 0.521937 4.02298
0.0359618 0.518108 4.03942
0.170052 0.539147 3.99336
0.182535 0.548964 3.99275
