ply
format ascii 1.0
element vertex 478
property float x
property float y
property float z
end_header
0.4605095386505127 0.7056066989898682 -0.0693361833691597
0.43273669481277466 0.6224936842918396 -0.14118103682994843
0.4526795744895935 0.6491190195083618 -0.0782337412238121
0.43079811334609985 0.5359971523284912 -0.10104309767484665
0.4321746826171875 0.5946807265281677 -0.14960530400276184
0.4399792551994324 0.5604557991027832 -0.13994784653186798
0.466529905796051 0.4789632260799408 -0.07321944832801819
0.3376096487045288 0.4720429480075836 0.08044525980949402
0.47695639729499817 0.4083781838417053 -0.05374092608690262
0.47782474756240845 0.37171149253845215 -0.05797283351421356
0.48980438709259033 0.23922690749168396 -0.03524770960211754
0.4612688422203064 0.7159082889556885 -0.0657118707895279
0.46357262134552 0.7249014973640442 -0.059056878089904785
0.46691685914993286 0.729679524898529 -0.04958542808890343
0.4652421474456787 0.7957102060317993 -0.03141987323760986
0.4634215235710144 0.8098422884941101 -0.03635445982217789
0.46298328042030334 0.82612144947052 -0.04225688800215721
0.46466732025146484 0.8429411053657532 -0.03894824534654617
0.4686806797981262 0.8400752544403076 -0.01959594152867794
0.4382427930831909 0.6375548839569092 -0.12858346104621887
0.4214985966682434 0.6355897188186646 -0.08944544941186905
0.30652716755867004 0.36808672547340393 0.22034086287021637
0.393019437789917 0.49705588817596436 0.0362556129693985
0.3714883327484131 0.49723708629608154 0.04491329565644264
0.35247910022735596 0.49371689558029175 0.05814140662550926
0.3320849537849426 0.4781757891178131 0.08774483948945999
0.4117667078971863 0.4924342632293701 0.031551770865917206
0.3641597628593445 0.4187059998512268 0.03633991256356239
0.3889390826225281 0.42382127046585083 0.027741555124521255
0.34187233448028564 0.4217379093170166 0.05162714421749115
0.3284747302532196 0.4320306181907654 0.06594640016555786
0.31793510913848877 0.4902836084365845 0.10443951189517975
0.39437976479530334 0.8578899502754211 0.041171059012413025
0.3328996002674103 0.4646618366241455 0.09157896786928177
0.29956871271133423 0.47851264476776123 0.2345619648694992
0.30639052391052246 0.46903252601623535 0.1366690695285797
0.3521803617477417 0.5896767973899841 0.012311610393226147
0.4228670001029968 0.6956419944763184 -0.057151179760694504
0.4303247034549713 0.7187072038650513 -0.04545339569449425
0.39399799704551697 0.6946144700050354 -0.029573969542980194
0.37564778327941895 0.6957507133483887 0.004546604119241238
0.4056828022003174 0.7129630446434021 -0.022766495123505592
0.387955904006958 0.7093381285667419 0.006827285047620535
0.366502046585083 0.7474778294563293 0.06229577213525772
0.4140918254852295 0.6206122636795044 -0.13450150191783905
0.4115661382675171 0.5938265323638916 -0.14119045436382294
0.3069440424442291 0.3993983864784241 0.08243504166603088
0.4063641428947449 0.5314437747001648 -0.0028732349164783955
0.37622690200805664 0.6051521301269531 -0.05766450613737106
0.378985732793808 0.5910878777503967 -0.04918988049030304
0.2948954701423645 0.5807698369026184 0.06884603202342987
0.41979533433914185 0.5621240139007568 -0.12524867057800293
0.34149593114852905 0.3714523911476135 0.020099123939871788
0.31922364234924316 0.379790335893631 0.051081616431474686
0.31540173292160034 0.3205331563949585 0.16468580067157745
0.42689481377601624 0.3962952494621277 -0.03240888565778732
0.4102169871330261 0.43693363666534424 0.028447991237044334
0.3491861820220947 0.7112467288970947 0.07035348564386368
0.3377554416656494 0.714335024356842 0.2929423153400421
0.39278244972229004 0.6222512722015381 -0.053277745842933655
0.41142308712005615 0.6335977911949158 -0.06333577632904053
0.3545011281967163 0.7046884298324585 0.06704847514629364
0.36224159598350525 0.7082273960113525 0.0573565736413002
0.3136873245239258 0.3621998429298401 0.06655518710613251
0.37832745909690857 0.6146880984306335 -0.04421462118625641
0.37507981061935425 0.37394964694976807 -0.00885520689189434
0.37217676639556885 0.3523779809474945 -0.013790656812489033
0.3713030219078064 0.25591331720352173 0.038110196590423584
0.3123691976070404 0.34303176403045654 0.11044379323720932
0.3732830584049225 0.305266410112381 0.011601192876696587
0.30188241600990295 0.38664495944976807 0.10739362984895706
0.3012477159500122 0.38132649660110474 0.16171041131019592
0.4253881275653839 0.7087390422821045 -0.05304216966032982
0.3993639647960663 0.7045273184776306 -0.026215484365820885
0.3812776505947113 0.7028688192367554 0.003928828984498978
0.3986935019493103 0.6273021101951599 -0.051119349896907806
0.35831451416015625 0.706434428691864 0.06159777194261551
0.3667891025543213 0.737298309803009 0.04421713203191757
0.36598169803619385 0.7100642323493958 0.05585451051592827
0.3972986340522766 0.6181309223175049 -0.08933837711811066
0.3945383131504059 0.7140135765075684 0.008685380220413208
0.41226089000701904 0.7186338901519775 -0.014961562119424343
0.43625593185424805 0.7245825529098511 -0.035752277821302414
0.4326290488243103 0.83247971534729 -0.007537961006164551
0.42334872484207153 0.8331807255744934 -0.02523905411362648
0.42370283603668213 0.8168201446533203 -0.027082858607172966
0.427514910697937 0.8009462356567383 -0.021068336442112923
0.43338656425476074 0.7888773083686829 -0.017102446407079697
0.3925371766090393 0.7564966678619385 0.02235531248152256
0.38553670048713684 0.7599433660507202 0.018605541437864304
0.37776923179626465 0.7664672136306763 0.016449088230729103
0.37295639514923096 0.7744296193122864 0.023060429841279984
0.36210623383522034 0.6748588681221008 0.013135173358023167
0.32336854934692383 0.5905961990356445 0.3324929177761078
0.44464612007141113 0.6445629596710205 -0.09619152545928955
0.3810967803001404 0.7371349334716797 0.043911322951316833
0.3734266757965088 0.7365341186523438 0.04224313795566559
0.4194452166557312 0.6440078616142273 -0.06382950395345688
0.38763874769210815 0.6292725205421448 -0.029722126200795174
0.41536372900009155 0.6391575336456299 -0.06463886052370071
0.38242658972740173 0.5429460406303406 0.01325525064021349
0.344716340303421 0.5558075904846191 0.03129059448838234
0.3778269588947296 0.601250410079956 -0.03419667109847069
0.33453771471977234 0.2825269103050232 0.10147262364625931
0.33480149507522583 0.31684571504592896 0.06081723794341087
0.3366878032684326 0.350674569606781 0.026676015928387642
0.3823816180229187 0.7800514698028564 0.04270247742533684
0.4202449917793274 0.36072683334350586 -0.040843136608600616
0.4210722744464874 0.3033076822757721 -0.023858342319726944
0.42073583602905273 0.24260151386260986 -0.008618369698524475
0.3386203944683075 0.48769325017929077 0.074400894343853
0.2999574840068817 0.5043375492095947 0.12536393105983734
0.4240824580192566 0.4869428873062134 0.03151058778166771
0.3156348764896393 0.4398336112499237 0.09537270665168762
0.4218062460422516 0.5170955061912537 -0.016731783747673035
0.3844805359840393 0.599024772644043 -0.08626235276460648
0.2832111418247223 0.5221266746520996 0.16146031022071838
0.3038106858730316 0.5214542746543884 0.09925677627325058
0.3219020366668701 0.531415581703186 0.06749045848846436
0.35909879207611084 0.5312694311141968 0.042731139808893204
0.38927680253982544 0.5245462656021118 0.027110550552606583
0.4116448163986206 0.5152650475502014 0.012502968311309814
0.4465353786945343 0.4850737452507019 -0.05548761785030365
0.272596150636673 0.5712264776229858 0.15514525771141052
0.3060934543609619 0.43228089809417725 0.11221958696842194
0.426626980304718 0.6358119249343872 -0.12359403073787689
0.3998422920703888 0.5553061962127686 -0.015713177621364594
0.3172723948955536 0.4780292510986328 0.315360963344574
0.42770493030548096 0.5034958124160767 0.0030247436370700598
0.3799729347229004 0.6019436120986938 -0.008499251678586006
0.3257603645324707 0.46278321743011475 0.09929631650447845
0.3889963626861572 0.581519603729248 -0.0764513611793518
0.32747024297714233 0.6501601338386536 0.3194056451320648
0.4272248446941376 0.4787730574607849 0.038751572370529175
0.40408584475517273 0.5695986151695251 -0.10515985637903214
0.33965033292770386 0.7777597308158875 0.15928007662296295
0.360797643661499 0.8095611929893494 0.19691996276378632
0.2872251570224762 0.5826142430305481 0.24773380160331726
0.32015201449394226 0.7408153414726257 0.19377350807189941
0.2995058000087738 0.4274463653564453 0.20574851334095
0.3970291018486023 0.8843696117401123 0.05489799752831459
0.43429067730903625 0.6428345441818237 -0.09225910902023315
0.38020357489585876 0.5710684061050415 -0.0013776235282421112
0.29857370257377625 0.4720607399940491 0.16766713559627533
0.35393792390823364 0.4819808602333069 0.05897366255521774
0.3713657259941101 0.4853641092777252 0.04770556464791298
0.3617216944694519 0.7392084002494812 0.05008593201637268
0.27491453289985657 0.6226346492767334 0.16181086003780365
0.43434152007102966 0.9280527830123901 0.04464893043041229
0.39190560579299927 0.8785781264305115 0.11714944243431091
0.37902146577835083 0.8488765954971313 0.15406937897205353
0.48292675614356995 0.3041698634624481 -0.048025988042354584
0.47696080803871155 0.9410492181777954 0.022924436256289482
0.39019399881362915 0.48531439900398254 0.04051978886127472
0.40855610370635986 0.4828650951385498 0.03882576897740364
0.4207923710346222 0.48096612095832825 0.04067803546786308
0.30085086822509766 0.42571204900741577 0.14149904251098633
0.40846681594848633 0.46177858114242554 0.03606323152780533
0.3893192410469055 0.4543803036212921 0.03678995743393898
0.36982446908950806 0.45154204964637756 0.043925873935222626
0.3519431948661804 0.4532075524330139 0.056089214980602264
0.34156954288482666 0.457568496465683 0.06751588732004166
0.3069015443325043 0.41800856590270996 0.2741982936859131
0.3436357080936432 0.47714531421661377 0.07086300104856491
0.4569503664970398 0.6671195030212402 -0.06983251869678497
0.38027167320251465 0.664534330368042 -0.016257023438811302
0.39053043723106384 0.6190487742424011 -0.06362210959196091
0.4204031825065613 0.6641319990158081 -0.05698088929057121
0.47528356313705444 0.4441148638725281 -0.05477140471339226
0.362079381942749 0.8163815140724182 0.1289416402578354
0.3801387548446655 0.8493374586105347 0.0937148928642273
0.4270094633102417 0.9109008312225342 0.017616281285881996
0.3490181565284729 0.768264651298523 0.2473725527524948
0.4212859272956848 0.47180551290512085 0.037982843816280365
0.42533859610557556 0.5246774554252625 -0.058171555399894714
0.47120073437690735 0.9240657091140747 -0.002640238031744957
0.40788009762763977 0.906250536441803 0.07752937078475952
0.2922062575817108 0.6382781863212585 0.24170570075511932
0.4096693992614746 0.7751367092132568 0.0019410352688282728
0.402116060256958 0.783069372177124 -0.00137573282700032
0.39591139554977417 0.7949838638305664 -0.004103450570255518
0.39288806915283203 0.8095648288726807 0.0006284694536589086
0.4021868407726288 0.8101929426193237 0.01854376308619976
0.37325888872146606 0.707736611366272 0.034949950873851776
0.3672657608985901 0.7033640146255493 0.03818783164024353
0.3622083067893982 0.6987178325653076 0.039275579154491425
0.35040923953056335 0.689452052116394 0.04561595246195793
0.28487762808799744 0.6366375088691711 0.10274751484394073
0.4348333477973938 0.49975883960723877 -0.03439570963382721
0.43671804666519165 0.4532804489135742 0.012083949521183968
0.42793580889701843 0.45972657203674316 0.029017135500907898
0.3793373703956604 0.7113445997238159 0.03526446595788002
0.30203521251678467 0.7009595632553101 0.14447973668575287
0.4483238458633423 0.44873109459877014 -0.028219545260071754
0.399262011051178 0.8313395977020264 0.029869820922613144
0.44936442375183105 0.5331118106842041 -0.11667926609516144
0.43826916813850403 0.5123186707496643 -0.08135181665420532
0.4578010141849518 0.5078083872795105 -0.09365802258253098
0.40390491485595703 0.5612985491752625 -0.05486437305808067
0.46864014863967896 0.8981240391731262 -0.014729456044733524
0.46890679001808167 0.8668510913848877 -0.016949832439422607
0.4296572804450989 0.8571956157684326 -5.946593955741264e-05
0.3601455092430115 0.7598051428794861 0.07811444252729416
0.3643466830253601 0.621719479560852 0.007049291394650936
0.3788520097732544 0.7983176708221436 0.0567782036960125
0.31757408380508423 0.6174821853637695 0.03515602648258209
0.34633150696754456 0.6462886929512024 0.02586413361132145
0.306566447019577 0.6566659212112427 0.06720758229494095
0.4251894950866699 0.8861979246139526 0.005652837920933962
0.39320695400238037 0.5733100771903992 -0.03290116414427757
0.3540171980857849 0.7838109731674194 0.10240966081619263
0.37614044547080994 0.8214380741119385 0.07480606436729431
0.3392241597175598 0.7195196747779846 0.08365143090486526
0.28745460510253906 0.6681575775146484 0.16939707100391388
0.32317906618118286 0.7291181087493896 0.11045502126216888
0.3045599162578583 0.6914621591567993 0.23018500208854675
0.33471834659576416 0.6733493804931641 0.05102710798382759
0.41349244117736816 0.5400387048721313 -0.03519917652010918
0.38953322172164917 0.6122727394104004 -0.09309671074151993
0.3814307451248169 0.6149925589561462 -0.0638292208313942
0.39623212814331055 0.5956299304962158 -0.11348477005958557
0.41834157705307007 0.4240891933441162 0.01172026339918375
0.3833225667476654 0.4048048257827759 0.017818158492445946
0.353354275226593 0.4006327688694 0.030022725462913513
0.33074307441711426 0.4055367410182953 0.049841489642858505
0.31795522570610046 0.4182031452655792 0.0715903714299202
0.3173462152481079 0.46562808752059937 0.11320677399635315
0.29120683670043945 0.5304542779922485 0.2448381781578064
0.32370325922966003 0.5013461709022522 0.08835779130458832
0.34035390615463257 0.5095511078834534 0.0665464848279953
0.36608415842056274 0.5123108625411987 0.04751923680305481
0.3927042484283447 0.5094841718673706 0.03372383862733841
0.4138769507408142 0.503089964389801 0.024745844304561615
0.42794179916381836 0.49578389525413513 0.018057730048894882
0.3232265114784241 0.5342850685119629 0.3334202468395233
0.38470393419265747 0.6205254793167114 -0.051791537553071976
0.4160732626914978 0.5465067625045776 -0.07823310047388077
0.40094631910324097 0.6160433292388916 -0.11775017529726028
0.41737139225006104 0.630987823009491 -0.11171212047338486
0.40443676710128784 0.6208782196044922 -0.10549868643283844
0.391796737909317 0.6281540989875793 -0.045804478228092194
0.4202296733856201 0.6337572932243347 -0.11927562206983566
0.4269285202026367 0.6402381658554077 -0.09076512604951859
0.4325297772884369 0.4788631796836853 0.030307041481137276
0.4391476511955261 0.48203805088996887 0.009949755854904652
0.4404207170009613 0.48448339104652405 -0.010347248986363411
0.3361912965774536 0.46118319034576416 0.07829118520021439
0.3227066397666931 0.4443672299385071 0.08343097567558289
0.4729073643684387 0.5377851724624634 -0.11529481410980225
0.6756985187530518 0.48296108841896057 -0.023080583661794662
0.47391068935394287 0.6395877599716187 -0.10048260539770126
0.8186417818069458 0.3754601776599884 0.06499116867780685
0.6017866730690002 0.5001415014266968 -0.030205827206373215
0.6274644136428833 0.5029087066650391 -0.03492545336484909
0.6533462405204773 0.5025587677955627 -0.034539204090833664
0.6902577877044678 0.49180692434310913 -0.022075867280364037
0.5799424648284912 0.49387213587760925 -0.020524775609374046
0.6391448974609375 0.42484140396118164 -0.04789592698216438
0.6100184321403503 0.42681559920310974 -0.03857317194342613
0.6675909161567688 0.43107473850250244 -0.0456964410841465
0.6872100234031677 0.44352179765701294 -0.03910946473479271
0.7163892388343811 0.5069000124931335 -0.013025620952248573
0.5789653658866882 0.8782345652580261 -0.008254813961684704
0.6868733167648315 0.4776798486709595 -0.01677536591887474
0.8246155381202698 0.4976848363876343 0.0744449645280838
0.7516130208969116 0.4886339604854584 0.004822493065148592
0.6192107200622559 0.6030994653701782 -0.0558648407459259
0.507818877696991 0.6990229487419128 -0.07635961472988129
0.5090507864952087 0.7220969200134277 -0.06351201981306076
0.5587172508239746 0.7027015686035156 -0.06868475675582886
0.596066415309906 0.7062036395072937 -0.049069471657276154
0.5511764883995056 0.7188382148742676 -0.05777138099074364
0.5856220722198486 0.7170715928077698 -0.039444830268621445
0.6326230764389038 0.766962468624115 -0.006079341284930706
0.45565491914749146 0.6233946681022644 -0.14364059269428253
0.45887207984924316 0.5962429642677307 -0.15221035480499268
0.7291934490203857 0.41459423303604126 -0.04221667721867561
0.5608645081520081 0.5378119945526123 -0.04695843532681465
0.5481456518173218 0.6154776215553284 -0.09952721744775772
0.5545461177825928 0.6006447672843933 -0.0924498587846756
0.7119620442390442 0.6019866466522217 -0.043034378439188004
0.4651111960411072 0.5640873908996582 -0.1394047886133194
0.6569379568099976 0.3786174952983856 -0.06551575660705566
0.6981975436210632 0.39124852418899536 -0.056937944144010544
0.7807954549789429 0.32349520921707153 0.02506071701645851
0.5356663465499878 0.40097445249557495 -0.0599808469414711
0.5854206681251526 0.43803727626800537 -0.025208523496985435
0.6578384041786194 0.7324120998382568 -0.011118901893496513
0.8082506656646729 0.7521094083786011 0.1502586305141449
0.52852463722229 0.6315701007843018 -0.08504686504602432
0.5032787322998047 0.6395059823989868 -0.07924429327249527
0.6469361186027527 0.7167332172393799 -0.004575842525810003
0.637805163860321 0.7189601063728333 -0.0064896647818386555
0.7164797186851501 0.37264591455459595 -0.049160491675138474
0.5560394525527954 0.6255006194114685 -0.08530265837907791
0.6039933562278748 0.3794403076171875 -0.06773952394723892
0.6079094409942627 0.35579875111579895 -0.07444562762975693
0.6495937705039978 0.2538016736507416 -0.04120757058262825
0.7480276226997375 0.34825456142425537 -0.017122123390436172
0.6235831379890442 0.3049936890602112 -0.058205585926771164
0.7507346868515015 0.4022403359413147 -0.02612738497555256
0.7856618165969849 0.3907845914363861 0.01706021837890148
0.5085691213607788 0.7120745182037354 -0.07219648361206055
0.5547442436218262 0.711578905582428 -0.06347627937793732
0.5907144546508789 0.711929976940155 -0.04574322700500488
0.5235437154769897 0.63594651222229 -0.07636575400829315
0.6422571539878845 0.7178033590316772 -0.005224115680903196
0.6198203563690186 0.7473427057266235 -0.012895173393189907
0.633576512336731 0.7202154397964478 -0.006238948553800583
0.5024277567863464 0.6251782178878784 -0.11780588328838348
0.5816863775253296 0.7200949788093567 -0.03540625795722008
0.5479726195335388 0.7231917977333069 -0.04795455560088158
0.5095374584197998 0.7273283004760742 -0.05439867079257965
0.515022337436676 0.8395784497261047 -0.025612933561205864
0.514777421951294 0.8386209607124329 -0.04530756548047066
0.5118186473846436 0.8220542669296265 -0.04817071557044983
0.509320855140686 0.8054459095001221 -0.041799966245889664
0.5074911713600159 0.792487621307373 -0.03669040650129318
0.5798601508140564 0.7633522748947144 -0.021977892145514488
0.5853337645530701 0.7678452730178833 -0.025990691035985947
0.5925420522689819 0.7754757404327393 -0.02940245158970356
0.5982155799865723 0.7841977477073669 -0.025713594630360603
0.6076681017875671 0.6906340718269348 -0.04723282530903816
0.847393274307251 0.6185075640678406 0.17423711717128754
0.6053820848464966 0.7452921867370605 -0.010914020240306854
0.6124364733695984 0.7456188797950745 -0.01292422041296959
0.4945986568927765 0.6490605473518372 -0.07938341796398163
0.5520605444908142 0.6398589611053467 -0.06234696879982948
0.49841755628585815 0.6445706486701965 -0.07992052286863327
0.592344343662262 0.5520343780517578 -0.04545406624674797
0.6393957138061523 0.5693364143371582 -0.04845774918794632
0.5645016431808472 0.6117250919342041 -0.07878589630126953
0.7264888882637024 0.28194060921669006 -0.012308770790696144
0.6963112354278564 0.3185407519340515 -0.04158429801464081
0.6680749654769897 0.3559781312942505 -0.06464671343564987
0.600495457649231 0.7972418069839478 -0.013747148215770721
0.5423169732093811 0.3630051612854004 -0.0707351341843605
0.5552676320075989 0.3031774163246155 -0.05971474573016167
0.5729697942733765 0.24108454585075378 -0.048348069190979004
0.6761370897293091 0.49954473972320557 -0.029226893559098244
0.7474995851516724 0.5246526002883911 -0.005111203994601965
0.5655643343925476 0.4876268804073334 -0.014889227226376534
0.7175418734550476 0.45572686195373535 -0.02415543608367443
0.5385385155677795 0.5215511918067932 -0.051983412355184555
0.5209496021270752 0.6069239377975464 -0.12002789229154587
0.7879009246826172 0.5446254014968872 0.014186082407832146
0.725488543510437 0.5402193665504456 -0.02346429042518139
0.6874623894691467 0.5464822053909302 -0.037255819886922836
0.6338436007499695 0.5419765114784241 -0.03702894598245621
0.5949942469596863 0.5317769050598145 -0.03343156725168228
0.5660364031791687 0.5197016596794128 -0.033078841865062714
0.4933237135410309 0.48639896512031555 -0.07037663459777832
0.7860051393508911 0.5982860922813416 0.008282343856990337
0.742500901222229 0.4502634108066559 -0.019216032698750496
0.4526173770427704 0.637839674949646 -0.13090397417545319
0.5555484294891357 0.5622449517250061 -0.058352384716272354
0.8527966737747192 0.49553120136260986 0.1509886533021927
0.5437895655632019 0.5055131316184998 -0.03219842165708542
0.5735186338424683 0.6126533150672913 -0.0524589866399765
0.7013956308364868 0.47750139236450195 -0.014138482511043549
0.5280949473381042 0.5888437032699585 -0.11075834929943085
0.8348224759101868 0.6836565136909485 0.16785450279712677
0.5670779943466187 0.4797326326370239 -0.009497447870671749
0.495414674282074 0.5742079019546509 -0.1301884651184082
0.7188527584075928 0.8146178722381592 0.04911399632692337
0.7233784794807434 0.8489588499069214 0.08855519443750381
0.826170027256012 0.6117860674858093 0.08781865239143372
0.763027548789978 0.7788876891136169 0.06432701647281647
0.8071195483207703 0.44106924533843994 0.051598597317934036
0.5809745192527771 0.9074063897132874 0.002138146897777915
0.45588943362236023 0.6442335844039917 -0.0967995747923851
0.5840182304382324 0.5807409882545471 -0.05418534576892853
0.7797558903694153 0.4941141605377197 0.02244335599243641
0.648659884929657 0.4884122312068939 -0.03155035898089409
0.6269164681434631 0.4888269305229187 -0.0324077308177948
0.626434326171875 0.7499988079071045 -0.010966531001031399
0.7861425280570984 0.6540303230285645 0.01959400251507759
0.5300182104110718 0.9418855905532837 0.01552029699087143
0.6246036291122437 0.9086619019508362 0.045525774359703064
0.6692728996276855 0.8845422267913818 0.06500493735074997
0.6062018275260925 0.4866426885128021 -0.027753032743930817
0.5865059494972229 0.4831106662750244 -0.01958613470196724
0.5735852122306824 0.48150718212127686 -0.011595289222896099
0.7678897380828857 0.4439511299133301 1.071607130143093e-06
0.5924584865570068 0.4633215069770813 -0.02436886727809906
0.6145060658454895 0.4572972059249878 -0.033516157418489456
0.6350427269935608 0.45718246698379517 -0.03815999627113342
0.6561588644981384 0.461758553981781 -0.03731963410973549
0.6703335046768188 0.46823304891586304 -0.03220154345035553
0.8408715724945068 0.4299076199531555 0.11214619874954224
0.6640363335609436 0.48609018325805664 -0.027720123529434204
0.5698267221450806 0.676542341709137 -0.06194563955068588
0.5248357057571411 0.6281732320785522 -0.09318475425243378
0.5020980834960938 0.6698595285415649 -0.07619257271289825
0.6712059378623962 0.8502472639083862 0.03908200562000275
0.6279736161231995 0.8791900277137756 0.022516116499900818
0.5269773006439209 0.9239541292190552 -0.011341885663568974
0.7686855792999268 0.8074967861175537 0.1187971904873848
0.5752241015434265 0.47324007749557495 -0.015667401254177094
0.5070757865905762 0.52789705991745 -0.08184400200843811
0.5786485075950623 0.9293638467788696 0.024332985281944275
0.8182672262191772 0.6722535490989685 0.08822799474000931
0.5457943677902222 0.780581533908844 -0.031786806881427765
0.5508490204811096 0.7897006273269653 -0.03641825541853905
0.5559936165809631 0.802563488483429 -0.040860433131456375
0.5599552392959595 0.8173702359199524 -0.037376340478658676
0.5623598098754883 0.8230928182601929 -0.02329658903181553
0.6162728071212769 0.7168296575546265 -0.022747011855244637
0.6215315461158752 0.7137110233306885 -0.024274464696645737
0.6267829537391663 0.7102248668670654 -0.026510270312428474
0.6398109197616577 0.708339512348175 -0.02961663156747818
0.7431294322013855 0.6647763252258301 -0.019361799582839012
0.515250563621521 0.5025007724761963 -0.059415269643068314
0.5444919466972351 0.45375221967697144 -0.019625606015324593
0.562987744808197 0.4603538513183594 -0.015677738934755325
0.6114087700843811 0.7191157937049866 -0.019743673503398895
0.7503646612167358 0.734271228313446 0.021476127207279205
0.5143473148345947 0.44967830181121826 -0.046705462038517
0.5728596448898315 0.8485103249549866 -0.014564995653927326
0.4826779365539551 0.5139017701148987 -0.09413927793502808
0.5277721285820007 0.5674406886100769 -0.08622801303863525
0.520419180393219 0.8664628267288208 -0.02118673361837864
0.6466116309165955 0.7834469676017761 0.000604135449975729
0.5996163487434387 0.634725034236908 -0.049531638622283936
0.6133861541748047 0.8199762105941772 -0.004653808195143938
0.6691637635231018 0.6370090246200562 -0.053077857941389084
0.6307135820388794 0.6628203988075256 -0.045461226254701614
0.6997252106666565 0.6811817288398743 -0.03417776897549629
0.5243825316429138 0.8976187705993652 -0.021741878241300583
0.5518674850463867 0.581039547920227 -0.07239842414855957
0.6642724871635437 0.8130941987037659 0.01552251074463129
0.6226221919059753 0.8475329279899597 0.007987940683960915
0.673643171787262 0.7440804839134216 -0.009441837668418884
0.7806601524353027 0.702197790145874 0.03300049528479576
0.707658052444458 0.7599023580551147 0.005148784257471561
0.799355149269104 0.7284126281738281 0.08368588238954544
0.6622337698936462 0.6934487223625183 -0.03472103178501129
0.530951201915741 0.5452127456665039 -0.06880541890859604
0.5098978877067566 0.6201716065406799 -0.12385058403015137
0.5377330780029297 0.6251934766769409 -0.0993112325668335
0.48932820558547974 0.6012605428695679 -0.1386309713125229
0.564513087272644 0.4272307753562927 -0.03173854202032089
0.6065788865089417 0.40953999757766724 -0.04527141526341438
0.6446327567100525 0.40748417377471924 -0.05217311531305313
0.678019106388092 0.4154769480228424 -0.05006517842411995
0.7032886147499084 0.4313547611236572 -0.04042010009288788
0.7224627733230591 0.4823547601699829 -0.007546811830252409
0.8281501531600952 0.5546672940254211 0.0807233601808548
0.6988707780838013 0.5166478157043457 -0.022468803450465202
0.6690164804458618 0.5216071605682373 -0.030086345970630646
0.6320027112960815 0.5208555459976196 -0.03180711716413498
0.5983360409736633 0.5147310495376587 -0.028651289641857147
0.5723398923873901 0.5061303377151489 -0.022123564034700394
0.5542046427726746 0.4971165657043457 -0.020012564957141876
0.8522837162017822 0.5565595030784607 0.169403538107872
0.5421825051307678 0.6307156682014465 -0.08654571324586868
0.4993476867675781 0.550379753112793 -0.10282641649246216
0.4807761013507843 0.621903657913208 -0.13705891370773315
0.4713171422481537 0.63588547706604 -0.12289396673440933
0.48654887080192566 0.6273276805877686 -0.12540385127067566
0.538542628288269 0.6377252340316772 -0.07501230388879776
0.4630511403083801 0.6373043656349182 -0.12833882868289948
0.4659685492515564 0.6432164311408997 -0.09852301329374313
0.5566145181655884 0.47891494631767273 -0.009766973555088043
0.540105402469635 0.4819217622280121 -0.019853655248880386
0.5273102521896362 0.48464542627334595 -0.035317227244377136
0.6793735027313232 0.47327667474746704 -0.025803975760936737
0.7006251811981201 0.45862877368927 -0.027392610907554626
0.3856155276298523 0.46669846773147583 0.054062485694885254
0.4089950919151306 0.4668172299861908 0.054062485694885254
0.3860699236392975 0.44530433416366577 0.054062485694885254
0.36215370893478394 0.46655887365341187 0.054062485694885254
0.3849855065345764 0.4874061048030853 0.054062485694885254
0.6359304785728455 0.4731125235557556 -0.025437727570533752
0.6612550616264343 0.47435909509658813 -0.025437727570533752
0.6366698145866394 0.4510829448699951 -0.025437727570533752
0.6111358404159546 0.4718092083930969 -0.025437727570533752
0.6352910995483398 0.4949050545692444 -0.025437727570533752
