ply
format ascii 1.0
element vertex 478
property float x
property float y
property float z
end_header
0.5124116539955139 0.6876749992370605 -0.07804105430841446
0.5086014866828918 0.6185445785522461 -0.1421837955713272
0.5062405467033386 0.6414892077445984 -0.08147944509983063
0.4855861961841583 0.5380262136459351 -0.10410404950380325
0.5083081722259521 0.5925199389457703 -0.14895837008953094
0.5071108937263489 0.5602816343307495 -0.13712160289287567
0.503614604473114 0.48503702878952026 -0.06458001583814621
0.33456575870513916 0.4825901985168457 0.031200513243675232
0.5021080374717712 0.4378005862236023 -0.04267914593219757
0.5016916990280151 0.4083559513092041 -0.04387514665722847
0.49868038296699524 0.28417545557022095 -0.006433176342397928
0.5121354460716248 0.6966784596443176 -0.07547515630722046
0.511576235294342 0.705376923084259 -0.06932655721902847
0.5110884308815002 0.7104816436767578 -0.06073756515979767
0.5093308687210083 0.7603644132614136 -0.04100360721349716
0.509810209274292 0.7697209119796753 -0.04736303165555
0.5095434784889221 0.781620442867279 -0.05374192073941231
0.509158194065094 0.7949638366699219 -0.05054474622011185
0.5071551203727722 0.839606523513794 -0.03135085478425026
0.5079342126846313 0.6320666074752808 -0.1304038166999817
0.48171573877334595 0.6310914754867554 -0.0975453108549118
0.23990026116371155 0.3986645042896271 0.14688827097415924
0.3979038596153259 0.49776238203048706 0.009078861214220524
0.37616676092147827 0.49976846575737 0.008937488310039043
0.35408520698547363 0.4999083876609802 0.01391842495650053
0.3230707049369812 0.4909926652908325 0.03297648951411247
0.4156225919723511 0.4936680793762207 0.011827719397842884
0.3625906705856323 0.440279096364975 0.001817513955757022
0.38888198137283325 0.4423314929008484 0.004442704375833273
0.3381679654121399 0.445098876953125 0.0075390152633190155
0.32220330834388733 0.4545939564704895 0.016606049612164497
0.3019670844078064 0.5048148036003113 0.042676977813243866
0.4082145690917969 0.8702726364135742 -0.004413323942571878
0.3253527283668518 0.47803157567977905 0.038768887519836426
0.22517070174217224 0.5039281845092773 0.14876608550548553
0.2726541757583618 0.4927556812763214 0.0670635774731636
0.3753754794597626 0.5954706072807312 -0.025727685540914536
0.471016526222229 0.6819263100624084 -0.07627224177122116
0.4730128049850464 0.7040547728538513 -0.0658959373831749
0.42996227741241455 0.6904728412628174 -0.06073407456278801
0.4024224579334259 0.7012630105018616 -0.03582872822880745
0.4402236044406891 0.7058498859405518 -0.05300576612353325
0.41474196314811707 0.7105502486228943 -0.030315646901726723
0.3725147545337677 0.7600423097610474 0.009831013157963753
0.4875238239765167 0.6180931925773621 -0.14058561623096466
0.4847245216369629 0.5929650068283081 -0.14683754742145538
0.28900474309921265 0.4415554404258728 0.020060531795024872
0.43014007806777954 0.5364078283309937 -0.023143144324421883
0.42210572957992554 0.6076220273971558 -0.08120802789926529
0.4198228120803833 0.5943239331245422 -0.07243074476718903
0.3012307584285736 0.5920570492744446 0.0023084860295057297
0.4849511981010437 0.5630365610122681 -0.13044771552085876
0.3484230935573578 0.4184413552284241 -0.018549878150224686
0.3136851191520691 0.42580318450927734 -0.0025450491812080145
0.26782453060150146 0.3551853895187378 0.1041041910648346
0.45179271697998047 0.4370940923690796 -0.0362415686249733
0.4112544655799866 0.4512907862663269 0.012585269287228584
0.3522034287452698 0.7244846820831299 0.012168723158538342
0.2392803132534027 0.7476778030395508 0.1933394819498062
0.44026485085487366 0.622491180896759 -0.07128380984067917
0.46145015954971313 0.6301236748695374 -0.07503651082515717
0.3708772659301758 0.725872814655304 0.014035195112228394
0.3780914545059204 0.7259726524353027 0.008953937329351902
0.2999306917190552 0.4133969843387604 0.010990084148943424
0.4183399975299835 0.6171582937240601 -0.06821119040250778
0.3939482569694519 0.4212932586669922 -0.02995282970368862
0.38974642753601074 0.4046627879142761 -0.033861834555864334
0.3663153052330017 0.297090619802475 0.01949823834002018
0.2879607379436493 0.38044658303260803 0.05293597653508186
0.38364219665527344 0.3441612720489502 -0.006992221809923649
0.27310919761657715 0.4328497052192688 0.041588954627513885
0.2592928409576416 0.4149061441421509 0.09349839389324188
0.47123950719833374 0.6941450834274292 -0.07321655750274658
0.43493521213531494 0.6989651918411255 -0.05720780789852142
0.40843984484672546 0.7062811851501465 -0.03482936695218086
0.44547712802886963 0.626603901386261 -0.06709989905357361
0.3744988441467285 0.7259271144866943 0.01130729541182518
0.3895409107208252 0.7441874742507935 -0.0007222472340799868
0.38144564628601074 0.7260302901268005 0.008168291300535202
0.4566710591316223 0.6172676086425781 -0.10555665194988251
0.41998156905174255 0.7129306197166443 -0.02776683121919632
0.4449332356452942 0.7096961140632629 -0.04490285739302635
0.4753860831260681 0.7092610001564026 -0.05743906646966934
0.46515321731567383 0.8360357880592346 -0.029943354427814484
0.46829649806022644 0.7926580905914307 -0.048476021736860275
0.4698067009449005 0.7791842818260193 -0.05050133913755417
0.4721735119819641 0.76774001121521 -0.04357389360666275
0.47504931688308716 0.7591898441314697 -0.03770788758993149
0.42066046595573425 0.7490385174751282 -0.012987199239432812
0.41537314653396606 0.7525911331176758 -0.017639895901083946
0.40873095393180847 0.758966326713562 -0.020701654255390167
0.40393707156181335 0.7669827342033386 -0.016321120783686638
0.3840848207473755 0.6806929707527161 -0.029176894575357437
0.2142343819141388 0.6185610890388489 0.23592321574687958
0.5071404576301575 0.637552797794342 -0.09872382134199142
0.40236926078796387 0.7406288385391235 0.0015523780602961779
0.39586615562438965 0.7417445182800293 -0.001132776029407978
0.46927204728126526 0.639311671257019 -0.07606238126754761
0.4250850975513458 0.6307821273803711 -0.050038013607263565
0.46555095911026 0.6348425149917603 -0.07650496065616608
0.4032015800476074 0.5487012267112732 -0.017229024320840836
0.3621582090854645 0.5632543563842773 -0.01407096441835165
0.41350027918815613 0.6046657562255859 -0.058970943093299866
0.30823567509651184 0.320471853017807 0.058701593428850174
0.32789307832717896 0.3562076985836029 0.020635608583688736
0.33991387486457825 0.4024859666824341 -0.011721623130142689
0.395230770111084 0.7905732989311218 -0.002863208996132016
0.44441622495651245 0.41045641899108887 -0.043384701013565063
0.43858471512794495 0.3403559923171997 -0.021648135036230087
0.4273681938648224 0.28619059920310974 -0.002531311707571149
0.3345493972301483 0.49737030267715454 0.023272089660167694
0.2760324776172638 0.5206369161605835 0.054681822657585144
0.4272788166999817 0.48944616317749023 0.015877392143011093
0.29859399795532227 0.4662243723869324 0.03546591475605965
0.44861239194869995 0.5219232439994812 -0.031225264072418213
0.44108259677886963 0.6005568504333496 -0.10458976775407791
0.2454182505607605 0.5418155193328857 0.07843374460935593
0.2941216230392456 0.5335353016853333 0.03223228082060814
0.3260495662689209 0.5393308401107788 0.011194230057299137
0.3721229135990143 0.5345684885978699 0.0007261809078045189
0.40486782789230347 0.5256026387214661 -0.002088329056277871
0.4286307096481323 0.5159806609153748 -0.007364941295236349
0.4811786711215973 0.4912338852882385 -0.055683255195617676
0.2442212700843811 0.590227484703064 0.06813886016607285
0.27870702743530273 0.4648949205875397 0.04587051272392273
0.4948183596134186 0.6312251687049866 -0.1294488161802292
0.4292985200881958 0.559179425239563 -0.03587708994746208
0.2135453224182129 0.5049871802330017 0.22634321451187134
0.4466490149497986 0.5052868127822876 -0.009685102850198746
0.4095756411552429 0.6057074666023254 -0.032170962542295456
0.3131260871887207 0.47981399297714233 0.04244609177112579
0.4390772879123688 0.5842653512954712 -0.09384790807962418
0.22124111652374268 0.680942177772522 0.22040404379367828
0.42645302414894104 0.48266398906707764 0.02352290041744709
0.46259039640426636 0.5715267658233643 -0.11683670431375504
0.2972221374511719 0.802932858467102 0.07942241430282593
0.2981261909008026 0.8403600454330444 0.11270709335803986
0.21838721632957458 0.6077427864074707 0.15244200825691223
0.2640809416770935 0.768358051776886 0.10380998998880386
0.241237074136734 0.4554113745689392 0.1283147931098938
0.4047098457813263 0.9011968374252319 0.00423579104244709
0.4965077340602875 0.636633038520813 -0.09728479385375977
0.4052945375442505 0.5757699608802795 -0.02868860773742199
0.25061002373695374 0.49778664112091064 0.09049572795629501
0.3572308421134949 0.4871503710746765 0.017953012138605118
0.37590599060058594 0.4876328706741333 0.012851959094405174
0.38431406021118164 0.7476551532745361 0.0025094954762607813
0.2437993288040161 0.6433455348014832 0.07319708168506622
0.45335686206817627 0.9427461624145508 0.004932017531245947
0.3723883628845215 0.902837872505188 0.05399174988269806
0.33802172541618347 0.8764896392822266 0.08105891197919846
0.500137448310852 0.3408612906932831 -0.02505650371313095
0.5086926817893982 0.9479894638061523 0.00018512540555093437
0.39358195662498474 0.4863482713699341 0.012615409679710865
0.409900426864624 0.4843429923057556 0.016783345490694046
0.42081940174102783 0.48376229405403137 0.022333018481731415
0.25933969020843506 0.46139445900917053 0.06989835947751999
0.40635794401168823 0.46530061960220337 0.015751326456665993
0.3876119554042816 0.4577806890010834 0.01006634533405304
0.36852797865867615 0.4566802978515625 0.010000788606703281
0.3492306172847748 0.46118175983428955 0.01457251701503992
0.3373805582523346 0.4679539203643799 0.021913396194577217
0.22273364663124084 0.4457051157951355 0.19205649197101593
0.34406930208206177 0.4852052330970764 0.02470601722598076
0.5062541961669922 0.6596320271492004 -0.074409119784832
0.4121299088001251 0.6665363311767578 -0.048518143594264984
0.44155991077423096 0.6192100644111633 -0.08030927181243896
0.4659278094768524 0.6598997116088867 -0.0728854164481163
0.5024563670158386 0.460651695728302 -0.04358116164803505
0.33334410190582275 0.8397168517112732 0.0587456077337265
0.36734533309936523 0.8705881834030151 0.033234164118766785
0.45276689529418945 0.9216216802597046 -0.019946111366152763
0.26684051752090454 0.8012786507606506 0.15212416648864746
0.41992396116256714 0.4760027527809143 0.02027791365981102
0.46590718626976013 0.5282106399536133 -0.06548640131950378
0.5087435245513916 0.9273896813392639 -0.023851903155446053
0.4093444049358368 0.9262720346450806 0.02458716370165348
0.22332975268363953 0.6654911637306213 0.14525197446346283
0.44566330313682556 0.7552186250686646 -0.026965366676449776
0.4404262602329254 0.7615970373153687 -0.031989116221666336
0.4358997344970703 0.7712686061859131 -0.03564927726984024
0.4330019950866699 0.7836793065071106 -0.03225927799940109
0.4247449040412903 0.8177772760391235 -0.01841643638908863
0.39338362216949463 0.7171555161476135 -0.009685133583843708
0.3874039649963379 0.715177059173584 -0.009088165126740932
0.38239818811416626 0.7124853134155273 -0.00948861613869667
0.3623935580253601 0.6991127729415894 -0.006704346276819706
0.27677005529403687 0.6519672274589539 0.02598213404417038
0.4656375050544739 0.5050410032272339 -0.04148159176111221
0.44626960158348083 0.4669521450996399 0.007892020046710968
0.4299633800983429 0.46882402896881104 0.0167936272919178
0.39891815185546875 0.7180291414260864 -0.007900143042206764
0.27261173725128174 0.7215262055397034 0.06239386647939682
0.47017401456832886 0.4660626947879791 -0.026121048256754875
0.41605710983276367 0.8411471843719482 -0.0099015012383461
0.5058767795562744 0.5342273116111755 -0.11159497499465942
0.483403742313385 0.5155737400054932 -0.08148448914289474
0.5047803521156311 0.5103210806846619 -0.08640221506357193
0.44619297981262207 0.5644652843475342 -0.0688515454530716
0.5085268616676331 0.8982903361320496 -0.033649954944849014
0.5077778100967407 0.865939736366272 -0.03198636695742607
0.46042320132255554 0.8616594076156616 -0.027056092396378517
0.35722407698631287 0.7735650539398193 0.019853396341204643
0.3893764615058899 0.6264674663543701 -0.02607179433107376
0.38341236114501953 0.8112315535545349 0.007118937559425831
0.33418095111846924 0.6259213089942932 -0.017432518303394318
0.36575019359588623 0.6526954770088196 -0.018639063462615013
0.31158044934272766 0.6680165529251099 0.004307384602725506
0.45514318346977234 0.8928437829017639 -0.028441930189728737
0.4280039966106415 0.5768063068389893 -0.05234725400805473
0.3400822877883911 0.8016244173049927 0.03674216940999031
0.3731844425201416 0.8379122614860535 0.01956540159881115
0.33591893315315247 0.7334153056144714 0.018756648525595665
0.24902555346488953 0.6906300187110901 0.08079557120800018
0.30625489354133606 0.746955394744873 0.037851735949516296
0.23751074075698853 0.7199295163154602 0.1329461634159088
0.3436000347137451 0.6826016306877136 -0.004815945867449045
0.44851964712142944 0.5437231063842773 -0.04937567561864853
0.44923636317253113 0.612588107585907 -0.11027057468891144
0.4302259683609009 0.6164188981056213 -0.08431195467710495
0.46222275495529175 0.5963571071624756 -0.12781621515750885
0.42897939682006836 0.4490676522254944 0.00187074881978333
0.39156877994537354 0.43544137477874756 -0.004837107844650745
0.35759586095809937 0.43281203508377075 -0.005940892733633518
0.32886409759521484 0.4380050301551819 0.0017607235349714756
0.3087005317211151 0.4492209553718567 0.015732523053884506
0.2957748472690582 0.48625022172927856 0.05073593929409981
0.218930184841156 0.554833173751831 0.151810884475708
0.3161793351173401 0.5124984979629517 0.030926546081900597
0.3413994312286377 0.517087996006012 0.016962286084890366
0.3730356991291046 0.5158587694168091 0.008130754344165325
0.4016047716140747 0.5107365846633911 0.006720161065459251
0.4229635000228882 0.5043309926986694 0.005908197723329067
0.4379916787147522 0.4979732632637024 0.005725339520722628
0.21293342113494873 0.5612994432449341 0.23960581421852112
0.428820937871933 0.6218464970588684 -0.07230029255151749
0.4660361409187317 0.5492562055587769 -0.0876074805855751
0.4687364399433136 0.615009605884552 -0.12908482551574707
0.48102429509162903 0.6276049613952637 -0.1195053979754448
0.4677506685256958 0.6194373965263367 -0.11723321676254272
0.4342203140258789 0.6286070942878723 -0.06391781568527222
0.4865119457244873 0.6297825574874878 -0.12612010538578033
0.48791515827178955 0.6348991990089417 -0.09735561162233353
0.4350486397743225 0.4832811951637268 0.019494149833917618
0.4497257471084595 0.4871293902397156 0.003988170996308327
0.4598276615142822 0.4899177551269531 -0.015893733128905296
0.3307434916496277 0.4733186960220337 0.02891591377556324
0.3124224841594696 0.46601957082748413 0.02963308058679104
0.5261450409889221 0.5376632809638977 -0.10204115509986877
0.664147138595581 0.4778268039226532 0.04621770977973938
0.5317187309265137 0.6306165456771851 -0.09593130648136139
0.740198016166687 0.39760902523994446 0.1727798730134964
0.5994152426719666 0.49532559514045715 0.018846480175852776
0.6220756769180298 0.4972813129425049 0.020699145272374153
0.6441022157669067 0.4971446990966797 0.027464233338832855
0.6734727025032043 0.4858682155609131 0.04887179657816887
0.579828679561615 0.49097776412963867 0.019520875066518784
0.6367591023445129 0.4383322596549988 0.013854102231562138
0.6093003153800964 0.4402734041213989 0.013830308802425861
0.6609586477279663 0.4424678087234497 0.021579643711447716
0.6757700443267822 0.4509069621562958 0.03172239288687706
0.6925254464149475 0.4999387562274933 0.05984393134713173
0.6045317053794861 0.8675009608268738 0.0029956530779600143
0.672898530960083 0.47246551513671875 0.05440296232700348
0.7593693733215332 0.5012249946594238 0.17231465876102448
0.7184828519821167 0.4857325851917267 0.08619959652423859
0.6313360929489136 0.594414234161377 -0.015654301270842552
0.5514513850212097 0.6821649670600891 -0.07357761263847351
0.5475690364837646 0.7040071487426758 -0.06341693550348282
0.587655782699585 0.6900022029876709 -0.05534268170595169
0.6109470129013062 0.7001039981842041 -0.02840259298682213
0.5768316388130188 0.7057222723960876 -0.048293374478816986
0.598727285861969 0.7101945877075195 -0.023901354521512985
0.6343947052955627 0.7576920390129089 0.019430063664913177
0.5290654897689819 0.6178188323974609 -0.13926304876804352
0.5315883755683899 0.5926151871681213 -0.14528170228004456
0.7063621878623962 0.437397837638855 0.03788844496011734
0.5751485824584961 0.5355405211448669 -0.01667250134050846
0.5889034271240234 0.6066709756851196 -0.07518238574266434
0.5900927782058716 0.5933740139007568 -0.06623335182666779
0.702104389667511 0.5903894305229187 0.018854061141610146
0.528988242149353 0.5626181364059448 -0.12841351330280304
0.6530463695526123 0.4175817370414734 -0.006124997977167368
0.684924304485321 0.4236094355583191 0.012977171689271927
0.7159690856933594 0.35463616251945496 0.12721192836761475
0.5514692664146423 0.4364711046218872 -0.032200638204813004
0.5854828357696533 0.44909030199050903 0.020253770053386688
0.653449535369873 0.7223218083381653 0.023855088278651237
0.7465473413467407 0.7441144585609436 0.21811121702194214
0.5704306364059448 0.6216487288475037 -0.06665856391191483
0.5498761534690857 0.6296988129615784 -0.07274840027093887
0.637604296207428 0.7232084274291992 0.024201681837439537
0.6297658085823059 0.7238099575042725 0.01798863336443901
0.6969495415687561 0.4101562798023224 0.027578257024288177
0.591271698474884 0.616226315498352 -0.062261976301670074
0.6094434261322021 0.42064177989959717 -0.02148807793855667
0.614011824131012 0.4037134051322937 -0.025095198303461075
0.6260945796966553 0.29745760560035706 0.0324874222278595
0.7021352648735046 0.3781810998916626 0.07127544283866882
0.6132934093475342 0.34345367550849915 0.003050219966098666
0.7195815443992615 0.42736363410949707 0.060842107981443405
0.7275575399398804 0.4123462438583374 0.11426164209842682
0.5502258539199829 0.694238543510437 -0.07057114690542221
0.5823664665222168 0.6987462043762207 -0.052184466272592545
0.605157732963562 0.7053649425506592 -0.027976347133517265
0.5649459362030029 0.625802755355835 -0.06334847211837769
0.6337505578994751 0.7235164046287537 0.020721249282360077
0.6197310090065002 0.7417541742324829 0.007234175689518452
0.6259963512420654 0.7241203784942627 0.01697458326816559
0.556358277797699 0.6166177988052368 -0.10148651897907257
0.5930381417274475 0.7127827405929565 -0.021626600995659828
0.5716818571090698 0.7096367478370667 -0.04034356027841568
0.5444353222846985 0.7092909216880798 -0.05484781414270401
0.5484903454780579 0.835219144821167 -0.027319002896547318
0.5480729937553406 0.7917413711547852 -0.04555530846118927
0.5471130609512329 0.7782326936721802 -0.047547440975904465
0.5450767278671265 0.7667163610458374 -0.040679868310689926
0.5417641401290894 0.7582346200942993 -0.03502390533685684
0.5904293060302734 0.7473376989364624 -0.0068006860092282295
0.5961102247238159 0.7505099177360535 -0.011386989615857601
0.6025693416595459 0.7566462755203247 -0.014221820048987865
0.6071689128875732 0.7643997669219971 -0.009440054185688496
0.6238278746604919 0.6794227957725525 -0.02074921689927578
0.7631855010986328 0.6163201332092285 0.2633857727050781
0.6067441701889038 0.73891282081604 0.009239142760634422
0.6134322881698608 0.739559531211853 0.0066073499619960785
0.5425859689712524 0.6390175223350525 -0.07383695244789124
0.583947479724884 0.6299044489860535 -0.04527334123849869
0.5460953712463379 0.6345312595367432 -0.07426142692565918
0.6015186905860901 0.5477150082588196 -0.008458858355879784
0.6426937580108643 0.5621247887611389 -0.0022372896783053875
0.5954530835151672 0.6038379669189453 -0.052532389760017395
0.67972332239151 0.3203727602958679 0.07742022722959518
0.6652271151542664 0.35454726219177246 0.03534058853983879
0.6609683036804199 0.4009881913661957 0.0013261354761198163
0.6137503981590271 0.7884479761123657 0.0051493882201612
0.5601432919502258 0.4093393087387085 -0.03896012157201767
0.5606613159179688 0.3401433527469635 -0.016377653926610947
0.5683369040489197 0.28659746050834656 0.004002319648861885
0.6626864671707153 0.4935110807418823 0.038273341953754425
0.7167258858680725 0.5150167346000671 0.07363414019346237
0.566848635673523 0.4865623116493225 0.022786978632211685
0.6968045830726624 0.46089479327201843 0.052668049931526184
0.5574240684509277 0.521094024181366 -0.02612479031085968
0.5718648433685303 0.5997681617736816 -0.09972885996103287
0.7481952905654907 0.5395520329475403 0.10000423341989517
0.7013344168663025 0.5303753018379211 0.05022436007857323
0.6718806028366089 0.538508415222168 0.026465488597750664
0.6272948980331421 0.5347734689712524 0.012476158328354359
0.5948535203933716 0.5257785320281982 0.00679048104211688
0.5709739923477173 0.5164074897766113 -0.0007041935459710658
0.5260024070739746 0.4909186065196991 -0.05353786051273346
0.7524291276931763 0.588020384311676 0.08971530199050903
0.7144282460212708 0.4590499699115753 0.06470583379268646
0.5207879543304443 0.6310558915138245 -0.12837861478328705
0.5775737166404724 0.5584205985069275 -0.02953435108065605
0.7620508670806885 0.5031347870826721 0.2544011175632477
0.5532139539718628 0.5058086514472961 -0.004564803559333086
0.5977763533592224 0.6049031615257263 -0.02578258514404297
0.6827951669692993 0.4739130735397339 0.05889632925391197
0.5724201798439026 0.5834547281265259 -0.08884651958942413
0.7593945264816284 0.6779918670654297 0.2469363659620285
0.5666540265083313 0.47899359464645386 0.03084401600062847
0.550449013710022 0.5708482265472412 -0.11319443583488464
0.7051271200180054 0.7987277507781982 0.09574475139379501
0.7005469799041748 0.8354059457778931 0.13144072890281677
0.7701789140701294 0.6047670245170593 0.1760435402393341
0.7337839007377625 0.7642309069633484 0.1230064183473587
0.7435791492462158 0.45299774408340454 0.15074855089187622
0.6084378361701965 0.8977921009063721 0.012042965739965439
0.5175663828849792 0.636475682258606 -0.09663669764995575
0.6009451150894165 0.5749558210372925 -0.02089769020676613
0.7370271682739258 0.4888817071914673 0.11159754544496536
0.6420971155166626 0.4839973449707031 0.031182797625660896
0.6230037212371826 0.484831839799881 0.024566849693655968
0.624944806098938 0.7449582815170288 0.010988847352564335
0.7539853453636169 0.6407934427261353 0.0943313017487526
0.5628942847251892 0.9405519962310791 0.00991782546043396
0.6366704702377319 0.8978009223937988 0.06610645353794098
0.6669266819953918 0.8711687326431274 0.09629987180233002
0.6039541959762573 0.48327526450157166 0.022689634934067726
0.5852731466293335 0.48089689016342163 0.025452429428696632
0.5726286172866821 0.4802497625350952 0.030178632587194443
0.7298136353492737 0.4536926746368408 0.09020815789699554
0.5899012684822083 0.4634970724582672 0.02458694763481617
0.6106553673744202 0.456935316324234 0.020300772041082382
0.631173849105835 0.45587751269340515 0.021856026723980904
0.6506734490394592 0.45932579040527344 0.02798035368323326
0.6620858311653137 0.4647896885871887 0.036250799894332886
0.7545742988586426 0.4442489743232727 0.21946074068546295
0.6550614237785339 0.4811917543411255 0.03901783376932144
0.5975565910339355 0.6655997037887573 -0.04198569431900978
0.5697448253631592 0.618440568447113 -0.07609749585390091
0.5461613535881042 0.6596700549125671 -0.07019495218992233
0.6726371049880981 0.835429847240448 0.07205747812986374
0.6420438289642334 0.866367757320404 0.04370798170566559
0.5637345910072327 0.9198038578033447 -0.015647318214178085
0.7254794836044312 0.796928882598877 0.17447063326835632
0.5741338133811951 0.47293591499328613 0.02821146696805954
0.5430678725242615 0.5276235342025757 -0.062057219445705414
0.6037998199462891 0.9222809076309204 0.03333117812871933
0.7670574188232422 0.6622680425643921 0.1681698113679886
0.568666934967041 0.753703236579895 -0.022144366055727005
0.5739620327949524 0.7597677111625671 -0.02705276757478714
0.5783218145370483 0.7693276405334473 -0.030499476939439774
0.5810940861701965 0.781810998916626 -0.026889706030488014
0.586694061756134 0.8159376382827759 -0.012406504712998867
0.6162821650505066 0.716066300868988 -0.0016162320971488953
0.6223905682563782 0.7136528491973877 -0.0003822773287538439
0.6276208162307739 0.7107083797454834 -0.0003304207057226449
0.6440748572349548 0.6975712180137634 0.003898672992363572
0.7257254123687744 0.6497531533241272 0.044111378490924835
0.5408279895782471 0.5045642852783203 -0.03793812543153763
0.5510239005088806 0.46470755338668823 0.01241308357566595
0.5648811459541321 0.4659920334815979 0.023351944983005524
0.6102966070175171 0.7175103425979614 -0.00012505881022661924
0.7283689975738525 0.7184457778930664 0.08084694296121597
0.5309816002845764 0.4656641483306885 -0.023474644869565964
0.5957854986190796 0.8388428092002869 -0.003437222447246313
0.5261217355728149 0.5151594877243042 -0.07968580722808838
0.5632644891738892 0.5638545751571655 -0.0642276480793953
0.5542218685150146 0.8604251146316528 -0.02405966818332672
0.649476170539856 0.7711089849472046 0.030937377363443375
0.6174134612083435 0.625329315662384 -0.017789674922823906
0.6256787180900574 0.8085365295410156 0.015895945951342583
0.6722017526626587 0.6244133114814758 -0.004326439928263426
0.641057550907135 0.651411235332489 -0.008312699384987354
0.693625807762146 0.6661438941955566 0.019154326990246773
0.560769259929657 0.8914284110069275 -0.02442893572151661
0.5800166130065918 0.5760374665260315 -0.04661034420132637
0.666570782661438 0.7982468605041504 0.049413565546274185
0.6363584995269775 0.8345054388046265 0.029394961893558502
0.6696128845214844 0.7312790751457214 0.032227057963609695
0.7491828203201294 0.6876527667045593 0.10137110948562622
0.6980131268501282 0.7439553141593933 0.05344275385141373
0.7558598518371582 0.7163341641426086 0.15473215281963348
0.6623618006706238 0.6811292171478271 0.007422504480928183
0.5592950582504272 0.5431017279624939 -0.044418979436159134
0.5639912486076355 0.6117662191390991 -0.10587989538908005
0.5810707807540894 0.6155140995979309 -0.0793091356754303
0.5525774359703064 0.5956621170043945 -0.12419689446687698
0.569843590259552 0.44716453552246094 0.008077174425125122
0.6086617708206177 0.4339980483055115 0.0043051475659012794
0.6429598331451416 0.4315016269683838 0.005944590549916029
0.6704274415969849 0.43587636947631836 0.016334129497408867
0.6886847019195557 0.44547921419143677 0.03200586140155792
0.6981307864189148 0.48000216484069824 0.06833478808403015
0.7674998044967651 0.5521013736724854 0.17598621547222137
0.6797918081283569 0.5090658664703369 0.04706864058971405
0.6559906005859375 0.5152389407157898 0.031036758795380592
0.6251879334449768 0.5145466327667236 0.01977529190480709
0.5963611602783203 0.5093548893928528 0.015902278944849968
0.5741048455238342 0.5029704570770264 0.012778105214238167
0.5588027834892273 0.4966394901275635 0.011242278851568699
0.7629042863845825 0.5592749118804932 0.2678178548812866
0.5813744068145752 0.6209120154380798 -0.06730935722589493
0.5448641777038574 0.5486795902252197 -0.08402353525161743
0.5464261770248413 0.6143248081207275 -0.12629194557666779
0.5332660675048828 0.6271528005599976 -0.11785978078842163
0.546306848526001 0.6188266277313232 -0.1143377348780632
0.5756232738494873 0.6276695132255554 -0.05963270738720894
0.5286471247673035 0.6294084787368774 -0.12478719651699066
0.5257694125175476 0.6344985365867615 -0.09617280215024948
0.5588350296020508 0.4802224338054657 0.025496920570731163
0.5471416711807251 0.4855791926383972 0.008278383873403072
0.539982259273529 0.490112841129303 -0.012295922264456749
0.6682567596435547 0.46898141503334045 0.04398854076862335
0.6842433214187622 0.461001455783844 0.04566748067736626
0.38049399852752686 0.47304922342300415 0.020139578729867935
0.40358540415763855 0.4720936119556427 0.020139578729867935
0.37844064831733704 0.4544663429260254 0.020139578729867935
0.35645705461502075 0.47388285398483276 0.020139578729867935
0.3820817470550537 0.49158990383148193 0.020139578729867935
0.6291123628616333 0.4707792103290558 0.031732987612485886
0.652930736541748 0.47149211168289185 0.031732987612485886
0.6298661231994629 0.45148706436157227 0.031732987612485886
0.6050503849983215 0.4699103832244873 0.031732987612485886
0.628267765045166 0.48996102809906006 0.031732987612485886
