ply
format ascii 1.0
element vertex 478
property float x
property float y
property float z
end_header
0.4887353181838989 0.6956982612609863 -0.06821656972169876
0.47767218947410583 0.6356331706047058 -0.14139433205127716
0.48456519842147827 0.6574317216873169 -0.0775025486946106
0.4651334881782532 0.5477791428565979 -0.10598672926425934
0.47772958874702454 0.6083600521087646 -0.14990761876106262
0.48067545890808105 0.5731610059738159 -0.1404082477092743
0.4906195402145386 0.4880475401878357 -0.07444999366998672
0.3400052785873413 0.47826486825942993 0.045817889273166656
0.49403059482574463 0.4283921718597412 -0.057068612426519394
0.4945923089981079 0.3949406147003174 -0.06190735846757889
0.5008349418640137 0.2655929625034332 -0.03836803510785103
0.48918551206588745 0.7049840092658997 -0.06477363407611847
0.4907252788543701 0.7143152952194214 -0.05817318335175514
0.4928045868873596 0.7199999094009399 -0.048571981489658356
0.49279266595840454 0.7829602956771851 -0.028787776827812195
0.49255478382110596 0.7938742637634277 -0.03370894491672516
0.4927765130996704 0.807572603225708 -0.03929876163601875
0.4940166473388672 0.8231973052024841 -0.03533655405044556
0.49095189571380615 0.8386777639389038 -0.014557105489075184
0.4793976843357086 0.6491357684135437 -0.12867672741413116
0.4580615162849426 0.6467040777206421 -0.09271398186683655
0.2755642533302307 0.38897058367729187 0.16994932293891907
0.401777982711792 0.5013143420219421 0.015043584629893303
0.37871885299682617 0.5024078488349915 0.018653836101293564
0.35746151208877563 0.5001556873321533 0.02717096358537674
0.3314168453216553 0.4864440858364105 0.05090353265404701
0.4220307171344757 0.49632325768470764 0.014252465218305588
0.3701883554458618 0.43619489669799805 0.008447134867310524
0.3963475525379181 0.43962520360946655 0.0059069739654660225
0.3464233875274658 0.4391232132911682 0.018604667857289314
0.3314889669418335 0.4472389817237854 0.03024032898247242
0.3139723539352417 0.5006927251815796 0.0649329349398613
0.40511682629585266 0.8587406277656555 0.028766468167304993
0.3330765962600708 0.4725215435028076 0.05491366237401962
0.2650620937347412 0.49711722135543823 0.18099458515644073
0.2933984398841858 0.4849332273006439 0.09189935773611069
0.3717103600502014 0.6021245718002319 -0.008761806413531303
0.449698269367218 0.6902859210968018 -0.061761993914842606
0.4546573758125305 0.7120094895362854 -0.04990648105740547
0.41519594192504883 0.6955384016036987 -0.04031042009592056
0.3939153254032135 0.7025493383407593 -0.010851075872778893
0.42643678188323975 0.711143434047699 -0.03244045004248619
0.40632250905036926 0.7125989198684692 -0.00628906674683094
0.37534311413764954 0.7563746571540833 0.043012164533138275
0.45780321955680847 0.6345128417015076 -0.13757584989070892
0.45543649792671204 0.6080588698387146 -0.145095095038414
0.3023279309272766 0.4276307225227356 0.03866661712527275
0.4250624179840088 0.5426190495491028 -0.017517203465104103
0.4055154025554657 0.6198670864105225 -0.07061102241277695
0.4062052369117737 0.6050965785980225 -0.0624917708337307
0.30712515115737915 0.5939076542854309 0.032027292996644974
0.459739089012146 0.5755890607833862 -0.13019272685050964
0.35104602575302124 0.40409696102142334 -0.011854560114443302
0.3214185833930969 0.4114895164966583 0.011088915169239044
0.2920905351638794 0.3435527980327606 0.11819931864738464
0.4480161666870117 0.426596462726593 -0.044297587126493454
0.41911959648132324 0.4496639668941498 0.01115757878869772
0.35732024908065796 0.7218025922775269 0.04661191999912262
0.2978430986404419 0.7317492961883545 0.25014254450798035
0.4226423501968384 0.6360440850257874 -0.06234533712267876
0.4420427083969116 0.6446596384048462 -0.06824103742837906
0.37243911623954773 0.7201438546180725 0.04624826833605766
0.3795951306819916 0.7214801907539368 0.03918909281492233
0.3119998276233673 0.3964938223361969 0.024649910628795624
0.4040742516517639 0.6287957429885864 -0.05673977732658386
0.3924226760864258 0.40716588497161865 -0.031079035252332687
0.38870251178741455 0.38790905475616455 -0.03670307248830795
0.3720467984676361 0.2812691032886505 0.010536517016589642
0.30137524008750916 0.3685448467731476 0.065461665391922
0.381763219833374 0.3307870924472809 -0.014302576892077923
0.29293715953826904 0.41718345880508423 0.06113816425204277
0.28302204608917236 0.40468430519104004 0.11238926649093628
0.45104023814201355 0.7019940614700317 -0.05770779028534889
0.42041441798210144 0.7039591073989868 -0.03649551793932915
0.39969825744628906 0.7078616619110107 -0.010226354002952576
0.42784345149993896 0.6401780843734741 -0.058949120342731476
0.3760386109352112 0.7207716703414917 0.04239346459507942
0.38852569460868835 0.7457169890403748 0.028589190915226936
0.382818341255188 0.7222751975059509 0.03814639896154404
0.4342380166053772 0.6322460770606995 -0.09824393689632416
0.4126266539096832 0.715616762638092 -0.0037768858019262552
0.432389497756958 0.7155777812004089 -0.024041488766670227
0.4593014121055603 0.7176007628440857 -0.04032319784164429
0.45259541273117065 0.8345693349838257 -0.008165644481778145
0.45415470004081726 0.8175244331359863 -0.027915827929973602
0.45470482110977173 0.8024260401725769 -0.030485672876238823
0.4569142460823059 0.7888984084129333 -0.024527832865715027
0.4603041708469391 0.7794389724731445 -0.020213987678289413
0.4148394465446472 0.7583878040313721 0.01126030646264553
0.40967780351638794 0.7614989280700684 0.007463793735951185
0.4033562242984772 0.7674455046653748 0.005234581418335438
0.39936184883117676 0.7749863862991333 0.010864712297916412
0.3801267743110657 0.6864846348762512 -0.004410755354911089
0.2734687626361847 0.6087777614593506 0.2841466963291168
0.4816318452358246 0.6540217399597168 -0.09584369510412216
0.40088632702827454 0.7442765831947327 0.02919124811887741
0.3943115770816803 0.7442029118537903 0.027258457615971565
0.44977235794067383 0.6538510322570801 -0.06792715936899185
0.41209858655929565 0.6420995593070984 -0.03901327773928642
0.44598841667175293 0.6494156122207642 -0.06919562071561813
0.39965158700942993 0.5548433065414429 -0.006092476658523083
0.36108332872390747 0.5682536363601685 0.004607282113283873
0.4019100069999695 0.6149052381515503 -0.04770670086145401
0.3220674395561218 0.3066442608833313 0.06256353110074997
0.3325241208076477 0.34285637736320496 0.024029187858104706
0.3447714149951935 0.3855994641780853 -0.00650821253657341
0.3944355845451355 0.7862938642501831 0.02802198939025402
0.44082704186439514 0.394682914018631 -0.05380066856741905
0.43484172224998474 0.3272874653339386 -0.03856915608048439
0.4293875992298126 0.2687172293663025 -0.023702029138803482
0.3405723571777344 0.49502354860305786 0.03961417078971863
0.29153433442115784 0.5158092379570007 0.08170169591903687
0.4353814423084259 0.49073582887649536 0.016098614782094955
0.3115732967853546 0.4566141366958618 0.05447135493159294
0.44168922305107117 0.5274842977523804 -0.028828831389546394
0.419829785823822 0.6136958599090576 -0.09691359847784042
0.27066540718078613 0.5388166904449463 0.11216731369495392
0.30224609375 0.5320597887039185 0.058583322912454605
0.3271925747394562 0.5416566729545593 0.033422186970710754
0.3689105808734894 0.540455162525177 0.01653507724404335
0.4014042615890503 0.5325769186019897 0.007494668941944838
0.4259357154369354 0.522524356842041 -0.00285781966522336
0.4696181118488312 0.49457523226737976 -0.0615043081343174
0.26828572154045105 0.5872747898101807 0.10639268904924393
0.29697269201278687 0.45391756296157837 0.06752076745033264
0.46722328662872314 0.6479113698005676 -0.1259121596813202
0.4219231605529785 0.566907525062561 -0.029134638607501984
0.26663661003112793 0.49622979760169983 0.26446887850761414
0.4439023733139038 0.5102899670600891 -0.009275933727622032
0.40117475390434265 0.6146926283836365 -0.021100841462612152
0.3238627314567566 0.4729837477207184 0.06076289713382721
0.42138928174972534 0.5956389904022217 -0.08723283559083939
0.281867116689682 0.6685861945152283 0.273261696100235
0.436748206615448 0.4826851785182953 0.02288947068154812
0.44063252210617065 0.5834053754806519 -0.11336185783147812
0.3300796151161194 0.7861876487731934 0.12598173320293427
0.3411954939365387 0.8181395530700684 0.1662582904100418
0.26252469420433044 0.6003656387329102 0.19496239721775055
0.30485838651657104 0.7530774474143982 0.1532648801803589
0.27362483739852905 0.4474763870239258 0.1538841277360916
0.40502434968948364 0.8830617666244507 0.04088210314512253
0.4714353084564209 0.6529223322868347 -0.09336312860250473
0.3997490406036377 0.5830951929092407 -0.017700420692563057
0.2792465090751648 0.4883047938346863 0.11879896372556686
0.35984891653060913 0.4861961007118225 0.029082244262099266
0.378777414560318 0.48884516954421997 0.021287476643919945
0.38409343361854553 0.7482181787490845 0.033073533326387405
0.27141544222831726 0.6382829546928406 0.11537843942642212
0.4453510344028473 0.9200817346572876 0.040240995585918427
0.38889268040657043 0.8799223899841309 0.09895455092191696
0.3678467869758606 0.8533394932746887 0.13017359375953674
0.4975839853286743 0.32750746607780457 -0.05099639669060707
0.4913749694824219 0.9273403882980347 0.027735712006688118
0.39851444959640503 0.4882495105266571 0.018101193010807037
0.41763582825660706 0.48572564125061035 0.01955600082874298
0.4302997887134552 0.48431020975112915 0.023168757557868958
0.2859090566635132 0.44907230138778687 0.09366946667432785
0.41585204005241394 0.4691809415817261 0.016640350222587585
0.39582565426826477 0.46376705169677734 0.013615612871944904
0.3762066960334778 0.46174508333206177 0.016598807647824287
0.357002854347229 0.4634113907814026 0.024760741740465164
0.3449833393096924 0.4670675992965698 0.03429071232676506
0.2676626443862915 0.4370177984237671 0.22297057509422302
0.34786471724510193 0.4822133481502533 0.03809516504406929
0.4868629276752472 0.6747536659240723 -0.06846538931131363
0.40305402874946594 0.6760848164558411 -0.029210058972239494
0.4226056635379791 0.633276641368866 -0.07262957841157913
0.44880300760269165 0.6736581921577454 -0.061542756855487823
0.49350491166114807 0.4577907919883728 -0.056396130472421646
0.35640859603881836 0.8225315809249878 0.10246148705482483
0.38055258989334106 0.852126955986023 0.07346615940332413
0.44151774048805237 0.9051612615585327 0.011897184886038303
0.3189801573753357 0.7819397449493408 0.2092220038175583
0.43007612228393555 0.4769188463687897 0.020333275198936462
0.45228591561317444 0.5353951454162598 -0.06622207164764404
0.48947179317474365 0.9116538763046265 0.0009912846144288778
0.41286495327949524 0.9033902883529663 0.06531263142824173
0.27020904421806335 0.6558136940002441 0.19171643257141113
0.4346233308315277 0.7708114385604858 -0.0057149725034832954
0.4292905926704407 0.7774004936218262 -0.009433194063603878
0.4247979521751404 0.7876747846603394 -0.012059825472533703
0.42254066467285156 0.8008628487586975 -0.007623052690178156
0.4181641936302185 0.8143105506896973 0.009378351271152496
0.39042699337005615 0.7158362865447998 0.018186142668128014
0.38463765382766724 0.7132657766342163 0.019909735769033432
0.37987110018730164 0.710224986076355 0.019896818324923515
0.3632543981075287 0.700824499130249 0.023529672995209694
0.2921082377433777 0.6498132944107056 0.06338084489107132
0.4563951790332794 0.509545624256134 -0.04335591569542885
0.45104485750198364 0.4645218849182129 0.00162440852727741
0.4389469027519226 0.46781307458877563 0.014033765532076359
0.39626622200012207 0.7174742817878723 0.019580192863941193
0.29911115765571594 0.7130125761032104 0.10602842271327972
0.466958224773407 0.46349722146987915 -0.03488290682435036
0.41224274039268494 0.8337469696998596 0.020075680688023567
0.4842207431793213 0.5442234873771667 -0.11717283725738525
0.46719813346862793 0.5224948525428772 -0.0861574187874794
0.48741400241851807 0.5172979831695557 -0.0944807380437851
0.4325513541698456 0.5738540887832642 -0.06481476128101349
0.4891231656074524 0.8883909583091736 -0.010939874686300755
0.49010956287384033 0.860964834690094 -0.012320558540523052
0.4477453827857971 0.8560963273048401 -0.0021604716312140226
0.3656792640686035 0.7673434615135193 0.05602913722395897
0.3840254247188568 0.6342810988426208 -0.009588434360921383
0.38699454069137573 0.8035493493080139 0.04064343869686127
0.3352395296096802 0.6296417713165283 0.007912471890449524
0.3640802502632141 0.6580527424812317 0.004815535619854927
0.3190568685531616 0.6679573655128479 0.03659908473491669
0.4418203830718994 0.8828668594360352 0.0006715094787068665
0.418178915977478 0.5859110951423645 -0.04504207521677017
0.35486912727355957 0.7904420495033264 0.07708599418401718
0.3808750510215759 0.8250616788864136 0.05637654662132263
0.3458840548992157 0.7291036248207092 0.056149762123823166
0.280704140663147 0.6826376914978027 0.12571871280670166
0.3252270221710205 0.7384079694747925 0.07859973609447479
0.28404682874679565 0.7074685096740723 0.18315671384334564
0.34725794196128845 0.6839302778244019 0.02565642260015011
0.4381536543369293 0.551301121711731 -0.04615650698542595
0.42658308148384094 0.6270359754562378 -0.10282611101865768
0.4122174084186554 0.6297029256820679 -0.07469313591718674
0.43641847372055054 0.6104065179824829 -0.12219985574483871
0.43272852897644043 0.4431529641151428 -0.0030846272129565477
0.39480048418045044 0.4272955060005188 -0.004474310670047998
0.3616025447845459 0.4236014187335968 0.0006383692380040884
0.33515846729278564 0.42797380685806274 0.013963651843369007
0.3181988596916199 0.4384661316871643 0.03180786967277527
0.310657262802124 0.47883158922195435 0.07209090888500214
0.26085400581359863 0.5483677983283997 0.1902761310338974
0.32375431060791016 0.510701596736908 0.051734860986471176
0.34468862414360046 0.5183439254760742 0.03448736295104027
0.37373656034469604 0.5199183225631714 0.02107185311615467
0.4026283919811249 0.5159024000167847 0.014002217911183834
0.42580100893974304 0.5089245438575745 0.008845402859151363
0.4414047598838806 0.5015376210212708 0.005433607846498489
0.26981914043426514 0.5523197054862976 0.2833121418952942
0.4125763773918152 0.6345329284667969 -0.06226994842290878
0.4482945501804352 0.5588152408599854 -0.08627372235059738
0.44195613265037537 0.6304219365119934 -0.12402824312448502
0.4559241533279419 0.6433188915252686 -0.11526423692703247
0.443088561296463 0.6346353888511658 -0.11180996894836426
0.4185927212238312 0.6411362290382385 -0.05435303598642349
0.4599776566028595 0.6460332274436951 -0.12217480689287186
0.46366581320762634 0.6508409380912781 -0.09295324981212616
0.44399791955947876 0.48342740535736084 0.017018964514136314
0.45349669456481934 0.4886630177497864 -7.351933163590729e-05
0.45756998658180237 0.4922274947166443 -0.019588692113757133
0.33812087774276733 0.469961941242218 0.043282411992549896
0.3225635290145874 0.45779046416282654 0.04569418728351593
0.505316972732544 0.5479623079299927 -0.11117953062057495
0.6726392507553101 0.4774519205093384 0.008906177245080471
0.5078514218330383 0.6474273204803467 -0.09671243280172348
0.7768155932426453 0.3891007900238037 0.11072252690792084
0.6024801135063171 0.498546838760376 -0.009023455902934074
0.6276029944419861 0.4992191195487976 -0.010148564353585243
0.6519530415534973 0.49805909395217896 -0.006238255184143782
0.6846303343772888 0.48719918727874756 0.011486259289085865
0.580451250076294 0.4950547516345978 -0.004536579363048077
0.6380034685134888 0.4334331154823303 -0.021878404542803764
0.6088545322418213 0.43689411878585815 -0.018134830519557
0.6653237342834473 0.4368128180503845 -0.01624327152967453
0.6829311847686768 0.4459855556488037 -0.007302504498511553
0.7063592672348022 0.5020891427993774 0.022718194872140884
0.5857068300247192 0.8641366362571716 0.010650355368852615
0.6819653511047363 0.4731637239456177 0.016254745423793793
0.7830072641372681 0.5001615881919861 0.12405694276094437
0.734760582447052 0.4874882996082306 0.044685784727334976
0.6241058707237244 0.6045889854431152 -0.034138549119234085
0.5305012464523315 0.6906977891921997 -0.06930331885814667
0.5307243466377258 0.7124441862106323 -0.05712035670876503
0.5733175277709961 0.6974866390228271 -0.055495135486125946
0.6018847227096558 0.704709529876709 -0.03151179850101471
0.5653546452522278 0.7123956680297852 -0.046317316591739655
0.5917450189590454 0.714406430721283 -0.024486765265464783
0.6312624216079712 0.7607441544532776 0.01673630066215992
0.49906206130981445 0.6351348757743835 -0.14078451693058014
0.502209484577179 0.6084995865821838 -0.14902840554714203
0.7189794182777405 0.4254545569419861 -0.005724444519728422
0.5692245960235596 0.5433712005615234 -0.03387193754315376
0.5716882944107056 0.6220906972885132 -0.08580371737480164
0.5745571255683899 0.607001543045044 -0.07827109098434448
0.7008721232414246 0.5977963805198669 -0.009057425893843174
0.5034510493278503 0.5757695436477661 -0.13530108332633972
0.656170129776001 0.39989250898361206 -0.04185790196061134
0.6932051777839661 0.4077334403991699 -0.027037575840950012
0.7501519918441772 0.3419313430786133 0.06520819664001465
0.5435124039649963 0.4266858994960785 -0.0538233183324337
0.5839912295341492 0.44766366481781006 -0.008380389772355556
0.6528456211090088 0.7262012958526611 0.015734722837805748
0.7506186962127686 0.7403603196144104 0.19576579332351685
0.5533656477928162 0.6379958391189575 -0.07392318546772003
0.531371533870697 0.6458309292793274 -0.07405681163072586
0.636420488357544 0.7216997146606445 0.01883321814239025
0.6289675831794739 0.7231258153915405 0.014490323141217232
0.7069778442382812 0.39152973890304565 -0.0162822213023901
0.5764795541763306 0.6311833262443542 -0.07168610394001007
0.6065219044685364 0.4048234820365906 -0.051726941019296646
0.6106799244880676 0.38371676206588745 -0.057884808629751205
0.644014835357666 0.27850061655044556 -0.01919291354715824
0.7276898622512817 0.3674764335155487 0.02025514841079712
0.624204158782959 0.3283606767654419 -0.03866950422525406
0.733425498008728 0.41482996940612793 0.013642844744026661
0.7554616332054138 0.40555113554000854 0.06087443232536316
0.5309355854988098 0.7023332715034485 -0.0652756616473198
0.5691969394683838 0.7054256200790405 -0.05112751945853233
0.5967969298362732 0.7096988558769226 -0.029641039669513702
0.548320472240448 0.6419819593429565 -0.0680062547326088
0.6326944828033447 0.7223529815673828 0.0165875181555748
0.6165779232978821 0.7476592063903809 0.00638346653431654
0.6255245208740234 0.7239822149276733 0.014126723632216454
0.5336952209472656 0.6335873603820801 -0.10846614837646484
0.587861180305481 0.7173563241958618 -0.021081745624542236
0.5618813633918762 0.7166672348976135 -0.03712204098701477
0.5301200151443481 0.7181302309036255 -0.047795020043849945
0.533203125 0.8365424275398254 -0.015349412336945534
0.5365632176399231 0.819221019744873 -0.03599317744374275
0.5338383316993713 0.8037835359573364 -0.03908465802669525
0.5312119722366333 0.7899245023727417 -0.03297203779220581
0.5284699201583862 0.7802212834358215 -0.028233513236045837
0.5851629376411438 0.7602990865707397 -0.006198862101882696
0.5903064012527466 0.7635266184806824 -0.010079017840325832
0.596886157989502 0.7698322534561157 -0.012743894942104816
0.6017934083938599 0.7777701020240784 -0.00805039145052433
0.6166185736656189 0.6898990869522095 -0.027316909283399582
0.7858520746231079 0.6150054931640625 0.22425390779972076
0.6041074395179749 0.746425986289978 0.007775820326060057
0.6104040145874023 0.7461634278297424 0.0057424455881118774
0.5233697891235352 0.6549782752990723 -0.07369903475046158
0.5705847144126892 0.6443663239479065 -0.05095258727669716
0.5270111560821533 0.6505816578865051 -0.0748530924320221
0.597143292427063 0.55613774061203 -0.027885248884558678
0.6394420862197876 0.5705017447471619 -0.02496590092778206
0.5820778012275696 0.6171900629997253 -0.06404378265142441
0.7077705264091492 0.303788959980011 0.019532717764377594
0.68569016456604 0.34064096212387085 -0.012037277221679688
0.6645546555519104 0.37964314222335815 -0.03873087465763092
0.6054138541221619 0.7903244495391846 0.006395893171429634
0.551023006439209 0.39280033111572266 -0.0639592707157135
0.5640918612480164 0.32586321234703064 -0.050898656249046326
0.5774329900741577 0.26702409982681274 -0.03854317590594292
0.6725897192955017 0.49446022510528564 0.002291567623615265
0.7343378067016602 0.5187471508979797 0.034651488065719604
0.5658742785453796 0.49066704511642456 -0.0006416576215997338
0.7088873386383057 0.45685285329818726 0.011944649741053581
0.5502568483352661 0.527902364730835 -0.04190383478999138
0.5504732728004456 0.6152981519699097 -0.10908613353967667
0.7586521506309509 0.5428110361099243 0.05918773636221886
0.7170407176017761 0.5336214303970337 0.01421015989035368
0.6849124431610107 0.5419399738311768 -0.004871554207056761
0.6361957788467407 0.5402093529701233 -0.012851869687438011
0.5996317863464355 0.5322664976119995 -0.014846915379166603
0.5719913244247437 0.5223577618598938 -0.01966172829270363
0.5144468545913696 0.49450451135635376 -0.0669049322605133
0.7563245892524719 0.5924590229988098 0.053393278270959854
0.7284787893295288 0.45440641045570374 0.020543621852993965
0.4926239550113678 0.6483849883079529 -0.12849342823028564
0.5676590800285339 0.5679405927658081 -0.044878892600536346
0.7961769104003906 0.49899786710739136 0.20178261399269104
0.5514224171638489 0.5099961757659912 -0.02214011363685131
0.5869371891021729 0.6170570254325867 -0.037338681519031525
0.6941373944282532 0.474304735660553 0.020463358610868454
0.5533971190452576 0.5969781279563904 -0.0996839627623558
0.7732020020484924 0.6764528155326843 0.21591849625110626
0.5657890439033508 0.4828166961669922 0.0056563266552984715
0.5278799533843994 0.5841434001922607 -0.12244220823049545
0.6906787157058716 0.7949166893959045 0.08610300719738007
0.6859725713729858 0.8276630640029907 0.12466350197792053
0.779089093208313 0.6063163876533508 0.13777147233486176
0.7240035533905029 0.7615708708763123 0.1065012663602829
0.7704231142997742 0.4492296576499939 0.09889835119247437
0.5857071876525879 0.889140784740448 0.021802010014653206
0.4921552538871765 0.6531518697738647 -0.0949883908033371
0.5928658246994019 0.5848214626312256 -0.03729025274515152
0.7568277716636658 0.4927594065666199 0.06673408299684525
0.6485446691513062 0.4824981689453125 -0.0033324877731502056
0.6276302933692932 0.48419496417045593 -0.00748736597597599
0.6218479871749878 0.7502754926681519 0.009466839954257011
0.7533352971076965 0.6447871923446655 0.06374294310808182
0.5403739809989929 0.9237873554229736 0.02896934747695923
0.6148096323013306 0.8873581290245056 0.07126794010400772
0.6472264528274536 0.8621535301208496 0.09584244340658188
0.6066049337387085 0.48410505056381226 -0.006452680565416813
0.5861783027648926 0.4833526909351349 -0.0014001980889588594
0.5725530385971069 0.48373883962631226 0.004494468681514263
0.7458434104919434 0.4498644173145294 0.0430031456053257
0.5902622938156128 0.4673672616481781 -0.005121117457747459
0.612236499786377 0.46053963899612427 -0.011703889816999435
0.6333564519882202 0.45845407247543335 -0.012930202297866344
0.6544866561889648 0.4609602689743042 -0.00878546666353941
0.6679297089576721 0.4658925533294678 -0.001445498433895409
0.7907074093818665 0.43825334310531616 0.16107363998889923
0.6626379489898682 0.4800006151199341 0.0028855835553258657
0.5856499671936035 0.6786977052688599 -0.04646632447838783
0.5512041449546814 0.6352462768554688 -0.08333595842123032
0.5292398929595947 0.6751313805580139 -0.06896623224020004
0.6551661491394043 0.8309770822525024 0.06986445188522339
0.6211774945259094 0.859718918800354 0.04759145900607109
0.5411640405654907 0.9087945222854614 0.0012561847688630223
0.719255268573761 0.7907046675682068 0.15977871417999268
0.5736685395240784 0.47662055492401123 0.001055622473359108
0.52915358543396 0.5357451438903809 -0.0749410092830658
0.5801441669464111 0.9092118740081787 0.044750507920980453
0.7691267132759094 0.6630830764770508 0.13683807849884033
0.5591608285903931 0.7722350358963013 -0.019116222858428955
0.5643729567527771 0.7790948748588562 -0.02335282228887081
0.5692678093910217 0.7898355722427368 -0.026706481352448463
0.5730715394020081 0.8034225106239319 -0.022554924711585045
0.5742371082305908 0.817380428314209 -0.006903904024511576
0.613982081413269 0.7176979184150696 -0.004283667542040348
0.6187217235565186 0.7150779366493225 -0.004308536183089018
0.6231718063354492 0.7122519016265869 -0.0053627812303602695
0.6413989067077637 0.7047823071479797 -0.005000936798751354
0.722055196762085 0.6555657386779785 0.01835591159760952
0.5315632820129395 0.5097534656524658 -0.05265003815293312
0.546622097492218 0.4640069901943207 -0.009909364394843578
0.562195360660553 0.4672152101993561 -0.002076850738376379
0.6097525358200073 0.7195566892623901 -0.0019127996638417244
0.7218686938285828 0.7201913595199585 0.06111790984869003
0.524242103099823 0.46329784393310547 -0.041553400456905365
0.5802649855613708 0.8380877375602722 0.0032454049214720726
0.5098369717597961 0.522584080696106 -0.09081868827342987
0.5480964779853821 0.5749224424362183 -0.07631804049015045
0.5367084741592407 0.8586698174476624 -0.01014010701328516
0.641349196434021 0.7728191614151001 0.02675454504787922
0.6085820198059082 0.6369131207466125 -0.03073767013847828
0.6135014295578003 0.8087478280067444 0.017453020438551903
0.6662254333496094 0.633561372756958 -0.024965975433588028
0.6346482634544373 0.6615028381347656 -0.02198125422000885
0.6887791752815247 0.6732456684112549 -0.0011843537213280797
0.5405437350273132 0.8861592411994934 -0.00949641689658165
0.5672532320022583 0.587182343006134 -0.05954781919717789
0.6538870334625244 0.7975047826766968 0.04513118788599968
0.6196820139884949 0.8314949870109558 0.03173678368330002
0.6642239093780518 0.7344084978103638 0.021137744188308716
0.7457054853439331 0.6898791790008545 0.07625170797109604
0.6890004277229309 0.745248019695282 0.03971642255783081
0.7522186636924744 0.7154021263122559 0.1304202675819397
0.6590923070907593 0.688158392906189 -0.00686277262866497
0.5475354194641113 0.552021324634552 -0.0585307776927948
0.5413850545883179 0.6286081671714783 -0.11389981955289841
0.5630057454109192 0.6319224238395691 -0.08757206052541733
0.5266147255897522 0.6114936470985413 -0.1312708556652069
0.565730094909668 0.442507803440094 -0.01873411238193512
0.6073936223983765 0.4252477288246155 -0.02686559408903122
0.6450853943824768 0.42067408561706543 -0.028516514226794243
0.6764957308769226 0.425270140171051 -0.02135980874300003
0.6985331773757935 0.436958372592926 -0.007794543169438839
0.7118532657623291 0.48089104890823364 0.02903228998184204
0.7841377854347229 0.5529106259346008 0.13162276148796082
0.6923974752426147 0.5115368366241455 0.01158296037465334
0.6662295460700989 0.517775297164917 -0.0006318853120319545
0.6324578523635864 0.5185515284538269 -0.007831577211618423
0.6002305746078491 0.5145859122276306 -0.008755460381507874
0.5746957063674927 0.5084965229034424 -0.00820072926580906
0.557188868522644 0.5013221502304077 -0.008432582952082157
0.792950451374054 0.556647777557373 0.22076663374900818
0.565264880657196 0.6367541551589966 -0.07492762804031372
0.5264303088188171 0.5593093633651733 -0.095266193151474
0.5193843841552734 0.6316472291946411 -0.13088610768318176
0.5076234340667725 0.644453227519989 -0.1192241683602333
0.5215082764625549 0.6360459327697754 -0.11890983581542969
0.560515820980072 0.6431543231010437 -0.06501129269599915
0.5014436841011047 0.646803617477417 -0.12541130185127258
0.5010636448860168 0.6513774394989014 -0.09575396776199341
0.5565251708030701 0.4835715889930725 0.002694731578230858
0.5436601042747498 0.4883670210838318 -0.010877780616283417
0.5358365178108215 0.4917256832122803 -0.028652086853981018
0.6757808923721313 0.4698643088340759 0.006122916005551815
0.6944819688796997 0.4580112099647522 0.006303637754172087
0.3805673122406006 0.47568100690841675 0.027652110904455185
0.4052921235561371 0.4764133095741272 0.027652110904455185
0.38117432594299316 0.4548957347869873 0.027652110904455185
0.3559776246547699 0.47481751441955566 0.027652110904455185
0.3799228072166443 0.4962676167488098 0.027652110904455185
0.6309478878974915 0.47085392475128174 -0.0008301916532218456
0.658610463142395 0.47035056352615356 -0.0008301916532218456
0.6304306983947754 0.4488285779953003 -0.0008301916532218456
0.6032603979110718 0.4711313843727112 -0.0008301916532218456
0.6315456032752991 0.49269986152648926 -0.0008301916532218456
