ply
format ascii 1.0
element vertex 478
property float x
property float y
property float z
end_header
0.576437771320343 0.7180346846580505 -0.06761404871940613
0.6025829911231995 0.6370057463645935 -0.14724332094192505
0.5731254816055298 0.6599456667900085 -0.07810097932815552
0.5579627156257629 0.5518547296524048 -0.12730006873607635
0.6046008467674255 0.6109226942062378 -0.15726137161254883
0.5950062274932861 0.5764144659042358 -0.1489373743534088
0.561046838760376 0.4905605614185333 -0.08581862598657608
0.33310994505882263 0.48753225803375244 -0.052086640149354935
0.5510423183441162 0.43261516094207764 -0.07201318442821503
0.5518781542778015 0.40073132514953613 -0.07906743139028549
0.5383284687995911 0.26777637004852295 -0.06401567161083221
0.5732696056365967 0.727335512638092 -0.06351613253355026
0.5668419599533081 0.7337474822998047 -0.055690065026283264
0.5596034526824951 0.7364687919616699 -0.043789803981781006
0.5595930814743042 0.8091119527816772 -0.02066705748438835
0.5647441744804382 0.8218460083007812 -0.023631414398550987
0.5668827295303345 0.8379430174827576 -0.027559353038668633
0.5641515254974365 0.8558009266853333 -0.02033390663564205
0.5464816093444824 0.8626452088356018 0.005366901401430368
0.5944905281066895 0.650662899017334 -0.1333954930305481
0.5536421537399292 0.6513123512268066 -0.10513464361429214
0.1528797745704651 0.382331907749176 0.017349593341350555
0.421188086271286 0.5056395530700684 -0.04987572133541107
0.3918081820011139 0.5090668201446533 -0.05842190980911255
0.3606794476509094 0.508838415145874 -0.06132352352142334
0.3150675594806671 0.49552541971206665 -0.052491772919893265
0.4451054334640503 0.4989451467990875 -0.03882007300853729
0.3771137595176697 0.43896380066871643 -0.07611576467752457
0.4098922610282898 0.440400630235672 -0.06287535279989243
0.34499627351760864 0.4442998468875885 -0.0771893560886383
0.3220289349555969 0.4543059170246124 -0.0715394988656044
0.2844325006008148 0.5115565061569214 -0.044768720865249634
0.42320728302001953 0.895318865776062 0.0064389873296022415
0.31899160146713257 0.48107409477233887 -0.04754065349698067
0.14434975385665894 0.500460684299469 0.03811747208237648
0.2390347123146057 0.49630868434906006 -0.03079780749976635
0.3962831497192383 0.6113925576210022 -0.06997402757406235
0.5289472937583923 0.7174059748649597 -0.07752972841262817
0.5191339254379272 0.7355527877807617 -0.06276831775903702
0.4672829806804657 0.7255442142486572 -0.0723317563533783
0.41731950640678406 0.7340424060821533 -0.05406240001320839
0.46985697746276855 0.7391580939292908 -0.059550829231739044
0.42606788873672485 0.7436974048614502 -0.04218147695064545
0.37800702452659607 0.7849729061126709 -0.0061718677170574665
0.5780290961265564 0.6380055546760559 -0.1515115648508072
0.5755376815795898 0.6126518249511719 -0.16199129819869995
0.27547454833984375 0.43521207571029663 -0.08415433764457703
0.4578861892223358 0.5445436239242554 -0.06223081424832344
0.47458577156066895 0.62757807970047 -0.10993731021881104
0.46737098693847656 0.611793577671051 -0.10312477499246597
0.2949076294898987 0.6088288426399231 -0.06922497600317001
0.5682623982429504 0.5799534320831299 -0.15066677331924438
0.3661986291408539 0.40738382935523987 -0.10428635030984879
0.3162018060684204 0.4165588319301605 -0.10022073239088058
0.20527954399585724 0.3357343375682831 -0.025181476026773453
0.49829989671707153 0.4289863705635071 -0.08397363126277924
0.43692731857299805 0.4491834044456482 -0.04527859017252922
0.3550707995891571 0.749495267868042 -0.01649075374007225
0.15422233939170837 0.7531535029411316 0.13659831881523132
0.4945518672466278 0.6432759165763855 -0.09134748578071594
0.5206078290939331 0.6503728032112122 -0.08339445292949677
0.34693312644958496 0.7586991786956787 -0.009408115409314632
0.3568844497203827 0.7590089440345764 -0.009872141294181347
0.29411572217941284 0.3995599150657654 -0.09356169402599335
0.46480119228363037 0.6363773345947266 -0.09397589415311813
0.42728376388549805 0.41037517786026 -0.09958101809024811
0.4226171374320984 0.38908863067626953 -0.10805106908082962
0.36496782302856445 0.27762866020202637 -0.08512859791517258
0.2521081566810608 0.36739879846572876 -0.06272415816783905
0.39773499965667725 0.3308488726615906 -0.09577661752700806
0.24667887389659882 0.42289847135543823 -0.06877293437719345
0.20177415013313293 0.4048774540424347 -0.025621213018894196
0.5245457887649536 0.7280870676040649 -0.07279548048973083
0.46990931034088135 0.733427882194519 -0.06624548882246017
0.42249104380607605 0.739273726940155 -0.04972613602876663
0.49909746646881104 0.647169291973114 -0.08233553916215897
0.35235682129859924 0.7589203119277954 -0.009387065656483173
0.3809623718261719 0.7859047651290894 -0.013086259365081787
0.35992735624313354 0.7592231035232544 -0.00961815845221281
0.5261861085891724 0.6383417248725891 -0.12707915902137756
0.42714738845825195 0.7447854280471802 -0.03648719936609268
0.4692249894142151 0.7411441206932068 -0.04751391336321831
0.5141940116882324 0.7380914688110352 -0.05157255381345749
0.4974186420440674 0.8611186146736145 -0.004498402588069439
0.511471152305603 0.8554942607879639 -0.03070884197950363
0.5158178806304932 0.8379565477371216 -0.036692678928375244
0.516681969165802 0.8215667605400085 -0.03241169825196266
0.5159549117088318 0.8107159733772278 -0.029038913547992706
0.4282277822494507 0.7961722612380981 -0.01984582468867302
0.424178808927536 0.8002121448516846 -0.022241128608584404
0.4176114499568939 0.808224081993103 -0.024124925956130028
0.4112876355648041 0.8176348209381104 -0.020215479657053947
0.4106626808643341 0.703639566898346 -0.05461917817592621
0.10750529170036316 0.6164722442626953 0.14847432076931
0.5848466753959656 0.6564818024635315 -0.09844552725553513
0.3940850794315338 0.7823551893234253 -0.0118547473102808
0.38830336928367615 0.7833424806594849 -0.013043457642197609
0.5298927426338196 0.6596423387527466 -0.08154302835464478
0.4682309925556183 0.6499369144439697 -0.06671077758073807
0.5258744359016418 0.6551278233528137 -0.08360963314771652
0.42469796538352966 0.5582180023193359 -0.06277866661548615
0.37483730912208557 0.5761507153511047 -0.07037986814975739
0.45556163787841797 0.6219978332519531 -0.08814623206853867
0.27445054054260254 0.2998598515987396 -0.06144984811544418
0.31546151638031006 0.34159308671951294 -0.08449392765760422
0.3535967171192169 0.38667675852775574 -0.10457439720630646
0.4093780815601349 0.8167307376861572 -0.007812387775629759
0.4911647140979767 0.395651638507843 -0.09772136062383652
0.47133684158325195 0.329435795545578 -0.0903809517621994
0.4496750235557556 0.2683398723602295 -0.084877610206604
0.3324240446090698 0.5047562122344971 -0.058454789221286774
0.24625779688358307 0.5299394726753235 -0.03811841085553169
0.46024683117866516 0.4929494857788086 -0.032151177525520325
0.2846904993057251 0.46621477603912354 -0.06033115088939667
0.4823817014694214 0.5294291973114014 -0.06698615103960037
0.5062555074691772 0.6206178069114685 -0.13092811405658722
0.19582237303256989 0.5485312342643738 -0.0203714556992054
0.2769773602485657 0.5461066365242004 -0.05454729497432709
0.32467201352119446 0.5538384914398193 -0.06395450234413147
0.3863672614097595 0.5486186742782593 -0.05945305526256561
0.42856502532958984 0.5374941229820251 -0.0514334961771965
0.458991140127182 0.5257546901702881 -0.049525752663612366
0.5326107144355774 0.49751341342926025 -0.0852886512875557
0.20119518041610718 0.6022211313247681 -0.02317182347178459
0.2535702586174011 0.4636043906211853 -0.0580565482378006
0.5789636373519897 0.6510319113731384 -0.1371060162782669
0.4639889597892761 0.5705606937408447 -0.07065300643444061
0.10219451785087585 0.4955349564552307 0.11414719372987747
0.483168363571167 0.5132067203521729 -0.04778488725423813
0.4448474645614624 0.6216112971305847 -0.059312909841537476
0.3022621273994446 0.4816936254501343 -0.046462297439575195
0.4979243278503418 0.6015102863311768 -0.12203711271286011
0.12222832441329956 0.6824468374252319 0.14777643978595734
0.4558349549770355 0.48550301790237427 -0.02739218808710575
0.5345497727394104 0.5887501835823059 -0.1420256793498993
0.2661512494087219 0.8236586451530457 0.04498158395290375
0.2530871033668518 0.857032060623169 0.0878315418958664
0.14219287037849426 0.6133381724357605 0.05961424112319946
0.2168443500995636 0.7844833135604858 0.05331498757004738
0.16960376501083374 0.44818413257598877 0.012128770351409912
0.41651150584220886 0.9266195297241211 0.01794697530567646
0.5728186368942261 0.6559885144233704 -0.09981784969568253
0.43303820490837097 0.588411808013916 -0.06657151877880096
0.20150917768478394 0.5006104111671448 -0.014016195200383663
0.367416113615036 0.4953967332839966 -0.057621996849775314
0.3940366506576538 0.4959283173084259 -0.05625074356794357
0.3730599582195282 0.7895293235778809 -0.011629102751612663
0.20137178897857666 0.6575905680656433 -0.005985734518617392
0.47091105580329895 0.9655516743659973 0.0430368110537529
0.36253321170806885 0.9254500865936279 0.05997404083609581
0.31256476044654846 0.8970284461975098 0.07242825627326965
0.5471298098564148 0.3305718004703522 -0.07062721997499466
0.5331782102584839 0.964767575263977 0.05702183023095131
0.4171485900878906 0.4930261969566345 -0.04932783916592598
0.43797218799591064 0.4886154532432556 -0.03941364958882332
0.4506361782550812 0.4866858720779419 -0.03059767186641693
0.21905341744422913 0.45741790533065796 -0.03934962674975395
0.42876067757606506 0.46850669384002686 -0.04488352686166763
0.40328624844551086 0.4624364972114563 -0.05721772834658623
0.379425048828125 0.4623565971851349 -0.06457812339067459
0.3548285663127899 0.4664776921272278 -0.06602226197719574
0.3383982181549072 0.47222089767456055 -0.06139291077852249
0.12017995119094849 0.4325657784938812 0.06931428611278534
0.347992479801178 0.4920009672641754 -0.05570167303085327
0.5673340559005737 0.6777216196060181 -0.06785976141691208
0.45025041699409485 0.688374400138855 -0.06761594861745834
0.49957600235939026 0.6404268741607666 -0.10086996853351593
0.5211873054504395 0.6806885004043579 -0.07733161002397537
0.5509239435195923 0.4596373736858368 -0.06882957369089127
0.31615108251571655 0.8629018068313599 0.04217277467250824
0.3637113571166992 0.8951157331466675 0.03243435546755791
0.47758719325065613 0.9456425309181213 0.011040913872420788
0.20142404735088348 0.8120620846748352 0.11051132529973984
0.4473986327648163 0.47890257835388184 -0.035000842064619064
0.5184417366981506 0.5391427874565125 -0.09514236450195312
0.5412637591362 0.9464008212089539 0.025925127789378166
0.41496920585632324 0.9502824544906616 0.0451124869287014
0.15125435590744019 0.6740677356719971 0.06545864790678024
0.47179365158081055 0.806225061416626 -0.02714846096932888
0.4683208167552948 0.8140335083007812 -0.030053794384002686
0.46432608366012573 0.8268881440162659 -0.03238190710544586
0.4601478576660156 0.8416262865066528 -0.027452096343040466
0.4480622112751007 0.8439180850982666 -0.01103865448385477
0.38356879353523254 0.7495948076248169 -0.026804249733686447
0.37876927852630615 0.7474229335784912 -0.029600942507386208
0.3734675645828247 0.7441802024841309 -0.03272790461778641
0.3768552839756012 0.7233284711837769 -0.03779185563325882
0.257671594619751 0.6704647541046143 -0.0416039302945137
0.5082356333732605 0.5120497941970825 -0.0741577297449112
0.4833589792251587 0.46554362773895264 -0.03574995696544647
0.4612483084201813 0.46842893958091736 -0.03435826301574707
0.38696253299713135 0.7498589754104614 -0.022344741970300674
0.24198119342327118 0.740551233291626 0.0067910002544522285
0.5165789127349854 0.4650738835334778 -0.06250792741775513
0.433476060628891 0.8659377694129944 0.00020072214829269797
0.5830767154693604 0.5473576188087463 -0.12642346322536469
0.5454042553901672 0.5261498093605042 -0.10732472687959671
0.5722334384918213 0.5201832056045532 -0.10473542660474777
0.4966639578342438 0.5784496665000916 -0.09751544147729874
0.5447514057159424 0.9184119701385498 0.01186305470764637
0.5448732376098633 0.8870624303817749 0.009231174364686012
0.4897816777229309 0.8855643272399902 0.0008086895104497671
0.3556041717529297 0.7986972332000732 0.0008917163359001279
0.4167114794254303 0.6442397236824036 -0.05788257345557213
0.389479398727417 0.8360956311225891 0.0032861018553376198
0.34386658668518066 0.6458161473274231 -0.06905381381511688
0.3848058581352234 0.6736322641372681 -0.05555452033877373
0.30906134843826294 0.6901333928108215 -0.04825514554977417
0.4833710491657257 0.9168763160705566 -0.0005929154576733708
0.4693003296852112 0.5906296372413635 -0.08282981067895889
0.3304252624511719 0.8268419504165649 0.01623426005244255
0.3748007118701935 0.8629970550537109 0.016939816996455193
0.3317902088165283 0.7583308219909668 -0.015984542667865753
0.2057410329580307 0.7061197757720947 0.012969080358743668
0.289470374584198 0.7707282900810242 -0.0034108804538846016
0.17320510745048523 0.7311806678771973 0.06602293998003006
0.3514126241207123 0.7061815857887268 -0.04511824622750282
0.4914727210998535 0.5547492504119873 -0.08169257640838623
0.5181981325149536 0.6338176727294922 -0.1342005431652069
0.4857369065284729 0.6374505758285522 -0.10811133682727814
0.5418316125869751 0.6164278388023376 -0.15060602128505707
0.46387720108032227 0.4449419379234314 -0.052478592842817307
0.418232798576355 0.430652916431427 -0.07343050837516785
0.3754723370075226 0.4278574287891388 -0.08556903898715973
0.3359469175338745 0.4334923028945923 -0.08718086779117584
0.3047265410423279 0.44611769914627075 -0.07871827483177185
0.27541399002075195 0.4888835549354553 -0.041754357516765594
0.1392667293548584 0.556287944316864 0.04779982566833496
0.3071770668029785 0.5215084552764893 -0.05164355784654617
0.34355080127716064 0.5278961658477783 -0.056953076273202896
0.3869282603263855 0.5267853140830994 -0.05511155351996422
0.4243732988834381 0.5199244022369385 -0.04657290130853653
0.4521287679672241 0.5112558007240295 -0.039152149111032486
0.4717317223548889 0.5034962296485901 -0.03509926050901413
0.10167786478996277 0.5555203557014465 0.13827559351921082
0.4796874225139618 0.6422409415245056 -0.09411918371915817
0.5286895632743835 0.56325763463974 -0.11502466350793839
0.5506106615066528 0.6362124681472778 -0.14639978110790253
0.5582432746887207 0.648526132106781 -0.1294119954109192
0.543488621711731 0.6406434178352356 -0.13385795056819916
0.4829986095428467 0.6485116481781006 -0.08045945316553116
0.5675925016403198 0.650306761264801 -0.13473258912563324
0.5619514584541321 0.6550866365432739 -0.10243543237447739
0.46890923380851746 0.4855615496635437 -0.026046065613627434
0.48687225580215454 0.49013930559158325 -0.03450861573219299
0.5011126399040222 0.49458223581314087 -0.05068543180823326
0.32815927267074585 0.47688835859298706 -0.05595976486802101
0.3052563965320587 0.4666285514831543 -0.06018517166376114
0.6008428335189819 0.5497541427612305 -0.1069849282503128
0.6784055233001709 0.472442626953125 0.09573724865913391
0.6087653040885925 0.6471389532089233 -0.08963297307491302
0.7168905735015869 0.3754619359970093 0.24089603126049042
0.6190311908721924 0.49822384119033813 0.04499928653240204
0.6424623727798462 0.4975917339324951 0.055835578590631485
0.6632881164550781 0.49460944533348083 0.07103636115789413
0.6827488541603088 0.47972530126571655 0.10418739914894104
0.6003364324569702 0.4946194589138031 0.03546007350087166
0.6572359800338745 0.43142205476760864 0.04378579184412956
0.6303578019142151 0.43548423051834106 0.03116476535797119
0.6791407465934753 0.4338065981864929 0.06171766296029091
0.6904276609420776 0.4420121908187866 0.07846285402774811
0.6983907222747803 0.4932654798030853 0.12330792099237442
0.6218574047088623 0.872299313545227 0.0757836177945137
0.6831614971160889 0.466228723526001 0.10720424354076385
0.7170228958129883 0.4808148741722107 0.26826736330986023
0.7079459428787231 0.475740909576416 0.15799018740653992
0.6645084619522095 0.5986019372940063 0.026143738999962807
0.6084308624267578 0.7116047143936157 -0.05174466222524643
0.5935937762260437 0.729804277420044 -0.03897091746330261
0.62939453125 0.7114619612693787 -0.019670212641358376
0.6385597586631775 0.7181189060211182 0.018326591700315475
0.6113889813423157 0.7283651828765869 -0.013270745985209942
0.6216393709182739 0.7311832904815674 0.019603608176112175
0.6472021341323853 0.7660786509513855 0.08686572313308716
0.621198832988739 0.6346389651298523 -0.13841885328292847
0.624578595161438 0.6096288561820984 -0.14646068215370178
0.7163745760917664 0.4193885922431946 0.09362594038248062
0.6128632426261902 0.5377638936042786 0.00030130520462989807
0.6508793830871582 0.6162666082382202 -0.05133538320660591
0.6461431980133057 0.6014970541000366 -0.042598724365234375
0.717240571975708 0.5882841944694519 0.08986397832632065
0.6145291328430176 0.5774722695350647 -0.13077035546302795
0.6849549412727356 0.39799439907073975 0.01824069954454899
0.7071648836135864 0.40391772985458374 0.054207246750593185
0.7128390669822693 0.3337176740169525 0.17537899315357208
0.5963072776794434 0.4244003891944885 -0.044063642621040344
0.6063852906227112 0.4462241530418396 0.030671149492263794
0.6629394888877869 0.7287873029708862 0.09536456316709518
0.6687755584716797 0.7106619477272034 0.3427618741989136
0.6340091228485107 0.6333446502685547 -0.046875085681676865
0.6160624027252197 0.6450284123420715 -0.06129658594727516
0.6354154348373413 0.7419033646583557 0.08820147812366486
0.6268967986106873 0.7433630228042603 0.07637569308280945
0.7127691507339478 0.38773125410079956 0.07168851047754288
0.6469594240188599 0.6256291270256042 -0.03647078573703766
0.6498515605926514 0.4027614891529083 -0.015104931779205799
0.6545875668525696 0.3827103078365326 -0.02102983370423317
0.6596877574920654 0.2806483507156372 0.029055802151560783
0.7151021957397461 0.36174270510673523 0.12004446983337402
0.6576864719390869 0.33138400316238403 0.004708985798060894
0.7206553220748901 0.40797531604766846 0.1217738464474678
0.722693145275116 0.3945857882499695 0.18090510368347168
0.6024952530860901 0.7224485874176025 -0.04733235761523247
0.6213733553886414 0.7214263677597046 -0.016662346199154854
0.6312272548675537 0.7248376607894897 0.01690579764544964
0.62751305103302 0.6384767889976501 -0.04676319286227226
0.6315462589263916 0.7427472472190857 0.0812937542796135
0.6304057836532593 0.7688173055648804 0.06362908333539963
0.6236618161201477 0.7436729669570923 0.07439547032117844
0.6325703859329224 0.6301161646842957 -0.08713211119174957
0.6125702857971191 0.7330082654953003 0.022264350205659866
0.6018911600112915 0.7312523126602173 -0.003891577012836933
0.5847077369689941 0.7329747080802917 -0.027130939066410065
0.5833198428153992 0.8540778756141663 0.019342903047800064
0.5980570316314697 0.8478657007217407 -0.004578475374728441
0.5985435843467712 0.8297519683837891 -0.009528755210340023
0.5929857492446899 0.8138406872749329 -0.0056301141157746315
0.5847902297973633 0.80342036485672 -0.003646082943305373
0.611370325088501 0.7825111746788025 0.03928852826356888
0.6191079020500183 0.785996675491333 0.03707282245159149
0.6268507242202759 0.7929367423057556 0.03676564618945122
0.6310073137283325 0.8022757768630981 0.04503212124109268
0.6545154452323914 0.6885603666305542 0.027874941006302834
0.6844221353530884 0.5871081352233887 0.37888801097869873
0.6169676780700684 0.7677524089813232 0.06195720657706261
0.6243975758552551 0.7673555016517639 0.0610489547252655
0.6068533658981323 0.6558300852775574 -0.05996236950159073
0.636074960231781 0.640458881855011 -0.02109287679195404
0.6116387844085693 0.650898814201355 -0.062209974974393845
0.6339022517204285 0.5490943789482117 0.020807042717933655
0.6702817678451538 0.563211977481842 0.04302472621202469
0.6459003686904907 0.6116412878036499 -0.02580840326845646
0.696449875831604 0.3013042211532593 0.10176682472229004
0.6951307058334351 0.3398197293281555 0.06239759549498558
0.690147876739502 0.37820523977279663 0.025939472019672394
0.6322505474090576 0.7995692491531372 0.06862714141607285
0.6061335802078247 0.3923918306827545 -0.05430956929922104
0.6097056865692139 0.32989591360092163 -0.03842978924512863
0.6094778776168823 0.27046510577201843 -0.027417950332164764
0.6768542528152466 0.48896604776382446 0.08935680985450745
0.7160033583641052 0.5079257488250732 0.14853420853614807
0.5887247323989868 0.4901350140571594 0.034038789570331573
0.7025290727615356 0.44961825013160706 0.11081492900848389
0.5995311737060547 0.5244313478469849 -0.017151346430182457
0.6451339721679688 0.6113981008529663 -0.08344043791294098
0.7323493361473083 0.5254929661750793 0.19074921309947968
0.7143510580062866 0.5245214104652405 0.12119374424219131
0.697601318359375 0.5349612236022949 0.08533132076263428
0.6591712832450867 0.5354124903678894 0.054390326142311096
0.6280909776687622 0.5286532044410706 0.03467979282140732
0.606522262096405 0.5201928615570068 0.01520917471498251
0.5798030495643616 0.49580931663513184 -0.06425566971302032
0.7401056885719299 0.5750536322593689 0.18701018393039703
0.7124422788619995 0.4452088475227356 0.12980201840400696
0.606289803981781 0.6488398313522339 -0.12673477828502655
0.6210259795188904 0.5631282925605774 -0.010204372927546501
0.6956437826156616 0.4774915277957916 0.3536784052848816
0.5916616916656494 0.5098861455917358 0.0022425721399486065
0.6410244107246399 0.6114423274993896 0.0022872858680784702
0.6890621781349182 0.46619340777397156 0.1156875342130661
0.6385337114334106 0.5933086276054382 -0.0737525001168251
0.6803919076919556 0.6459457874298096 0.3678778111934662
0.5858698487281799 0.48253166675567627 0.041939377784729004
0.627220094203949 0.5834104418754578 -0.10681834816932678
0.6702654361724854 0.7805385589599609 0.20154151320457458
0.6476805210113525 0.8108543157577515 0.24373482167720795
0.7242071628570557 0.5824286341667175 0.2886650860309601
0.6867088079452515 0.7405163049697876 0.23763476312160492
0.7202506065368652 0.434177428483963 0.23260419070720673
0.620631754398346 0.8996167182922363 0.09242909401655197
0.5957105755805969 0.654642641544342 -0.09344508498907089
0.6380404233932495 0.5790210962295532 0.00792065728455782
0.7135063409805298 0.47982993721961975 0.19377481937408447
0.6617372632026672 0.48164069652557373 0.07201112806797028
0.6425929069519043 0.48529911041259766 0.058349303901195526
0.6343331336975098 0.7717726230621338 0.07063320279121399
0.73477703332901 0.6253361701965332 0.19664299488067627
0.5810033679008484 0.9492673277854919 0.08423133939504623
0.6237139105796814 0.8895167708396912 0.1612691879272461
0.6341739892959595 0.8546785712242126 0.19956427812576294
0.6219322085380554 0.48588597774505615 0.0482940599322319
0.6026996374130249 0.48431652784347534 0.0440860278904438
0.5912131071090698 0.4836198091506958 0.04436060041189194
0.716078519821167 0.43928831815719604 0.16249242424964905
0.6053933501243591 0.4644015431404114 0.04142119735479355
0.6257103681564331 0.4562329947948456 0.04310394451022148
0.6475862860679626 0.45290109515190125 0.052524883300065994
0.6665065288543701 0.4544910788536072 0.06714464724063873
0.6763999462127686 0.45914793014526367 0.08090801537036896
0.7109379768371582 0.4205666780471802 0.3040134608745575
0.6723746061325073 0.47708261013031006 0.08530217409133911
0.6404693722724915 0.6771081686019897 -0.004611091688275337
0.6371132731437683 0.6303151249885559 -0.059642061591148376
0.6045001149177551 0.6756307482719421 -0.051139455288648605
0.6524019241333008 0.8228961229324341 0.1695757508277893
0.6362262964248657 0.8599345684051514 0.1329386830329895
0.5903783440589905 0.9302018880844116 0.05169962719082832
0.657052755355835 0.7663275003433228 0.2953762114048004
0.592367947101593 0.47523775696754456 0.04160105064511299
0.6012850403785706 0.5354976058006287 -0.06149883195757866
0.6086484789848328 0.9227054119110107 0.12010359019041061
0.7169791460037231 0.6371707320213318 0.2849513590335846
0.6016135811805725 0.7946197390556335 0.017326677218079567
0.6104522943496704 0.8019854426383972 0.01588020846247673
0.6173169612884521 0.8142685890197754 0.015590241178870201
0.6203969717025757 0.8303693532943726 0.02262161485850811
0.6131916046142578 0.8308061361312866 0.0451815240085125
0.6262882947921753 0.735779345035553 0.050592776387929916
0.6342346668243408 0.7320001721382141 0.054564643651247025
0.6402028203010559 0.7275264263153076 0.05651326850056648
0.6627952456474304 0.7051489949226379 0.0652807354927063
0.7227805852890015 0.6419360637664795 0.13128085434436798
0.5888445973396301 0.5090296864509583 -0.03905072063207626
0.5796105265617371 0.4634753465652466 0.009215722791850567
0.5866719484329224 0.4662587344646454 0.029292024672031403
0.6191651821136475 0.7366558313369751 0.05163383483886719
0.7047140598297119 0.7036216855049133 0.1813380867242813
0.5736032128334045 0.46379491686820984 -0.03614816442131996
0.6150273680686951 0.8475316166877747 0.06128319725394249
0.5910258293151855 0.5241817831993103 -0.08935041725635529
0.6211276054382324 0.5720945596694946 -0.05328599736094475
0.5853733420372009 0.8755404949188232 0.029911348596215248
0.654430627822876 0.7727903723716736 0.10738374292850494
0.6544555425643921 0.6318112015724182 0.020956169813871384
0.6358690857887268 0.8125426173210144 0.08755624294281006
0.6947753429412842 0.6266800761222839 0.05520964413881302
0.6687355637550354 0.6575000286102295 0.0435950942337513
0.702514111995697 0.6649282574653625 0.09399686753749847
0.5913854837417603 0.9040030837059021 0.037492625415325165
0.6292089819908142 0.5824406743049622 -0.02730366587638855
0.6608339548110962 0.7927278280258179 0.1375661939382553
0.6391408443450928 0.8328850269317627 0.11023593693971634
0.6732966899871826 0.731945276260376 0.11278801411390305
0.7206668853759766 0.6693183183670044 0.2074490189552307
0.6868952512741089 0.7360131144523621 0.1444123089313507
0.7029162645339966 0.6896156072616577 0.27493801712989807
0.6773635149002075 0.685925304889679 0.07333572953939438
0.61016845703125 0.5492588877677917 -0.03395303711295128
0.6407315135002136 0.6244179606437683 -0.09095104783773422
0.6461807489395142 0.6263403296470642 -0.05860373377799988
0.6372026205062866 0.6096067428588867 -0.11524809896945953
0.5995587110519409 0.4399232268333435 0.009471449069678783
0.6380198001861572 0.4233006536960602 0.017108077183365822
0.6700865626335144 0.419133722782135 0.032373517751693726
0.6929206848144531 0.42241600155830383 0.05628792941570282
0.7036512494087219 0.43239229917526245 0.08187723159790039
0.6974573135375977 0.47114139795303345 0.13120146095752716
0.7225696444511414 0.5310250520706177 0.28324568271636963
0.6930119395256042 0.5040515065193176 0.10646921396255493
0.6771665811538696 0.5122639536857605 0.08099858462810516
0.6497704982757568 0.5147331357002258 0.05819853022694588
0.6216362118721008 0.5120208859443665 0.042347945272922516
0.6008577346801758 0.5066050291061401 0.027556635439395905
0.5876689553260803 0.5005967020988464 0.018988490104675293
0.6864104270935059 0.5322171449661255 0.3766230046749115
0.6414928436279297 0.6317048668861389 -0.04558179900050163
0.612815797328949 0.5590402483940125 -0.08028867840766907
0.6328350305557251 0.629161536693573 -0.11903849989175797
0.6144397854804993 0.6433441638946533 -0.11353664845228195
0.6273659467697144 0.6334666609764099 -0.10575080662965775
0.6333807706832886 0.6393603086471558 -0.0396529883146286
0.6122916340827942 0.6465402841567993 -0.12184783071279526
0.6030868291854858 0.6518924236297607 -0.09141905605792999
0.5811023712158203 0.4836086332798004 0.03125782683491707
0.5771402716636658 0.4887462854385376 0.007787699345499277
0.5795637369155884 0.4929829239845276 -0.015271652489900589
0.6809384822845459 0.46298855543136597 0.09265521913766861
0.6940795183181763 0.4518827199935913 0.09839896112680435
0.3737102746963501 0.4770582318305969 -0.05006176605820656
0.40643996000289917 0.47521549463272095 -0.05006176605820656
0.37170591950416565 0.45240023732185364 -0.05006176605820656
0.34064218401908875 0.4790145754814148 -0.05006176605820656
0.37589120864868164 0.501749575138092 -0.05006176605820656
0.6278766989707947 0.46886271238327026 0.06354019790887833
0.6535753011703491 0.4675167202949524 0.06354019790887833
0.6277753710746765 0.4468786120414734 0.06354019790887833
0.6025075912475586 0.47016453742980957 0.06354019790887833
0.6282826066017151 0.49063098430633545 0.06354019790887833
