ply
format ascii 1.0
element vertex 478
property float x
property float y
property float z
end_header
0.46289992332458496 0.7082551717758179 -0.03383264318108559
0.3907656967639923 0.6311548352241516 -0.06779484450817108
0.44741740822792053 0.6560108661651611 -0.03467849642038345
0.40785640478134155 0.551472544670105 -0.0324229933321476
0.3846357464790344 0.6066015958786011 -0.07247300446033478
0.39720019698143005 0.5754916667938232 -0.06803718954324722
0.44395944476127625 0.49546492099761963 -0.03744712099432945
0.42217662930488586 0.4778391122817993 0.16197115182876587
0.4490834176540375 0.4432695508003235 -0.031270790845155716
0.4406271278858185 0.41430187225341797 -0.03439108654856682
0.4507489800453186 0.2995171844959259 -0.023150047287344933
0.46439892053604126 0.7184421420097351 -0.031445205211639404
0.46860527992248535 0.7286145687103271 -0.02645828388631344
0.47427722811698914 0.7357258200645447 -0.01955171674489975
0.474388062953949 0.7358309030532837 -0.01887028105556965
0.4725184440612793 0.7467067241668701 -0.019950423389673233
0.4722834527492523 0.7600486874580383 -0.021986523643136024
0.4755781888961792 0.7739810943603516 -0.019571678712964058
0.49746549129486084 0.8032822608947754 -0.007540134247392416
0.4075259268283844 0.6451404690742493 -0.06101848557591438
0.41780582070350647 0.6413649320602417 -0.028188806027173996
0.4776945114135742 0.40461117029190063 0.29875653982162476
0.44804084300994873 0.497583270072937 0.09671036154031754
0.4381227195262909 0.5004047155380249 0.11683279275894165
0.4299907088279724 0.4994615614414215 0.13761958479881287
0.4284677505493164 0.48584097623825073 0.17184728384017944
0.4539796710014343 0.4911847710609436 0.07733888179063797
0.4216063320636749 0.4481526017189026 0.1134478971362114
0.4334718585014343 0.4499320685863495 0.08876565098762512
0.4141677916049957 0.4497469663619995 0.13635718822479248
0.4134472906589508 0.45562177896499634 0.1533547192811966
0.42941516637802124 0.5019958019256592 0.18930543959140778
0.4892752766609192 0.8319526314735413 0.07522020488977432
0.42295533418655396 0.4728262424468994 0.17225989699363708
0.49682295322418213 0.4975830316543579 0.3126527965068817
0.43324393033981323 0.486028790473938 0.22285400331020355
0.4363316297531128 0.6065517067909241 0.08675969392061234
0.4486354887485504 0.7043344974517822 -0.009151304140686989
0.45858728885650635 0.7281731367111206 -0.0036263572983443737
0.4411007761955261 0.7114313840866089 0.024237273260951042
0.44015735387802124 0.72159743309021 0.0529811792075634
0.45357242226600647 0.7293216586112976 0.02193306013941765
0.45154765248298645 0.7318651676177979 0.045437417924404144
0.4645831286907196 0.7612417936325073 0.09455046057701111
0.3834311366081238 0.6293280124664307 -0.05352132022380829
0.378262460231781 0.6063321232795715 -0.055320579558610916
0.40202876925468445 0.440376341342926 0.1817878931760788
0.4485587775707245 0.543672502040863 0.04964141920208931
0.40598034858703613 0.6191636323928833 0.02296743541955948
0.4133686125278473 0.6052311062812805 0.028489865362644196
0.43714553117752075 0.6035736799240112 0.16431590914726257
0.3910214602947235 0.5774580240249634 -0.04416147246956825
0.3978807330131531 0.42432117462158203 0.10422026365995407
0.3949059545993805 0.4284183382987976 0.14538612961769104
0.4414251446723938 0.36724618077278137 0.24794696271419525
0.43391337990760803 0.4447914958000183 0.012755373492836952
0.4452136158943176 0.4554569721221924 0.07559312134981155
0.45771849155426025 0.7393611669540405 0.1163034588098526
0.5865879654884338 0.7169502973556519 0.3322051167488098
0.4178274869918823 0.6337330341339111 0.013553685508668423
0.4287398159503937 0.6430191993713379 -0.009880985133349895
0.44930288195610046 0.7384110689163208 0.0997798964381218
0.4526495337486267 0.7371822595596313 0.08428692072629929
0.39438220858573914 0.4139842391014099 0.1618252545595169
0.4180872142314911 0.6295925378799438 0.029184604063630104
0.409913569688797 0.4295783042907715 0.059544116258621216
0.4044968783855438 0.4106367826461792 0.059350449591875076
0.4144582450389862 0.31881701946258545 0.11203431338071823
0.41902923583984375 0.39010924100875854 0.1992018073797226
0.40754732489585876 0.3591230511665344 0.08385463058948517
0.40585097670555115 0.4311301112174988 0.20573514699935913
0.4460662603378296 0.4205498993396759 0.24867916107177734
0.4521175026893616 0.7176272869110107 -0.007047020830214024
0.44643837213516235 0.7215362191200256 0.02276931330561638
0.44520288705825806 0.7272011637687683 0.04727740213274956
0.42554885149002075 0.6385552883148193 0.008067172020673752
0.45093390345573425 0.7378938794136047 0.0904296338558197
0.4510919451713562 0.7410048246383667 0.06823137402534485
0.4540939927101135 0.7365151047706604 0.0812373086810112
0.4001917243003845 0.6265090703964233 -0.008306317962706089
0.457847535610199 0.7348324060440063 0.0449490062892437
0.46031397581100464 0.7344023585319519 0.025181254372000694
0.4653201103210449 0.7347566485404968 0.003172164550051093
0.4841364026069641 0.8001093864440918 0.014043175615370274
0.46146345138549805 0.7705509066581726 0.0031859034206718206
0.45928677916526794 0.7569738626480103 0.0016395525308325887
0.4613815248012543 0.7445810437202454 0.0040353876538574696
0.46572911739349365 0.7349799275398254 0.0039898985996842384
0.4586912989616394 0.7350614666938782 0.045302268117666245
0.45467159152030945 0.7397404313087463 0.04350839927792549
0.45121413469314575 0.7453761100769043 0.043927960097789764
0.44938427209854126 0.7528667449951172 0.051619429141283035
0.4374953508377075 0.6937054395675659 0.06815437972545624
0.5877797603607178 0.5987684726715088 0.3759125769138336
0.4276038706302643 0.6509780883789062 -0.044154975563287735
0.4568784832954407 0.7356669306755066 0.06612547487020493
0.45367804169654846 0.7382884621620178 0.06507880240678787
0.43671345710754395 0.6540802717208862 -0.01026410236954689
0.4335179030895233 0.6446692943572998 0.02794547751545906
0.4325038194656372 0.6489968299865723 -0.011066802777349949
0.447733074426651 0.5575439929962158 0.07515552639961243
0.43914327025413513 0.575468897819519 0.10786924511194229
0.42175930738449097 0.6158035397529602 0.037856899201869965
0.42105644941329956 0.33817726373672485 0.1831849217414856
0.4077616333961487 0.3689730763435364 0.1451110541820526
0.39395827054977417 0.4062395691871643 0.1142408475279808
0.46906578540802 0.7755796909332275 0.07253677397966385
0.4237131178379059 0.41779404878616333 0.011411245912313461
0.41896364092826843 0.3563075661659241 0.02685604989528656
0.42363765835762024 0.3072870373725891 0.04067585989832878
0.427591472864151 0.49464261531829834 0.15778915584087372
0.43385952711105347 0.5176928043365479 0.21587952971458435
0.45724403858184814 0.48539918661117554 0.07071226090192795
0.4174085259437561 0.46183204650878906 0.18553246557712555
0.4465693235397339 0.5289700031280518 0.03185727447271347
0.3947286903858185 0.6113059520721436 -0.0008175036055035889
0.46435821056365967 0.5420520901679993 0.2567830979824066
0.4247174859046936 0.5358134508132935 0.19354978203773499
0.4214709401130676 0.5462529063224792 0.15473046898841858
0.43195202946662903 0.5421743392944336 0.11386344581842422
0.4430856704711914 0.531255304813385 0.08381950110197067
0.44887447357177734 0.5202107429504395 0.058830443769693375
0.4379656910896301 0.5001680850982666 -0.011221054941415787
0.46485087275505066 0.5926433801651001 0.2535324990749359
0.4181310832500458 0.4603177309036255 0.2068675458431244
0.40155473351478577 0.6431635618209839 -0.04991159588098526
0.4400849938392639 0.5685011744499207 0.04359373077750206
0.5538545846939087 0.49419957399368286 0.36959579586982727
0.4517516791820526 0.5087084770202637 0.0423954501748085
0.43552345037460327 0.6170963644981384 0.05124368518590927
0.42550593614578247 0.4740370810031891 0.18203237652778625
0.40484949946403503 0.5952671766281128 0.004310862626880407
0.5914732813835144 0.6560037732124329 0.3603058457374573
0.45877769589424133 0.4774346649646759 0.07696814090013504
0.3951643109321594 0.5839701890945435 -0.02125939540565014
0.5087550282478333 0.7750825881958008 0.2097485363483429
0.5469446778297424 0.805871307849884 0.2358604073524475
0.5175530314445496 0.5972416400909424 0.3215780258178711
0.520050585269928 0.7409828901290894 0.25298312306404114
0.4745066463947296 0.45514458417892456 0.2862490117549896
0.49629199504852295 0.8572311997413635 0.08897145092487335
0.4230462312698364 0.6491178870201111 -0.03698236867785454
0.4416979253292084 0.5864906311035156 0.06292416155338287
0.443081796169281 0.4899677634239197 0.25592726469039917
0.4259698688983917 0.48549896478652954 0.13658837974071503
0.43426814675331116 0.487548828125 0.11853232234716415
0.4492676258087158 0.7449402809143066 0.07657960802316666
0.4782780408859253 0.6399610638618469 0.25069889426231384
0.5166562795639038 0.8999030590057373 0.059273380786180496
0.5194256901741028 0.8624092936515808 0.14517511427402496
0.5298379063606262 0.8396364450454712 0.18679368495941162
0.4422354996204376 0.3537578284740448 -0.028501665219664574
0.5397100448608398 0.9114019870758057 0.01495838351547718
0.4438672661781311 0.4851170778274536 0.10054778307676315
0.45166724920272827 0.48054778575897217 0.08831846714019775
0.4564342498779297 0.4784439206123352 0.08206398785114288
0.42628660798072815 0.4560823440551758 0.23462063074111938
0.4484739303588867 0.4671388268470764 0.08836837857961655
0.43902671337127686 0.46364983916282654 0.09913838654756546
0.4288814067840576 0.461946040391922 0.11605986207723618
0.4217674434185028 0.4635874629020691 0.1352410614490509
0.4200390875339508 0.4673829674720764 0.14912770688533783
0.514860987663269 0.44348886609077454 0.34019023180007935
0.4226446747779846 0.48159968852996826 0.1516169011592865
0.4508519172668457 0.671279788017273 -0.031248150393366814
0.4346330463886261 0.678567111492157 0.04176091030240059
0.4102063477039337 0.6299393177032471 0.005839054938405752
0.4380509853363037 0.6723582744598389 -0.005733994301408529
0.45572513341903687 0.46704110503196716 -0.02897912636399269
0.5014946460723877 0.8075546622276306 0.1671697050333023
0.5016693472862244 0.8327562808990479 0.12785977125167847
0.4977116286754608 0.8774758577346802 0.04293156415224075
0.5698559284210205 0.7673248052597046 0.2878931164741516
0.45460838079452515 0.4726443588733673 0.08172060549259186
0.4262917637825012 0.539051353931427 -0.0010262689320370555
0.5194851160049438 0.8874379396438599 -0.0002911916235461831
0.5123591423034668 0.8830263018608093 0.10398856550455093
0.5279945135116577 0.6484949588775635 0.3102412223815918
0.46087679266929626 0.7345908880233765 0.025818344205617905
0.45625215768814087 0.7418439388275146 0.025543946772813797
0.4532395601272583 0.7510663866996765 0.025604374706745148
0.45295384526252747 0.7630101442337036 0.030483832582831383
0.475261926651001 0.7891364097595215 0.04637646675109863
0.45179951190948486 0.7345063090324402 0.0678427666425705
0.44726115465164185 0.7330238819122314 0.0748295858502388
0.4432700276374817 0.7303394079208374 0.08052799105644226
0.4446447491645813 0.7154422998428345 0.0977896898984909
0.4594675302505493 0.6531710624694824 0.19286151230335236
0.44280707836151123 0.5131537914276123 0.010467435233294964
0.455983430147171 0.46596986055374146 0.041977934539318085
0.45588189363479614 0.467084139585495 0.06653960794210434
0.456417977809906 0.7353307008743286 0.06601807475090027
0.4839678406715393 0.7091169953346252 0.2168446034193039
0.4511290490627289 0.46849316358566284 0.0061086066998541355
0.4882952570915222 0.8092855215072632 0.06010451167821884
0.41425979137420654 0.5485019087791443 -0.057142019271850586
0.42233461141586304 0.527236819267273 -0.025965802371501923
0.4290245771408081 0.5229341983795166 -0.04691644012928009
0.4212779402732849 0.5753379464149475 0.011020037345588207
0.508328914642334 0.8592215776443481 -0.008370215073227882
0.5044374465942383 0.828477144241333 -0.008084187284111977
0.4916795790195465 0.8232841491699219 0.02255941741168499
0.47041580080986023 0.7663983106613159 0.11661165207624435
0.4365406036376953 0.6377817392349243 0.07008551061153412
0.48026904463768005 0.791273832321167 0.08966086804866791
0.4357374310493469 0.6347712874412537 0.11952175945043564
0.43672290444374084 0.6627569794654846 0.09215927869081497
0.44840067625045776 0.6726951003074646 0.1487875133752823
0.48992908000946045 0.8514729142189026 0.03289288282394409
0.4299360513687134 0.5870783925056458 0.031921789050102234
0.4805813133716583 0.7814157009124756 0.1451999694108963
0.4897255301475525 0.8081070184707642 0.10992845892906189
0.4614636301994324 0.7377027273178101 0.13922880589962006
0.48904624581336975 0.6796313524246216 0.24792416393756866
0.47439175844192505 0.7371110320091248 0.1724257469177246
0.5297905206680298 0.6957802772521973 0.2938699424266815
0.4442363381385803 0.6954790353775024 0.11641330271959305
0.4339590072631836 0.5533555150032043 0.022666435688734055
0.3948586881160736 0.6222427487373352 -0.0077087851241230965
0.4065428078174591 0.6277922987937927 0.012720879167318344
0.3832807242870331 0.6073638796806335 -0.025755150243639946
0.4432121515274048 0.451566606760025 0.05439760535955429
0.42469000816345215 0.44136643409729004 0.07920137792825699
0.41092920303344727 0.43874648213386536 0.10688092559576035
0.404112845659256 0.4412107765674591 0.1379382610321045
0.40629881620407104 0.44859224557876587 0.1637115627527237
0.42924678325653076 0.48000049591064453 0.19733764231204987
0.5059837698936462 0.5467801690101624 0.32359829545021057
0.4260067939758301 0.5127387046813965 0.17292581498622894
0.42745301127433777 0.5202984809875488 0.14524716138839722
0.43619340658187866 0.5197672247886658 0.11616549640893936
0.4469444155693054 0.5131587982177734 0.09060343354940414
0.4536438584327698 0.505107581615448 0.06768359988927841
0.45715880393981934 0.49821317195892334 0.05407887324690819
0.5768887996673584 0.545447587966919 0.37968266010284424
0.41683563590049744 0.6340803503990173 0.018137749284505844
0.4116457998752594 0.5615129470825195 -0.008816327899694443
0.38419702649116516 0.6244602799415588 -0.03314992040395737
0.40429776906967163 0.637385904788971 -0.03931257873773575
0.39571452140808105 0.6283711791038513 -0.026238705962896347
0.42811769247055054 0.6416299343109131 0.01494655478745699
0.4012172520160675 0.6405801773071289 -0.045665279030799866
0.42013153433799744 0.6462481021881104 -0.03259926661849022
0.45970386266708374 0.47904786467552185 0.06320025771856308
0.4596383571624756 0.4863446354866028 0.03991297259926796
0.4537796974182129 0.4918382167816162 0.023131847381591797
0.42072930932044983 0.4707068204879761 0.16023685038089752
0.41757673025131226 0.46279990673065186 0.17014195024967194
0.4301835298538208 0.5516718626022339 -0.0726531371474266
0.6317108869552612 0.4817902445793152 -0.1322166472673416
0.44592562317848206 0.6458011269569397 -0.05854833871126175
0.8158434629440308 0.3613048493862152 -0.15749050676822662
0.5664809942245483 0.5020159482955933 -0.09115851670503616
0.5881069302558899 0.5041446089744568 -0.10965079069137573
0.6128621697425842 0.5034630298614502 -0.12428592145442963
0.6503242254257202 0.4880892038345337 -0.1387801319360733
0.5500221252441406 0.49546340107917786 -0.07082882523536682
0.5956540107727051 0.441912978887558 -0.12242570519447327
0.571664035320282 0.4434663653373718 -0.09694849699735641
0.6212173700332642 0.44466036558151245 -0.13696078956127167
0.6400021910667419 0.45157647132873535 -0.1430666297674179
0.6792470216751099 0.5025150775909424 -0.1443917602300644
0.5926785469055176 0.8538204431533813 -0.060037367045879364
0.6447282433509827 0.4746665358543396 -0.13562363386154175
0.8322591781616211 0.4842936098575592 -0.1508491039276123
0.7204052805900574 0.48287779092788696 -0.15391093492507935
0.5702700018882751 0.6095840930938721 -0.10050182789564133
0.4842241406440735 0.705447793006897 -0.054774150252342224
0.48893463611602783 0.7295850515365601 -0.04484052211046219
0.5138989686965942 0.7176306843757629 -0.07135534286499023
0.5372253656387329 0.7283234596252441 -0.0800759568810463
0.5123404264450073 0.7327176928520203 -0.05991286784410477
0.533305823802948 0.7365416884422302 -0.0650610700249672
0.5933911800384521 0.7733555436134338 -0.07990045845508575
0.40713801980018616 0.6317887902259827 -0.07956816256046295
0.40269729495048523 0.6074913144111633 -0.08635320514440536
0.6774871349334717 0.43064212799072266 -0.17179982364177704
0.529437780380249 0.5444465279579163 -0.07206900417804718
0.49813657999038696 0.6270469427108765 -0.09115675091743469
0.5070351362228394 0.6116161942481995 -0.08911757916212082
0.6548356413841248 0.6067726612091064 -0.14938665926456451
0.4143284857273102 0.5777475237846375 -0.08370593190193176
0.596065878868103 0.4107568562030792 -0.14258301258087158
0.6391951441764832 0.4166657626628876 -0.163689985871315
0.7423915863037109 0.3216906785964966 -0.16065944731235504
0.49275916814804077 0.4350943863391876 -0.06861656159162521
0.5531172752380371 0.45086243748664856 -0.07464102655649185
0.6046453714370728 0.7510229349136353 -0.09642022103071213
0.8958603143692017 0.7416900396347046 -0.09499175101518631
0.4893743395805359 0.6424342393875122 -0.0711887776851654
0.47507405281066895 0.6488799452781677 -0.05194695293903351
0.5706232190132141 0.7432577013969421 -0.08280700445175171
0.5651751756668091 0.7425750494003296 -0.07444443553686142
0.6577258110046387 0.3987371325492859 -0.16708964109420776
0.5131035447120667 0.637596607208252 -0.08224634826183319
0.5479617118835449 0.4154006838798523 -0.10989797860383987
0.5485849380493164 0.39499932527542114 -0.11504773795604706
0.5747457146644592 0.28773823380470276 -0.12422401458024979
0.6859377026557922 0.3601910173892975 -0.1641412228345871
0.5443388223648071 0.33919599652290344 -0.11854101717472076
0.7042109966278076 0.4165075123310089 -0.17307601869106293
0.751188337802887 0.3931305408477783 -0.16338001191616058
0.4858843982219696 0.718575119972229 -0.052166812121868134
0.512200653553009 0.7256785035133362 -0.06639374792575836
0.5345192551612854 0.732521116733551 -0.07308012247085571
0.4891206622123718 0.6469199061393738 -0.061298731714487076
0.5675258040428162 0.7429882287979126 -0.07744055241346359
0.5547690391540527 0.7461274862289429 -0.07129348814487457
0.5627232789993286 0.7420859932899475 -0.07268602401018143
0.45534560084342957 0.6345634460449219 -0.08637042343616486
0.5336418151855469 0.7388132810592651 -0.060002703219652176
0.5134543180465698 0.7367523908615112 -0.051515236496925354
0.49301522970199585 0.73581862449646 -0.03895189240574837
0.5214447975158691 0.8056021332740784 -0.028073986992239952
0.4981991648674011 0.7735614776611328 -0.041004057973623276
0.4943528175354004 0.7593019604682922 -0.04344329610466957
0.49290287494659424 0.745855987071991 -0.041026897728443146
0.4929931163787842 0.7358219027519226 -0.03846488520503044
0.5333438515663147 0.7386684417724609 -0.05959486588835716
0.5358894467353821 0.7434258460998535 -0.06131797656416893
0.5392337441444397 0.7500568628311157 -0.06435450166463852
0.5432373285293579 0.757785439491272 -0.06719765067100525
0.5508145093917847 0.7024858593940735 -0.08809072524309158
0.9236867427825928 0.5995923280715942 -0.10427380353212357
0.5494253039360046 0.740568220615387 -0.06716527044773102
0.5513815879821777 0.74309241771698 -0.06867170333862305
0.47078296542167664 0.6581860780715942 -0.05147934332489967
0.5163537263870239 0.6522848010063171 -0.061010509729385376
0.4725263714790344 0.6539340615272522 -0.051666758954524994
0.5549218058586121 0.5585321187973022 -0.08807216584682465
0.5889334678649902 0.5760322213172913 -0.11434964835643768
0.5210926532745361 0.6226802468299866 -0.08315940201282501
0.6616908311843872 0.2964710295200348 -0.150527685880661
0.6169091463088989 0.3414991796016693 -0.14835797250270844
0.6050606966018677 0.38989683985710144 -0.14689135551452637
0.5734586715698242 0.7886380553245544 -0.06962756812572479
0.49267008900642395 0.404493510723114 -0.07831509411334991
0.4898604154586792 0.3447633981704712 -0.07902397960424423
0.5076162815093994 0.28992730379104614 -0.0791344940662384
0.6359953284263611 0.49843424558639526 -0.13411429524421692
0.7124873995780945 0.5178508162498474 -0.15557289123535156
0.5396486520767212 0.4894143342971802 -0.06138065457344055
0.6749160289764404 0.4590058922767639 -0.1560414433479309
0.5085336565971375 0.5295124053955078 -0.0654802918434143
0.46552199125289917 0.6176238656044006 -0.09351754188537598
0.7628670334815979 0.5384984016418457 -0.16625389456748962
0.6840218305587769 0.5380216240882874 -0.15511417388916016
0.642149031162262 0.5486371517181396 -0.13928410410881042
0.5920893549919128 0.5446815490722656 -0.11018738150596619
0.5595790147781372 0.5343247652053833 -0.08541315048933029
0.5355542898178101 0.5241986513137817 -0.06811410933732986
0.46346360445022583 0.5002619028091431 -0.05330652743577957
0.7583653330802917 0.5959280133247375 -0.16727784276008606
0.7041891813278198 0.4538195729255676 -0.1662258505821228
0.416606605052948 0.6447842121124268 -0.07053174823522568
0.520479142665863 0.5708885788917542 -0.07356517761945724
0.9072224497795105 0.4717048406600952 -0.12277761846780777
0.5151185393333435 0.5137386322021484 -0.056884653866291046
0.5362720489501953 0.6237959861755371 -0.06942223757505417
0.6602476239204407 0.4736420512199402 -0.14165158569812775
0.4763702154159546 0.5995984673500061 -0.08950801193714142
0.9184876084327698 0.6690860986709595 -0.09929035604000092
0.5447186231613159 0.4826333522796631 -0.06159943714737892
0.44153693318367004 0.5856564044952393 -0.09040821343660355
0.7489912509918213 0.8116592168807983 -0.10316608846187592
0.7934334874153137 0.8425614833831787 -0.08559390157461166
0.84574955701828 0.6014142632484436 -0.14027729630470276
0.796772301197052 0.7739616632461548 -0.11574730277061462
0.7969477772712708 0.4332527220249176 -0.15495799481868744
0.6124719977378845 0.8840911388397217 -0.05839505046606064
0.43482351303100586 0.6499652862548828 -0.049451183527708054
0.5463755130767822 0.5891532897949219 -0.08192582428455353
0.7551864385604858 0.48302191495895386 -0.15928062796592712
0.6031121015548706 0.4909677505493164 -0.12108928710222244
0.5834054350852966 0.49230456352233887 -0.10916990041732788
0.5591331124305725 0.7499127984046936 -0.07483820617198944
0.7668123245239258 0.6512717008590698 -0.1529236137866974
0.583550214767456 0.9153368473052979 -0.02188756689429283
0.6809313297271729 0.8953003883361816 -0.059806715697050095
0.7314696311950684 0.8760489225387573 -0.0731978714466095
0.5680333971977234 0.4899185299873352 -0.09308455139398575
0.5550713539123535 0.4853637218475342 -0.07809142768383026
0.5475878119468689 0.4833149313926697 -0.06740374863147736
0.7366461753845215 0.44467416405677795 -0.16692735254764557
0.5609267950057983 0.46859079599380493 -0.0817609578371048
0.5788806676864624 0.4642457962036133 -0.09813710302114487
0.5972196459770203 0.46396949887275696 -0.11414405703544617
0.6161442995071411 0.4663752615451813 -0.12716135382652283
0.6283358335494995 0.4697498083114624 -0.13233081996440887
0.868500828742981 0.4081204831600189 -0.14013011753559113
0.6187458634376526 0.48695898056030273 -0.12854315340518951
0.5246191620826721 0.6865369081497192 -0.07637041062116623
0.4814469814300537 0.6387433409690857 -0.07424890995025635
0.47382086515426636 0.675937294960022 -0.053806621581315994
0.7036051750183105 0.8438194990158081 -0.08452025055885315
0.6604672074317932 0.8666390180587769 -0.06977903097867966
0.5622158646583557 0.89267897605896 -0.03692895174026489
0.8499499559402466 0.8000606894493103 -0.0918792262673378
0.5496329069137573 0.47660940885543823 -0.07023336738348007
0.4695386290550232 0.5390751957893372 -0.06696023046970367
0.6302609443664551 0.9092492461204529 -0.047891419380903244
0.846827507019043 0.6629408597946167 -0.13068029284477234
0.5133463740348816 0.7366192936897278 -0.051292743533849716
0.5152904987335205 0.7444444298744202 -0.0542084276676178
0.5178710222244263 0.7548294067382812 -0.05793864652514458
0.5214310884475708 0.7673280835151672 -0.05859895423054695
0.548822820186615 0.7994152903556824 -0.05527680739760399
0.5513426065444946 0.739764392375946 -0.07191639393568039
0.553810179233551 0.7383025288581848 -0.07906775921583176
0.5570238828659058 0.736390233039856 -0.08514980226755142
0.5784297585487366 0.7251275181770325 -0.09807920455932617
0.7010173201560974 0.6650261878967285 -0.14670373499393463
0.4852578639984131 0.5132829546928406 -0.057910624891519547
0.5165895819664001 0.4667888283729553 -0.045676812529563904
0.5372813940048218 0.46767371892929077 -0.06024269387125969
0.5496711134910583 0.7406591176986694 -0.06732945144176483
0.7409334182739258 0.7328230142593384 -0.12868238985538483
0.4841342568397522 0.4701402187347412 -0.04546913504600525
0.5737084746360779 0.8259520530700684 -0.05557456240057945
0.4466487765312195 0.5272945165634155 -0.061552707105875015
0.48473691940307617 0.5774435997009277 -0.07494056224822998
0.5351845622062683 0.8322117328643799 -0.03289835527539253
0.6282685995101929 0.7872867584228516 -0.08699643611907959
0.5577161312103271 0.6439917683601379 -0.08172760158777237
0.6058984994888306 0.8113386034965515 -0.07121042907238007
0.6098947525024414 0.6412303447723389 -0.1225070059299469
0.5775249004364014 0.6705866456031799 -0.09877119958400726
0.6493445038795471 0.6855378746986389 -0.1281619369983673
0.5462456345558167 0.8637551069259644 -0.0415840744972229
0.5126308798789978 0.5909566879272461 -0.07591480761766434
0.6682580709457397 0.8104903697967529 -0.09165477752685547
0.6327643990516663 0.8352551460266113 -0.07175234705209732
0.6395152807235718 0.7564890384674072 -0.10771626979112625
0.7752569317817688 0.698667049407959 -0.13850942254066467
0.6930623650550842 0.7631518840789795 -0.11589933186769485
0.8366690278053284 0.7205944061279297 -0.12395322322845459
0.6060459017753601 0.7071389555931091 -0.10921654105186462
0.49529528617858887 0.5545560121536255 -0.07035285979509354
0.4581010937690735 0.6304194331169128 -0.09226980060338974
0.48975592851638794 0.6365876793861389 -0.08367099612951279
0.43172478675842285 0.6116931438446045 -0.09408179670572281
0.5287024974822998 0.44762253761291504 -0.06740059703588486
0.5613117218017578 0.43516814708709717 -0.10093961656093597
0.5929348468780518 0.4315049648284912 -0.1291208565235138
0.6250887513160706 0.43366727232933044 -0.14886300265789032
0.652944803237915 0.44268277287483215 -0.1578073501586914
0.6860033869743347 0.4784283936023712 -0.14783139526844025
0.8418083190917969 0.5420051217079163 -0.14996734261512756
0.6587191820144653 0.5143191814422607 -0.1396135687828064
0.6284517049789429 0.5223168730735779 -0.12704409658908844
0.5929813385009766 0.5221074223518372 -0.10763100534677505
0.5637092590332031 0.5161464214324951 -0.08508095145225525
0.5433288812637329 0.5085042119026184 -0.06511898338794708
0.5278762578964233 0.5019972324371338 -0.0536014698445797
0.9214306473731995 0.5351338982582092 -0.11107436567544937
0.5002437829971313 0.6425922513008118 -0.07602345198392868
0.45436984300613403 0.5620452165603638 -0.07686184346675873
0.4284439980983734 0.6301235556602478 -0.08738362044095993
0.4340325891971588 0.6422886848449707 -0.07076437771320343
0.4396793246269226 0.6354243755340576 -0.08148298412561417
0.5025020837783813 0.6495732665061951 -0.06365224719047546
0.42557293176651 0.6435410380363464 -0.07124444842338562
0.4414042532444 0.6491817831993103 -0.053977493196725845
0.5333115458488464 0.4828638732433319 -0.051621902734041214
0.5150176286697388 0.49044692516326904 -0.04448859021067619
0.4992099404335022 0.49720799922943115 -0.04717059060931206
0.6365674138069153 0.4725566506385803 -0.13499218225479126
0.6556187868118286 0.46089237928390503 -0.1448911428451538
0.44171273708343506 0.4756397008895874 0.11992249637842178
0.45332086086273193 0.4752870202064514 0.11992249637842178
0.44155046343803406 0.4578095078468323 0.11992249637842178
0.4303267002105713 0.4762427806854248 0.11992249637842178
0.4420734643936157 0.4936789274215698 0.11992249637842178
0.6022661924362183 0.4717845320701599 -0.1053488552570343
0.6228235363960266 0.47241830825805664 -0.1053488552570343
0.6026880741119385 0.4535354673862457 -0.1053488552570343
0.5824968218803406 0.47077322006225586 -0.1053488552570343
0.6018096804618835 0.48981016874313354 -0.1053488552570343
