ply
format ascii 1.0
element vertex 478
property float x
property float y
property float z
end_header
0.5088032484054565 0.7227050065994263 -0.035847194492816925
0.492369145154953 0.6577749252319336 -0.1226491630077362
0.49559229612350464 0.6705985069274902 -0.051692962646484375
0.4721204340457916 0.5721961259841919 -0.11030502617359161
0.49170973896980286 0.6348468661308289 -0.13648442924022675
0.4919842779636383 0.5999704003334045 -0.134953573346138
0.4941844344139099 0.5112006068229675 -0.09519485384225845
0.33962738513946533 0.4763081669807434 0.0050850906409323215
0.494125634431839 0.45460444688796997 -0.09698928892612457
0.4936419725418091 0.4251084327697754 -0.11246053874492645
0.49381354451179504 0.2952415645122528 -0.12309607118368149
0.5091346502304077 0.7296196222305298 -0.029852548614144325
0.5093201994895935 0.7361350059509277 -0.02016981691122055
0.5095471739768982 0.740540087223053 -0.006129073444753885
0.5095539093017578 0.7423660755157471 -0.0034700764808803797
0.5100887417793274 0.7532941102981567 -0.0030016573145985603
0.5104294419288635 0.7659094929695129 -0.0051741888746619225
0.510749876499176 0.7788123488426208 0.001844275277107954
0.5032839179039001 0.80705326795578 0.03018868714570999
0.4933302104473114 0.6665914058685303 -0.10720734298229218
0.4687168598175049 0.6612653732299805 -0.07186561077833176
0.24598535895347595 0.3833254873752594 0.08628924190998077
0.4047224521636963 0.4960947632789612 -0.016177184879779816
0.38210195302963257 0.49816539883613586 -0.013492806814610958
0.35910144448280334 0.4986392855644226 -0.0068761734291911125
0.329705148935318 0.48433998227119446 0.011316952295601368
0.42306143045425415 0.4927068054676056 -0.016183940693736076
0.3608465790748596 0.4486733078956604 -0.036964353173971176
0.3871937394142151 0.44983595609664917 -0.03870593011379242
0.3382815718650818 0.4514645040035248 -0.027811149135231972
0.325117826461792 0.4571581184864044 -0.016481511294841766
0.3079388737678528 0.4995485246181488 0.02708062343299389
0.4126782715320587 0.8415051102638245 0.07710812240839005
0.33032965660095215 0.4706239700317383 0.011095663532614708
0.23428481817245483 0.48460233211517334 0.13125497102737427
0.2777009606361389 0.4814528822898865 0.04607584327459335
0.3770667314529419 0.6111244559288025 -0.009055141359567642
0.4784511625766754 0.7186155319213867 -0.03267465904355049
0.4815095067024231 0.7348092198371887 -0.015360773541033268
0.4509147107601166 0.7226810455322266 -0.015108060091733932
0.431823194026947 0.725723147392273 0.007222848478704691
0.4583095908164978 0.7336535453796387 -0.0038780556060373783
0.44014954566955566 0.7326703071594238 0.015560505911707878
0.39236950874328613 0.7490612268447876 0.06012462079524994
0.4716451168060303 0.6562553644180298 -0.12015696614980698
0.46795621514320374 0.6341071128845215 -0.13299861550331116
0.28646522760391235 0.44167205691337585 -0.02056306041777134
0.4259151518344879 0.5514249205589294 -0.03204978629946709
0.41673144698143005 0.6344529390335083 -0.058981649577617645
0.41644716262817383 0.6198953986167908 -0.05432899668812752
0.30731362104415894 0.6027657389640808 0.021478453651070595
0.4695904850959778 0.6015750765800476 -0.12617315351963043
0.3378400206565857 0.43253272771835327 -0.07068823277950287
0.30661189556121826 0.43355172872543335 -0.04963723197579384
0.26391905546188354 0.34918880462646484 0.02598162740468979
0.444086492061615 0.45563656091690063 -0.08903756737709045
0.41117456555366516 0.4561034142971039 -0.03048514947295189
0.3722911775112152 0.7261996269226074 0.059657249599695206
0.25974583625793457 0.6970155239105225 0.2668701112270355
0.43434515595436096 0.6482171416282654 -0.04694319888949394
0.4539584815502167 0.6570695638656616 -0.04741492122411728
0.4054786264896393 0.7287756204605103 0.05694181099534035
0.4112149775028229 0.7300659418106079 0.04949948564171791
0.2927967607975006 0.41613900661468506 -0.042748354375362396
0.4164392352104187 0.6408418416976929 -0.042692095041275024
0.3830397129058838 0.43878430128097534 -0.08432474732398987
0.3766211271286011 0.4200078248977661 -0.0955791249871254
0.35135459899902344 0.306613028049469 -0.08336715400218964
0.27848654985427856 0.3809196949005127 -0.014081130735576153
0.3662051558494568 0.35878485441207886 -0.0923350378870964
0.2717580199241638 0.4263099431991577 -0.003607385093346238
0.2584415078163147 0.4070875346660614 0.038308657705783844
0.47949376702308655 0.7276188135147095 -0.026446940377354622
0.454458624124527 0.7283716201782227 -0.009939507581293583
0.4357430040836334 0.7291280627250671 0.009791605174541473
0.4398936927318573 0.65180903673172 -0.041636496782302856
0.4084031283855438 0.7294340133666992 0.052770063281059265
0.42067286372184753 0.7373124957084656 0.04011154547333717
0.41426411271095276 0.7307276129722595 0.048470623791217804
0.44559118151664734 0.6475059390068054 -0.08415185660123825
0.4438575804233551 0.7355541586875916 0.021283680573105812
0.46188604831695557 0.7374839186668396 0.008408159017562866
0.48387351632118225 0.7393547892570496 -0.0018768786685541272
0.4704921841621399 0.8039082288742065 0.03314664214849472
0.4791026711463928 0.776423454284668 0.004966990556567907
0.48001939058303833 0.7635956406593323 -0.0012599446345120668
0.481752872467041 0.751161515712738 0.0011756401509046555
0.4841132164001465 0.7411719560623169 0.0008621628512628376
0.4439546465873718 0.736113429069519 0.02354368194937706
0.4393320381641388 0.7402155995368958 0.022805513814091682
0.43446505069732666 0.7460038065910339 0.022477179765701294
0.4306851923465729 0.7526598572731018 0.029160568490624428
0.39702388644218445 0.6960474252700806 0.008182559162378311
0.2368260622024536 0.5754968523979187 0.26356005668640137
0.49427473545074463 0.6689086556434631 -0.07180454581975937
0.4304027557373047 0.7336820363998413 0.03821035102009773
0.4254944324493408 0.7352311611175537 0.038257334381341934
0.4631368815898895 0.6669461131095886 -0.044114742428064346
0.4247315526008606 0.6527727246284485 -0.021113837137818336
0.45859041810035706 0.6622475981712341 -0.04697708040475845
0.40285801887512207 0.5626735687255859 -0.018456194549798965
0.36365073919296265 0.5779858827590942 -0.006906592287123203
0.4132017493247986 0.6272101402282715 -0.03762984648346901
0.2961040139198303 0.3228611350059509 -0.03301291540265083
0.3122404217720032 0.3634977340698242 -0.05604270473122597
0.32787349820137024 0.41234588623046875 -0.07224439084529877
0.4126393795013428 0.7709450721740723 0.0510142482817173
0.4344073534011841 0.4287949800491333 -0.10772843658924103
0.42498114705085754 0.35855168104171753 -0.11284518986940384
0.415360689163208 0.2982819676399231 -0.11300959438085556
0.3404993712902069 0.4935859143733978 0.0029261810705065727
0.2810148596763611 0.5146863460540771 0.04567265883088112
0.4341384172439575 0.4892892837524414 -0.01492446381598711
0.3017866313457489 0.462003231048584 0.0033644584473222494
0.44157513976097107 0.5391809344291687 -0.04536617547273636
0.4305627942085266 0.6323047876358032 -0.08614470809698105
0.2510012686252594 0.5361043810844421 0.07865838706493378
0.2990037202835083 0.5354659557342529 0.02925516664981842
0.32939624786376953 0.5486792922019958 0.008964748121798038
0.37422388792037964 0.5456740260124207 -0.004026004578918219
0.40637901425361633 0.5356754064559937 -0.012657520361244678
0.42851534485816956 0.5268973112106323 -0.023644164204597473
0.4712543487548828 0.5157795548439026 -0.0832626074552536
0.25398311018943787 0.585900068283081 0.08715558797121048
0.2805657982826233 0.45751824975013733 0.012608618475496769
0.48031604290008545 0.6654752492904663 -0.10539297759532928
0.4263819456100464 0.5781816840171814 -0.03434223309159279
0.23262977600097656 0.4724223017692566 0.2089690864086151
0.44528505206108093 0.5182945728302002 -0.032057758420705795
0.41210708022117615 0.6250376105308533 -0.012399094179272652
0.3195294141769409 0.47197309136390686 0.01575976423919201
0.43052512407302856 0.6142431497573853 -0.08064740896224976
0.24383634328842163 0.634057343006134 0.2711430490016937
0.432400643825531 0.480557918548584 -0.01180605124682188
0.449282705783844 0.6061180830001831 -0.10852605104446411
0.3059602975845337 0.7719365954399109 0.155475452542305
0.31009432673454285 0.794121265411377 0.20473352074623108
0.23408353328704834 0.5834107398986816 0.17639200389385223
0.27670159935951233 0.7347220778465271 0.17632493376731873
0.24607035517692566 0.44137635827064514 0.09024739265441895
0.40704435110092163 0.8689689636230469 0.0991978794336319
0.48355892300605774 0.6678050756454468 -0.06995072215795517
0.40603089332580566 0.5928869247436523 -0.019636109471321106
0.2564620077610016 0.48126107454299927 0.07158328592777252
0.3623834252357483 0.4832887351512909 -0.007545222528278828
0.3818349838256836 0.48413264751434326 -0.013647685758769512
0.41651368141174316 0.739926815032959 0.045677296817302704
0.25774386525154114 0.6327912211418152 0.11104119569063187
0.45345085859298706 0.9073882102966309 0.11252930760383606
0.3786473274230957 0.8617925047874451 0.15302030742168427
0.3468589782714844 0.8330751657485962 0.17570525407791138
0.4934309720993042 0.3580426871776581 -0.1206025555729866
0.507489025592804 0.9139149188995361 0.10482615977525711
0.40021181106567383 0.48233407735824585 -0.016087261959910393
0.4177154004573822 0.4803161919116974 -0.014431565999984741
0.4283166527748108 0.48042404651641846 -0.011443267576396465
0.26296526193618774 0.44759246706962585 0.035663675516843796
0.4107186794281006 0.46398136019706726 -0.02266843616962433
0.3893831670284271 0.45825913548469543 -0.027510765939950943
0.3683623671531677 0.4582201838493347 -0.025799725204706192
0.34993624687194824 0.4617498815059662 -0.018616529181599617
0.3397350013256073 0.46592533588409424 -0.009346338920295238
0.23613432049751282 0.42213353514671326 0.15119798481464386
0.34921520948410034 0.4802590012550354 -0.0006601655622944236
0.4970155954360962 0.6864279508590698 -0.04082522913813591
0.4188341796398163 0.68666011095047 -0.011070577427744865
0.43410471081733704 0.6462668180465698 -0.05872241407632828
0.4629337191581726 0.6857617497444153 -0.03672906756401062
0.4946947693824768 0.47985976934432983 -0.08679956942796707
0.33969342708587646 0.8074741363525391 0.1409006267786026
0.3718031644821167 0.838170051574707 0.12237418442964554
0.45152291655540466 0.8902525305747986 0.07821418344974518
0.282825231552124 0.7511093616485596 0.23958401381969452
0.4253266155719757 0.4738495945930481 -0.016790539026260376
0.4554572105407715 0.5543224811553955 -0.0777500569820404
0.5061781406402588 0.8979324102401733 0.07159003615379333
0.41275668144226074 0.8884679079055786 0.1287265121936798
0.240748792886734 0.6355836391448975 0.18951158225536346
0.4621620774269104 0.738824725151062 0.01098269410431385
0.4577887952327728 0.7462229132652283 0.010541015304625034
0.45432257652282715 0.7556189894676208 0.009962460026144981
0.4521366059780121 0.7669464349746704 0.01648981124162674
0.43802934885025024 0.7904642820358276 0.03992493450641632
0.4253644049167633 0.7314287424087524 0.03301692381501198
0.42091941833496094 0.7293887734413147 0.032930999994277954
0.41732290387153625 0.727443516254425 0.03195403888821602
0.3804302215576172 0.7092782258987427 0.032393183559179306
0.288237065076828 0.6509168148040771 0.06437671184539795
0.4566178321838379 0.5261416435241699 -0.06272435188293457
0.44757649302482605 0.4733121395111084 -0.03470027819275856
0.43307021260261536 0.4710419476032257 -0.02417195960879326
0.4301465153694153 0.7336152195930481 0.03672861307859421
0.28566843271255493 0.7046152353286743 0.11938801407814026
0.4655633866786957 0.4811820685863495 -0.06740334630012512
0.4247897267341614 0.8140013813972473 0.05982130020856857
0.49278298020362854 0.5695216059684753 -0.1203497126698494
0.47130876779556274 0.5452900528907776 -0.10000554472208023
0.4935038089752197 0.541264533996582 -0.10735796391963959
0.4388752579689026 0.5902010202407837 -0.06587568670511246
0.5049687027931213 0.8702237010002136 0.050238724797964096
0.5041301250457764 0.836013913154602 0.04107409715652466
0.46344614028930664 0.8312327861785889 0.04745350405573845
0.36825406551361084 0.7606180906295776 0.07725398242473602
0.3928704261779785 0.642352283000946 -0.001043117605149746
0.3941117525100708 0.7900022268295288 0.07105425745248795
0.33870911598205566 0.637516975402832 0.010032170452177525
0.3719349205493927 0.6649271845817566 0.012056352570652962
0.31928226351737976 0.672103762626648 0.042576469480991364
0.4552525281906128 0.8630977272987366 0.0578758679330349
0.4255862832069397 0.5990616083145142 -0.04333203658461571
0.3471560478210449 0.7806771993637085 0.10563824325799942
0.3793264627456665 0.8126699328422546 0.09632279723882675
0.3475531339645386 0.7303063869476318 0.07125230133533478
0.2641371786594391 0.672583818435669 0.1325736790895462
0.3162018358707428 0.7341299057006836 0.09537346661090851
0.2532801926136017 0.6856704950332642 0.19548696279525757
0.3542945683002472 0.6914646029472351 0.03381451964378357
0.4411998689174652 0.5656997561454773 -0.05462952330708504
0.43793484568595886 0.64385986328125 -0.09012841433286667
0.423800528049469 0.6434204578399658 -0.06023462489247322
0.44769102334976196 0.6331244707107544 -0.11119391769170761
0.4271802306175232 0.45816880464553833 -0.04704585671424866
0.3868641257286072 0.4472338855266571 -0.053875815123319626
0.35261014103889465 0.4443982243537903 -0.05101203918457031
0.32550179958343506 0.4459570050239563 -0.03884712606668472
0.30894726514816284 0.4516254663467407 -0.02180718630552292
0.3010560870170593 0.4773454964160919 0.02644745074212551
0.23139402270317078 0.5335009694099426 0.1555643230676651
0.3222472667694092 0.5113918781280518 0.01779891736805439
0.3455718457698822 0.5205293297767639 0.004079852253198624
0.3774425685405731 0.5198824405670166 -0.005989464931190014
0.4064241647720337 0.5139613151550293 -0.011965801939368248
0.4274134933948517 0.5084328055381775 -0.01696169748902321
0.44158095121383667 0.5040571093559265 -0.020717086270451546
0.23471900820732117 0.5226260423660278 0.24385972321033478
0.42474663257598877 0.6467862725257874 -0.046761076897382736
0.45430803298950195 0.579659640789032 -0.08959170430898666
0.4543965756893158 0.6501058340072632 -0.10898303240537643
0.46728068590164185 0.6594398021697998 -0.09597423672676086
0.454778790473938 0.6511864066123962 -0.09617432206869125
0.43139028549194336 0.6524041891098022 -0.036613255739212036
0.47230347990989685 0.6631584167480469 -0.10197450965642929
0.47504016757011414 0.665373682975769 -0.07085054367780685
0.44002020359039307 0.48433756828308105 -0.015389573760330677
0.452026903629303 0.49444472789764404 -0.02895130217075348
0.4577173888683319 0.5036378502845764 -0.04492834955453873
0.33416175842285156 0.4688660204410553 -0.0004577326762955636
0.3172062635421753 0.4630892872810364 -0.0008848041761666536
0.5145131349563599 0.5714116096496582 -0.11224095523357391
0.6686143279075623 0.47963592410087585 -0.00910412147641182
0.5204367637634277 0.6604366898536682 -0.0732467994093895
0.7698923349380493 0.3712221384048462 0.06434518843889236
0.600617527961731 0.501044511795044 -0.02532380260527134
0.623933732509613 0.5017171502113342 -0.02450232021510601
0.6479742527008057 0.5012552738189697 -0.019583959132432938
0.6806890964508057 0.48633506894111633 -0.0037715863436460495
0.5809162855148315 0.49920541048049927 -0.02350345253944397
0.6397690773010254 0.4505525231361389 -0.04848736152052879
0.6118752360343933 0.4537232518196106 -0.04789132624864578
0.6644545793533325 0.45205509662628174 -0.04110740125179291
0.6798551082611084 0.4574582278728485 -0.03093576245009899
0.7048877477645874 0.4993671178817749 0.010759091004729271
0.6016954779624939 0.8404513597488403 0.07046499103307724
0.6793655753135681 0.4730909466743469 -0.003871944034472108
0.7868106365203857 0.4739854335784912 0.10875039547681808
0.7353931665420532 0.48078611493110657 0.027714597061276436
0.6247849464416504 0.6066794395446777 -0.018218357115983963
0.5387048721313477 0.7165889739990234 -0.03505195677280426
0.5367826819419861 0.7330625057220459 -0.017537306994199753
0.5668713450431824 0.7185282111167908 -0.02008742280304432
0.5860868096351624 0.7203627824783325 8.226824866142124e-05
0.5600062012672424 0.730280876159668 -0.008388250134885311
0.5782371163368225 0.7280861139297485 0.009509125724434853
0.6207306385040283 0.7465449571609497 0.050565969198942184
0.5136984586715698 0.6557275056838989 -0.12134187668561935
0.5162673592567444 0.6333286166191101 -0.13450337946414948
0.7151113748550415 0.44155392050743103 -0.037868790328502655
0.5716153979301453 0.5485248565673828 -0.03783683478832245
0.57679283618927 0.6324364542961121 -0.06429697573184967
0.5782784819602966 0.6175376772880554 -0.05989338457584381
0.7007666230201721 0.5957777500152588 0.006004860159009695
0.5152423977851868 0.6006741523742676 -0.128042533993721
0.6525658965110779 0.43446725606918335 -0.08256121724843979
0.6887551546096802 0.4341319799423218 -0.06460216641426086
0.7441677451133728 0.33788907527923584 0.006314439699053764
0.5438247323036194 0.4641701281070709 -0.0929369330406189
0.587704062461853 0.46221834421157837 -0.03791683539748192
0.6405394077301025 0.7228818535804749 0.04839669540524483
0.7790358066558838 0.69023597240448 0.2477288842201233
0.5588964819908142 0.6468568444252014 -0.050772927701473236
0.5385292172431946 0.6557742357254028 -0.04927929490804672
0.613458514213562 0.7219615578651428 0.04685402661561966
0.6075529456138611 0.7235540151596069 0.04070969671010971
0.7025065422058105 0.41641974449157715 -0.05879531428217888
0.5788468718528748 0.6388378739356995 -0.04785194247961044
0.6045345067977905 0.4438146948814392 -0.09242251515388489
0.6080864667892456 0.42492246627807617 -0.10386228561401367
0.6417139768600464 0.29956525564193726 -0.09475451707839966
0.7244492769241333 0.37167665362358093 -0.03187568113207817
0.6248234510421753 0.35302305221557617 -0.10203619301319122
0.7315131425857544 0.4260543882846832 -0.022096537053585052
0.7514839172363281 0.3973526954650879 0.018026994541287422
0.5383187532424927 0.7257508039474487 -0.028798747807741165
0.5636183023452759 0.7247005701065063 -0.014675956219434738
0.582426905632019 0.7241250276565552 0.0031992855947464705
0.5534718632698059 0.6504889726638794 -0.04469882696866989
0.6104657053947449 0.7227791547775269 0.04344721883535385
0.5983365178108215 0.7317252159118652 0.032247066497802734
0.604400634765625 0.7244089841842651 0.039929140359163284
0.5441635251045227 0.6463818550109863 -0.08773810416460037
0.574802815914154 0.7311460375785828 0.01551138423383236
0.5566850900650024 0.734294056892395 0.004159867297858
0.5350074768066406 0.7377219200134277 -0.004209696315228939
0.5376570224761963 0.8034347295761108 0.030624590814113617
0.541608989238739 0.7751704454421997 0.002373497001826763
0.5399646759033203 0.7621755599975586 -0.0038836668245494366
0.5375361442565918 0.7496289014816284 -0.0014171996153891087
0.5346575975418091 0.7396125793457031 -0.0015738393412902951
0.5744096636772156 0.7318610548973083 0.017659928649663925
0.5795283913612366 0.7359488606452942 0.016819313168525696
0.5847955942153931 0.7417358160018921 0.016365403309464455
0.5889954566955566 0.7484681606292725 0.02248300053179264
0.6077417135238647 0.6928189396858215 8.263999916380271e-05
0.7979139089584351 0.5656202435493469 0.24158036708831787
0.5880422592163086 0.728498637676239 0.030738623812794685
0.5932754278182983 0.7298784255981445 0.03063717670738697
0.5297286510467529 0.6659049987792969 -0.04609103873372078
0.5717630982398987 0.6508417129516602 -0.025207756087183952
0.5339380502700806 0.6611285209655762 -0.048785172402858734
0.5967150926589966 0.5590109825134277 -0.026345709338784218
0.6387956738471985 0.572880208492279 -0.017952635884284973
0.5833412408828735 0.6248102784156799 -0.04333127290010452
0.7041785717010498 0.3130073845386505 -0.04908124357461929
0.6843148469924927 0.355685293674469 -0.07030864804983139
0.6603134870529175 0.414333701133728 -0.08491384238004684
0.5994156002998352 0.7690120339393616 0.0431537851691246
0.5497769117355347 0.4366834759712219 -0.11193259060382843
0.5633725523948669 0.3553004264831543 -0.11776335537433624
0.5740492343902588 0.2943221926689148 -0.11865759640932083
0.6685712337493896 0.49592992663383484 -0.01129119098186493
0.7350077033042908 0.5122959613800049 0.02745569869875908
0.5683433413505554 0.49701642990112305 -0.021461792290210724
0.7052246332168579 0.4624510407447815 -0.01323297992348671
0.5539968013763428 0.5368592143058777 -0.05004464462399483
0.5595576167106628 0.6306363344192505 -0.09037677943706512
0.7634958624839783 0.526817262172699 0.05797020345926285
0.7163842916488647 0.5326533317565918 0.012282040901482105
0.6831767559051514 0.5464743375778198 -0.005555193405598402
0.6341379880905151 0.5458777546882629 -0.015121251344680786
0.5992453098297119 0.5381081104278564 -0.020946795120835304
0.5743613839149475 0.5313204526901245 -0.029757758602499962
0.5187217593193054 0.5147334337234497 -0.0852987989783287
0.7621166706085205 0.5772803425788879 0.06673450767993927
0.7269139885902405 0.45735475420951843 -0.00553537392988801
0.5067716240882874 0.6650696992874146 -0.106317438185215
0.5705254673957825 0.5754011869430542 -0.039836399257183075
0.795201301574707 0.4604736566543579 0.18572485446929932
0.5549654364585876 0.5239309072494507 -0.03687136992812157
0.5863395929336548 0.6223813891410828 -0.018049318343400955
0.6903244256973267 0.4737328886985779 0.00011573164374567568
0.5609166622161865 0.6122403144836426 -0.0849650576710701
0.7935869693756104 0.6256027817726135 0.25062569975852966
0.5700423121452332 0.4889768958091736 -0.018542438745498657
0.5383747816085815 0.6046130061149597 -0.11176936328411102
0.7200918793678284 0.7680284380912781 0.14035779237747192
0.7220325469970703 0.7903486490249634 0.19017231464385986
0.7914954423904419 0.5741901397705078 0.15412166714668274
0.7519559264183044 0.7293102741241455 0.1586446911096573
0.7696394920349121 0.430833101272583 0.06874259561300278
0.6094937324523926 0.8682569265365601 0.09211231768131256
0.505085825920105 0.6673857569694519 -0.07050610333681107
0.5932069420814514 0.5894843339920044 -0.026507385075092316
0.7583154439926147 0.4797021448612213 0.05131547525525093
0.6432794332504272 0.48730242252349854 -0.020054295659065247
0.6232857704162598 0.4884319007396698 -0.024726301431655884
0.6028586626052856 0.7341935634613037 0.03714210167527199
0.7618407607078552 0.6250110268592834 0.091593436896801
0.5626099109649658 0.9069284200668335 0.10871808975934982
0.6439274549484253 0.8598710298538208 0.14344929158687592
0.680611252784729 0.8304829001426697 0.1637917309999466
0.6045087575912476 0.48759064078330994 -0.025583380833268166
0.5861166715621948 0.4870973229408264 -0.022586006671190262
0.5745943188667297 0.4885537028312683 -0.018737001344561577
0.746089518070221 0.4467228651046753 0.015983328223228455
0.5932843685150146 0.47093892097473145 -0.030908014625310898
0.6143819093704224 0.4628652334213257 -0.03711456432938576
0.6351762413978577 0.4611473083496094 -0.03700382634997368
0.6548860669136047 0.46347370743751526 -0.03136686980724335
0.6669430732727051 0.46761518716812134 -0.023048153147101402
0.7856931090354919 0.40961068868637085 0.12846755981445312
0.6576681733131409 0.483950138092041 -0.014187194406986237
0.582060694694519 0.68414306640625 -0.017028208822011948
0.5580771565437317 0.6450070142745972 -0.06238463148474693
0.5331550240516663 0.6848961114883423 -0.03913690149784088
0.6833137273788452 0.8050528764724731 0.12864309549331665
0.6481873393058777 0.8368465900421143 0.11279777437448502
0.5620750784873962 0.8899812698364258 0.07430310547351837
0.7535710334777832 0.7457183003425598 0.22252854704856873
0.5774873495101929 0.482171893119812 -0.024204831570386887
0.5356204509735107 0.5526968836784363 -0.08090217411518097
0.6059476733207703 0.887270450592041 0.12152084708213806
0.787355899810791 0.6275976300239563 0.16856230795383453
0.5562330484390259 0.7357929944992065 0.006699055898934603
0.5611692070960999 0.7432333827018738 0.0060291774570941925
0.5652183890342712 0.7527791261672974 0.005180499516427517
0.5682514905929565 0.7643031477928162 0.011361093260347843
0.5721153616905212 0.7890717387199402 0.03411618247628212
0.5931774973869324 0.7257535457611084 0.025324927642941475
0.5974301695823669 0.7233856320381165 0.02449333295226097
0.6009857654571533 0.7212076187133789 0.022957971319556236
0.6286329627037048 0.7056853771209717 0.022074660286307335
0.7266309261322021 0.6439387202262878 0.047647297382354736
0.5360574126243591 0.5245416164398193 -0.06611238420009613
0.550100564956665 0.4815948009490967 -0.038964420557022095
0.5667262077331543 0.4789475202560425 -0.030343227088451385
0.5884928107261658 0.7282743453979492 0.029308294877409935
0.7359837293624878 0.6984449625015259 0.10262882709503174
0.5268843173980713 0.48933976888656616 -0.06993433833122253
0.5880124568939209 0.812796413898468 0.05371858552098274
0.5169404149055481 0.5443152189254761 -0.10175333172082901
0.5540887117385864 0.5882789492607117 -0.06985363364219666
0.5465447902679443 0.8307424783706665 0.04460173845291138
0.6469072699546814 0.7575997114181519 0.06648902595043182
0.608191967010498 0.6387091279029846 -0.008379432372748852
0.620435893535614 0.7879320979118347 0.06247026100754738
0.6677390336990356 0.6319460868835449 -0.0020939845126122236
0.6331957578659058 0.6605769991874695 0.002467733807861805
0.692449152469635 0.6662685871124268 0.028538405895233154
0.5561895966529846 0.862741231918335 0.05414748191833496
0.5704070329666138 0.5964601635932922 -0.048345666378736496
0.6716534495353699 0.7776438593864441 0.09366577118635178
0.6377649903297424 0.8109244108200073 0.08725544810295105
0.6670231819152832 0.726340651512146 0.058465782552957535
0.7588313817977905 0.6654888987541199 0.11409186571836472
0.7027553915977478 0.7294132709503174 0.08093983680009842
0.7767378091812134 0.6788505911827087 0.17563673853874207
0.6556565165519714 0.6866986751556396 0.02207745797932148
0.5528212785720825 0.5635629296302795 -0.05896260216832161
0.5516318678855896 0.6425415873527527 -0.09398477524518967
0.5690779685974121 0.6417786478996277 -0.06467852741479874
0.5389866232872009 0.6318522691726685 -0.11434520035982132
0.5683205723762512 0.4660525619983673 -0.052925191819667816
0.6079264879226685 0.45238980650901794 -0.06250257045030594
0.6434749364852905 0.4466519355773926 -0.06242818012833595
0.6731181144714355 0.44658979773521423 -0.05265327915549278
0.6936978697776794 0.4517832398414612 -0.037280239164829254
0.709936797618866 0.47817471623420715 0.009766645729541779
0.7918332815170288 0.5233145356178284 0.132501482963562
0.689666211605072 0.5114868879318237 0.002421013079583645
0.6637003421783447 0.5208734273910522 -0.009293952025473118
0.6297610998153687 0.5217287540435791 -0.01690615899860859
0.5990185737609863 0.5178728103637695 -0.020551331341266632
0.5763303637504578 0.5141175985336304 -0.02340739034116268
0.5602797269821167 0.5106768012046814 -0.026033828034996986
0.7972310185432434 0.5114355683326721 0.22080346941947937
0.5693314075469971 0.6450902819633484 -0.0511106476187706
0.5348803997039795 0.578188955783844 -0.09276407957077026
0.5324416756629944 0.6492263078689575 -0.11145851761102676
0.520933210849762 0.6589006185531616 -0.0973435789346695
0.5336521863937378 0.6504998207092285 -0.09865725040435791
0.5634774565696716 0.6506990194320679 -0.0402509942650795
0.5152257084846497 0.6625564098358154 -0.1030823364853859
0.5138727426528931 0.6646846532821655 -0.07179997861385345
0.5611804127693176 0.49259787797927856 -0.02089996449649334
0.5476271510124207 0.501979649066925 -0.033091891556978226
0.5394107699394226 0.5106021165847778 -0.04841150343418121
0.6740533113479614 0.4708523154258728 -0.014749791473150253
0.6900282502174377 0.46383675932884216 -0.01605035364627838
0.37744951248168945 0.46831074357032776 -0.011289408430457115
0.4007036089897156 0.46778416633605957 -0.011289408430457115
0.37734752893447876 0.447940468788147 -0.011289408430457115
0.35397815704345703 0.4687538146972656 -0.011289408430457115
0.37731045484542847 0.4888589084148407 -0.011289408430457115
0.633985161781311 0.4727027416229248 -0.022236796095967293
0.6580552458763123 0.47195377945899963 -0.022236796095967293
0.6335630416870117 0.45255401730537415 -0.022236796095967293
0.6099538207054138 0.47331732511520386 -0.022236796095967293
0.6344185471534729 0.4929238259792328 -0.022236796095967293
