ply
format ascii 1.0
element vertex 478
property float x
property float y
property float z
end_header
0.5499176383018494 0.6919135451316833 -0.0698217824101448
0.5681793093681335 0.6345410943031311 -0.13528458774089813
0.552046537399292 0.6598288416862488 -0.0776388943195343
0.5322364568710327 0.5505932569503784 -0.10530149936676025
0.5675939321517944 0.606814444065094 -0.1422339379787445
0.5606140494346619 0.5732082724571228 -0.13124676048755646
0.538556694984436 0.4933696985244751 -0.06198537349700928
0.337777316570282 0.48713046312332153 -0.007745592854917049
0.5294392704963684 0.42488396167755127 -0.03769125044345856
0.5280460715293884 0.3899604082107544 -0.03841670602560043
0.5153264999389648 0.26771461963653564 -0.012254089117050171
0.548958420753479 0.6987667679786682 -0.0670115128159523
0.5461105108261108 0.7051863670349121 -0.06170312315225601
0.5424587726593018 0.7092443108558655 -0.05549201741814613
0.5421040654182434 0.757325291633606 -0.03716856241226196
0.5445159673690796 0.766010046005249 -0.04479968547821045
0.5453038215637207 0.7771087884902954 -0.051660262048244476
0.5438868403434753 0.789964497089386 -0.050849344581365585
0.542015790939331 0.8288354873657227 -0.036297574639320374
0.5643261671066284 0.6496397256851196 -0.1238860934972763
0.5340693593025208 0.6509087681770325 -0.0969923660159111
0.21577373147010803 0.3966559171676636 0.08065006136894226
0.4077456295490265 0.5050548911094666 -0.01801210828125477
0.3839718699455261 0.5070009231567383 -0.021587548777461052
0.35987868905067444 0.5069263577461243 -0.02032405696809292
0.3244374990463257 0.4968727231025696 -0.007312600500881672
0.4281083941459656 0.5006732940673828 -0.00904304813593626
0.3757237195968628 0.43907585740089417 -0.028241371735930443
0.4029497802257538 0.4424612522125244 -0.020405638962984085
0.3485850989818573 0.44303470849990845 -0.026101544499397278
0.3293801546096802 0.45312708616256714 -0.020429352298378944
0.30222904682159424 0.5130506157875061 0.0008043712587095797
0.4406961500644684 0.8679156303405762 -0.024665875360369682
0.32710665464401245 0.48252108693122864 -0.0011555206729099154
0.20780745148658752 0.5130369663238525 0.0871606394648552
0.27090728282928467 0.4998086392879486 0.019651340320706367
0.3996371924877167 0.6106508374214172 -0.051751814782619476
0.5058442950248718 0.6900657415390015 -0.07559998333454132
0.502780556678772 0.7052685618400574 -0.0649033710360527
0.45601359009742737 0.6968445181846619 -0.06700349599123001
0.4192126989364624 0.7025865316390991 -0.04639110341668129
0.46186503767967224 0.7066280245780945 -0.05752995237708092
0.42823654413223267 0.7087057828903198 -0.03837621957063675
0.38176366686820984 0.7596558928489685 -0.0073627629317343235
0.5476194620132446 0.6352078318595886 -0.13692836463451385
0.543816089630127 0.6078495979309082 -0.14382287859916687
0.2960330545902252 0.4364008605480194 -0.020411046221852303
0.45725125074386597 0.5500459671020508 -0.039141129702329636
0.46925845742225647 0.6259027123451233 -0.09319116175174713
0.46374666690826416 0.611383318901062 -0.08591535687446594
0.31041836738586426 0.6066877841949463 -0.036562129855155945
0.5385145545005798 0.5764851570129395 -0.12996333837509155
0.365425169467926 0.4063940644264221 -0.041845038533210754
0.32594728469848633 0.41615524888038635 -0.033354323357343674
0.2524910867214203 0.3464563190937042 0.04566062241792679
0.47610199451446533 0.42751720547676086 -0.04100107029080391
0.4258331060409546 0.45295530557632446 -0.009327469393610954
0.3558131754398346 0.7252067923545837 -0.01086870115250349
0.22637896239757538 0.7672455906867981 0.1339365839958191
0.4871855080127716 0.6424720287322998 -0.08116727322340012
0.5088346004486084 0.6494234800338745 -0.07700531929731369
0.3691236972808838 0.7145878672599792 -0.0031176137272268534
0.3770163357257843 0.71546471118927 -0.0047418768517673016
0.3117724061012268 0.402138352394104 -0.024641480296850204
0.461729496717453 0.6348940134048462 -0.08051303029060364
0.4147968888282776 0.40840476751327515 -0.04518207535147667
0.41203832626342773 0.38816261291503906 -0.05003378912806511
0.3727864623069763 0.2801227867603302 -0.01458253338932991
0.2850269675254822 0.3696897029876709 0.008023514412343502
0.3980294466018677 0.32714155316352844 -0.030431875959038734
0.27861154079437256 0.4274817705154419 -0.003979002125561237
0.24846908450126648 0.41084063053131104 0.039337195456027985
0.5041816830635071 0.6982313990592957 -0.07200095802545547
0.4592049717903137 0.7019360065460205 -0.06220834702253342
0.4240371584892273 0.7057253122329712 -0.04364936798810959
0.4911592900753021 0.6462277173995972 -0.07334557920694351
0.3731808662414551 0.7149848341941833 -0.003498611506074667
0.3963731527328491 0.7345677614212036 -0.012020356021821499
0.38049617409706116 0.7159508466720581 -0.004611393436789513
0.5098691582679749 0.6378571391105652 -0.11127006262540817
0.4314534366130829 0.7105556726455688 -0.036205410957336426
0.46414798498153687 0.709381639957428 -0.05043255165219307
0.501666784286499 0.7093064785003662 -0.05862169340252876
0.4973376393318176 0.8291043043136597 -0.04006507247686386
0.49850234389305115 0.7888043522834778 -0.05483546108007431
0.5009036660194397 0.7763231992721558 -0.05537720024585724
0.502491295337677 0.7654674649238586 -0.04800300672650337
0.5035264492034912 0.7576591968536377 -0.0405886247754097
0.4340055286884308 0.7436680793762207 -0.02211889438331127
0.43013161420822144 0.7464956641197205 -0.027545681223273277
0.4243890047073364 0.7520597577095032 -0.03135227784514427
0.4196684956550598 0.7591621279716492 -0.027913440018892288
0.40326014161109924 0.6910418272018433 -0.04298292472958565
0.18840619921684265 0.6342384815216064 0.1657373607158661
0.5590760707855225 0.6559733152389526 -0.09405253827571869
0.408509761095047 0.7327155470848083 -0.00929449126124382
0.4027438461780548 0.7328841686248779 -0.012095553800463676
0.5157421827316284 0.6582148671150208 -0.07789676636457443
0.46409323811531067 0.6476714611053467 -0.060498595237731934
0.5128083229064941 0.6539800763130188 -0.07806002348661423
0.4276830554008484 0.5625882744789124 -0.038534365594387054
0.3814336955547333 0.5767165422439575 -0.041638921946287155
0.4541257321834564 0.6214414238929749 -0.07371267676353455
0.3034151792526245 0.3066238760948181 0.012120777741074562
0.333076536655426 0.3408975899219513 -0.014466369524598122
0.35737305879592896 0.38781094551086426 -0.03951612859964371
0.41288962960243225 0.7901157140731812 -0.018012212589383125
0.47057315707206726 0.39417850971221924 -0.04840850085020065
0.4586285352706909 0.32524484395980835 -0.03339346870779991
0.4409865736961365 0.2688387930393219 -0.022740403190255165
0.3378616273403168 0.5039259195327759 -0.014663481153547764
0.27279752492904663 0.5312517285346985 0.007616313640028238
0.44186192750930786 0.4955398738384247 -0.0035004927776753902
0.30215203762054443 0.4670006036758423 -0.006437898147851229
0.47738608717918396 0.534589409828186 -0.04315490648150444
0.4927175045013428 0.6185678839683533 -0.11256181448698044
0.24173285067081451 0.5545850396156311 0.02522026188671589
0.29328006505966187 0.5449105501174927 -0.011754363775253296
0.3292437791824341 0.5514110326766968 -0.02658357098698616
0.3796369135379791 0.5475853681564331 -0.027420533820986748
0.41577786207199097 0.5383879542350769 -0.024430008605122566
0.4432260990142822 0.5274195075035095 -0.0240932684391737
0.5151702761650085 0.5003042221069336 -0.05859406664967537
0.24158146977424622 0.6056487560272217 0.015623241662979126
0.28137555718421936 0.46584177017211914 -0.000455996923847124
0.5514698624610901 0.6494455933570862 -0.1255214810371399
0.4620443284511566 0.5741413831710815 -0.05216960981488228
0.18279683589935303 0.5133922100067139 0.15313228964805603
0.4645289182662964 0.5140458941459656 -0.022459540516138077
0.445408433675766 0.6220983862876892 -0.049352824687957764
0.3141430616378784 0.4837303161621094 0.0013458204921334982
0.48673927783966064 0.6007065176963806 -0.10306888818740845
0.20113533735275269 0.6994200944900513 0.1545841246843338
0.44082826375961304 0.48799222707748413 0.0025330621283501387
0.5132241249084473 0.5861940979957581 -0.12118974328041077
0.3090687394142151 0.8169708847999573 0.03743893653154373
0.30931973457336426 0.854975163936615 0.07066209614276886
0.20444592833518982 0.624273955821991 0.09100070595741272
0.26436692476272583 0.7870615720748901 0.054283782839775085
0.22572241723537445 0.45877736806869507 0.06909794360399246
0.44240817427635193 0.8938559889793396 -0.0180667694658041
0.549228310585022 0.6554860472679138 -0.09422677010297775
0.4348595142364502 0.5906651020050049 -0.04914817214012146
0.24604389071464539 0.5069661140441895 0.03682414069771767
0.3635396361351013 0.49138930439949036 -0.016700375825166702
0.38425639271736145 0.49186187982559204 -0.018076203763484955
0.39060449600219727 0.7373837232589722 -0.010160456411540508
0.24035361409187317 0.6612028479576111 0.0215764157474041
0.4945245087146759 0.9234218597412109 -0.007517022080719471
0.40628692507743835 0.900132417678833 0.027237072587013245
0.363292932510376 0.8825951814651489 0.04769498109817505
0.5227581262588501 0.3271006643772125 -0.024849938228726387
0.5435761213302612 0.9230833053588867 -0.0018263342790305614
0.40366071462631226 0.49080830812454224 -0.0141594298183918
0.4217805862426758 0.48931586742401123 -0.006733683403581381
0.4341469407081604 0.4890075922012329 0.0006431473302654922
0.2598831057548523 0.46326085925102234 0.018757080659270287
0.41875988245010376 0.4732706546783447 -0.009287395514547825
0.3985337018966675 0.46652859449386597 -0.016285942867398262
0.37900930643081665 0.4644329249858856 -0.020272094756364822
0.3578992486000061 0.4673532247543335 -0.019388530403375626
0.3433190584182739 0.47305718064308167 -0.014937031082808971
0.19367152452468872 0.449504017829895 0.12108422815799713
0.3489036560058594 0.48956382274627686 -0.01252147275954485
0.5477529764175415 0.6750974655151367 -0.0696997418999672
0.442501425743103 0.6799827218055725 -0.058927636593580246
0.4906669855117798 0.6398112177848816 -0.08815860003232956
0.5061302185058594 0.6761662364006042 -0.0748293548822403
0.5314342975616455 0.45948857069015503 -0.04151177033782005
0.35687536001205444 0.846971869468689 0.025052405893802643
0.398290753364563 0.8706581592559814 0.005272489506751299
0.4930087625980377 0.908100426197052 -0.03465483337640762
0.2645761966705322 0.8199206590652466 0.10102097690105438
0.4337839186191559 0.48212042450904846 -0.0022156338673084974
0.503791093826294 0.5408996343612671 -0.07232233881950378
0.5452557802200317 0.9074252843856812 -0.028992468491196632
0.44936031103134155 0.91460120677948 0.004254154395312071
0.21146683394908905 0.6847387552261353 0.08583015948534012
0.4673374891281128 0.752737283706665 -0.033814478665590286
0.4635311961174011 0.7581767439842224 -0.040213484317064285
0.45985913276672363 0.7668799757957458 -0.04503887891769409
0.45702436566352844 0.7780718207359314 -0.042480431497097015
0.4508625268936157 0.8147183060646057 -0.03172130137681961
0.39793911576271057 0.7114067077636719 -0.020668579265475273
0.3934236168861389 0.709863543510437 -0.02146613597869873
0.3889801502227783 0.7080525755882263 -0.023426739498972893
0.37106722593307495 0.704517662525177 -0.025865232571959496
0.27952122688293457 0.669321596622467 -0.01753745600581169
0.4970340430736542 0.5159310102462769 -0.04896792024374008
0.4653729200363159 0.46821022033691406 -0.006224936340004206
0.4462012052536011 0.4720393419265747 -0.0016669429605826735
0.402275949716568 0.7124497294425964 -0.018918702378869057
0.27370768785476685 0.7391560673713684 0.016566984355449677
0.49430447816848755 0.46542906761169434 -0.032964110374450684
0.44370025396347046 0.8403303027153015 -0.027000876143574715
0.5528259873390198 0.5465013980865479 -0.10726889967918396
0.5240569710731506 0.5273328423500061 -0.08319288492202759
0.5458313226699829 0.5217297077178955 -0.08343732357025146
0.48657652735710144 0.5794721245765686 -0.07886714488267899
0.54561448097229 0.884209394454956 -0.038072653114795685
0.5435733199119568 0.854850172996521 -0.0370708666741848
0.4937798082828522 0.855945885181427 -0.03896750509738922
0.3728509545326233 0.7775882482528687 -0.003626203630119562
0.4186091125011444 0.6421687602996826 -0.0465245321393013
0.4051536023616791 0.8133119344711304 -0.01282308716326952
0.34982404112815857 0.6414541006088257 -0.05038176849484444
0.38531848788261414 0.6668726205825806 -0.041936349123716354
0.3202805519104004 0.6831190586090088 -0.03351178020238876
0.4922983944416046 0.8852425813674927 -0.04199685528874397
0.4660700261592865 0.5926993489265442 -0.06632966548204422
0.3603759706020355 0.8083539009094238 0.006760810036212206
0.39981400966644287 0.8396639823913574 -0.00538784172385931
0.3453049957752228 0.7394135594367981 -0.011310949921607971
0.2454051673412323 0.7095064520835876 0.030072983354330063
0.31564322113990784 0.7592913508415222 0.00046453927643597126
0.22978100180625916 0.7401852607727051 0.07674919813871384
0.35310763120651245 0.692245602607727 -0.03211624175310135
0.4836847484111786 0.5577688813209534 -0.06098933517932892
0.5027589797973633 0.6325533390045166 -0.11662933975458145
0.4787485599517822 0.6359054446220398 -0.09371428191661835
0.5186020135879517 0.6132277250289917 -0.1302526742219925
0.4473392069339752 0.44667500257492065 -0.015200207009911537
0.4083634614944458 0.4301101565361023 -0.02576366625726223
0.3725651800632477 0.4258881211280823 -0.031390439718961716
0.3405042886734009 0.4314604103565216 -0.02935142070055008
0.31592273712158203 0.44513750076293945 -0.02080249972641468
0.295967698097229 0.4916873574256897 0.00775399524718523
0.2032633125782013 0.5681672692298889 0.08917073905467987
0.3178033232688904 0.521449625492096 -0.00932379812002182
0.3461274802684784 0.5267460346221924 -0.017614051699638367
0.3804681897163391 0.526045560836792 -0.020313775166869164
0.4118855595588684 0.5210068225860596 -0.018284542486071587
0.43646615743637085 0.513923168182373 -0.012026925571262836
0.4540674388408661 0.5061540603637695 -0.010014999657869339
0.18381646275520325 0.5732152462005615 0.16617967188358307
0.4742915630340576 0.6406610608100891 -0.08211637288331985
0.5099155902862549 0.5628104209899902 -0.09383689612150192
0.5265730619430542 0.6342170238494873 -0.12988583743572235
0.5356314778327942 0.6474475860595703 -0.1176803857088089
0.5226222276687622 0.6396952271461487 -0.11905615776777267
0.4768531620502472 0.6467849016189575 -0.07215022295713425
0.5424803495407104 0.6488651633262634 -0.12302334606647491
0.5406039953231812 0.6543949842453003 -0.09555833786725998
0.45114636421203613 0.48805445432662964 0.0018330179154872894
0.46815937757492065 0.4925537109375 -0.008803857490420341
0.48054665327072144 0.4949457049369812 -0.024503907188773155
0.334422767162323 0.4779874086380005 -0.009335706941783428
0.3159833550453186 0.46667391061782837 -0.010546850971877575
0.5703295469284058 0.5495216846466064 -0.09380912780761719
0.66386878490448 0.47453373670578003 0.07546349614858627
0.5796374678611755 0.6482014060020447 -0.08810421079397202
0.7146703004837036 0.39124172925949097 0.2115892916917801
0.6088526248931885 0.4939523935317993 0.03548934683203697
0.6300840973854065 0.4942518472671509 0.0427827425301075
0.6497920155525208 0.49414896965026855 0.05440806597471237
0.6718547344207764 0.4848279654979706 0.08097302913665771
0.5907623767852783 0.49137961864471436 0.03274684026837349
0.6380883455276489 0.43106770515441895 0.039244119077920914
0.6130940914154053 0.43379923701286316 0.0324602946639061
0.6598082780838013 0.4351816773414612 0.05205465480685234
0.6728748679161072 0.44504284858703613 0.0638715848326683
0.6898008584976196 0.4997366964817047 0.09548910707235336
0.6237131357192993 0.8537163138389587 0.016475092619657516
0.6701767444610596 0.4711841940879822 0.08581673353910446
0.731665849685669 0.4996534585952759 0.2165261209011078
0.7030594944953918 0.4835520386695862 0.1257745772600174
0.6567009687423706 0.6028119921684265 0.0043939766474068165
0.5843374133110046 0.6855427026748657 -0.05956266447901726
0.576662540435791 0.7008092403411865 -0.049686893820762634
0.6094357967376709 0.6860503554344177 -0.0345466248691082
0.6235896348953247 0.6884748935699463 -0.0017769017722457647
0.5977816581726074 0.6977576613426208 -0.02830973081290722
0.6113747358322144 0.6970010995864868 0.0004843052302021533
0.6457961201667786 0.7452500462532043 0.04965987429022789
0.5855399370193481 0.6334672570228577 -0.12955866754055023
0.5866211652755737 0.6063847541809082 -0.13503482937812805
0.6951462030410767 0.42681992053985596 0.079339399933815
0.5999411344528198 0.5461207032203674 -0.003201778046786785
0.622308075428009 0.6203216910362244 -0.059441279619932175
0.6205640435218811 0.6064649820327759 -0.051122091710567474
0.7218061685562134 0.5933607816696167 0.05511443689465523
0.5793697834014893 0.5752383470535278 -0.11863197386264801
0.6548143625259399 0.4020009934902191 0.026520946994423866
0.6799319982528687 0.40960055589675903 0.05313163623213768
0.696763277053833 0.3455125093460083 0.16282111406326294
0.5711711645126343 0.4250245690345764 -0.019140083342790604
0.591745913028717 0.4437788128852844 0.033365216106176376
0.6632778644561768 0.7101954221725464 0.05713433399796486
0.7149726152420044 0.7411755323410034 0.25664809346199036
0.6065025329589844 0.63712477684021 -0.05515255033969879
0.5896570682525635 0.6465160846710205 -0.06394503265619278
0.636253833770752 0.6975232362747192 0.056832145899534225
0.6284458041191101 0.6993969082832336 0.048965536057949066
0.6845890879631042 0.3941977024078369 0.06791636347770691
0.6217241883277893 0.629235565662384 -0.047233302146196365
0.6200211048126221 0.40466707944869995 0.0017830881988629699
0.6220496296882629 0.3840731382369995 -0.0015722982352599502
0.6286618709564209 0.2836347222328186 0.05114847049117088
0.6929633617401123 0.36702993512153625 0.11050298064947128
0.6251955032348633 0.3290506899356842 0.025454971939325333
0.7008435130119324 0.4153343439102173 0.10305687040090561
0.7120939493179321 0.4041993319988251 0.15538671612739563
0.581551730632782 0.6939987540245056 -0.056028302758932114
0.6041315793991089 0.6924261450767517 -0.0312957838177681
0.6181725263595581 0.6928202509880066 -0.0021586043294519186
0.6014471054077148 0.641331672668457 -0.052747368812561035
0.6325299739837646 0.6984038352966309 0.052537064999341965
0.6239228248596191 0.7189661264419556 0.03600448742508888
0.6248872876167297 0.7003806829452515 0.047695714980363846
0.6011176109313965 0.6334050893783569 -0.08836182951927185
0.604535698890686 0.6997743844985962 0.0008799014613032341
0.5911633372306824 0.7012854218482971 -0.02271386608481407
0.5708847045898438 0.7051924467086792 -0.042994484305381775
0.5791255235671997 0.8235658407211304 -0.024694064632058144
0.5787299275398254 0.7830368280410767 -0.03755231946706772
0.5787316560745239 0.7703763842582703 -0.037365518510341644
0.5751800537109375 0.75965815782547 -0.030357031151652336
0.5695897936820984 0.7522425651550293 -0.023791294544935226
0.6020496487617493 0.7309406995773315 0.015426551923155785
0.6083861589431763 0.7333629131317139 0.010183797217905521
0.6150442361831665 0.7383366823196411 0.007340450771152973
0.6193525195121765 0.7453775405883789 0.013035253621637821
0.6462586522102356 0.6804416179656982 0.006942552514374256
0.7238166332244873 0.61491459608078 0.30054667592048645
0.6109704971313477 0.7184047102928162 0.03693828731775284
0.6179538369178772 0.7179059982299805 0.034322407096624374
0.5826003551483154 0.6557890176773071 -0.06520605087280273
0.6148483753204346 0.6420144438743591 -0.03393452987074852
0.5861833095550537 0.6514403820037842 -0.06544376164674759
0.6247801780700684 0.5571649670600891 0.009652693755924702
0.6654861569404602 0.5687695145606995 0.0237498227506876
0.6233064532279968 0.616249144077301 -0.037594329565763474
0.6699767708778381 0.309020072221756 0.10705772787332535
0.6649360656738281 0.34144818782806396 0.06756450980901718
0.657793402671814 0.38223668932914734 0.03337883949279785
0.6308044195175171 0.7771067023277283 0.029314883053302765
0.5766845941543579 0.3916913866996765 -0.02456001751124859
0.5796955823898315 0.3265691101551056 -0.004655417986214161
0.5799189805984497 0.2713809311389923 0.010310955345630646
0.6643949747085571 0.49117910861968994 0.0689060315489769
0.7111392021179199 0.515640914440155 0.11280941218137741
0.5788401365280151 0.48732703924179077 0.033711813390254974
0.6885298490524292 0.45566892623901367 0.08938144147396088
0.5840916037559509 0.531622588634491 -0.014695217832922935
0.6134127378463745 0.614029049873352 -0.08534852415323257
0.7404967546463013 0.5399827361106873 0.1442447304725647
0.7068319916725159 0.532087504863739 0.08755753934383392
0.6876180171966553 0.5418024063110352 0.05824244022369385
0.648234486579895 0.5407630205154419 0.03743017837405205
0.6170692443847656 0.5328791737556458 0.024653300642967224
0.5948106050491333 0.5236976742744446 0.012850433588027954
0.5577475428581238 0.4994388818740845 -0.04679253697395325
0.7537425756454468 0.5880907773971558 0.13476403057575226
0.7000619173049927 0.4524826109409332 0.10507085174322128
0.5750280618667603 0.6481159925460815 -0.1196480542421341
0.6048804521560669 0.5700767636299133 -0.017302479594945908
0.7226746082305908 0.5004295706748962 0.29326069355010986
0.5785031318664551 0.5119871497154236 0.005773337557911873
0.6234704256057739 0.6166934967041016 -0.013663181103765965
0.677798330783844 0.4724550247192383 0.09236908704042435
0.6099156141281128 0.5967085361480713 -0.07540922611951828
0.7224367260932922 0.6765025854110718 0.2843635678291321
0.5758029818534851 0.4787282645702362 0.041410259902477264
0.5949037075042725 0.5835343599319458 -0.10101382434368134
0.6948204636573792 0.7909904718399048 0.12778235971927643
0.6820874214172363 0.8262761235237122 0.1640622913837433
0.7507537603378296 0.6040133237838745 0.22060109674930573
0.7214851379394531 0.7596453428268433 0.1601978838443756
0.7225630879402161 0.449262797832489 0.19350190460681915
0.6220235824584961 0.8779672384262085 0.025378217920660973
0.5682814717292786 0.6545599102973938 -0.0905786082148552
0.6259115934371948 0.5853509902954102 -0.005845468491315842
0.7129409313201904 0.4879764914512634 0.15384331345558167
0.645963728427887 0.4771316647529602 0.056097205728292465
0.6286705732345581 0.4780590236186981 0.046382028609514236
0.6287104487419128 0.7212868928909302 0.04088689386844635
0.7563216686248779 0.6398732662200928 0.13765661418437958
0.584874153137207 0.9135617017745972 0.018167980015277863
0.6347993612289429 0.8780730962753296 0.0887012630701065
0.6549080610275269 0.8564848303794861 0.1243385598063469
0.610529899597168 0.4782802164554596 0.0408669076859951
0.5927807092666626 0.478147029876709 0.04027711600065231
0.5813707113265991 0.4790782928466797 0.042683135718107224
0.7067480683326721 0.4469250440597534 0.1322636902332306
0.5938606262207031 0.4619876742362976 0.03939497470855713
0.6122897863388062 0.45479893684387207 0.04035235941410065
0.6319239139556885 0.4527881145477295 0.045744121074676514
0.6502298712730408 0.4563347101211548 0.05564505606889725
0.6610657572746277 0.46267279982566833 0.06505697220563889
0.7231298685073853 0.44030505418777466 0.2589336633682251
0.6567039489746094 0.4759775996208191 0.06678438931703568
0.6249711513519287 0.6724115014076233 -0.020963214337825775
0.607689380645752 0.6343693733215332 -0.06440082937479019
0.5829204320907593 0.6726800799369812 -0.05888085812330246
0.6653709411621094 0.8237276077270508 0.09905213117599487
0.6432586908340454 0.8501277565956116 0.06396837532520294
0.5893508791923523 0.8992434740066528 -0.010643996298313141
0.7014168500900269 0.7917380928993225 0.2121051400899887
0.5816910266876221 0.4720034897327423 0.04088596627116203
0.5779350996017456 0.5389106869697571 -0.05336988717317581
0.6137373447418213 0.8976114988327026 0.049890000373125076
0.7492784857749939 0.6610385775566101 0.21084952354431152
0.5888916850090027 0.7430609464645386 -0.0049868118949234486
0.5959054827690125 0.747911274433136 -0.010455305688083172
0.601237416267395 0.7563020586967468 -0.013935760594904423
0.6038469076156616 0.7679733037948608 -0.010413606651127338
0.61024409532547 0.8043782114982605 0.00383185688406229
0.6210934519767761 0.6973627209663391 0.0279499851167202
0.6273127198219299 0.6948462724685669 0.030990906059741974
0.632645845413208 0.6922129392623901 0.031602922827005386
0.6605529189109802 0.6913684606552124 0.03654055297374725
0.7402050495147705 0.6502360701560974 0.08305862545967102
0.5700118541717529 0.5142741799354553 -0.028990617021918297
0.5650933384895325 0.46216845512390137 0.01914544403553009
0.574302613735199 0.4635355472564697 0.03397186100482941
0.6144522428512573 0.6995037794113159 0.02745848335325718
0.7297838926315308 0.7155556082725525 0.11808863282203674
0.5548051595687866 0.4636344313621521 -0.0183333121240139
0.6172023415565491 0.8277804851531982 0.010182094760239124
0.564415693283081 0.526281476020813 -0.07303347438573837
0.5978069305419922 0.5761202573776245 -0.05348733440041542
0.5847911834716797 0.8489360213279724 -0.021384291350841522
0.65529465675354 0.7616672515869141 0.06092354282736778
0.6413761973381042 0.634789228439331 0.00012666237307712436
0.6374329328536987 0.798064649105072 0.03834405541419983
0.6964387893676758 0.6290698051452637 0.02263963781297207
0.663439929485321 0.6565978527069092 0.017140204086899757
0.7121496200561523 0.6669149994850159 0.05040059611201286
0.5903365612030029 0.8772786855697632 -0.019438566640019417
0.6091101169586182 0.5885090231895447 -0.0343916118144989
0.6668039560317993 0.7885606288909912 0.07874302566051483
0.6436161994934082 0.8216925263404846 0.05012747645378113
0.6763094067573547 0.723283052444458 0.06633573770523071
0.7475333213806152 0.6856503486633301 0.14233021438121796
0.7007879018783569 0.7380176782608032 0.08782531321048737
0.7395122051239014 0.7140889763832092 0.19633039832115173
0.6789258122444153 0.6792411208152771 0.03928696736693382
0.5903883576393127 0.5547665357589722 -0.033768683671951294
0.6082862615585327 0.6275724768638611 -0.09188958257436752
0.6167310476303101 0.6302298307418823 -0.06520885974168777
0.6016770601272583 0.6097961664199829 -0.1097363531589508
0.5811160206794739 0.43929409980773926 0.019458014518022537
0.6155776381492615 0.42360740900039673 0.024675631895661354
0.6461772322654724 0.4203847348690033 0.03439467400312424
0.6698522567749023 0.4251349866390228 0.050822798162698746
0.6839527487754822 0.4370184540748596 0.0689287930727005
0.6887084245681763 0.4780122935771942 0.10494069010019302
0.7435245513916016 0.5513612031936646 0.22188091278076172
0.6831701397895813 0.5095998644828796 0.07999925315380096
0.6658334732055664 0.5158846974372864 0.06040504574775696
0.6386429667472839 0.5162697434425354 0.043830111622810364
0.6114547252655029 0.5124258399009705 0.032009027898311615
0.5906351208686829 0.507129430770874 0.025613628327846527
0.5767211318016052 0.5008298754692078 0.020419800654053688
0.7214939594268799 0.5572353601455688 0.30611732602119446
0.6146863102912903 0.6350808143615723 -0.053997185081243515
0.5851664543151855 0.5605330467224121 -0.07402794063091278
0.5977281332015991 0.6302980780601501 -0.11437518894672394
0.5836318731307983 0.6442080140113831 -0.10866004973649979
0.5949370265007019 0.6355615854263306 -0.10305505990982056
0.6093719005584717 0.6414998769760132 -0.048410940915346146
0.5809924602508545 0.6465083956718445 -0.11572420597076416
0.5748111605644226 0.652356743812561 -0.08920765668153763
0.5705931782722473 0.4805985689163208 0.033866655081510544
0.5649887323379517 0.48809748888015747 0.01476300973445177
0.5646836757659912 0.4935498833656311 -0.004591810517013073
0.6667847037315369 0.46759188175201416 0.07428514957427979
0.6796277761459351 0.4569341242313385 0.07856045663356781
0.3740285634994507 0.4774724543094635 -0.01035240013152361
0.40086010098457336 0.4766112267971039 -0.01035240013152361
0.37312307953834534 0.4556095004081726 -0.01035240013152361
0.3467710614204407 0.47836077213287354 -0.01035240013152361
0.37483182549476624 0.4990454316139221 -0.01035240013152361
0.618363618850708 0.4672521948814392 0.05357161909341812
0.642278790473938 0.4648866653442383 0.05357161909341812
0.6154261231422424 0.4443252980709076 0.05357161909341812
0.594261109828949 0.46943140029907227 0.05357161909341812
0.6212985515594482 0.4898104667663574 0.05357161909341812
