ply
format ascii 1.0
element vertex 478
property float x
property float y
property float z
end_header
0.5032991766929626 0.6955972909927368 -0.09025517106056213
0.5079290866851807 0.5998429656028748 -0.14245924353599548
0.5045043230056763 0.6311089396476746 -0.08583681285381317
0.48722338676452637 0.5211554169654846 -0.09642083942890167
0.5085330009460449 0.5723388195037842 -0.1472131907939911
0.5081909894943237 0.541041910648346 -0.13215288519859314
0.5062092542648315 0.47147250175476074 -0.049987196922302246
0.33351975679397583 0.4798334836959839 0.04538772627711296
0.505684494972229 0.4256519377231598 -0.021911440417170525
0.5060227513313293 0.3944612145423889 -0.019117513671517372
0.5063102841377258 0.2749064564704895 0.0319770909845829
0.5035883784294128 0.7047522664070129 -0.08875668048858643
0.5033854246139526 0.7142009735107422 -0.08306784182786942
0.5030414462089539 0.7197709083557129 -0.07531284540891647
0.5026599764823914 0.7685073614120483 -0.06122133135795593
0.5033363103866577 0.7776444554328918 -0.06923268735408783
0.5037825703620911 0.7897133827209473 -0.07712925225496292
0.5038385987281799 0.803422212600708 -0.07648907601833344
0.5017899870872498 0.8226248621940613 -0.05987023189663887
0.5066812634468079 0.616245448589325 -0.13185729086399078
0.482126384973526 0.6176965236663818 -0.09975186735391617
0.23005709052085876 0.40449485182762146 0.17447105050086975
0.3994356095790863 0.4934307336807251 0.02097189426422119
0.37503212690353394 0.4968782663345337 0.020974935963749886
0.3514954745769501 0.4970381259918213 0.026361335068941116
0.3208458125591278 0.4893905222415924 0.04642912745475769
0.4206121563911438 0.4861735701560974 0.02468670904636383
0.3653152287006378 0.4333246946334839 0.0179767906665802
0.3927404582500458 0.43357136845588684 0.021169373765587807
0.3397098481655121 0.4393244683742523 0.023664196953177452
0.32251620292663574 0.4496294856071472 0.03248430788516998
0.29714590311050415 0.504156231880188 0.05518146604299545
0.400949627161026 0.8657058477401733 -0.03977999463677406
0.32473069429397583 0.4762421250343323 0.053701747208833694
0.21285128593444824 0.5131577253341675 0.16498960554599762
0.2676932215690613 0.4926280081272125 0.08198925107717514
0.3741587698459625 0.5913283228874207 -0.024987654760479927
0.46536415815353394 0.6911517381668091 -0.08813180029392242
0.4680956304073334 0.7129233479499817 -0.07982105016708374
0.4276026487350464 0.6994929909706116 -0.07374612987041473
0.40190625190734863 0.708879292011261 -0.05111619085073471
0.4378182888031006 0.7148399353027344 -0.0676739513874054
0.41431453824043274 0.7188242673873901 -0.046541936695575714
0.3717101514339447 0.7566328048706055 -0.014078407548367977
0.4870489537715912 0.5995534062385559 -0.14089825749397278
0.4851589798927307 0.573072075843811 -0.145035520195961
0.28669416904449463 0.43426066637039185 0.04092566296458244
0.4304081201553345 0.5308876037597656 -0.015210987068712711
0.4229007959365845 0.5965705513954163 -0.0814208984375
0.42081576585769653 0.5841440558433533 -0.07165563106536865
0.2960011959075928 0.5916393995285034 0.0040667057037353516
0.4862048327922821 0.544196367263794 -0.12565433979034424
0.3489415645599365 0.4025704264640808 0.00459749111905694
0.31289058923721313 0.4146311283111572 0.02038032002747059
0.26239365339279175 0.3545244038105011 0.13533617556095123
0.45762911438941956 0.414737343788147 -0.015049072913825512
0.4168793559074402 0.4407661259174347 0.028782695531845093
0.3507663309574127 0.7238432168960571 -0.007779965177178383
0.224320650100708 0.7738807797431946 0.1798284947872162
0.4413764178752899 0.6121457815170288 -0.07295123487710953
0.4623221158981323 0.6200138330459595 -0.07766985893249512
0.3728426694869995 0.7291333675384521 -0.005871962755918503
0.3799664378166199 0.7301405072212219 -0.010975565761327744
0.2983587682247162 0.40181764960289 0.03603557124733925
0.41912931203842163 0.6084875464439392 -0.06959737092256546
0.396790087223053 0.40078282356262207 -0.007242746651172638
0.39216148853302 0.38241443037986755 -0.00861378014087677
0.37066954374313354 0.2873416543006897 0.05544726923108101
0.28495916724205017 0.3747127056121826 0.08145564794540405
0.38816365599632263 0.33023491501808167 0.02486351877450943
0.2703379988670349 0.426456093788147 0.06442193686962128
0.2523948550224304 0.41551101207733154 0.11940845102071762
0.46616214513778687 0.7026923298835754 -0.08633287996053696
0.4326847195625305 0.7075737118721008 -0.07142474502325058
0.4078676998615265 0.7139031291007996 -0.050820380449295044
0.4465141296386719 0.6170547008514404 -0.06878511607646942
0.37649309635162354 0.7296388745307922 -0.008500580675899982
0.39076992869377136 0.7474340200424194 -0.02315126359462738
0.383314847946167 0.7307600975036621 -0.011730275116860867
0.4572957158088684 0.6026574373245239 -0.10571068525314331
0.41915667057037354 0.7215521931648254 -0.04442403092980385
0.44228583574295044 0.7189342379570007 -0.060305651277303696
0.4702413082122803 0.7182992100715637 -0.0721605122089386
0.4619961380958557 0.8202337026596069 -0.058500006794929504
0.46363458037376404 0.7993615865707397 -0.07431688159704208
0.4650411605834961 0.7858472466468811 -0.07426281273365021
0.46725115180015564 0.7739505767822266 -0.0656028762459755
0.47010940313339233 0.7660287022590637 -0.057978902012109756
0.4197328984737396 0.7545406818389893 -0.03365021571516991
0.41466784477233887 0.7569983601570129 -0.03986816108226776
0.4081525206565857 0.7621123790740967 -0.04463749751448631
0.40330833196640015 0.7689247727394104 -0.041156645864248276
0.38305553793907166 0.6772096157073975 -0.04090244323015213
0.19783717393875122 0.6431780457496643 0.23953929543495178
0.505501389503479 0.6241349577903748 -0.1016547828912735
0.40257197618484497 0.7460333108901978 -0.019070765003561974
0.39672574400901794 0.7460371851921082 -0.02292918972671032
0.46946901082992554 0.6299629211425781 -0.0806610956788063
0.4259101152420044 0.6241093873977661 -0.05316965654492378
0.4661227762699127 0.6250841617584229 -0.07980819046497345
0.4020922780036926 0.545160174369812 -0.010916764847934246
0.3596857190132141 0.5604821443557739 -0.00892715435475111
0.41435548663139343 0.5964898467063904 -0.05927764251828194
0.30809637904167175 0.31414544582366943 0.09216848015785217
0.32890546321868896 0.3453044891357422 0.05103291943669319
0.33993542194366455 0.38563072681427 0.013903909362852573
0.3940843343734741 0.7823495864868164 -0.029410352930426598
0.4496379494667053 0.38422441482543945 -0.018698757514357567
0.4444277882575989 0.3265685439109802 0.010459782555699348
0.4340016841888428 0.275885671377182 0.03468106687068939
0.33216720819473267 0.49508577585220337 0.03618136793375015
0.2688596844673157 0.5214747190475464 0.06552591919898987
0.4348450005054474 0.47923755645751953 0.029336152598261833
0.29631689190864563 0.46239137649536133 0.05223982036113739
0.4497351348400116 0.5141531825065613 -0.021773573011159897
0.4418565332889557 0.5858172178268433 -0.10368876159191132
0.23579585552215576 0.5468093752861023 0.08758016675710678
0.2862386107444763 0.5337706804275513 0.04063999652862549
0.3185850977897644 0.5385425686836243 0.01839192397892475
0.3669838011264801 0.5331635475158691 0.008552774786949158
0.40289998054504395 0.5226231813430786 0.006457021459937096
0.42996540665626526 0.5102838277816772 0.0025470973923802376
0.4834652245044708 0.47833743691444397 -0.041709404438734055
0.2342163324356079 0.5967166423797607 0.07147451490163803
0.275187611579895 0.4614814817905426 0.06385806947946548
0.4941657781600952 0.6152343153953552 -0.13092947006225586
0.42972931265830994 0.5522183775901794 -0.03089403361082077
0.19878727197647095 0.5221434235572815 0.24364401400089264
0.4502372145652771 0.4962533116340637 0.0019105669343844056
0.4104635417461395 0.5999965667724609 -0.03282538056373596
0.3117474317550659 0.477933406829834 0.05746603012084961
0.44031912088394165 0.5709327459335327 -0.09152274578809738
0.2052435278892517 0.7076329588890076 0.21576476097106934
0.4352699816226959 0.471684992313385 0.03795146197080612
0.4639390707015991 0.5549529194831848 -0.11303757131099701
0.2865021824836731 0.8122483491897583 0.05438481643795967
0.2868956923484802 0.8560007810592651 0.08622130006551743
0.20453289151191711 0.6225889325141907 0.15625518560409546
0.2514168620109558 0.7819327116012573 0.08506002277135849
0.23179012537002563 0.4607437252998352 0.1499999314546585
0.39569225907325745 0.897774875164032 -0.034183699637651443
0.4956297278404236 0.6231076717376709 -0.10021758079528809
0.4052810072898865 0.5710292458534241 -0.025694962590932846
0.24516160786151886 0.49958527088165283 0.10564102232456207
0.35579001903533936 0.48339971899986267 0.031078970059752464
0.37559136748313904 0.48357921838760376 0.02582635171711445
0.38565942645072937 0.7498694658279419 -0.020235350355505943
0.233320415019989 0.6523222923278809 0.0697227194905281
0.44421377778053284 0.9389835596084595 -0.03561536967754364
0.36297401785850525 0.9079821109771729 0.018341926857829094
0.3279793858528137 0.8864486813545227 0.04929012432694435
0.5062457919120789 0.32887113094329834 0.007198293227702379
0.499603807926178 0.9438210725784302 -0.04070621728897095
0.3957831859588623 0.4810446500778198 0.025785865262150764
0.41513490676879883 0.47665607929229736 0.030407529324293137
0.4282764494419098 0.4740042984485626 0.036584995687007904
0.2557676434516907 0.45948076248168945 0.0891278013586998
0.4125784933567047 0.4598740339279175 0.0307514239102602
0.39176851511001587 0.45663437247276306 0.025443118065595627
0.37220659852027893 0.45722079277038574 0.02533899061381817
0.3521463871002197 0.46186208724975586 0.02973262220621109
0.33899199962615967 0.46773773431777954 0.03677228093147278
0.21041253209114075 0.4570247232913971 0.21531683206558228
0.3427189588546753 0.48172104358673096 0.03835092857480049
0.5043901205062866 0.6517008543014526 -0.08127324283123016
0.41196539998054504 0.661132276058197 -0.05710863694548607
0.44261011481285095 0.6075161099433899 -0.08080194890499115
0.46576640009880066 0.6521914005279541 -0.08049829304218292
0.5054019093513489 0.4496305584907532 -0.02576662041246891
0.3235235810279846 0.8455926775932312 0.0276681836694479
0.3583327829837799 0.8720486164093018 -0.001988588599488139
0.44361138343811035 0.9147454500198364 -0.06096961721777916
0.2535538673400879 0.8229843974113464 0.13221216201782227
0.4279680550098419 0.4663853645324707 0.03513967618346214
0.46743786334991455 0.5154072046279907 -0.056351348757743835
0.49992191791534424 0.9190093874931335 -0.06558588892221451
0.4001274108886719 0.925997257232666 -0.014100899919867516
0.20933794975280762 0.682596743106842 0.14161166548728943
0.4425588548183441 0.7612216472625732 -0.047337546944618225
0.4374614655971527 0.766626238822937 -0.05421823263168335
0.43287748098373413 0.7757045030593872 -0.05988238379359245
0.4300830364227295 0.7871803641319275 -0.05811046436429024
0.42316293716430664 0.8047502040863037 -0.046347346156835556
0.39460504055023193 0.7238211631774902 -0.02745266817510128
0.38866281509399414 0.7210699319839478 -0.026832954958081245
0.3835313618183136 0.718139111995697 -0.026818806305527687
0.36080747842788696 0.6973338723182678 -0.021978333592414856
0.26859748363494873 0.6558650732040405 0.020516375079751015
0.4674902558326721 0.49447131156921387 -0.02968321554362774
0.4542226493358612 0.45217904448509216 0.024200748652219772
0.4385538697242737 0.45650842785835266 0.032791707664728165
0.39957934617996216 0.7254048585891724 -0.026094015687704086
0.26302874088287354 0.7297091484069824 0.048097360879182816
0.4760891795158386 0.4489738941192627 -0.009250432252883911
0.41163206100463867 0.8339998722076416 -0.04158114269375801
0.5075370669364929 0.516916036605835 -0.10358607023954391
0.4853106737136841 0.5004687309265137 -0.07046165317296982
0.5069148540496826 0.49469277262687683 -0.07502976804971695
0.44740214943885803 0.5532160401344299 -0.06397190690040588
0.5009217858314514 0.8878985047340393 -0.0727974995970726
0.5014588236808777 0.8527902960777283 -0.06653739511966705
0.4550049901008606 0.8503235578536987 -0.061504390090703964
0.35264676809310913 0.7741600275039673 -0.005540444981306791
0.3889733552932739 0.6225790977478027 -0.028978006914258003
0.3795018792152405 0.8085081577301025 -0.022188201546669006
0.3303303122520447 0.6229448914527893 -0.02065202035009861
0.36301788687705994 0.6497690677642822 -0.025583922863006592
0.3049885630607605 0.6687303185462952 -0.004810070153325796
0.44736871123313904 0.8844659328460693 -0.06683138757944107
0.428890585899353 0.5684479475021362 -0.04935845360159874
0.33266282081604004 0.8043950200080872 0.009025480598211288
0.36660343408584595 0.8370636701583862 -0.012995040975511074
0.3310033977031708 0.7354031801223755 -0.0012370082549750805
0.23808014392852783 0.7014808654785156 0.07132724672555923
0.29872459173202515 0.7512720823287964 0.018371962010860443
0.22343191504478455 0.7370384335517883 0.12160732597112656
0.338894784450531 0.682487428188324 -0.016466347500681877
0.44962751865386963 0.5338999032974243 -0.04239215329289436
0.4498266279697418 0.5975043177604675 -0.10993260890245438
0.4311034381389618 0.6050530076026917 -0.0852210596203804
0.4629441499710083 0.5784646272659302 -0.12607210874557495
0.435513436794281 0.4332929253578186 0.01993112824857235
0.3948095440864563 0.4215608239173889 0.014535834081470966
0.3591921627521515 0.4213419556617737 0.013115372508764267
0.3290287256240845 0.428916335105896 0.02047419734299183
0.30742812156677246 0.44244474172592163 0.03408395126461983
0.2925322353839874 0.48467132449150085 0.06576236337423325
0.20533528923988342 0.5669375658035278 0.16196152567863464
0.3112368583679199 0.5116167664527893 0.041995543986558914
0.3365248143672943 0.5152752995491028 0.027422113344073296
0.3698796033859253 0.513710618019104 0.018418630585074425
0.4015251696109772 0.5071247220039368 0.01697058230638504
0.4265386462211609 0.4978799819946289 0.017566561698913574
0.44386279582977295 0.4889286458492279 0.017967529594898224
0.19700363278388977 0.5828830003738403 0.25073039531707764
0.4296730160713196 0.6122338175773621 -0.07376638054847717
0.46747687458992004 0.5346170663833618 -0.08112816512584686
0.4690479636192322 0.5974900126457214 -0.12892727553844452
0.48148614168167114 0.6124846935272217 -0.12078330665826797
0.46835067868232727 0.603671133518219 -0.11748630553483963
0.43503403663635254 0.620339035987854 -0.06628330051898956
0.4863702058792114 0.6139951944351196 -0.12761349976062775
0.48771360516548157 0.6215117573738098 -0.09997980296611786
0.4442422091960907 0.471213161945343 0.033904653042554855
0.4572509825229645 0.4750794768333435 0.017992336302995682
0.4651375412940979 0.4772730767726898 -0.0021482936572283506
0.3311864733695984 0.47223296761512756 0.043792035430669785
0.3112335205078125 0.46230095624923706 0.04518400877714157
0.5273495316505432 0.5216910243034363 -0.09416412562131882
0.6662374138832092 0.48480451107025146 0.06184205040335655
0.5278933048248291 0.6184213757514954 -0.09799046069383621
0.752055823802948 0.4143003821372986 0.2048315405845642
0.6013158559799194 0.49879223108291626 0.031626418232917786
0.6246156096458435 0.5017799735069275 0.03381367772817612
0.6470015645027161 0.5021069049835205 0.041286900639534
0.6770405769348145 0.4943583607673645 0.06399242579936981
0.5811512470245361 0.49234122037887573 0.032928235828876495
0.6379567980766296 0.43493184447288513 0.031077880412340164
0.6108253598213196 0.4351852536201477 0.031289760023355484
0.6627736687660217 0.4416827857494354 0.03910699486732483
0.6784508228302002 0.4532725214958191 0.04919629544019699
0.6976391077041626 0.5098050832748413 0.07424674928188324
0.5975225567817688 0.8668049573898315 -0.031818706542253494
0.6750364899635315 0.48087751865386963 0.07098967581987381
0.7683430314064026 0.5209713578224182 0.19162529706954956
0.7257497310638428 0.4986211657524109 0.10359661281108856
0.6297028064727783 0.5950215458869934 -0.014216669835150242
0.5408358573913574 0.6928106546401978 -0.08520058542490005
0.5385510325431824 0.7144423127174377 -0.07713320851325989
0.5777724981307983 0.7023555040359497 -0.06776680052280426
0.6019807457923889 0.7128080129623413 -0.04318459704518318
0.567100465297699 0.7172611951828003 -0.06257431209087372
0.5890122652053833 0.7219868898391724 -0.03986223787069321
0.6276600360870361 0.7588503360748291 -0.004301352892071009
0.5280105471611023 0.6002712845802307 -0.13937810063362122
0.5312739014625549 0.5737119317054749 -0.14333392679691315
0.7127047777175903 0.43872570991516113 0.060918230563402176
0.5753205418586731 0.5330851078033447 -0.008084035478532314
0.5854955911636353 0.5992172360420227 -0.07467402517795563
0.5870913863182068 0.5867791175842285 -0.06465771794319153
0.7033339142799377 0.5971526503562927 0.022200318053364754
0.5295221209526062 0.5447736978530884 -0.12340610474348068
0.6565317511558533 0.40425431728363037 0.017810136079788208
0.6897879838943481 0.41763561964035034 0.03729434683918953
0.7267696261405945 0.36418259143829346 0.16248415410518646
0.5514733195304871 0.4146357476711273 -0.011141655966639519
0.5868195295333862 0.44369977712631226 0.03699945658445358
0.6483305096626282 0.726870596408844 0.004106340929865837
0.7477139234542847 0.7809986472129822 0.20885877311229706
0.5660662055015564 0.6142987012863159 -0.06763520836830139
0.5454161763191223 0.6214650869369507 -0.07504698634147644
0.6272443532943726 0.7346315979957581 0.004341923166066408
0.62014240026474 0.7350454330444336 -0.0019508021650835872
0.7041424512863159 0.405314564704895 0.05437173321843147
0.5871190428733826 0.6111789345741272 -0.06298093497753143
0.6112251877784729 0.40111044049263 0.001553592155687511
0.6164149641990662 0.3829519748687744 0.0006862374139018357
0.6332159042358398 0.29390352964401245 0.0702512338757515
0.7095680236816406 0.38291215896606445 0.10203466564416885
0.6184366345405579 0.3361653983592987 0.035770315676927567
0.7279027700424194 0.43144217133522034 0.08604040741920471
0.7361339926719666 0.4234699010848999 0.1429198980331421
0.5406535863876343 0.7043548822402954 -0.0834582969546318
0.5727880001068115 0.7104130983352661 -0.06591388583183289
0.5959301590919495 0.717507004737854 -0.0435921885073185
0.5602932572364807 0.6188507080078125 -0.06459436565637589
0.6236221194267273 0.7348534464836121 0.0009321562829427421
0.6104839444160461 0.7516143918037415 -0.015150575898587704
0.6169660091400146 0.7352501749992371 -0.002982509322464466
0.5530019402503967 0.6045336723327637 -0.10107484459877014
0.5832165479660034 0.7239707708358765 -0.03808388486504555
0.5620125532150269 0.7209088802337646 -0.05545177683234215
0.5356767177581787 0.7195258736610413 -0.06945064663887024
0.5410458445549011 0.8206102252006531 -0.055959537625312805
0.5434418320655823 0.8008742332458496 -0.07139366865158081
0.5417183637619019 0.7871906161308289 -0.07124132663011551
0.5388713479042053 0.775236964225769 -0.06262970715761185
0.5348712205886841 0.7672102451324463 -0.05523276701569557
0.5818917751312256 0.7570083141326904 -0.02733726054430008
0.5878263711929321 0.7600614428520203 -0.03346875309944153
0.59481281042099 0.7654045820236206 -0.038097091019153595
0.5998392701148987 0.772288978099823 -0.034355442970991135
0.6195887923240662 0.6797747611999512 -0.03209482505917549
0.7697257399559021 0.6522946953773499 0.27111464738845825
0.597591757774353 0.7491819858551025 -0.011355951428413391
0.6042742133140564 0.7498360276222229 -0.015125609934329987
0.5385217666625977 0.6310461759567261 -0.07822127640247345
0.5787681341171265 0.6263263821601868 -0.04797687008976936
0.5417395830154419 0.6263874173164368 -0.07727854698896408
0.6019367575645447 0.548190712928772 -0.0014201340964064002
0.6434255838394165 0.5646162033081055 0.003844595281407237
0.5919603705406189 0.5993648767471313 -0.05205480009317398
0.6886215209960938 0.3228505253791809 0.11408890783786774
0.6713518500328064 0.35320016741752625 0.06725352257490158
0.6660078167915344 0.38768014311790466 0.027996845543384552
0.6063576340675354 0.783779501914978 -0.021405212581157684
0.5607950687408447 0.38363444805145264 -0.014257234521210194
0.5660042762756348 0.3296622931957245 0.01607758365571499
0.575265109539032 0.27960827946662903 0.042011454701423645
0.6657624244689941 0.5002931952476501 0.05279705673456192
0.7239056825637817 0.5273029804229736 0.08685687929391861
0.5675632953643799 0.48582297563552856 0.03673592582345009
0.7015403509140015 0.4675104320049286 0.07146565616130829
0.5579164028167725 0.5157297253608704 -0.016155662015080452
0.5691146850585938 0.5880392789840698 -0.09811650216579437
0.7534494400024414 0.5539665818214417 0.11196523904800415
0.7066628932952881 0.5392032861709595 0.060805756598711014
0.675687313079834 0.5431967377662659 0.035274527966976166
0.630112886428833 0.5374687314033508 0.02128787338733673
0.5966110229492188 0.5268833637237549 0.01604462042450905
0.571325957775116 0.5146242380142212 0.00981613527983427
0.5280625820159912 0.47900331020355225 -0.03950291499495506
0.7560039162635803 0.603632926940918 0.09572029113769531
0.7208107709884644 0.46712106466293335 0.08528757095336914
0.5188308954238892 0.6156505942344666 -0.1296701580286026
0.5765160322189331 0.5544376373291016 -0.023838231340050697
0.7726248502731323 0.5317831039428711 0.27590620517730713
0.5527286529541016 0.5005848407745361 0.007418397814035416
0.5940921902656555 0.6028651595115662 -0.025882190093398094
0.6866081953048706 0.4829118251800537 0.07563254982233047
0.5701045989990234 0.5730471014976501 -0.08581710606813431
0.7632637619972229 0.7159166932106018 0.246863454580307
0.5670602917671204 0.47832322120666504 0.04561610892415047
0.5496256947517395 0.5562012791633606 -0.10888641327619553
0.7029515504837036 0.8162641525268555 0.0725119337439537
0.6969503164291382 0.8603613972663879 0.10830242186784744
0.775234580039978 0.6296260952949524 0.1829560101032257
0.7338770627975464 0.7868821620941162 0.10652773082256317
0.7525054216384888 0.46864053606987 0.17557016015052795
0.6004607677459717 0.8988598585128784 -0.025556514039635658
0.5150896906852722 0.6234592199325562 -0.099528469145298
0.5992883443832397 0.5740063190460205 -0.017191855236887932
0.7474150657653809 0.5060124397277832 0.12955431640148163
0.6442021131515503 0.4886810779571533 0.04558779299259186
0.6250219941139221 0.48898613452911377 0.038582976907491684
0.6156091690063477 0.7543442845344543 -0.011687812395393848
0.7561020255088806 0.6589194536209106 0.093358613550663
0.5535812377929688 0.9395784139633179 -0.02987590618431568
0.6288110613822937 0.9094940423965454 0.03261515125632286
0.6609125137329102 0.8891639709472656 0.06712070852518082
0.6055822968482971 0.4868210554122925 0.03674276918172836
0.5866985321044922 0.4831880033016205 0.03973221033811569
0.573819637298584 0.480959951877594 0.044879596680402756
0.7385066151618958 0.4652337431907654 0.1121714636683464
0.5904734134674072 0.46410223841667175 0.04029108211398125
0.6111019849777222 0.4590297341346741 0.036604493856430054
0.6306619644165039 0.45905810594558716 0.03833181783556938
0.650029718875885 0.46395808458328247 0.04449818655848503
0.6621720790863037 0.47075212001800537 0.05254029110074043
0.7660541534423828 0.46687617897987366 0.24735155701637268
0.6570930480957031 0.486915647983551 0.05406687781214714
0.592823326587677 0.6633559465408325 -0.0502048060297966
0.5657218098640442 0.6097612380981445 -0.07600045949220657
0.5423967838287354 0.653375506401062 -0.07764305919408798
0.6681714653968811 0.8485020399093628 0.04242262616753578
0.6353371143341064 0.8738313913345337 0.009644720703363419
0.5551542639732361 0.9153218269348145 -0.05624888092279434
0.72422194480896 0.8286923170089722 0.15848319232463837
0.574629008769989 0.4724424183368683 0.04358382895588875
0.543788731098175 0.5165163278579712 -0.05258796364068985
0.5948094725608826 0.926948070526123 -0.0037624514661729336
0.7699263095855713 0.6891079545021057 0.16758683323860168
0.5608271360397339 0.763117790222168 -0.042342409491539
0.5669369101524353 0.7688797116279602 -0.04913919046521187
0.5721549391746521 0.7779531478881836 -0.054644256830215454
0.5758642554283142 0.7895103693008423 -0.05275215953588486
0.5786371827125549 0.8053847551345825 -0.04049409180879593
0.6071699857711792 0.7276955842971802 -0.019133327528834343
0.6133711934089661 0.7256131768226624 -0.017879024147987366
0.6186984181404114 0.7228999733924866 -0.017344221472740173
0.6400036215782166 0.7002317905426025 -0.011027371510863304
0.7270049452781677 0.6616312265396118 0.04030625522136688
0.5420923233032227 0.49565839767456055 -0.025841549038887024
0.5512130856513977 0.4559307098388672 0.029142770916223526
0.565199077129364 0.4614391624927521 0.03976498544216156
0.6015607118606567 0.7284583449363708 -0.018261156976222992
0.7285385727882385 0.7350856065750122 0.06835167109966278
0.5305767059326172 0.45154502987861633 -0.0065427483059465885
0.5884273052215576 0.8348776698112488 -0.03503703698515892
0.5278047919273376 0.5009914636611938 -0.06845517456531525
0.562028169631958 0.5550753474235535 -0.0587557815015316
0.5469663143157959 0.8506274819374084 -0.05841992050409317
0.6448318958282471 0.7769661545753479 0.005846802145242691
0.6137665510177612 0.6255542039871216 -0.020145228132605553
0.6190034747123718 0.8102658987045288 -0.013153007254004478
0.6717599630355835 0.6274545192718506 -0.006757878698408604
0.6389559507369995 0.6532255411148071 -0.014712225645780563
0.6940745115280151 0.6736174821853638 0.010881049558520317
0.5533728003501892 0.885059654712677 -0.06251272559165955
0.5779646635055542 0.5707840919494629 -0.042977917939424515
0.6626448631286621 0.8074444532394409 0.02261482924222946
0.6301681995391846 0.8389483094215393 -0.0024243532679975033
0.666711688041687 0.7391493916511536 0.012725930660963058
0.7504866719245911 0.7077187299728394 0.09423422813415527
0.696288526058197 0.7556010484695435 0.03501925244927406
0.7575539350509644 0.7431061267852783 0.14624325931072235
0.6612393856048584 0.6863194704055786 -0.0037003769539296627
0.5589547753334045 0.5355838537216187 -0.03687324374914169
0.5609275698661804 0.5994673371315002 -0.10491781681776047
0.5772533416748047 0.607528567314148 -0.07960938662290573
0.5509905815124512 0.5798091888427734 -0.12181610614061356
0.5705246925354004 0.43522727489471436 0.026629015803337097
0.6104369759559631 0.4227966368198395 0.02418048493564129
0.6451951265335083 0.42332854866981506 0.025844261050224304
0.673459529876709 0.4321455955505371 0.036285459995269775
0.6926993727684021 0.4467335641384125 0.05197802558541298
0.7034780979156494 0.4905970096588135 0.08539096266031265
0.7747932076454163 0.5744231343269348 0.18916213512420654
0.6839810013771057 0.517015814781189 0.05987532064318657
0.6595079898834229 0.5202934145927429 0.04293062537908554
0.6282023191452026 0.5184413194656372 0.03103022649884224
0.5984214544296265 0.5119208693504333 0.026865430176258087
0.5749650597572327 0.503098726272583 0.025010064244270325
0.558966875076294 0.4940185546875 0.02388797514140606
0.7716017961502075 0.5922286510467529 0.2828737497329712
0.5770928263664246 0.6146861910820007 -0.06817669421434402
0.5450072884559631 0.5357398986816406 -0.07712069153785706
0.5442045331001282 0.5987036824226379 -0.12580309808254242
0.530005156993866 0.6133126020431519 -0.11891059577465057
0.5433157086372375 0.6051278114318848 -0.11418386548757553
0.5707689523696899 0.6223330497741699 -0.06152654066681862
0.5260140895843506 0.6146377921104431 -0.12612204253673553
0.5225332379341125 0.6219832897186279 -0.0986575335264206
0.5588736534118652 0.47739624977111816 0.040233612060546875
0.5469046235084534 0.4797947406768799 0.022607633844017982
0.5393040776252747 0.48134005069732666 0.0016586025012657046
0.6693367958068848 0.4760868549346924 0.06035748869180679
0.6879857182502747 0.4669336676597595 0.0629245787858963
0.3762875497341156 0.4691169261932373 0.03450285643339157
0.40365293622016907 0.4674793481826782 0.03450285643339157
0.37499380111694336 0.4485675096511841 0.03450285643339157
0.3486185371875763 0.47054946422576904 0.03450285643339157
0.3773365914821625 0.48946821689605713 0.03450285643339157
0.6248641014099121 0.47490644454956055 0.0471404530107975
0.6503913402557373 0.47651031613349915 0.0471404530107975
0.6264527440071106 0.4547937512397766 0.0471404530107975
0.5995454788208008 0.4732295274734497 0.0471404530107975
0.6234037280082703 0.49500706791877747 0.0471404530107975
