ply
format ascii 1.0
element vertex 478
property float x
property float y
property float z
end_header
0.4939410090446472 0.7030647397041321 -0.03468522056937218
0.4904835820198059 0.6632629632949829 -0.13198447227478027
0.4942026734352112 0.6720351576805115 -0.06181525066494942
0.47438278794288635 0.5780896544456482 -0.11782944947481155
0.49043968319892883 0.6398056745529175 -0.14521194994449615
0.49189621210098267 0.6055581569671631 -0.14325247704982758
0.49772584438323975 0.5192928910255432 -0.10147523134946823
0.3415278494358063 0.48649507761001587 0.0038178807590156794
0.4998963475227356 0.4629252851009369 -0.0985596552491188
0.5003810524940491 0.4327441453933716 -0.11191463470458984
0.5050870180130005 0.2928032875061035 -0.12330986559391022
0.49484899640083313 0.7087724208831787 -0.02889866568148136
0.49608609080314636 0.7135273218154907 -0.02157750353217125
0.49756181240081787 0.7161670327186584 -0.011285541579127312
0.49770358204841614 0.7653279304504395 0.011063998565077782
0.4979822635650635 0.7736623287200928 0.008692421019077301
0.49847742915153503 0.7838336229324341 0.0051103513687849045
0.4996146261692047 0.7947530150413513 0.010986720211803913
0.4990038275718689 0.8175601363182068 0.032766200602054596
0.4914318323135376 0.6723781228065491 -0.11705361306667328
0.46628043055534363 0.6651168465614319 -0.08208249509334564
0.264445960521698 0.38073843717575073 0.08684581518173218
0.41061511635780334 0.5085552334785461 -0.018116142600774765
0.3846217393875122 0.5088214874267578 -0.015124596655368805
0.3604193925857544 0.5061957240104675 -0.008333144709467888
0.33296436071395874 0.49191945791244507 0.010436723940074444
0.4325568675994873 0.5051718950271606 -0.01838577538728714
0.36799874901771545 0.45530474185943604 -0.0368499755859375
0.3982916474342346 0.4590303301811218 -0.03825307637453079
0.34262484312057495 0.45655983686447144 -0.027269750833511353
0.3281114101409912 0.46191009879112244 -0.015772389248013496
0.31247949600219727 0.5015724897384644 0.026087429374456406
0.41129210591316223 0.837397575378418 0.08445054292678833
0.33398088812828064 0.48048415780067444 0.010604704730212688
0.2504217326641083 0.48304831981658936 0.1290561407804489
0.29000595211982727 0.4843819737434387 0.0455714575946331
0.3706253170967102 0.602150022983551 -0.014913742430508137
0.4542118012905121 0.695950984954834 -0.03176398575305939
0.4586525559425354 0.7081128358840942 -0.015339216217398643
0.42195385694503784 0.6925532221794128 -0.011257699690759182
0.3999459743499756 0.68891841173172 0.019594838842749596
0.4301747977733612 0.7016651034355164 0.0008897116058506072
0.40901610255241394 0.6962600946426392 0.027453992515802383
0.3726058602333069 0.7227864265441895 0.08287058770656586
0.4703596234321594 0.6612337827682495 -0.1293816864490509
0.4681333899497986 0.637731671333313 -0.14167243242263794
0.2924872934818268 0.4417656660079956 -0.018804308027029037
0.42833268642425537 0.553165078163147 -0.03608798235654831
0.41293951869010925 0.6304154396057129 -0.06877066195011139
0.41336849331855774 0.6153919100761414 -0.06362488865852356
0.2984628677368164 0.5864282846450806 0.018716664984822273
0.47075939178466797 0.6060594916343689 -0.13463127613067627
0.34156206250190735 0.43192291259765625 -0.0682704895734787
0.31067556142807007 0.43275439739227295 -0.04692528769373894
0.28371596336364746 0.34612101316452026 0.02913574129343033
0.4500337243080139 0.46171051263809204 -0.08989190310239792
0.42520323395729065 0.46780937910079956 -0.030770346522331238
0.3504977226257324 0.6890321969985962 0.07871551811695099
0.27965638041496277 0.6911129355430603 0.2580631375312805
0.4292270541191101 0.6463083028793335 -0.05713982880115509
0.44942790269851685 0.6561103463172913 -0.05772553011775017
0.3685239255428314 0.6844284534454346 0.08079719543457031
0.3754107356071472 0.6880585551261902 0.07491206377744675
0.29989093542099 0.4168653190135956 -0.0394015908241272
0.41058316826820374 0.633408784866333 -0.05265037342905998
0.38718634843826294 0.44096529483795166 -0.08322491496801376
0.38195738196372986 0.4235069155693054 -0.0943702757358551
0.3685295581817627 0.301685631275177 -0.08003423362970352
0.2972659468650818 0.38063234090805054 -0.009676611982285976
0.382837176322937 0.35813045501708984 -0.08921496570110321
0.2822573184967041 0.42905914783477783 -0.0022766815964132547
0.27536946535110474 0.40649664402008057 0.03989187628030777
0.45565739274024963 0.7027596831321716 -0.02492038533091545
0.4257999658584595 0.6972895264625549 -0.004451179876923561
0.40426725149154663 0.6926105618476868 0.02251523733139038
0.4339568018913269 0.6489811539649963 -0.051913537085056305
0.37206655740737915 0.6862350106239319 0.0776233971118927
0.388206422328949 0.7138902544975281 0.06799968332052231
0.37855982780456543 0.6899499297142029 0.07416100054979324
0.4429536759853363 0.6513887047767639 -0.09411726891994476
0.4135482907295227 0.6989165544509888 0.030855299904942513
0.43464353680610657 0.7047179937362671 0.010498655959963799
0.46220260858535767 0.7113080024719238 -0.004939125385135412
0.4591095745563507 0.8116276264190674 0.038170311599969864
0.45956313610076904 0.7883687019348145 0.01675194874405861
0.45924848318099976 0.7775657773017883 0.012065397575497627
0.4608069062232971 0.7679407000541687 0.01571323536336422
0.46373116970062256 0.76051926612854 0.01762329414486885
0.41564205288887024 0.7326641082763672 0.04772492125630379
0.41074705123901367 0.7344749569892883 0.0461173951625824
0.405136376619339 0.7388980984687805 0.046038996428251266
0.4017970561981201 0.7447904944419861 0.05291594937443733
0.37726739048957825 0.6715947985649109 0.018046045675873756
0.2558456063270569 0.5732178092002869 0.2546572685241699
0.49262839555740356 0.673792839050293 -0.08230969309806824
0.4001399278640747 0.7152391672134399 0.06552989035844803
0.3938092589378357 0.7137430906295776 0.0655268058180809
0.45820116996765137 0.6646218299865723 -0.053719110786914825
0.4159514009952545 0.6422522664070129 -0.030749337747693062
0.4539669156074524 0.6607442498207092 -0.057193998247385025
0.4028173089027405 0.5597245097160339 -0.022791655734181404
0.3601107597351074 0.5683234930038452 -0.011444554664194584
0.40821507573127747 0.6201549172401428 -0.046954866498708725
0.31605732440948486 0.319191575050354 -0.02802145853638649
0.3314507007598877 0.3635293245315552 -0.05183105543255806
0.33384108543395996 0.413646399974823 -0.06949733197689056
0.39471256732940674 0.7584966421127319 0.07159914076328278
0.4403805732727051 0.43588870763778687 -0.10692799836397171
0.43757328391075134 0.3576558232307434 -0.11048131436109543
0.4293017089366913 0.29343381524086 -0.11143158376216888
0.3422424793243408 0.5006097555160522 0.0017073818016797304
0.28798872232437134 0.5122857093811035 0.044669415801763535
0.44646307826042175 0.5015981197357178 -0.01755685918033123
0.30729246139526367 0.46558162569999695 0.005051700863987207
0.4454137086868286 0.5439268946647644 -0.04951222613453865
0.4288020133972168 0.6327910423278809 -0.09590039402246475
0.2601698935031891 0.5283036828041077 0.07740151882171631
0.29891568422317505 0.5292435884475708 0.028318526223301888
0.32532167434692383 0.5406370162963867 0.008043586276471615
0.3713538646697998 0.5416890382766724 -0.006250306963920593
0.40686145424842834 0.536136269569397 -0.015301608480513096
0.43225008249282837 0.5294677019119263 -0.02652031183242798
0.4757075309753418 0.5232799649238586 -0.08898238092660904
0.25538933277130127 0.5721659660339355 0.08540507405996323
0.29017314314842224 0.4603135585784912 0.013873934745788574
0.47845226526260376 0.6707346439361572 -0.11512461304664612
0.4258202314376831 0.5778095722198486 -0.040846019983291626
0.2505779564380646 0.4706035256385803 0.2033732384443283
0.4508417248725891 0.5218638181686401 -0.03531355783343315
0.40567415952682495 0.6162250638008118 -0.020919127389788628
0.32411420345306396 0.47976166009902954 0.015796232968568802
0.42942026257514954 0.6138320565223694 -0.08999334275722504
0.2636723816394806 0.630096971988678 0.26154908537864685
0.4475962221622467 0.4946969747543335 -0.014048850163817406
0.4502505958080292 0.6088628172874451 -0.1174497976899147
0.31936153769493103 0.7579482793807983 0.1601451188325882
0.3307809829711914 0.7835503816604614 0.20289386808872223
0.2454480230808258 0.5770679116249084 0.17094050347805023
0.28832539916038513 0.7236738204956055 0.17527498304843903
0.2620523273944855 0.4407827854156494 0.08970224857330322
0.41198891401290894 0.862611711025238 0.10270161926746368
0.4816921353340149 0.6723593473434448 -0.0804377868771553
0.40257930755615234 0.5875745415687561 -0.02638651430606842
0.27525007724761963 0.4842571020126343 0.0704086422920227
0.363423228263855 0.49534136056900024 -0.009264950640499592
0.38492342829704285 0.49807363748550415 -0.015507771633565426
0.38375401496887207 0.7150101661682129 0.07277995347976685
0.25500160455703735 0.6189332008361816 0.10869225114583969
0.4538631737232208 0.900384783744812 0.11057981103658676
0.3919079303741455 0.8522810935974121 0.15442965924739838
0.36538195610046387 0.8222248554229736 0.1773250252008438
0.5025015473365784 0.35909199714660645 -0.1198137030005455
0.4998050034046173 0.9093166589736938 0.10219814628362656
0.40715909004211426 0.4975990653038025 -0.018099911510944366
0.4285867214202881 0.4956463873386383 -0.01657574251294136
0.44186872243881226 0.49521133303642273 -0.013615227304399014
0.27834320068359375 0.45247283577919006 0.03593336045742035
0.42371493577957153 0.4798368811607361 -0.024030115455389023
0.39993810653686523 0.4738559126853943 -0.028553035110235214
0.3764597177505493 0.4721989035606384 -0.026630114763975143
0.3556519150733948 0.4737512767314911 -0.019081922248005867
0.3441094160079956 0.47669363021850586 -0.009822327643632889
0.2537357211112976 0.4200460910797119 0.1484702080488205
0.3500949740409851 0.4910584092140198 -0.0022157100029289722
0.49533766508102417 0.6801968812942505 -0.047513697296381
0.4046001434326172 0.6686030626296997 -0.010562021285295486
0.4297120273113251 0.6463903188705444 -0.06885536760091782
0.4551832973957062 0.6758419871330261 -0.041693948209285736
0.49954286217689514 0.4875517785549164 -0.09162695705890656
0.35400334000587463 0.7946854829788208 0.14888817071914673
0.3828907907009125 0.82784503698349 0.1284950226545334
0.4509527087211609 0.8866174221038818 0.08006579428911209
0.30328094959259033 0.743125855922699 0.23256884515285492
0.4399818181991577 0.48858505487442017 -0.018356556072831154
0.4586537778377533 0.5599785447120667 -0.08373202383518219
0.4989714026451111 0.8962970972061157 0.07316049933433533
0.419617235660553 0.880273699760437 0.12879367172718048
0.25131091475486755 0.6285474300384521 0.18320757150650024
0.4369451403617859 0.7489351034164429 0.031035589054226875
0.4319857358932495 0.7535654306411743 0.029731230810284615
0.42836999893188477 0.7613804936408997 0.029308198019862175
0.4271079897880554 0.771623969078064 0.035740673542022705
0.42188459634780884 0.7902218103408813 0.05484352260828018
0.3905711770057678 0.6917504072189331 0.05253756418824196
0.3860911428928375 0.6888619661331177 0.05357100069522858
0.38240838050842285 0.6860764026641846 0.05204807221889496
0.35692769289016724 0.6764535903930664 0.04939417168498039
0.2771133482456207 0.6347864270210266 0.06309109926223755
0.4611717462539673 0.5328075289726257 -0.06770231574773788
0.4596019983291626 0.4844684600830078 -0.036796651780605316
0.4480268657207489 0.4837680459022522 -0.025394072756171227
0.39527007937431335 0.6943064332008362 0.054600633680820465
0.2829934358596802 0.689409077167511 0.12084224820137024
0.4734119772911072 0.4882437586784363 -0.07155559957027435
0.416345477104187 0.8107171058654785 0.06989104300737381
0.49391472339630127 0.5765491724014282 -0.12792626023292542
0.4750802218914032 0.5524489283561707 -0.10631769895553589
0.4958130419254303 0.5495315790176392 -0.11399131268262863
0.4386345446109772 0.5914776921272278 -0.07375964522361755
0.4985935091972351 0.8729225397109985 0.054916128516197205
0.49885696172714233 0.8430874943733215 0.044706959277391434
0.45538800954818726 0.8356772661209106 0.052780136466026306
0.36406397819519043 0.7372658848762512 0.09584453701972961
0.385358989238739 0.6300069093704224 -0.006043255794793367
0.3884742856025696 0.7764099836349487 0.08674653619527817
0.32710030674934387 0.6238723993301392 0.006596056278795004
0.360465943813324 0.6483161449432373 0.014421967789530754
0.3075413107872009 0.6536904573440552 0.04417402297258377
0.45107024908065796 0.8638107776641846 0.06287068873643875
0.42350637912750244 0.5968685746192932 -0.051374007016420364
0.3532639145851135 0.7631433010101318 0.11881115287542343
0.3830038011074066 0.8010354042053223 0.10684400796890259
0.3396047055721283 0.7003095746040344 0.08563046157360077
0.2630940079689026 0.6593353152275085 0.13073323667049408
0.3150988817214966 0.7134009003639221 0.10483846068382263
0.26541921496391296 0.6777871251106262 0.19041921198368073
0.3393665552139282 0.6640172600746155 0.042096078395843506
0.4429515600204468 0.5690091252326965 -0.0605972558259964
0.43553856015205383 0.6466044187545776 -0.0999879390001297
0.4194367527961731 0.6410338282585144 -0.07038000971078873
0.4475642144680023 0.6362144947052002 -0.12035699188709259
0.438015341758728 0.46782615780830383 -0.04662526398897171
0.394254207611084 0.453102171421051 -0.052015259861946106
0.356842577457428 0.4474889636039734 -0.0486275851726532
0.32852187752723694 0.4479600489139557 -0.03590957075357437
0.31198859214782715 0.4537849426269531 -0.018732918426394463
0.30894047021865845 0.48179298639297485 0.026549210771918297
0.2456616759300232 0.5296688079833984 0.1520850509405136
0.3232048749923706 0.5121713876724243 0.016773510724306107
0.34548473358154297 0.5206338763237 0.0032827153336256742
0.3780951499938965 0.5233685970306396 -0.007258121855556965
0.41012993454933167 0.5209676623344421 -0.014070626348257065
0.43455737829208374 0.5164193511009216 -0.019399872049689293
0.45057412981987 0.5121590495109558 -0.023642703890800476
0.25323089957237244 0.520695149898529 0.23658016324043274
0.4192037880420685 0.641651451587677 -0.057027656584978104
0.45604342222213745 0.5839300751686096 -0.09725829213857651
0.45302265882492065 0.6550766229629517 -0.11845050007104874
0.4651200473308563 0.664499819278717 -0.10577337443828583
0.4524153470993042 0.6562860012054443 -0.10589291900396347
0.4238072335720062 0.6455950736999512 -0.04683995246887207
0.4703134298324585 0.6683217883110046 -0.11169423907995224
0.47296443581581116 0.6694910526275635 -0.08112767338752747
0.45454126596450806 0.4968574047088623 -0.018235497176647186
0.4628602862358093 0.5035227537155151 -0.03244588151574135
0.46495717763900757 0.5090718269348145 -0.04915660247206688
0.3380620777606964 0.4788745641708374 -0.0009683336247690022
0.32058048248291016 0.46856650710105896 -0.00022403440380003303
0.514642596244812 0.5787333846092224 -0.12035554647445679
0.670132577419281 0.48944732546806335 -0.014696717262268066
0.520567774772644 0.6660126447677612 -0.08400662243366241
0.7740169763565063 0.3882223069667816 0.05730365589261055
0.6001866459846497 0.5086236000061035 -0.030123503878712654
0.6240105032920837 0.5103152990341187 -0.02950032241642475
0.6478426456451416 0.5095633864402771 -0.02507305145263672
0.6812429428100586 0.49509331583976746 -0.00938880443572998
0.5799441933631897 0.5048539042472839 -0.027833444997668266
0.6431372165679932 0.45507243275642395 -0.05188411474227905
0.6144444346427917 0.4574480950832367 -0.050259027630090714
0.6680403351783752 0.45810258388519287 -0.044630806893110275
0.6833354830741882 0.46475526690483093 -0.03460058569908142
0.7034269571304321 0.5072847604751587 0.004845648072659969
0.5936462879180908 0.8433839082717896 0.07566052675247192
0.6809184551239014 0.48262935876846313 -0.008747587911784649
0.7854897975921631 0.4920176565647125 0.10001974552869797
0.7353729605674744 0.49056097865104675 0.021775268018245697
0.6337854266166687 0.6067149043083191 -0.027368079870939255
0.5361642837524414 0.6964961886405945 -0.0354129783809185
0.5371817946434021 0.7088058590888977 -0.01877318136394024
0.5768252611160278 0.6940144300460815 -0.0184938982129097
0.605753481388092 0.6907998323440552 0.009766263887286186
0.571590781211853 0.7026267051696777 -0.0057534947991371155
0.5983564257621765 0.6974332332611084 0.01886627823114395
0.638298511505127 0.7274792790412903 0.07032827287912369
0.511603593826294 0.6620820760726929 -0.1309446543455124
0.513849675655365 0.6385299563407898 -0.14360152184963226
0.7194414138793945 0.4489082992076874 -0.04128074645996094
0.5753847360610962 0.5556076169013977 -0.04415827617049217
0.5807034373283386 0.6335179209709167 -0.07616204023361206
0.5822368860244751 0.6182582378387451 -0.07133466005325317
0.7131171226501465 0.5936349630355835 -0.0016507655382156372
0.5141161680221558 0.6066360473632812 -0.13710790872573853
0.6587250828742981 0.4368051290512085 -0.08320055902004242
0.6940990686416626 0.43920454382896423 -0.06612078100442886
0.7482640743255615 0.352261483669281 0.0026262300089001656
0.5507002472877502 0.4615773856639862 -0.09465843439102173
0.5894076824188232 0.4662013649940491 -0.04057775437831879
0.6616636514663696 0.6941638588905334 0.06413059681653976
0.759555459022522 0.7038312554359436 0.23227214813232422
0.5635105967521667 0.6488146781921387 -0.0628393366932869
0.5416544675827026 0.6574106812477112 -0.060547079890966415
0.6472722291946411 0.6866457462310791 0.06788890063762665
0.6399598121643066 0.6899951100349426 0.063379667699337
0.7098696827888489 0.4237681031227112 -0.06018742173910141
0.5847431421279907 0.6365804672241211 -0.05989411473274231
0.611461877822876 0.44349008798599243 -0.09356660395860672
0.6160270571708679 0.4270489811897278 -0.10495205968618393
0.648833692073822 0.3047274351119995 -0.09487774968147278
0.7271620631217957 0.3867855668067932 -0.032805003225803375
0.6284737586975098 0.3606065511703491 -0.10149950534105301
0.7374415993690491 0.43603670597076416 -0.026398733258247375
0.7550135850906372 0.41455817222595215 0.01361220981925726
0.5371652841567993 0.7034374475479126 -0.028581855818629265
0.5742481350898743 0.6986303329467773 -0.011455328203737736
0.6021386384963989 0.6941885948181152 0.013299791142344475
0.5587153434753418 0.6511347889900208 -0.05627431720495224
0.6434626579284668 0.6883041262626648 0.065513476729393
0.6247915029525757 0.7159814834594727 0.05748388543725014
0.6364889740943909 0.6916720867156982 0.06293320655822754
0.545515775680542 0.6535472273826599 -0.0990421250462532
0.5951806902885437 0.6996020674705505 0.022679943591356277
0.5687379837036133 0.7053266763687134 0.004265761002898216
0.5365315675735474 0.7118263244628906 -0.008485604077577591
0.541402280330658 0.8133553266525269 0.03457019105553627
0.5421854257583618 0.7902975082397461 0.012785247527062893
0.5404281616210938 0.7791855335235596 0.00792535487562418
0.5378257036209106 0.7692152857780457 0.01165080163627863
0.5347843766212463 0.7615835070610046 0.013716042973101139
0.5922577977180481 0.7344395518302917 0.03949080407619476
0.5975868105888367 0.7365638017654419 0.03779204934835434
0.6039637923240662 0.7413557767868042 0.0375712588429451
0.6085025072097778 0.7476494312286377 0.043989427387714386
0.626767635345459 0.6754794716835022 0.007182489149272442
0.7885029315948486 0.5838598012924194 0.2256016880273819
0.6117854714393616 0.7169920206069946 0.05548688769340515
0.6184344291687012 0.7157259583473206 0.05538143217563629
0.5329629182815552 0.6656229496002197 -0.05647886544466019
0.5803350806236267 0.6450445055961609 -0.03648824989795685
0.5370530486106873 0.6618995070457458 -0.05990245193243027
0.6024104356765747 0.5631793737411499 -0.03351395204663277
0.6472054719924927 0.5733871459960938 -0.026056380942463875
0.5891337394714355 0.6232622265815735 -0.05489877983927727
0.7088034152984619 0.3237571120262146 -0.04944150522351265
0.6865397691726685 0.3679078221321106 -0.07015176862478256
0.6682299375534058 0.41945692896842957 -0.08569715172052383
0.6133198738098145 0.7627036571502686 0.061281900852918625
0.5589331388473511 0.43643784523010254 -0.11209157109260559
0.5697173476219177 0.35893604159355164 -0.11666106432676315
0.5834532380104065 0.29510268568992615 -0.11889662593603134
0.6687020659446716 0.5044140815734863 -0.01714140549302101
0.7316370606422424 0.5201680064201355 0.020984940230846405
0.5669935345649719 0.5014066100120544 -0.026078028604388237
0.7079271674156189 0.4709613621234894 -0.01642104610800743
0.5568781495094299 0.5457352995872498 -0.05599531531333923
0.5608258247375488 0.6354166269302368 -0.10176847130060196
0.7641462087631226 0.5375558137893677 0.05062315985560417
0.7109749913215637 0.5376402139663696 0.006058164872229099
0.6769548058509827 0.548519492149353 -0.011060281656682491
0.6293808221817017 0.5464292764663696 -0.020841332152485847
0.5959197282791138 0.5385052561759949 -0.026383914053440094
0.5720735192298889 0.5310026407241821 -0.03480366989970207
0.5215005874633789 0.5238912105560303 -0.09169294685125351
0.7663732171058655 0.5817492604255676 0.05876873806118965
0.7298783659934998 0.4669007658958435 -0.009885837323963642
0.5051364302635193 0.6712450981140137 -0.11640224605798721
0.5751926302909851 0.5800877809524536 -0.04857013002038002
0.7944691777229309 0.4790104329586029 0.17238594591617584
0.5537388324737549 0.5231056213378906 -0.041733380407094955
0.5941024422645569 0.6193836331367493 -0.028717001900076866
0.6920112371444702 0.48275917768478394 -0.004456570837646723
0.5626963973045349 0.6160809397697449 -0.09597496688365936
0.7786419987678528 0.6419686079025269 0.2340097874403
0.5685760974884033 0.49438953399658203 -0.0228147953748703
0.5378872156143188 0.6102209091186523 -0.12182056158781052
0.7027933597564697 0.7696090936660767 0.14066661894321442
0.6966779232025146 0.796843945980072 0.18331822752952576
0.7873010635375977 0.5876380205154419 0.14211182296276093
0.7378988265991211 0.7354053854942322 0.1523866206407547
0.7716500163078308 0.44919145107269287 0.06166509538888931
0.5937379598617554 0.8696833848953247 0.09346296638250351
0.5038445591926575 0.6726643443107605 -0.0812164694070816
0.6000601053237915 0.5908340811729431 -0.03603440523147583
0.7590445280075073 0.4906238317489624 0.04409639537334442
0.6443510055541992 0.49807706475257874 -0.025500614196062088
0.6238754391670227 0.4994463324546814 -0.02987847290933132
0.6302520036697388 0.7173184156417847 0.0615529865026474
0.767071545124054 0.6290882229804993 0.08297767490148544
0.5482588410377502 0.9046329259872437 0.10518024861812592
0.6220208406448364 0.8620246648788452 0.14144344627857208
0.6554349660873413 0.834264874458313 0.16116563975811005
0.6043419241905212 0.4976613521575928 -0.030460387468338013
0.5851707458496094 0.49513351917266846 -0.02715360000729561
0.5732102394104004 0.4948526620864868 -0.023075589910149574
0.7505966424942017 0.45804187655448914 0.010264075361192226
0.5945806503295898 0.47795891761779785 -0.034910302609205246
0.6170483231544495 0.47090303897857666 -0.04120812565088272
0.6382296085357666 0.46991944313049316 -0.04140590503811836
0.6578140258789062 0.4727262258529663 -0.03583540394902229
0.6692893505096436 0.4770551025867462 -0.02766786888241768
0.7884705066680908 0.4278927743434906 0.11786215752363205
0.6591270565986633 0.49417591094970703 -0.019869334995746613
0.5952189564704895 0.6716079711914062 -0.018752004951238632
0.5619125962257385 0.6490831971168518 -0.07404830306768417
0.5383387804031372 0.6774364709854126 -0.045229095965623856
0.663101851940155 0.8055827021598816 0.13306961953639984
0.6292293667793274 0.8374180197715759 0.1159660741686821
0.5493869185447693 0.8905393481254578 0.07478759437799454
0.7303659915924072 0.756071925163269 0.20905858278274536
0.5768921971321106 0.48828113079071045 -0.028163546696305275
0.5371432900428772 0.5611827969551086 -0.08804740011692047
0.5877554416656494 0.8873857259750366 0.11901327967643738
0.7802456617355347 0.6399344205856323 0.1559372842311859
0.5658142566680908 0.7504963278770447 0.02469772659242153
0.5712472200393677 0.7555413842201233 0.02306600660085678
0.5759056806564331 0.7637680768966675 0.022290751338005066
0.5788211226463318 0.7743702530860901 0.02860952727496624
0.5823236107826233 0.7932145595550537 0.047029294073581696
0.6218273043632507 0.6930113434791565 0.04188912734389305
0.6258400678634644 0.6904876828193665 0.042131468653678894
0.6295671463012695 0.6880263090133667 0.04015959054231644
0.6518656015396118 0.6809781789779663 0.03589639440178871
0.7386049032211304 0.6434213519096375 0.04081280529499054
0.5385756492614746 0.5340996980667114 -0.07235365360975266
0.5527032017707825 0.48372411727905273 -0.04258306697010994
0.5674288868904114 0.48296183347702026 -0.03353092446923256
0.617805540561676 0.6952311992645264 0.04445599392056465
0.7376142740249634 0.6994035243988037 0.0988001823425293
0.5305111408233643 0.48833465576171875 -0.0748419538140297
0.5889074206352234 0.8154010772705078 0.06167897582054138
0.5178849101066589 0.553030788898468 -0.10863511264324188
0.5568647980690002 0.5934110879898071 -0.0793793722987175
0.5451208353042603 0.838164210319519 0.0488312654197216
0.6478502750396729 0.7441561818122864 0.08194663375616074
0.6168420910835266 0.633873701095581 -0.016214629635214806
0.6207624077796936 0.782538652420044 0.0756043866276741
0.6805768013000488 0.6301544308662415 -0.009466729126870632
0.6451941728591919 0.6532779335975647 0.0015664068050682545
0.704215407371521 0.6612870097160339 0.025812217965722084
0.5485931634902954 0.8671025037765503 0.05779404938220978
0.5749714374542236 0.5991017818450928 -0.058459725230932236
0.6609859466552734 0.772293746471405 0.10340679436922073
0.6274542808532715 0.8090823292732239 0.09499642252922058
0.6733901500701904 0.7074465751647949 0.06890854984521866
0.7602551579475403 0.6698318719863892 0.1063137799501419
0.7015981674194336 0.7227684259414673 0.08592438697814941
0.7646905183792114 0.6895432472229004 0.1643534153699875
0.6705989837646484 0.6697471737861633 0.026495078578591347
0.5555804967880249 0.5708295106887817 -0.06668349355459213
0.5528762936592102 0.6491101980209351 -0.10531965643167496
0.5730496048927307 0.6440455913543701 -0.07664185017347336
0.5377470254898071 0.6379538774490356 -0.1248561218380928
0.5719994306564331 0.4674113392829895 -0.05455329269170761
0.6123902797698975 0.45403003692626953 -0.06322387605905533
0.6480370163917542 0.45018449425697327 -0.06311363726854324
0.6773182153701782 0.4524460732936859 -0.053604673594236374
0.6975590586662292 0.45902907848358154 -0.038663458079099655
0.7106153964996338 0.48704993724823 0.004891177639365196
0.7887113690376282 0.5394988656044006 0.12232491374015808
0.687307596206665 0.5179188847541809 -0.0034764185547828674
0.66078782081604 0.5260770916938782 -0.014332047663629055
0.6275225281715393 0.5264155268669128 -0.0216655433177948
0.5976070761680603 0.5219287276268005 -0.025341978296637535
0.5751850008964539 0.5166803002357483 -0.027848882600665092
0.5598607063293457 0.5121215581893921 -0.03059137798845768
0.7926915884017944 0.5298722982406616 0.20580749213695526
0.5745365619659424 0.6444780230522156 -0.06316772103309631
0.5356940627098083 0.5851436257362366 -0.10162539780139923
0.5315080881118774 0.6567144393920898 -0.12177581340074539
0.5205886363983154 0.6658046841621399 -0.10765475779771805
0.5340589284896851 0.6582000851631165 -0.1093466654419899
0.5705347657203674 0.64802086353302 -0.052002888172864914
0.5141456723213196 0.6691780090332031 -0.11325802654027939
0.51329106092453 0.6701075434684753 -0.08248841762542725
0.5601430535316467 0.4963947534561157 -0.025513043627142906
0.5483541488647461 0.5031157732009888 -0.0378410667181015
0.5400145053863525 0.5099413394927979 -0.05370895192027092
0.6758174896240234 0.48025283217430115 -0.019583923742175102
0.6928067803382874 0.4721561074256897 -0.02003616839647293
0.39350926876068115 0.4828178882598877 -0.012646748684346676
0.42226356267929077 0.48379507660865784 -0.012646748684346676
0.39264485239982605 0.4625358283519745 -0.012646748684346676
0.3650568127632141 0.4818662405014038 -0.012646748684346676
0.3943062424659729 0.5029809474945068 -0.012646748684346676
0.6358571648597717 0.48344409465789795 -0.0269357617944479
0.661077618598938 0.4835730791091919 -0.0269357617944479
0.6355273127555847 0.4628751575946808 -0.0269357617944479
0.610611617565155 0.4831431806087494 -0.0269357617944479
0.6360892057418823 0.5041798949241638 -0.0269357617944479
