ply
format ascii 1.0
element vertex 478
property float x
property float y
property float z
end_header
0.5023293495178223 0.7276824712753296 -0.027196433395147324
0.5135862827301025 0.6626892685890198 -0.10910652577877045
0.5091313719749451 0.6736186742782593 -0.04520580545067787
0.49276283383369446 0.5738288164138794 -0.10376209020614624
0.5143082141876221 0.6393612623214722 -0.12224406749010086
0.5136534571647644 0.6033815741539001 -0.1220562607049942
0.5105814337730408 0.5102712512016296 -0.08962368220090866
0.34577077627182007 0.47579118609428406 -0.017886465415358543
0.509920597076416 0.44270628690719604 -0.09213986247777939
0.5103099346160889 0.409701943397522 -0.10676654428243637
0.5101823210716248 0.2798624336719513 -0.12422043830156326
0.5018565058708191 0.7317937016487122 -0.021290624514222145
0.5009064078330994 0.7351166605949402 -0.012518223375082016
0.49995413422584534 0.7373179793357849 0.0006824435549788177
0.49932464957237244 0.7493510246276855 0.006273721344769001
0.49896106123924255 0.7578747868537903 0.007758822292089462
0.4980728328227997 0.7678297758102417 0.006374051328748465
0.4968017339706421 0.7774021625518799 0.012842453084886074
0.5000013709068298 0.7973665595054626 0.0372752845287323
0.5124290585517883 0.6712026000022888 -0.09511995315551758
0.4869854152202606 0.6651556491851807 -0.06568939983844757
0.242780864238739 0.3633902072906494 0.0433022640645504
0.41159242391586304 0.5000945925712585 -0.032063696533441544
0.3887344002723694 0.502161979675293 -0.030781978741288185
0.3658868074417114 0.5002548098564148 -0.02608552575111389
0.3360101580619812 0.4817187786102295 -0.012049115262925625
0.43018150329589844 0.49469298124313354 -0.02918616682291031
0.374015212059021 0.42912983894348145 -0.05441666021943092
0.4006681442260742 0.4329642951488495 -0.05346367508172989
0.3499652147293091 0.4325850009918213 -0.04695356637239456
0.33468151092529297 0.44145873188972473 -0.03737875074148178
0.31582552194595337 0.49543148279190063 0.002055901801213622
0.41822364926338196 0.8211933970451355 0.07301308214664459
0.3367743492126465 0.466896653175354 -0.01276006456464529
0.23716461658477783 0.4687430262565613 0.08845875412225723
0.2877212464809418 0.47381407022476196 0.0167861208319664
0.38917890191078186 0.6074588894844055 -0.019761594012379646
0.47570446133613586 0.7214792966842651 -0.027523085474967957
0.4764130711555481 0.7311688661575317 -0.011012903414666653
0.4520367383956909 0.7215228080749512 -0.014367293566465378
0.4356476366519928 0.7210716009140015 0.004102145787328482
0.4562656283378601 0.7277553081512451 -0.0031135480385273695
0.44097965955734253 0.7253354787826538 0.012909194454550743
0.3934360146522522 0.7382755279541016 0.05218032747507095
0.4942375421524048 0.6610074639320374 -0.10836950689554214
0.4918782711029053 0.6378793120384216 -0.12081656605005264
0.3014458119869232 0.41510209441185 -0.042369771748781204
0.4386180341243744 0.550026535987854 -0.03883308544754982
0.43537580966949463 0.6359748244285583 -0.060041096061468124
0.4337714910507202 0.6203713417053223 -0.056747063994407654
0.31927061080932617 0.5944960713386536 0.002492465078830719
0.4925326406955719 0.6042608618736267 -0.11658975481987
0.35530534386634827 0.39350250363349915 -0.08139427751302719
0.32369405031204224 0.3999294638633728 -0.06480467319488525
0.267422616481781 0.32811421155929565 -0.009624618105590343
0.45893922448158264 0.4245094060897827 -0.08989568799734116
0.42342326045036316 0.44448068737983704 -0.044602781534194946
0.3751506209373474 0.7155036330223083 0.0482097752392292
0.26627522706985474 0.6782902479171753 0.2215466946363449
0.45147839188575745 0.6508608460426331 -0.04801773652434349
0.46981900930404663 0.6593958735466003 -0.04412420466542244
0.4112161695957184 0.719478964805603 0.04723229259252548
0.4164854884147644 0.7211185097694397 0.04178266599774361
0.3103196620941162 0.38174188137054443 -0.060973040759563446
0.43291643261909485 0.6414183378219604 -0.044949308037757874
0.39946258068084717 0.39960548281669617 -0.09043595939874649
0.3955349326133728 0.3793655037879944 -0.10147032886743546
0.36911600828170776 0.28537291288375854 -0.10083838552236557
0.2875949442386627 0.36127036809921265 -0.03975681588053703
0.3847150504589081 0.3389660120010376 -0.10310430079698563
0.2868652641773224 0.401125967502594 -0.029350263997912407
0.26255369186401367 0.38911014795303345 0.004197305999696255
0.47573933005332947 0.7272038459777832 -0.02142205834388733
0.454026460647583 0.7248406410217285 -0.008910066448152065
0.43809422850608826 0.7231965065002441 0.007248174864798784
0.4559025466442108 0.6540210247039795 -0.04093557223677635
0.41396909952163696 0.7203298807144165 0.04436098039150238
0.4240875840187073 0.7298805713653564 0.03585793823003769
0.418986439704895 0.7219206690788269 0.04141130670905113
0.4658435881137848 0.6518124341964722 -0.08021912723779678
0.4435558617115021 0.7270621061325073 0.018527811393141747
0.4586201310157776 0.7299538254737854 0.008456745184957981
0.47749581933021545 0.7338764667510986 0.0014619110152125359
0.46855229139328003 0.7944508790969849 0.037187572568655014
0.47019651532173157 0.7732834219932556 0.012476957403123379
0.4721962809562683 0.7636206150054932 0.006504702381789684
0.47480228543281555 0.7538595795631409 0.008178899064660072
0.47731778025627136 0.7457959651947021 0.007034859620034695
0.44397154450416565 0.7332059741020203 0.022782323881983757
0.4399426281452179 0.7361888289451599 0.02262277342379093
0.4354094862937927 0.7406134605407715 0.0221105944365263
0.43140071630477905 0.7456933259963989 0.027680369094014168
0.4033716917037964 0.6910932660102844 0.002822393085807562
0.23793701827526093 0.5580704808235168 0.21086594462394714
0.5110767483711243 0.6730437278747559 -0.06352238357067108
0.43286073207855225 0.7278891801834106 0.03388374298810959
0.4284971058368683 0.7286167144775391 0.034266211092472076
0.4776464104652405 0.6686156988143921 -0.04072960838675499
0.438621461391449 0.6521141529083252 -0.023728592321276665
0.4739350378513336 0.6642206907272339 -0.04333200305700302
0.4148351848125458 0.5600863099098206 -0.0280894935131073
0.375800758600235 0.573056697845459 -0.019304173067212105
0.42874768376350403 0.6270790100097656 -0.041655849665403366
0.3076401948928833 0.3010160028934479 -0.05946796014904976
0.32640594244003296 0.34310615062713623 -0.0745658352971077
0.3467944264411926 0.3731938600540161 -0.08521289378404617
0.412883996963501 0.76047682762146 0.04639986529946327
0.45204657316207886 0.3918272852897644 -0.10746219009160995
0.4440528154373169 0.341922402381897 -0.11682821065187454
0.43448495864868164 0.2791520953178406 -0.12187351286411285
0.34671550989151 0.4933564066886902 -0.018597710877656937
0.2912291884422302 0.5094967484474182 0.017400572076439857
0.44164595007896423 0.48957133293151855 -0.027789916843175888
0.3120456039905548 0.4483010172843933 -0.020526645705103874
0.455147922039032 0.5382757186889648 -0.04979497566819191
0.4515533745288849 0.6347829103469849 -0.0832853838801384
0.262450635433197 0.5239463448524475 0.04572119563817978
0.30785173177719116 0.5303893089294434 0.004519459325820208
0.3375263810157776 0.5436630249023438 -0.011092126369476318
0.3816283941268921 0.5426819324493408 -0.018718495965003967
0.41398441791534424 0.5340832471847534 -0.024593796581029892
0.4372040629386902 0.5249252319335938 -0.03232276067137718
0.48798373341560364 0.5142928957939148 -0.08134432882070541
0.2664850950241089 0.5739412903785706 0.055801551789045334
0.29262930154800415 0.4418884515762329 -0.01415868941694498
0.5000917911529541 0.6700283288955688 -0.09467057138681412
0.44002509117126465 0.5772095918655396 -0.04042738676071167
0.22728264331817627 0.4528590440750122 0.15598787367343903
0.4551472067832947 0.515109121799469 -0.038939468562603
0.4255463480949402 0.6238398551940918 -0.019529689103364944
0.3265380561351776 0.46605396270751953 -0.008648918010294437
0.4501194655895233 0.615473210811615 -0.07924451678991318
0.2483728975057602 0.6165961623191833 0.22125788033008575
0.43940943479537964 0.481336772441864 -0.026251163333654404
0.4711092412471771 0.6081035137176514 -0.10261251777410507
0.3192481994628906 0.7529393434524536 0.13031235337257385
0.32100772857666016 0.771569550037384 0.1754685938358307
0.24320171773433685 0.5689679384231567 0.13325148820877075
0.2893802523612976 0.7174775004386902 0.14462913572788239
0.2483048141002655 0.4248189330101013 0.05067405104637146
0.41463255882263184 0.8418875932693481 0.09336759895086288
0.50117427110672 0.6717185974121094 -0.06264114379882812
0.41848665475845337 0.5906655192375183 -0.028079664334654808
0.267151415348053 0.4733962118625641 0.03745885193347931
0.3689347505569458 0.48733383417129517 -0.027901094406843185
0.38879087567329407 0.48962825536727905 -0.03193402662873268
0.42004573345184326 0.7316132187843323 0.040108393877744675
0.26986902952194214 0.6207041144371033 0.0799364373087883
0.4535514712333679 0.8735607862472534 0.10963311046361923
0.387923926115036 0.8330082893371582 0.1371518224477768
0.35772520303726196 0.8073005080223083 0.15376149117946625
0.5103892683982849 0.3450365662574768 -0.11845878511667252
0.4983224868774414 0.878975510597229 0.1076558530330658
0.40750396251678467 0.4875437319278717 -0.032481998205184937
0.42479926347732544 0.483728289604187 -0.029605265706777573
0.4352229833602905 0.48221176862716675 -0.02607150375843048
0.2746960520744324 0.43256551027297974 0.004520934075117111
0.41816094517707825 0.4632507562637329 -0.03882383927702904
0.39800387620925903 0.45598703622817993 -0.04417332634329796
0.37814345955848694 0.4545031189918518 -0.04408075660467148
0.35932785272598267 0.4569706916809082 -0.03860270231962204
0.3480707108974457 0.4611724317073822 -0.031089287251234055
0.23033279180526733 0.40257638692855835 0.1023632138967514
0.355502188205719 0.4821320176124573 -0.02256946451961994
0.5071980953216553 0.688327431678772 -0.03448260948061943
0.4282569885253906 0.6841906905174255 -0.013636736199259758
0.45263004302978516 0.6495906114578247 -0.057939812541007996
0.47363346815109253 0.6865821480751038 -0.033349502831697464
0.5096747279167175 0.47399070858955383 -0.0835636705160141
0.35226762294769287 0.7863283157348633 0.1223357766866684
0.3829765021800995 0.8136675357818604 0.1100388765335083
0.45301830768585205 0.8620560765266418 0.07940187305212021
0.29155802726745605 0.7306832075119019 0.20153246819972992
0.4325655996799469 0.4742739796638489 -0.03174713999032974
0.472787469625473 0.5544807314872742 -0.07700180262327194
0.4992173910140991 0.8675839304924011 0.07820231467485428
0.41865527629852295 0.8569488525390625 0.11945700645446777
0.25152701139450073 0.6210682392120361 0.1481122225522995
0.45896196365356445 0.7396507859230042 0.01352336723357439
0.4550904631614685 0.7453482151031494 0.013838397338986397
0.4513324797153473 0.7528781890869141 0.012893738225102425
0.4482322931289673 0.7616236805915833 0.01867179572582245
0.4373936355113983 0.7803567051887512 0.03934912011027336
0.4285932183265686 0.723319411277771 0.02767135575413704
0.42538851499557495 0.7216926217079163 0.02692684531211853
0.4227677583694458 0.7201328277587891 0.02532518282532692
0.3843507468700409 0.70121830701828 0.02336757443845272
0.2991830110549927 0.6406931281089783 0.04178633913397789
0.47184422612190247 0.5250517725944519 -0.06444165855646133
0.4577656090259552 0.4651032090187073 -0.04436351731419563
0.44288909435272217 0.46613645553588867 -0.036733999848365784
0.43185073137283325 0.7249796986579895 0.03102579340338707
0.29687827825546265 0.6912869215011597 0.09345901757478714
0.4792574942111969 0.4689129590988159 -0.07043888419866562
0.426999032497406 0.7993052005767822 0.05703851208090782
0.5125870704650879 0.5718333721160889 -0.11038395762443542
0.4902520179748535 0.5457626581192017 -0.09533633291721344
0.5115286707878113 0.5424605011940002 -0.09993474930524826
0.4556688666343689 0.5906257629394531 -0.06663471460342407
0.49972447752952576 0.847213089466095 0.058765213936567307
0.49981874227523804 0.8204942941665649 0.04880097135901451
0.4626956582069397 0.8166491985321045 0.051002100110054016
0.3745344281196594 0.7478399276733398 0.06628716737031937
0.4046896994113922 0.6394097208976746 -0.00958680547773838
0.39867183566093445 0.7756772041320801 0.06394228339195251
0.3499845862388611 0.6315732598304749 -0.0037937192246317863
0.3812742531299591 0.6601032614707947 0.0019531066063791513
0.32925838232040405 0.663631021976471 0.024989716708660126
0.45612919330596924 0.8421413898468018 0.06093694269657135
0.44053998589515686 0.5986058712005615 -0.04737815633416176
0.35755759477615356 0.764173686504364 0.09073588252067566
0.3880198001861572 0.7933871746063232 0.08666040003299713
0.3547285795211792 0.7185286283493042 0.056761812418699265
0.27592000365257263 0.6594331860542297 0.10176211595535278
0.32651573419570923 0.7203537225723267 0.07617358863353729
0.26499277353286743 0.6700760722160339 0.15707576274871826
0.36126282811164856 0.6830883026123047 0.021384211257100105
0.4567113220691681 0.5655825138092041 -0.05744566023349762
0.45905423164367676 0.6477031111717224 -0.0860583484172821
0.4424310326576233 0.6458967924118042 -0.05986066162586212
0.4709089398384094 0.6364256739616394 -0.10333000123500824
0.4394260048866272 0.4403047561645508 -0.057446956634521484
0.4009275436401367 0.42170313000679016 -0.06522725522518158
0.3671886920928955 0.41715240478515625 -0.06451299041509628
0.33975160121917725 0.4211098253726959 -0.055173762142658234
0.32139378786087036 0.43085023760795593 -0.04118746146559715
0.3097912669181824 0.4701026678085327 0.00045389201841317117
0.23764027655124664 0.5185035467147827 0.11179165542125702
0.32930028438568115 0.5082390904426575 -0.005463809240609407
0.3530919551849365 0.5186085104942322 -0.015196448192000389
0.38446006178855896 0.5201664566993713 -0.02171180211007595
0.4133302867412567 0.5151845812797546 -0.02628013864159584
0.4348301887512207 0.5083569288253784 -0.027631094679236412
0.44953852891921997 0.5026666522026062 -0.03058222308754921
0.2318301498889923 0.5037863850593567 0.18955540657043457
0.4416394829750061 0.6483856439590454 -0.04756352677941322
0.47374874353408813 0.5807398557662964 -0.08691570162773132
0.47676241397857666 0.6548264026641846 -0.10047812014818192
0.486839234828949 0.6640427112579346 -0.08716756850481033
0.4753914773464203 0.6560254096984863 -0.08927292376756668
0.4464636743068695 0.6532052159309387 -0.037322524935007095
0.4922564625740051 0.6677113771438599 -0.09196425974369049
0.49304836988449097 0.6693547368049622 -0.06407027691602707
0.4482593536376953 0.4831279516220093 -0.02781202830374241
0.46102175116539 0.4910885691642761 -0.037634335458278656
0.4688580632209778 0.4984118342399597 -0.049564920365810394
0.3415663540363312 0.4644845426082611 -0.02307894453406334
0.32563602924346924 0.45145779848098755 -0.02381977252662182
0.5308992266654968 0.5742330551147461 -0.10103810578584671
0.6610294580459595 0.4829963147640228 0.00046385879977606237
0.5348374247550964 0.6651715636253357 -0.06350097805261612
0.7356196641921997 0.37145286798477173 0.07385587692260742
0.599354088306427 0.5038036108016968 -0.02018827758729458
0.6199517250061035 0.5056845545768738 -0.01642976514995098
0.6404027938842773 0.5050772428512573 -0.009423472918570042
0.66865074634552 0.48924145102500916 0.007491900585591793
0.5823363065719604 0.49944257736206055 -0.020044293254613876
0.6318044662475586 0.4347223937511444 -0.039198990911245346
0.6073774695396423 0.4394518733024597 -0.04155639931559563
0.6543710827827454 0.4374070167541504 -0.02931935526430607
0.6688807010650635 0.44659796357154846 -0.018537549301981926
0.6840346455574036 0.5035096406936646 0.022824719548225403
0.5772221088409424 0.8210557699203491 0.08170653879642487
0.6690089702606201 0.47425997257232666 0.006458727177232504
0.7422472238540649 0.4763230085372925 0.11613932996988297
0.7063356637954712 0.48397937417030334 0.040133342146873474
0.6164481043815613 0.6098402142524719 -0.007186003029346466
0.5287876725196838 0.7231913805007935 -0.023824244737625122
0.5245439410209656 0.7327897548675537 -0.007506170775741339
0.5490515232086182 0.7246198654174805 -0.0068377903662621975
0.5620554685592651 0.7253714799880981 0.014389275573194027
0.5426059365272522 0.7308250665664673 0.003538049291819334
0.5555906295776367 0.729466438293457 0.021766886115074158
0.5993331670761108 0.7393597364425659 0.0647377073764801
0.5322079658508301 0.6610188484191895 -0.10665787011384964
0.5352693200111389 0.6380569934844971 -0.11880970746278763
0.6949589252471924 0.4222877621650696 -0.02008887752890587
0.5716625452041626 0.5515687465667725 -0.030398894101381302
0.5812186002731323 0.6365444660186768 -0.05212985724210739
0.5812327265739441 0.6211976408958435 -0.04863881319761276
0.6793621778488159 0.5984067916870117 0.022391457110643387
0.5335770845413208 0.6045099496841431 -0.11401117593050003
0.6484252214431763 0.40029916167259216 -0.06632985174655914
0.6763404607772827 0.40608757734298706 -0.04568525776267052
0.7195161581039429 0.33638817071914673 0.017819533124566078
0.556748628616333 0.42992067337036133 -0.08519600331783295
0.5866049528121948 0.4516744017601013 -0.03503720834851265
0.6178992986679077 0.7170207500457764 0.06334669142961502
0.7084612250328064 0.682282030582428 0.24986085295677185
0.5654110908508301 0.6510567665100098 -0.041761014610528946
0.5480268001556396 0.6598230004310608 -0.04091108590364456
0.5807055830955505 0.7258208394050598 0.060640428215265274
0.575473964214325 0.7271627187728882 0.05383814871311188
0.6861202716827393 0.3907274007797241 -0.04041730612516403
0.5814322233200073 0.6421254873275757 -0.037183910608291626
0.6105462312698364 0.40646129846572876 -0.080034039914608
0.6135402917861938 0.38860800862312317 -0.09064030647277832
0.6406968832015991 0.29134660959243774 -0.08541903644800186
0.7071666121482849 0.3695215880870819 -0.016991805285215378
0.6280624866485596 0.34503477811813354 -0.0906509980559349
0.7060656547546387 0.4116877317428589 -0.005685230251401663
0.7249516844749451 0.39707303047180176 0.02972458116710186
0.5271085500717163 0.7288912534713745 -0.017740128561854362
0.546099066734314 0.7279723882675171 -0.0018910964718088508
0.5592576265335083 0.727384090423584 0.016683684661984444
0.5605610013008118 0.6542424559593201 -0.03610251098871231
0.5779989957809448 0.7265250086784363 0.05693822726607323
0.5682992935180664 0.7347686290740967 0.04661610722541809
0.5730299949645996 0.727769672870636 0.053198035806417465
0.555681586265564 0.6519321799278259 -0.07471758872270584
0.5518898963928223 0.7310886383056641 0.026953501626849174
0.5388562083244324 0.7328778505325317 0.01485040970146656
0.5216467380523682 0.7353384494781494 0.005141007248312235
0.5296391844749451 0.7947050333023071 0.04040047898888588
0.5228474140167236 0.7740725874900818 0.016107434406876564
0.5231229066848755 0.7644880414009094 0.010530440136790276
0.5221954584121704 0.7548357248306274 0.01206186506897211
0.5206176042556763 0.7468748092651367 0.010717105120420456
0.5506358742713928 0.7367324829101562 0.0312952920794487
0.5543418526649475 0.7395730018615723 0.03119051083922386
0.5579426884651184 0.7437835335731506 0.030778026208281517
0.5605784058570862 0.7486167550086975 0.03669526055455208
0.5978491306304932 0.6924673914909363 0.014234108850359917
0.7320453524589539 0.5649807453155518 0.24174490571022034
0.560409426689148 0.7325594425201416 0.044374942779541016
0.5644615292549133 0.7334132790565491 0.04472813755273819
0.5396181344985962 0.6692498326301575 -0.03769295662641525
0.5742500424385071 0.6529191732406616 -0.01761528290808201
0.5438313484191895 0.6648485064506531 -0.04024967551231384
0.5927125215530396 0.5622020959854126 -0.01715041697025299
0.6285821199417114 0.576082170009613 -0.004972666967660189
0.5841026306152344 0.6280719637870789 -0.0332670733332634
0.690571129322052 0.30885887145996094 -0.037080347537994385
0.6767348051071167 0.3511813282966614 -0.05628752335906029
0.6553086638450623 0.38272231817245483 -0.06913112103939056
0.5815219879150391 0.7613350749015808 0.056690964847803116
0.5631060600280762 0.4005303382873535 -0.10249320417642593
0.5742172598838806 0.34507325291633606 -0.11033027619123459
0.5827490091323853 0.2825096845626831 -0.11399276554584503
0.6583549976348877 0.4998491406440735 6.629573908867314e-05
0.7057262659072876 0.5184221267700195 0.04042620584368706
0.5713558197021484 0.49502140283584595 -0.019624654203653336
0.6872673630714417 0.4554764926433563 0.0006316459039226174
0.557651162147522 0.5394451022148132 -0.04307379946112633
0.5689547657966614 0.6353604197502136 -0.07675343751907349
0.7266793847084045 0.5302183032035828 0.07149908691644669
0.6916983723640442 0.5363209843635559 0.026343319565057755
0.6647059917449951 0.5467522740364075 0.007664877455681562
0.6241437196731567 0.5436305403709412 -0.004436849150806665
0.5949063301086426 0.5346449613571167 -0.01359050814062357
0.5737701654434204 0.5257983207702637 -0.02377932146191597
0.5310501456260681 0.5149359107017517 -0.07868141680955887
0.7241859436035156 0.5794703960418701 0.08152420818805695
0.7021385431289673 0.4510993957519531 0.0094089824706316
0.5242370963096619 0.6699408292770386 -0.09328486025333405
0.5715690851211548 0.5785794258117676 -0.03218764439225197
0.7427510023117065 0.46088337898254395 0.18805725872516632
0.5576519966125488 0.5159785151481628 -0.032443027943372726
0.5849023461341858 0.6249620914459229 -0.011416268534958363
0.677054226398468 0.47356271743774414 0.011332140304148197
0.5686762928962708 0.6161603927612305 -0.07254952937364578
0.7238436937332153 0.6219896674156189 0.2511860132217407
0.5722445845603943 0.48757168650627136 -0.017793849110603333
0.5515619516372681 0.608587920665741 -0.0979110524058342
0.6676773428916931 0.7547410726547241 0.14985248446464539
0.6623281836509705 0.7732859253883362 0.19736777245998383
0.7383348941802979 0.5752004981040955 0.16098761558532715
0.6950252652168274 0.7204517722129822 0.1674756407737732
0.7347226738929749 0.43255993723869324 0.07781071215867996
0.5800829529762268 0.8415423631668091 0.1027011051774025
0.5211199522018433 0.6717701554298401 -0.061729829758405685
0.5899816155433655 0.5924453139305115 -0.01812935061752796
0.7233036756515503 0.4871552884578705 0.06302734464406967
0.6390316486358643 0.4929041862487793 -0.011756074614822865
0.6207162141799927 0.4940910339355469 -0.017727332189679146
0.5716339349746704 0.7364950180053711 0.05152161046862602
0.7196609973907471 0.6255154013633728 0.10509195178747177
0.541730523109436 0.8730320930480957 0.11531005054712296
0.6027157306671143 0.8327824473381042 0.15148304402828217
0.6299294233322144 0.8076720833778381 0.17179201543331146
0.6034629344940186 0.4922778606414795 -0.02047116309404373
0.5872999429702759 0.4895886182785034 -0.019471867009997368
0.5769224762916565 0.4886458218097687 -0.016993800178170204
0.715849757194519 0.4451519846916199 0.02970018982887268
0.5918799638748169 0.47044607996940613 -0.027964631095528603
0.6105796098709106 0.46204447746276855 -0.0314934067428112
0.6293113231658936 0.4595308303833008 -0.02915482223033905
0.6473903059959412 0.4617343246936798 -0.0217764712870121
0.6582142114639282 0.46666380763053894 -0.013286642730236053
0.7432860136032104 0.41050243377685547 0.13405834138393402
0.6518405675888062 0.48876267671585083 -0.0049861338920891285
0.5788257718086243 0.6852825880050659 -0.004757311660796404
0.5655738115310669 0.6498183608055115 -0.052267953753471375
0.5392597317695618 0.687082052230835 -0.029569976031780243
0.6366410255432129 0.7869372963905334 0.13843262195587158
0.6091933250427246 0.8139117360115051 0.12272429466247559
0.5434800982475281 0.8616319894790649 0.08430473506450653
0.6872973442077637 0.7335528135299683 0.2275342345237732
0.5785127878189087 0.4812059700489044 -0.02219782955944538
0.5454832911491394 0.5552825927734375 -0.07240743190050125
0.5748388171195984 0.8562803268432617 0.1298208236694336
0.7304350137710571 0.6263797879219055 0.1751578152179718
0.537610650062561 0.7419440150260925 0.02004176750779152
0.5407825112342834 0.7474756240844727 0.02057497948408127
0.5431949496269226 0.754765510559082 0.019785204902291298
0.5445544719696045 0.7632153630256653 0.025538919493556023
0.5588956475257874 0.7809184789657593 0.0469699390232563
0.565765917301178 0.7283644080162048 0.03870580345392227
0.5692638158798218 0.7268813848495483 0.038836028426885605
0.5721047520637512 0.7255071997642517 0.03774842247366905
0.6119808554649353 0.7027454376220703 0.03755473718047142
0.6946669220924377 0.6445197463035583 0.06371418386697769
0.5441267490386963 0.5260897874832153 -0.05974256992340088
0.5560315847396851 0.470581591129303 -0.03823881596326828
0.5690405368804932 0.4725183844566345 -0.028697242960333824
0.5619384050369263 0.7298439741134644 0.04159853607416153
0.6919789910316467 0.6943052411079407 0.1153729185461998
0.5362023711204529 0.4714902639389038 -0.06692527234554291
0.5687227845191956 0.7995526194572449 0.06490859389305115
0.5312510132789612 0.5461859703063965 -0.09295021742582321
0.5606157779693604 0.591690719127655 -0.060554105788469315
0.5350262522697449 0.8166203498840332 0.05459576100111008
0.6174718737602234 0.7489579916000366 0.08039213716983795
0.6016418933868408 0.6408336162567139 0.0010763440513983369
0.5948361158370972 0.7762268781661987 0.07492430508136749
0.6510006189346313 0.6344189643859863 0.01229114830493927
0.6202511191368103 0.6620514988899231 0.015376894734799862
0.6668308973312378 0.6665108799934387 0.0433591865003109
0.5411080718040466 0.8418837785720825 0.06546609103679657
0.5724959373474121 0.5997244119644165 -0.03980951011180878
0.633378267288208 0.7649558186531067 0.10638464987277985
0.6054816842079163 0.7937133312225342 0.09861382097005844
0.6378399133682251 0.720519483089447 0.07386463135480881
0.7117545008659363 0.6634960770606995 0.12606081366539001
0.6642636060714722 0.7223919630050659 0.09524863213300705
0.7174452543258667 0.6743929386138916 0.18307827413082123
0.6352239847183228 0.6854023337364197 0.03746766224503517
0.5581210255622864 0.5666983127593994 -0.05092119053006172
0.5625506043434143 0.6479091644287109 -0.08012807369232178
0.5749181509017944 0.6462476849555969 -0.05311891809105873
0.5535188913345337 0.6367408633232117 -0.09842246025800705
0.5733329653739929 0.4464055299758911 -0.04924112930893898
0.6079708933830261 0.427858829498291 -0.05383948236703873
0.6383896470069885 0.4224998950958252 -0.05009102821350098
0.6631120443344116 0.4260671138763428 -0.03749430924654007
0.6797787547111511 0.4365852177143097 -0.02129017375409603
0.689045250415802 0.47844886779785156 0.02179897576570511
0.7421835660934448 0.5255982875823975 0.14024892449378967
0.6729429960250854 0.5146217942237854 0.014228200539946556
0.6509166955947876 0.5227589011192322 0.0020805681124329567
0.6225926876068115 0.5226921439170837 -0.007449072785675526
0.5965498685836792 0.5176052451133728 -0.015005821362137794
0.57703697681427 0.5116105675697327 -0.019154412671923637
0.5634023547172546 0.5059753656387329 -0.023687241598963737
0.7369822263717651 0.5115072131156921 0.2217099964618683
0.5739145278930664 0.6487396955490112 -0.04095127806067467
0.5467860698699951 0.5814523100852966 -0.0821809470653534
0.5476895570755005 0.6547551155090332 -0.09680140763521194
0.5362095236778259 0.6639567613601685 -0.08498817682266235
0.5474693775177002 0.6561000347137451 -0.085441954433918
0.5684328079223633 0.6536709070205688 -0.03167620673775673
0.5315775871276855 0.6676614880561829 -0.09018424898386002
0.5288462042808533 0.6693169474601746 -0.06256716698408127
0.5643455982208252 0.48867905139923096 -0.020716428756713867
0.5525959730148315 0.4947664439678192 -0.03215979039669037
0.5450831055641174 0.4999408423900604 -0.04497874900698662
0.6644207835197449 0.4707632064819336 -0.004631681367754936
0.6773693561553955 0.45786285400390625 -0.004000137094408274
0.38075804710388184 0.46858152747154236 -0.02994106523692608
0.4031606614589691 0.46876996755599976 -0.02994106523692608
0.38114607334136963 0.4473103880882263 -0.02994106523692608
0.3578224182128906 0.46830999851226807 -0.02994106523692608
0.38012394309043884 0.4897909462451935 -0.02994106523692608
0.6248447299003601 0.4745984375476837 -0.015798944979906082
0.6473172903060913 0.47441092133522034 -0.015798944979906082
0.624871551990509 0.45418059825897217 -0.015798944979906082
0.6023241877555847 0.47468850016593933 -0.015798944979906082
0.6249092221260071 0.49509721994400024 -0.015798944979906082
