ply
format ascii 1.0
element vertex 478
property float x
property float y
property float z
end_header
0.4993378818035126 0.6941081881523132 -0.07185013592243195
0.5067042708396912 0.6049326658248901 -0.12676113843917847
0.5049360990524292 0.6302140951156616 -0.06763109564781189
0.48798513412475586 0.5286134481430054 -0.09303269535303116
0.5073443055152893 0.5806283950805664 -0.1340552717447281
0.5077285766601562 0.5498959422111511 -0.12369883805513382
0.5079155564308167 0.4785713851451874 -0.05893690884113312
0.33920836448669434 0.47953540086746216 0.03483213111758232
0.5079116821289062 0.4365440011024475 -0.043265119194984436
0.5081740021705627 0.4092288613319397 -0.04755874350667
0.5088415741920471 0.29267680644989014 -0.013584161177277565
0.49945327639579773 0.7046588659286499 -0.06902649253606796
0.4995846450328827 0.7155084609985352 -0.06101285293698311
0.4998888075351715 0.7229072451591492 -0.04849264398217201
0.5000008940696716 0.7227475047111511 -0.04814852401614189
0.5002223253250122 0.7340342402458191 -0.05058949813246727
0.5003378391265869 0.7476779818534851 -0.055821552872657776
0.5005146265029907 0.7626674175262451 -0.052532318979501724
0.5008029341697693 0.786426305770874 -0.0290580615401268
0.5061445236206055 0.6176110506057739 -0.1149967610836029
0.48360398411750793 0.6175692677497864 -0.08283080160617828
0.27002131938934326 0.40105727314949036 0.1496526598930359
0.40561622381210327 0.49771493673324585 0.011275874450802803
0.3837779462337494 0.5008545517921448 0.011823843233287334
0.3621000647544861 0.5006560683250427 0.01763741485774517
0.3318142294883728 0.4867207407951355 0.037318795919418335
0.42370980978012085 0.4918387532234192 0.01323690265417099
0.3685493469238281 0.4372445046901703 0.0023979891557246447
0.3951324224472046 0.4396352767944336 0.003218305530026555
0.3444068729877472 0.4408652186393738 0.009146262891590595
0.3292572498321533 0.44900497794151306 0.018691981211304665
0.31699174642562866 0.5012664198875427 0.047880254685878754
0.4141116738319397 0.8248000144958496 -0.005085194483399391
0.33065080642700195 0.47202733159065247 0.04211834445595741
0.25832462310791016 0.4990263283252716 0.152650848031044
0.2917131185531616 0.4856809377670288 0.07181397080421448
0.393440842628479 0.5918657183647156 -0.01518264226615429
0.47256237268447876 0.6877363324165344 -0.06882713735103607
0.47619178891181946 0.7143368721008301 -0.05790521577000618
0.446071058511734 0.6979048252105713 -0.055916573852300644
0.42869460582733154 0.7096970677375793 -0.03999930992722511
0.45571368932724 0.7160890102386475 -0.049477025866508484
0.4391307234764099 0.7197710871696472 -0.03452093154191971
0.40084391832351685 0.7479977607727051 -0.006051162723451853
0.487082839012146 0.6042224168777466 -0.12484434992074966
0.48452967405319214 0.5812215805053711 -0.1315493881702423
0.2988430857658386 0.43334096670150757 0.024361152201890945
0.4380427896976471 0.5314376950263977 -0.017426086589694023
0.43126288056373596 0.6009090542793274 -0.06629189848899841
0.42990830540657043 0.5887896418571472 -0.05856769159436226
0.32928526401519775 0.5926530957221985 0.01273879874497652
0.4862532913684845 0.5527291297912598 -0.11649095267057419
0.3516467809677124 0.41406506299972534 -0.017557183280587196
0.31946122646331787 0.4196596145629883 0.00021288252901285887
0.29041871428489685 0.35937774181365967 0.1041552871465683
0.45502641797065735 0.4330242872238159 -0.036128900945186615
0.4179043173789978 0.4486943781375885 0.010996022261679173
0.38541194796562195 0.726083517074585 0.00013626142754219472
0.27494674921035767 0.7183265686035156 0.20778511464595795
0.4485602080821991 0.613766610622406 -0.05665814131498337
0.4676075875759125 0.6205921769142151 -0.06076478585600853
0.4086798429489136 0.7294203042984009 -0.002815073588863015
0.41397756338119507 0.728568971157074 -0.009253147058188915
0.30732402205467224 0.40592795610427856 0.013220332562923431
0.4300829768180847 0.6126275062561035 -0.053599342703819275
0.39595678448677063 0.41726773977279663 -0.02979349158704281
0.39159369468688965 0.4003943204879761 -0.03403175249695778
0.37996578216552734 0.30443117022514343 0.01543502602726221
0.3044280707836151 0.3811730146408081 0.05185877904295921
0.39286157488822937 0.3486376106739044 -0.011263521388173103
0.286190927028656 0.42354369163513184 0.04586653411388397
0.282362699508667 0.4140382409095764 0.09408451616764069
0.4737917184829712 0.7023866176605225 -0.06627975404262543
0.45089322328567505 0.7078272104263306 -0.054063137620687485
0.4337240159511566 0.714920699596405 -0.039421942085027695
0.4543152153491974 0.6184514760971069 -0.05304456129670143
0.41143232583999634 0.7290456891059875 -0.006387150380760431
0.42200109362602234 0.7315852642059326 -0.02083347551524639
0.41689181327819824 0.728087842464447 -0.010208585299551487
0.4606211483478546 0.6041313409805298 -0.09009535610675812
0.44294461607933044 0.722922146320343 -0.02953687496483326
0.4593144655227661 0.7212839126586914 -0.03871601074934006
0.4784899652004242 0.7215462923049927 -0.046182118356227875
0.4714691638946533 0.7851939797401428 -0.02895152010023594
0.4731733202934265 0.7601785659790039 -0.05187448486685753
0.47416186332702637 0.7452682256698608 -0.05447894707322121
0.47593456506729126 0.7319000363349915 -0.04848043620586395
0.4785492718219757 0.7214265465736389 -0.045825835317373276
0.442982941865921 0.7230318784713745 -0.029193289577960968
0.4387288987636566 0.7281787395477295 -0.03249528631567955
0.43419358134269714 0.7348273992538452 -0.03612056374549866
0.4304964244365692 0.742996335029602 -0.032475851476192474
0.4111788868904114 0.6796734929084778 -0.031724609434604645
0.25345706939697266 0.6038660407066345 0.2475832998752594
0.5055652856826782 0.6235061883926392 -0.08397551625967026
0.4304349422454834 0.7253028750419617 -0.01836748979985714
0.4263300895690918 0.7282267808914185 -0.020593905821442604
0.47477471828460693 0.6299366354942322 -0.06197913736104965
0.43914595246315 0.6275230646133423 -0.03671226650476456
0.4713212251663208 0.6253522038459778 -0.062036383897066116
0.41449469327926636 0.5462257862091064 -0.00999751128256321
0.379280686378479 0.5633596181869507 -0.0044025843963027
0.42593950033187866 0.6003063917160034 -0.0454699769616127
0.32540470361709595 0.3261711895465851 0.05594239756464958
0.33974042534828186 0.3582655191421509 0.018040856346488
0.34356391429901123 0.3974236249923706 -0.011377216316759586
0.41913902759552 0.7620746493339539 -0.016692213714122772
0.446942538022995 0.4056490361690521 -0.04516177624464035
0.44708535075187683 0.34587275981903076 -0.027737969532608986
0.4392127990722656 0.29437255859375 -0.00805627927184105
0.34293633699417114 0.4961478114128113 0.027620144188404083
0.2960268259048462 0.5171309113502502 0.06066765636205673
0.4354035258293152 0.4864456355571747 0.016963869333267212
0.3094373941421509 0.4585586190223694 0.03850255161523819
0.45436903834342957 0.5155202150344849 -0.02582542411983013
0.44625526666641235 0.5905522704124451 -0.08921728283166885
0.27399927377700806 0.5386269092559814 0.08534933626651764
0.31187617778778076 0.5335238575935364 0.03889856114983559
0.34105056524276733 0.5420354604721069 0.01742367446422577
0.3832720220088959 0.536928117275238 0.006419014185667038
0.41359633207321167 0.5264689922332764 0.002224572701379657
0.43598926067352295 0.5160038471221924 -0.0038915988989174366
0.48543134331703186 0.48452043533325195 -0.050036296248435974
0.2782258987426758 0.5872829556465149 0.07686726748943329
0.2934575080871582 0.4567757844924927 0.04976778104901314
0.49430128931999207 0.6167168617248535 -0.11374283581972122
0.4394089877605438 0.5536324977874756 -0.027073482051491737
0.25292524695396423 0.501072347164154 0.23415718972682953
0.4531747102737427 0.5049317479133606 -0.006840293761342764
0.42468053102493286 0.6027540564537048 -0.021065782755613327
0.32189714908599854 0.4729725122451782 0.04601680859923363
0.44547754526138306 0.5761637687683105 -0.07964973151683807
0.2600992023944855 0.6596638560295105 0.2342655211687088
0.43474870920181274 0.4789612591266632 0.023782050237059593
0.46565568447113037 0.5617350339889526 -0.10253951698541641
0.3201257586479187 0.7716557383537292 0.0820855051279068
0.319254994392395 0.800226092338562 0.12295959144830704
0.2575652003288269 0.5964160561561584 0.16120445728302002
0.29656529426574707 0.7390407919883728 0.11223696917295456
0.27026671171188354 0.45292025804519653 0.13042500615119934
0.4066479206085205 0.8512641787528992 0.007521492894738913
0.49626341462135315 0.6225467324256897 -0.08245536684989929
0.4191337823867798 0.5723570585250854 -0.01884349249303341
0.2744067311286926 0.48893752694129944 0.09559138864278793
0.36222630739212036 0.4884260892868042 0.02099529840052128
0.3819373548030853 0.4892123341560364 0.01534859836101532
0.4179563820362091 0.7359426617622375 -0.017066244035959244
0.2830977737903595 0.6345722675323486 0.08289870619773865
0.4485875070095062 0.8858697414398193 0.014664135873317719
0.3775162398815155 0.8548030853271484 0.06040053814649582
0.34937599301338196 0.8326025605201721 0.08747594058513641
0.5083655118942261 0.346274733543396 -0.03202389180660248
0.4997751712799072 0.8897316455841064 0.008727657608687878
0.40052512288093567 0.4864974617958069 0.014576341025531292
0.417723149061203 0.4824689030647278 0.018028879538178444
0.42912760376930237 0.4805733859539032 0.02295873314142227
0.2789519429206848 0.45198914408683777 0.07406634837388992
0.4138907492160797 0.4630100131034851 0.015488729812204838
0.3940103352069855 0.45640242099761963 0.010423015803098679
0.3739129900932312 0.455325186252594 0.011145583353936672
0.35410669445991516 0.45872020721435547 0.01642616093158722
0.342189759016037 0.4640805125236511 0.024277053773403168
0.2592040002346039 0.44579294323921204 0.1975460946559906
0.3486120104789734 0.48454588651657104 0.028298597782850266
0.5040827393531799 0.6512491703033447 -0.06322009116411209
0.4315621256828308 0.6636530756950378 -0.042365822941064835
0.44865548610687256 0.6090437173843384 -0.06586996465921402
0.47301027178764343 0.6529143452644348 -0.06208432838320732
0.5077521204948425 0.4571295976638794 -0.04122033715248108
0.346049427986145 0.8038307428359985 0.05749320983886719
0.37430763244628906 0.8283976316452026 0.033621907234191895
0.4487634003162384 0.8667656183242798 -0.014902542345225811
0.2962501645088196 0.7649753093719482 0.16663691401481628
0.4280945062637329 0.4726372957229614 0.020125234499573708
0.4702039062976837 0.5197011232376099 -0.057703614234924316
0.5002546310424805 0.8704514503479004 -0.01987467147409916
0.4097267985343933 0.8733490109443665 0.03261394426226616
0.26472538709640503 0.6477155685424805 0.15620103478431702
0.45933377742767334 0.7212742567062378 -0.038437165319919586
0.455051988363266 0.7295440435409546 -0.04184696078300476
0.4517809748649597 0.7398029565811157 -0.046093329787254333
0.4494715929031372 0.7527838349342346 -0.043465059250593185
0.44204723834991455 0.7752665877342224 -0.02644355408847332
0.425675630569458 0.7239937782287598 -0.021601378917694092
0.42064228653907776 0.7222135663032532 -0.021928828209638596
0.4163397252559662 0.7198883295059204 -0.021824460476636887
0.3951796293258667 0.7014843225479126 -0.01639334298670292
0.31321144104003906 0.6447785496711731 0.03541092947125435
0.4702685475349426 0.4981168508529663 -0.036081258207559586
0.45309409499168396 0.4639131426811218 0.006912373472005129
0.43751779198646545 0.46574193239212036 0.015551507472991943
0.4306235909461975 0.7252358198165894 -0.018458489328622818
0.30826205015182495 0.7035123109817505 0.06897038221359253
0.4754541516304016 0.463897705078125 -0.02426675148308277
0.4277271032333374 0.799220085144043 -0.013727249577641487
0.5078720450401306 0.5247166752815247 -0.10090959072113037
0.48650267720222473 0.5069050788879395 -0.07362564653158188
0.5078991055488586 0.5016099810600281 -0.07884474843740463
0.45311471819877625 0.5567740797996521 -0.05784289538860321
0.5005229115486145 0.8436463475227356 -0.03201154246926308
0.5006343722343445 0.8128452301025391 -0.030159253627061844
0.46309325098991394 0.8110067844390869 -0.026213055476546288
0.37670212984085083 0.7575778961181641 0.007940021343529224
0.4069473147392273 0.6230244636535645 -0.01724941097199917
0.39940905570983887 0.781982421875 -0.0023445640690624714
0.3600373864173889 0.6210945248603821 -0.007476851809769869
0.38810744881629944 0.6482700705528259 -0.015610774047672749
0.3411136865615845 0.6615623235702515 0.009764192625880241
0.45385995507240295 0.8405640721321106 -0.02628975547850132
0.438387393951416 0.5711361169815063 -0.04129992425441742
0.3550911545753479 0.7759665846824646 0.030656738206744194
0.38380154967308044 0.8024227023124695 0.015539377927780151
0.36115461587905884 0.7278366684913635 0.011725004762411118
0.2884930372238159 0.6750860214233398 0.0902915820479393
0.3332587778568268 0.7303488850593567 0.036256901919841766
0.2757580280303955 0.69524085521698 0.14426375925540924
0.3714919686317444 0.6826050281524658 -0.006468708161264658
0.4551873803138733 0.5361478328704834 -0.04128944128751755
0.4535815119743347 0.600272536277771 -0.09463825821876526
0.43849363923072815 0.6080338358879089 -0.06914138048887253
0.46418148279190063 0.5844804644584656 -0.11213387548923492
0.43428128957748413 0.44584572315216064 -0.0005025822320021689
0.3960132598876953 0.43235108256340027 -0.006627007853239775
0.36201751232147217 0.4294179081916809 -0.006359923165291548
0.33462682366371155 0.43321555852890015 0.0026436641346663237
0.31649672985076904 0.4424966871738434 0.017505234107375145
0.3092169165611267 0.47899776697158813 0.05486523360013962
0.25432088971138 0.5470108985900879 0.15786045789718628
0.32923340797424316 0.5112046599388123 0.036064598709344864
0.3531113266944885 0.5180777311325073 0.021360935643315315
0.3826797902584076 0.5170273780822754 0.011731745675206184
0.4099715054035187 0.5106772184371948 0.009405110031366348
0.43084922432899475 0.5030697584152222 0.007842238992452621
0.44563451409339905 0.4962528944015503 0.0072372411377727985
0.2517376244068146 0.5525240898132324 0.2491363286972046
0.43876031041145325 0.6153899431228638 -0.05754479393362999
0.46995967626571655 0.5401391386985779 -0.07648427784442902
0.4702445864677429 0.6008792519569397 -0.11335043609142303
0.4823542535305023 0.6131772398948669 -0.10417830944061279
0.4701995551586151 0.6051696538925171 -0.10183601081371307
0.445760041475296 0.6230214834213257 -0.04972308501601219
0.4869346022605896 0.6151347160339355 -0.11056165397167206
0.4887918531894684 0.6210299134254456 -0.0826047733426094
0.442929208278656 0.4798768162727356 0.019867362454533577
0.45711979269981384 0.4848918914794922 0.004980775061994791
0.46600669622421265 0.48890307545661926 -0.013058032840490341
0.3356962502002716 0.46829354763031006 0.03199095278978348
0.32047808170318604 0.45906519889831543 0.0324660949409008
0.5272579789161682 0.5286397337913513 -0.09218885749578476
0.6664342880249023 0.47828590869903564 0.04130011424422264
0.5269793272018433 0.6177155375480652 -0.08212827891111374
0.7332403659820557 0.4041440784931183 0.15877662599086761
0.6003701090812683 0.49734437465667725 0.015616468153893948
0.6220923066139221 0.5005587339401245 0.016989227384328842
0.6435057520866394 0.5008856058120728 0.02346774935722351
0.6738018989562988 0.48557794094085693 0.04411403089761734
0.5824691653251648 0.49178946018218994 0.016755571588873863
0.6406039595603943 0.43361660838127136 0.007586102932691574
0.6136455535888672 0.4360142946243286 0.0073122079484164715
0.6640018820762634 0.43787211179733276 0.015175431966781616
0.6780111789703369 0.4468151926994324 0.02518474869430065
0.6883056163787842 0.5013241767883301 0.05543386936187744
0.586297869682312 0.8245499134063721 -0.0019373525865375996
0.6753939390182495 0.46968382596969604 0.04883914813399315
0.7441176772117615 0.5013495683670044 0.1628824770450592
0.7128795385360718 0.4844445586204529 0.0801883190870285
0.6137046813964844 0.5931256413459778 -0.010756472125649452
0.5261701941490173 0.6887571811676025 -0.06791199743747711
0.5233664512634277 0.715271532535553 -0.05705788731575012
0.5531792044639587 0.7001146674156189 -0.05394080653786659
0.5710521340370178 0.7124302983283997 -0.03725459799170494
0.5443497896194458 0.7177715301513672 -0.04786183312535286
0.5612341165542603 0.7220447659492493 -0.03220617398619652
0.599992036819458 0.7498818635940552 -0.0023760476615279913
0.5260190367698669 0.6044336557388306 -0.12425888329744339
0.5298061370849609 0.581366777420044 -0.13089247047901154
0.7064911127090454 0.4317522644996643 0.03218783810734749
0.5721157789230347 0.5317565202713013 -0.014584735967218876
0.5785649418830872 0.6016182899475098 -0.06373993307352066
0.5800276398658752 0.5893691182136536 -0.055970896035432816
0.6755645871162415 0.5946833491325378 0.020056404173374176
0.5287401080131531 0.5527898073196411 -0.11563173681497574
0.6580268144607544 0.41323456168174744 -0.011806294322013855
0.6879223585128784 0.41825070977211 0.007110320031642914
0.7167227268218994 0.3623449504375458 0.11227606236934662
0.5584209561347961 0.4338057041168213 -0.03399461880326271
0.5903317332267761 0.446133017539978 0.014393583871424198
0.6162086725234985 0.7284784913063049 0.004795821383595467
0.7174808979034424 0.7193461060523987 0.21635134518146515
0.5602606534957886 0.6144933104515076 -0.055000100284814835
0.5416126251220703 0.6212726831436157 -0.05986877530813217
0.5922778248786926 0.732649564743042 0.0011471998877823353
0.5871080160140991 0.7316460609436035 -0.005823384039103985
0.6997500658035278 0.40372908115386963 0.02048647031188011
0.5784381628036499 0.6134292483329773 -0.05105939134955406
0.616023063659668 0.41724908351898193 -0.025974106043577194
0.6207835078239441 0.4001345932483673 -0.030127335339784622
0.6348302960395813 0.3065985441207886 0.02005230076611042
0.7059222459793091 0.3820038139820099 0.059878651052713394
0.6223770380020142 0.3494320213794708 -0.006847435608506203
0.7188607454299927 0.4210542142391205 0.05427500233054161
0.7247645854949951 0.41529381275177 0.10306231677532196
0.5253127813339233 0.7033324837684631 -0.06537593901157379
0.5487022399902344 0.7097735404968262 -0.05229256674647331
0.5663096904754639 0.7173808813095093 -0.036983512341976166
0.5542152523994446 0.6191464066505432 -0.051544927060604095
0.5896007418632507 0.7321993112564087 -0.0028114626184105873
0.579228401184082 0.7346020340919495 -0.017951881512999535
0.5841453075408936 0.7310364842414856 -0.006846224423497915
0.550087034702301 0.6047181487083435 -0.08838464319705963
0.5576836466789246 0.724929928779602 -0.027366003021597862
0.5409972071647644 0.7227774858474731 -0.03716806322336197
0.5216209888458252 0.7224318981170654 -0.04530664533376694
0.5299930572509766 0.785698413848877 -0.028033126145601273
0.5280706286430359 0.7616836428642273 -0.05102419853210449
0.5264915823936462 0.746462345123291 -0.05360604450106621
0.5244407653808594 0.7329267263412476 -0.04771456867456436
0.5217463970184326 0.7222633957862854 -0.04506699740886688
0.5576298236846924 0.7250856757164001 -0.027126187458634377
0.5623454451560974 0.7306215167045593 -0.03042484261095524
0.567092776298523 0.737704873085022 -0.03383232280611992
0.5710972547531128 0.7462321519851685 -0.03000648133456707
0.5933679938316345 0.6816336512565613 -0.028572121635079384
0.7401332855224609 0.6066135764122009 0.2573254704475403
0.5704339146614075 0.7278072237968445 -0.015608986839652061
0.5746934413909912 0.7309855222702026 -0.017896730452775955
0.5343742370605469 0.6306493878364563 -0.0610492080450058
0.5683506727218628 0.6285119652748108 -0.034652575850486755
0.5378482937812805 0.6261135339736938 -0.06118733808398247
0.5941511392593384 0.5469194054603577 -0.006086730398237705
0.6281682252883911 0.5647549629211426 0.000872317876201123
0.5830299854278564 0.6010894179344177 -0.042744580656290054
0.6859952211380005 0.32891759276390076 0.06259261071681976
0.6735488772392273 0.3590083420276642 0.024433162063360214
0.6663756966590881 0.39586493372917175 -0.005620826501399279
0.5816863179206848 0.7632083892822266 -0.013696465641260147
0.5674046874046326 0.40632668137550354 -0.04299335926771164
0.5690606832504272 0.34643638134002686 -0.025437340140342712
0.5774790048599243 0.2956150472164154 -0.005822418257594109
0.6624922752380371 0.4960993528366089 0.03400115668773651
0.7095339298248291 0.5181123614311218 0.0689992681145668
0.5709934234619141 0.4868467450141907 0.020173491910099983
0.6960687041282654 0.45694461464881897 0.045996829867362976
0.5573422908782959 0.5155677795410156 -0.023585472255945206
0.5652143359184265 0.5911337733268738 -0.0871865525841713
0.7300996780395508 0.5408304333686829 0.09485044330358505
0.6938321590423584 0.5361196994781494 0.04676732048392296
0.6651391386985779 0.5456751585006714 0.024128451943397522
0.6233953833580017 0.5402370095252991 0.011569706723093987
0.5936344265937805 0.5291534662246704 0.006197564769536257
0.5721434950828552 0.5186823606491089 -0.0009797895327210426
0.5295370221138 0.48452478647232056 -0.049053072929382324
0.7243860960006714 0.5896023511886597 0.08630068600177765
0.7114144563674927 0.45520931482315063 0.05781903490424156
0.5177240371704102 0.6168714761734009 -0.1132509782910347
0.5703580379486084 0.5540671944618225 -0.024349398910999298
0.7447037100791931 0.5042202472686768 0.24449864029884338
0.5560193061828613 0.5078659057617188 -0.004539952147752047
0.5832267999649048 0.6035957932472229 -0.018159396946430206
0.6838206648826599 0.470771849155426 0.053310927003622055
0.5660495162010193 0.5765590667724609 -0.07754210382699966
0.7325446009635925 0.6615561246871948 0.2435796558856964
0.5720743536949158 0.4789171516895294 0.02712951973080635
0.5479291081428528 0.5619112849235535 -0.10100177675485611
0.6780375838279724 0.7715581655502319 0.08887655287981033
0.6759686470031738 0.7995098829269409 0.12958599627017975
0.7419885993003845 0.598265528678894 0.17124785482883453
0.7009915113449097 0.7394610047340393 0.12018561363220215
0.734161376953125 0.4549117684364319 0.14008447527885437
0.592936635017395 0.8504577279090881 0.010892479680478573
0.5147858262062073 0.6226840019226074 -0.08214197307825089
0.5890755653381348 0.5731868743896484 -0.015448168851435184
0.7294490933418274 0.48753035068511963 0.10472043603658676
0.6429780125617981 0.4880310893058777 0.026810437440872192
0.6234980225563049 0.4884698688983917 0.02046552486717701
0.58348548412323 0.7391166090965271 -0.013933083042502403
0.7177460193634033 0.6365011930465698 0.09203118085861206
0.5507758855819702 0.8855035305023193 0.0163900014013052
0.6202776432037354 0.8533338904380798 0.06447940319776535
0.6475526094436646 0.8312493562698364 0.09275911748409271
0.6052596569061279 0.4855295717716217 0.019039873033761978
0.5881864428520203 0.48170292377471924 0.0219841580837965
0.5770683288574219 0.4803618788719177 0.026553235948085785
0.725128173828125 0.44935572147369385 0.08285285532474518
0.5941477417945862 0.4601259231567383 0.019304370507597923
0.6142070293426514 0.4516981244087219 0.014880409464240074
0.6346914768218994 0.45026707649230957 0.016238480806350708
0.6542157530784607 0.4542827010154724 0.022152336314320564
0.6652129888534546 0.4606306850910187 0.030515845865011215
0.7410447597503662 0.4489738345146179 0.20745162665843964
0.6568020582199097 0.48393920063972473 0.034515656530857086
0.5746161937713623 0.6651501059532166 -0.03980635851621628
0.5606786608695984 0.609801709651947 -0.06408432126045227
0.534824550151825 0.6537468433380127 -0.06107092276215553
0.6524714827537537 0.8032888770103455 0.06306634098291397
0.6244794726371765 0.8274877667427063 0.03796076402068138
0.5517391562461853 0.8664695024490356 -0.01304903905838728
0.6975324153900146 0.7649921178817749 0.1742067039012909
0.5791046023368835 0.47183701395988464 0.023685272783041
0.5434311032295227 0.5197678804397583 -0.05624761804938316
0.589005708694458 0.8722386360168457 0.035590704530477524
0.7331761121749878 0.6491212844848633 0.16586826741695404
0.5411294102668762 0.7227335572242737 -0.036866240203380585
0.5456703305244446 0.731407105922699 -0.040319111198186874
0.5493464469909668 0.7420327067375183 -0.044450584799051285
0.5522880554199219 0.7554540038108826 -0.0417318120598793
0.5589191317558289 0.7758957743644714 -0.02428502030670643
0.5751272439956665 0.7265901565551758 -0.0187990739941597
0.5798183083534241 0.7250224947929382 -0.01884508691728115
0.584037721157074 0.7228076457977295 -0.018500495702028275
0.6077893972396851 0.7038670182228088 -0.012226269580423832
0.6889164447784424 0.6466484069824219 0.043209489434957504
0.5430673360824585 0.49817728996276855 -0.03451373428106308
0.5566703677177429 0.464083731174469 0.008804037235677242
0.57040935754776 0.46501046419143677 0.01869368553161621
0.5704708099365234 0.727687656879425 -0.015507745556533337
0.6915842294692993 0.7046928405761719 0.07671456784009933
0.5366061329841614 0.4655609726905823 -0.02302100881934166
0.5729026198387146 0.7993654608726501 -0.011119071394205093
0.5286380052566528 0.5068871378898621 -0.07288014143705368
0.5583953261375427 0.5571728944778442 -0.05591950938105583
0.5381153225898743 0.8111515641212463 -0.024982953444123268
0.6238678097724915 0.7588585019111633 0.012385232374072075
0.599513590335846 0.6241965889930725 -0.013774867169559002
0.6009203195571899 0.7824887037277222 0.001161950291134417
0.6450316309928894 0.6227412223815918 -0.001632023137062788
0.6169102787971497 0.6498985886573792 -0.011279250495135784
0.6617836356163025 0.6633378267288208 0.01623442769050598
0.5472544431686401 0.8406330943107605 -0.0245888140052557
0.5712898969650269 0.5716543197631836 -0.03888661041855812
0.6447997093200684 0.7763068079948425 0.03590967878699303
0.6160587072372437 0.8022260665893555 0.019653858616948128
0.6402173042297363 0.7297767996788025 0.017201432958245277
0.7112839818000793 0.6765726804733276 0.09896858036518097
0.6670414209365845 0.731408953666687 0.04270857572555542
0.7215226888656616 0.6962312459945679 0.1533978432416916
0.6318457126617432 0.6847808361053467 -0.001433472498320043
0.5563927888870239 0.5364281535148621 -0.039148714393377304
0.5574412941932678 0.6008523106575012 -0.09275289624929428
0.5710258483886719 0.6088142991065979 -0.0670430138707161
0.5487644672393799 0.5848549604415894 -0.11076536774635315
0.5758998394012451 0.44500473141670227 0.002040337072685361
0.6141499280929565 0.43048688769340515 -0.002657444216310978
0.6475569605827332 0.4275517761707306 -0.0009230118012055755
0.67360520362854 0.4316478669643402 0.009105104021728039
0.6900662183761597 0.4410410523414612 0.024713343009352684
0.6957495212554932 0.47764673829078674 0.06255269795656204
0.746504545211792 0.5491419434547424 0.16836634278297424
0.675880491733551 0.5122459530830383 0.0431581512093544
0.6523244380950928 0.5198715329170227 0.02753780223429203
0.6230642795562744 0.5183113813400269 0.016801951453089714
0.5962651968002319 0.5114884376525879 0.013480129651725292
0.576137363910675 0.5040538311004639 0.010951392352581024
0.5622576475143433 0.49751055240631104 0.009818361140787601
0.7433488368988037 0.5556174516677856 0.25935930013656616
0.5698093175888062 0.6161425709724426 -0.05543269217014313
0.5437439680099487 0.540251612663269 -0.07503610849380493
0.5419113039970398 0.6012580990791321 -0.11213568598031998
0.5287870764732361 0.6133790612220764 -0.10340066999197006
0.5410646796226501 0.6056304574012756 -0.10054545104503632
0.5623071789741516 0.6237503290176392 -0.047860898077487946
0.5247544050216675 0.6153369545936584 -0.10990749299526215
0.5218338370323181 0.6211276054382324 -0.08211451768875122
0.5641219615936279 0.48027700185775757 0.022752493619918823
0.5518279671669006 0.48616665601730347 0.0070519461296498775
0.5441370010375977 0.49161460995674133 -0.011412689462304115
0.6710667610168457 0.46553659439086914 0.038504526019096375
0.6855060458183289 0.4570778012275696 0.03936053439974785
0.37873387336730957 0.46937793493270874 0.02192598208785057
0.4026605486869812 0.46806100010871887 0.02192598208785057
0.3779151141643524 0.4495643079280853 0.02192598208785057
0.3545879125595093 0.47059231996536255 0.02192598208785057
0.37942230701446533 0.4892429709434509 0.02192598208785057
0.6288966536521912 0.46756255626678467 0.026994934305548668
0.6525339484214783 0.46843767166137695 0.026994934305548668
0.629663348197937 0.4473119080066681 0.026994934305548668
0.6050378084182739 0.4665139317512512 0.026994934305548668
0.6281383037567139 0.48787540197372437 0.026994934305548668
