ply
format ascii 1.0
element vertex 478
property float x
property float y
property float z
end_header
0.5164151787757874 0.7109033465385437 -0.04777461662888527
0.5316439270973206 0.6505399942398071 -0.1291077435016632
0.5247002243995667 0.666971743106842 -0.06374657899141312
0.5041788220405579 0.5663737058639526 -0.11286437511444092
0.5317275524139404 0.6260309815406799 -0.14022192358970642
0.5287489295005798 0.5919358730316162 -0.13573214411735535
0.517975926399231 0.5071069002151489 -0.08739544451236725
0.3299647867679596 0.4806228578090668 -0.015941329300403595
0.5128488540649414 0.45263731479644775 -0.08082011342048645
0.5116632580757141 0.4225429892539978 -0.09073910862207413
0.5038260221481323 0.2908099293708801 -0.08840661495923996
0.5164097547531128 0.7180108428001404 -0.04305889457464218
0.5159802436828613 0.7249870896339417 -0.035564668476581573
0.515408992767334 0.7291353344917297 -0.024792317301034927
0.5147842168807983 0.7820334434509277 -0.005308934953063726
0.5158427357673645 0.7899191379547119 -0.0075025856494903564
0.5165676474571228 0.8001767992973328 -0.010457728989422321
0.5168792009353638 0.8126727938652039 -0.003609974402934313
0.5179605484008789 0.8429758548736572 0.020383084192872047
0.5297717452049255 0.661469578742981 -0.11551439017057419
0.5006448030471802 0.6584217548370361 -0.0850292295217514
0.23249436914920807 0.39384424686431885 0.05706682801246643
0.4069148898124695 0.4976666569709778 -0.027231192216277122
0.3825579285621643 0.5007253885269165 -0.028908438980579376
0.3571288287639618 0.5019363164901733 -0.026311926543712616
0.3205961287021637 0.4886791408061981 -0.012807455845177174
0.42627158761024475 0.4931796193122864 -0.023353228345513344
0.36153143644332886 0.4455445110797882 -0.047307778149843216
0.39141708612442017 0.4468972682952881 -0.04306742548942566
0.334824800491333 0.44929566979408264 -0.04270871728658676
0.3181387782096863 0.45672607421875 -0.03431902453303337
0.30295079946517944 0.5045883655548096 -0.0017054455820471048
0.42006438970565796 0.867563009262085 0.049130406230688095
0.31844937801361084 0.4743713140487671 -0.010800682939589024
0.22635570168495178 0.4991655945777893 0.08740130811929703
0.2731960415840149 0.48956823348999023 0.014515356160700321
0.3882748782634735 0.612238883972168 -0.033713530749082565
0.4773016571998596 0.7063546180725098 -0.049718622118234634
0.47846588492393494 0.7226073145866394 -0.035049404948949814
0.43825292587280273 0.7089357376098633 -0.036588720977306366
0.41105401515960693 0.712445855140686 -0.013445449061691761
0.4459123909473419 0.7206997275352478 -0.025350328534841537
0.42052239179611206 0.720466136932373 -0.004653820767998695
0.38343989849090576 0.7638517618179321 0.039660483598709106
0.510562539100647 0.6499707698822021 -0.12920668721199036
0.5076735615730286 0.6261287927627563 -0.1399737149477005
0.28645581007003784 0.44670891761779785 -0.04174072667956352
0.4405654966831207 0.5525637865066528 -0.042636215686798096
0.439004123210907 0.6319484114646912 -0.07905013859272003
0.43585965037345886 0.6173006892204285 -0.07348421216011047
0.31318771839141846 0.6050731539726257 -0.015584319829940796
0.5061469674110413 0.5942898988723755 -0.13143588602542877
0.3472529351711273 0.42977118492126465 -0.07667525112628937
0.31035280227661133 0.4348840117454529 -0.0636235699057579
0.2601759433746338 0.35517418384552 0.00914501491934061
0.4625190794467926 0.44660723209381104 -0.0805879458785057
0.41691553592681885 0.4539588689804077 -0.032210174947977066
0.3636457622051239 0.7310114502906799 0.0339365117251873
0.2426820695400238 0.726701021194458 0.19538551568984985
0.4567059874534607 0.6466957330703735 -0.06531728804111481
0.4784761071205139 0.6547377705574036 -0.06318054348230362
0.3761845827102661 0.7225472331047058 0.036618899554014206
0.3826313018798828 0.724322497844696 0.0327121801674366
0.297687828540802 0.42094850540161133 -0.05678810924291611
0.43437767028808594 0.6391083598136902 -0.06410757452249527
0.3974319398403168 0.431956946849823 -0.08268065005540848
0.39202290773391724 0.414469838142395 -0.09187455475330353
0.36494430899620056 0.3035591244697571 -0.07296548783779144
0.28606587648391724 0.3869192600250244 -0.027736661955714226
0.38638636469841003 0.35639864206314087 -0.08318784087896347
0.27290934324264526 0.43452322483062744 -0.026495110243558884
0.2573550343513489 0.4169636368751526 0.014032182283699512
0.47736021876335144 0.7150166034698486 -0.044361621141433716
0.4420887529850006 0.7150854468345642 -0.03087289072573185
0.41582709550857544 0.7165574431419373 -0.01033748872578144
0.46154001355171204 0.6502918004989624 -0.059241022914648056
0.379468709230423 0.723383367061615 0.034587252885103226
0.39679908752441406 0.7480947375297546 0.027461625635623932
0.38554900884628296 0.725322425365448 0.0323321595788002
0.475641131401062 0.644888162612915 -0.09985427558422089
0.42445844411849976 0.7230042219161987 -0.00039319758070632815
0.4495633542537689 0.7241418957710266 -0.015126757323741913
0.48008590936660767 0.7268449068069458 -0.024648942053318024
0.47668981552124023 0.8401327133178711 0.01908903755247593
0.4779304563999176 0.8101155757904053 -0.005032804794609547
0.47852280735969543 0.7975842356681824 -0.010750290006399155
0.4797361195087433 0.7874197363853455 -0.0074423919431865215
0.48142123222351074 0.7803340554237366 -0.005389664322137833
0.4266340732574463 0.7612157464027405 0.014117377810180187
0.42283493280410767 0.7637724876403809 0.012407525442540646
0.4175924062728882 0.7693350315093994 0.01178700290620327
0.4141475260257721 0.7766703367233276 0.01732947863638401
0.39936983585357666 0.6959275007247925 -0.013706307858228683
0.21462410688400269 0.600000262260437 0.1991540789604187
0.5274300575256348 0.6651228070259094 -0.0826740562915802
0.40774744749069214 0.7472869157791138 0.02665172517299652
0.40220004320144653 0.7467652559280396 0.026189902797341347
0.48721572756767273 0.6638670563697815 -0.06064039096236229
0.4400496184825897 0.6509578824043274 -0.041806891560554504
0.48310381174087524 0.6594865918159485 -0.06309184432029724
0.4147443175315857 0.5637478232383728 -0.03553318604826927
0.3743092119693756 0.5784704685211182 -0.03232509270310402
0.4289749562740326 0.6256136298179626 -0.058596935123205185
0.30280011892318726 0.32416832447052 -0.03614438697695732
0.32764896750450134 0.3658745586872101 -0.05882663652300835
0.33822423219680786 0.4124504327774048 -0.07690820097923279
0.40700259804725647 0.7944536805152893 0.03345407918095589
0.45373785495758057 0.4180479645729065 -0.09507770091295242
0.4441607594490051 0.3534635603427887 -0.0927228108048439
0.4295702278614044 0.29332152009010315 -0.08982312679290771
0.33438557386398315 0.497773677110672 -0.01981194131076336
0.2774672508239746 0.5210160613059998 0.011081648990511894
0.4378044903278351 0.48887506127357483 -0.02018146961927414
0.29596391320228577 0.4660279154777527 -0.019165247678756714
0.45890012383461 0.5397520065307617 -0.05199727788567543
0.4595486521720886 0.6281256079673767 -0.10219122469425201
0.2525256872177124 0.5456599593162537 0.03568997606635094
0.29588890075683594 0.5388244986534119 -0.0042124418541789055
0.32865041494369507 0.5493307113647461 -0.01917910762131214
0.37727415561676025 0.545345664024353 -0.025375092402100563
0.41215455532073975 0.5350766181945801 -0.027163906022906303
0.4365208148956299 0.5255841016769409 -0.03250653296709061
0.4944789707660675 0.5127683877944946 -0.08031708747148514
0.25398463010787964 0.594473659992218 0.03877339884638786
0.27761054039001465 0.4644259214401245 -0.013202468864619732
0.5164980888366699 0.6608834266662598 -0.11582567542791367
0.44165730476379395 0.5776691436767578 -0.04814857989549637
0.21029391884803772 0.4907056987285614 0.15820634365081787
0.4553271234035492 0.515649139881134 -0.036577023565769196
0.42379796504974365 0.624056875705719 -0.03311925381422043
0.30920541286468506 0.476166695356369 -0.007752163801342249
0.4561033844947815 0.6100611090660095 -0.09531800448894501
0.22362595796585083 0.6608647108078003 0.2023247331380844
0.43502670526504517 0.480792373418808 -0.016073865815997124
0.481678307056427 0.6004717946052551 -0.11840011924505234
0.3079867959022522 0.7952653169631958 0.105600506067276
0.3057909309864044 0.8244063258171082 0.14550913870334625
0.22513866424560547 0.6009318232536316 0.1183483749628067
0.27377402782440186 0.7587617039680481 0.11771775782108307
0.2405192255973816 0.45363447070121765 0.056049834936857224
0.41719603538513184 0.8938767910003662 0.06409730017185211
0.5166968703269958 0.6643111705780029 -0.08212897926568985
0.41798725724220276 0.5927694439888 -0.038639094680547714
0.2531682550907135 0.4916585683822632 0.03482912853360176
0.35872870683670044 0.48704883456230164 -0.02506202831864357
0.38127636909484863 0.48669886589050293 -0.02799764648079872
0.39239197969436646 0.7505903840065002 0.030866563320159912
0.25437748432159424 0.6447526216506958 0.058073990046978
0.46332624554634094 0.929774284362793 0.07767321169376373
0.382561057806015 0.8894011378288269 0.107821986079216
0.3473127782344818 0.8622206449508667 0.1251957267522812
0.5079536437988281 0.3530932664871216 -0.09042908251285553
0.5158936977386475 0.9326847791671753 0.07860337197780609
0.4013017416000366 0.48406118154525757 -0.026838554069399834
0.4195382297039032 0.48132750391960144 -0.02226664498448372
0.430589884519577 0.48094871640205383 -0.017185771837830544
0.26157766580581665 0.4573037624359131 0.006121804937720299
0.4124092757701874 0.465290367603302 -0.027921970933675766
0.3898206949234009 0.45898985862731934 -0.03537994250655174
0.3670496940612793 0.45825350284576416 -0.037101395428180695
0.3444954454898834 0.4619547724723816 -0.033743638545274734
0.331057071685791 0.4673432409763336 -0.027006955817341805
0.21726858615875244 0.43637967109680176 0.1108502745628357
0.34225255250930786 0.48457014560699463 -0.02056925930082798
0.5234653949737549 0.6829988956451416 -0.052817873656749725
0.42851734161376953 0.6852070093154907 -0.03316046670079231
0.4587852656841278 0.6446254849433899 -0.07564587146043777
0.48324987292289734 0.6831066012382507 -0.05345853045582771
0.5141866207122803 0.47754141688346863 -0.07515811920166016
0.3446313738822937 0.8319785594940186 0.09800378978252411
0.379032164812088 0.8629704713821411 0.0833892971277237
0.46445363759994507 0.9142067432403564 0.04923448711633682
0.2721690833568573 0.7822389602661133 0.1708400696516037
0.4275885224342346 0.47480833530426025 -0.02137293852865696
0.4800938069820404 0.5516610145568848 -0.08143078535795212
0.5182428359985352 0.9180545806884766 0.051025014370679855
0.4202893078327179 0.9137803316116333 0.08822543919086456
0.2310146540403366 0.6563015580177307 0.12733004987239838
0.4521945118904114 0.772955060005188 0.0024035447277128696
0.4483594298362732 0.7781334519386292 0.0006607304676435888
0.44520559906959534 0.7868216633796692 -0.00017628463683649898
0.4435626268386841 0.7984588742256165 0.005728102754801512
0.4367976188659668 0.8218271732330322 0.023924164474010468
0.3981921672821045 0.7215548157691956 0.014425934292376041
0.3938238024711609 0.719246506690979 0.013791054487228394
0.39000430703163147 0.7167407274246216 0.01196755189448595
0.37615248560905457 0.7102881669998169 0.00943687092512846
0.28910189867019653 0.6592090129852295 0.019333364441990852
0.4771580696105957 0.5249866247177124 -0.06453883647918701
0.45785653591156006 0.4701000452041626 -0.031730420887470245
0.4392191171646118 0.4696335792541504 -0.025261951610445976
0.40269139409065247 0.7232809662818909 0.017365189269185066
0.2837631404399872 0.7207949161529541 0.06960631161928177
0.4816076457500458 0.4749186038970947 -0.06129283457994461
0.4274320900440216 0.8416629433631897 0.038164351135492325
0.5250501036643982 0.5629839897155762 -0.1182866021990776
0.4994259774684906 0.5409853458404541 -0.09852244704961777
0.5216062068939209 0.5361721515655518 -0.10177834331989288
0.46102219820022583 0.5874941349029541 -0.07681075483560562
0.518938422203064 0.8941740989685059 0.03512616455554962
0.5183428525924683 0.8657733201980591 0.02864678017795086
0.4717482030391693 0.8624340295791626 0.029777944087982178
0.3679288923740387 0.7758423089981079 0.050595566630363464
0.4030786156654358 0.6429612636566162 -0.024787185713648796
0.3942047953605652 0.8118269443511963 0.04744631424546242
0.3472553491592407 0.6409626007080078 -0.021700259298086166
0.37943705916404724 0.6673967838287354 -0.013607900589704514
0.3242895305156708 0.6785377264022827 0.006309968885034323
0.46692702174186707 0.890177845954895 0.03486570343375206
0.4420337677001953 0.5971536040306091 -0.05873589217662811
0.3509978652000427 0.8001922369003296 0.07032889127731323
0.38424116373062134 0.8353482484817505 0.06480985879898071
0.34735605120658875 0.7385586500167847 0.0390840508043766
0.2594437897205353 0.6884979605674744 0.07766370475292206
0.31763458251953125 0.7486521005630493 0.05557306483387947
0.24565744400024414 0.7090974450111389 0.1311577558517456
0.35659050941467285 0.6936229467391968 0.00470928568392992
0.46125587821006775 0.5645623803138733 -0.06350363790988922
0.4683338403701782 0.6406460404396057 -0.10580530762672424
0.44741326570510864 0.6413564085960388 -0.07934395968914032
0.48316729068756104 0.6271562576293945 -0.12348996102809906
0.4377967417240143 0.4540088176727295 -0.0436641126871109
0.3949011266231537 0.4430451989173889 -0.054907433688640594
0.3564218282699585 0.44096097350120544 -0.058168891817331314
0.3250538408756256 0.44442951679229736 -0.05213506892323494
0.3047995865345001 0.4526529908180237 -0.03956238925457001
0.2943592965602875 0.48338818550109863 -0.00021655143063981086
0.2232891023159027 0.5493801236152649 0.1034369021654129
0.31756532192230225 0.5149276256561279 -0.009432505816221237
0.3450762629508972 0.5226094126701355 -0.018993956968188286
0.37946707010269165 0.5211973190307617 -0.024042636156082153
0.4103713631629944 0.5147363543510437 -0.0241305660456419
0.4329524636268616 0.5082715153694153 -0.02440783381462097
0.44878652691841125 0.5027919411659241 -0.025000184774398804
0.2111341655254364 0.5441500544548035 0.1854676902294159
0.4451426863670349 0.6450530290603638 -0.06664010137319565
0.4828719198703766 0.57547527551651 -0.09662465751171112
0.49014702439308167 0.6456039547920227 -0.12099754810333252
0.5011027455329895 0.6563389897346497 -0.1075691357254982
0.48755672574043274 0.6481560468673706 -0.10914173722267151
0.44979745149612427 0.6506636738777161 -0.055881232023239136
0.507648229598999 0.6592278480529785 -0.11299314349889755
0.5075072050094604 0.6624216437339783 -0.08350183069705963
0.4448932111263275 0.4833346903324127 -0.017996162176132202
0.4611704647541046 0.49200332164764404 -0.02931814081966877
0.46997714042663574 0.4996110796928406 -0.045012399554252625
0.32363447546958923 0.4714096486568451 -0.02025192230939865
0.3081236481666565 0.46531879901885986 -0.021559014916419983
0.5439999103546143 0.565050482749939 -0.10659576207399368
0.6608090400695801 0.4790381193161011 0.029443690553307533
0.5514172315597534 0.6564890146255493 -0.08013041317462921
0.7195518612861633 0.3853159546852112 0.12695376574993134
0.600186824798584 0.49896734952926636 0.002250152640044689
0.6214513182640076 0.4998055696487427 0.006391654256731272
0.6423940658569336 0.49939286708831787 0.014376931823790073
0.6692720055580139 0.4869043827056885 0.03535459563136101
0.5822809338569641 0.496249258518219 -0.0001261975703528151
0.6359792947769165 0.44722187519073486 -0.01047834474593401
0.6104902625083923 0.44958263635635376 -0.014030884020030499
0.6579405665397644 0.4500270485877991 -0.00022478932805825025
0.6712012887001038 0.45663854479789734 0.011518527753651142
0.6867974996566772 0.5001692771911621 0.05027424171566963
0.6037849187850952 0.8563140630722046 0.07048936933279037
0.6690616011619568 0.47434037923812866 0.03676833584904671
0.7345775365829468 0.48704758286476135 0.15796169638633728
0.7083905935287476 0.4851030111312866 0.0726003646850586
0.6336028575897217 0.6048463582992554 -0.0037228844594210386
0.5529071688652039 0.7055922746658325 -0.04159567132592201
0.5506742000579834 0.7213905453681946 -0.027415288612246513
0.5854145288467407 0.7069748044013977 -0.01981572061777115
0.6062901616096497 0.7089928984642029 0.009583884850144386
0.5776561498641968 0.7183903455734253 -0.010580089874565601
0.5972611904144287 0.7171123027801514 0.015083079226315022
0.6310849189758301 0.7536210417747498 0.06894536316394806
0.5509582757949829 0.6483988761901855 -0.12522836029529572
0.5537526607513428 0.6244783997535706 -0.13522453606128693
0.6984082460403442 0.44241005182266235 0.012919190339744091
0.5813823938369751 0.5483192205429077 -0.023096267133951187
0.6024056673049927 0.6266250014305115 -0.06079592555761337
0.6017125844955444 0.6120364665985107 -0.05465436354279518
0.695304274559021 0.5936604738235474 0.03406868129968643
0.5494399070739746 0.5927605628967285 -0.1252945065498352
0.6515544652938843 0.4275556802749634 -0.038474369794130325
0.6802787780761719 0.4314500093460083 -0.015988962724804878
0.7031227350234985 0.3480067551136017 0.07175535708665848
0.5578343868255615 0.45113688707351685 -0.06798653304576874
0.5881857872009277 0.4579230844974518 -0.008654500357806683
0.648795485496521 0.7200450897216797 0.06904244422912598
0.7134639620780945 0.7071412205696106 0.26102158427238464
0.5854148268699646 0.6423424482345581 -0.051798101514577866
0.5664867162704468 0.6522142887115479 -0.05632083863019943
0.6312798261642456 0.7157047390937805 0.06745973974466324
0.6245405673980713 0.7178868055343628 0.06026700511574745
0.6891812086105347 0.41639620065689087 -0.006086739711463451
0.6031421422958374 0.6337892413139343 -0.046126995235681534
0.6110973954200745 0.43234819173812866 -0.056637730449438095
0.6148691773414612 0.41405951976776123 -0.06503783166408539
0.6282384395599365 0.3000640869140625 -0.03757437691092491
0.694368839263916 0.37788236141204834 0.028022706508636475
0.6185206174850464 0.35150453448295593 -0.05261385068297386
0.7072009444236755 0.4296555519104004 0.03192868083715439
0.7128000855445862 0.40704959630966187 0.07735566794872284
0.5525444746017456 0.7140827775001526 -0.03628712147474289
0.5818281769752502 0.713047981262207 -0.015140918083488941
0.6021941304206848 0.7130827903747559 0.010886170901358128
0.5802228450775146 0.6463590860366821 -0.04824359342455864
0.6279528141021729 0.7167420387268066 0.06330616772174835
0.6153503060340881 0.7412374019622803 0.052054863423109055
0.621398389339447 0.7190712094306946 0.05914713814854622
0.5743714570999146 0.6413590908050537 -0.08743476122617722
0.5926883816719055 0.7195166945457458 0.018536727875471115
0.5733979940414429 0.7216839790344238 -0.001047915080562234
0.5479267239570618 0.7256519794464111 -0.0167249608784914
0.5557299256324768 0.837062418460846 0.026705939322710037
0.5535721182823181 0.8075805902481079 0.00352268572896719
0.5520755052566528 0.79500412940979 -0.0017080770339816809
0.5494141578674316 0.7848955988883972 0.0013122864766046405
0.5459697842597961 0.7779965400695801 0.002944854088127613
0.5899718999862671 0.7558323740959167 0.033175405114889145
0.5949225425720215 0.7579973340034485 0.031639184802770615
0.6007626056671143 0.7629759311676025 0.031695395708084106
0.6047409772872925 0.7699214220046997 0.038460154086351395
0.6260035037994385 0.6884296536445618 0.012476524338126183
0.7286373972892761 0.5850098729133606 0.2720813751220703
0.6038051843643188 0.7412443161010742 0.050338417291641235
0.6098268628120422 0.7403630018234253 0.04994122311472893
0.5586987137794495 0.6620227098464966 -0.0538606122136116
0.5957205891609192 0.646155059337616 -0.027485866099596024
0.5625324845314026 0.6573855876922607 -0.05650261044502258
0.6041855216026306 0.5580779910087585 -0.009341494180262089
0.6418108940124512 0.5706474781036377 0.0031612298917025328
0.6053030490875244 0.620159387588501 -0.039126280695199966
0.6751065254211426 0.31872403621673584 0.014761783182621002
0.6644593477249146 0.3584696054458618 -0.014111295342445374
0.657520592212677 0.40917521715164185 -0.036816198378801346
0.6125990152359009 0.7856674790382385 0.05769050121307373
0.5647701025009155 0.4222239553928375 -0.08160313218832016
0.5683270692825317 0.3510189652442932 -0.07692473381757736
0.5734439492225647 0.29156914353370667 -0.07203899323940277
0.6594462394714355 0.49486926198005676 0.02561088837683201
0.7093057036399841 0.5141957402229309 0.06862960755825043
0.5711641311645508 0.49307483434677124 0.0005543180741369724
0.6896674633026123 0.463765025138855 0.033283546566963196
0.5660052299499512 0.5363857746124268 -0.036314330995082855
0.5886473059654236 0.623853325843811 -0.08742708712816238
0.7309674620628357 0.5325132608413696 0.10070178657770157
0.6977170705795288 0.5309569835662842 0.04995070770382881
0.6729961633682251 0.5418998599052429 0.027137411758303642
0.632286787033081 0.5415716767311096 0.010135745629668236
0.6014404892921448 0.5344504117965698 -9.393356594955549e-05
0.5796902179718018 0.5269114375114441 -0.012179311364889145
0.5387479662895203 0.5114330649375916 -0.07373324781656265
0.735450804233551 0.5802981853485107 0.10362972319126129
0.7044707536697388 0.46038901805877686 0.044264037162065506
0.5419737696647644 0.659761369228363 -0.11258567869663239
0.5855860710144043 0.5734219551086426 -0.02937200851738453
0.7298104763031006 0.4793616831302643 0.23325465619564056
0.5635497570037842 0.5179480910301208 -0.020782651379704475
0.6055053472518921 0.6185304522514343 -0.013604105450212955
0.6775889992713928 0.475477010011673 0.0421890951693058
0.5873563885688782 0.6058291792869568 -0.08029604703187943
0.7249361872673035 0.6433550715446472 0.2720368504524231
0.5712576508522034 0.4851689040660858 0.005475813988596201
0.5684646964073181 0.5975044965744019 -0.10749736428260803
0.684024453163147 0.7752841711044312 0.15345755219459534
0.674643337726593 0.8020309209823608 0.19454564154148102
0.743269681930542 0.5854992270469666 0.18894612789154053
0.7088080644607544 0.7390956878662109 0.17414315044879913
0.7238112688064575 0.44312044978141785 0.12358655035495758
0.6047707796096802 0.880660891532898 0.08690392225980759
0.5377331376075745 0.6635529398918152 -0.08010963350534439
0.6057997941970825 0.5872486233711243 -0.015431473031640053
0.7226487398147583 0.48675301671028137 0.09865086525678635
0.6396107077598572 0.4849022328853607 0.014828262850642204
0.6213906407356262 0.4859767258167267 0.007282376755028963
0.6197699904441833 0.7433605790138245 0.05706218257546425
0.7349748611450195 0.6291931867599487 0.12099209427833557
0.5637542605400085 0.9219874143600464 0.09059393405914307
0.6231644153594971 0.8708357214927673 0.13951197266578674
0.646742582321167 0.8407428860664368 0.1649520844221115
0.6034712791442871 0.48520177602767944 0.0033466743770986795
0.586215078830719 0.4844292998313904 0.0036687490064650774
0.5755881071090698 0.4852410554885864 0.006049764342606068
0.7152475714683533 0.45262789726257324 0.06816132366657257
0.5917870402336121 0.4703819751739502 -0.0014821457443758845
0.6109862327575684 0.464261919260025 -0.004544631578028202
0.6303273439407349 0.46291089057922363 -0.0012857129331678152
0.6482819318771362 0.46526089310646057 0.007002474740147591
0.6590762138366699 0.46923887729644775 0.01670479215681553
0.7279168367385864 0.42650681734085083 0.18431146442890167
0.6519666910171509 0.4821796417236328 0.022753043100237846
0.6046227812767029 0.6796713471412659 -0.013169272802770138
0.5853970050811768 0.6402298808097839 -0.06277591735124588
0.5606479048728943 0.680777907371521 -0.045145951211452484
0.6563825011253357 0.8130089640617371 0.1368270367383957
0.631231427192688 0.8457574844360352 0.11411228030920029
0.5675034523010254 0.9071030020713806 0.061603058129549026
0.6956740617752075 0.7609162926673889 0.22940340638160706
0.5780316591262817 0.4793332815170288 0.002350359223783016
0.5564053058624268 0.549255907535553 -0.0709293931722641
0.5975403785705566 0.8997024893760681 0.11151861399412155
0.7393538951873779 0.6392233967781067 0.19505226612091064
0.5705915093421936 0.7688337564468384 0.016956740990281105
0.5758020877838135 0.7735331058502197 0.015710458159446716
0.5802319049835205 0.7817867994308472 0.015670761466026306
0.5831160545349121 0.7932628393173218 0.022068548947572708
0.5892834663391113 0.8152649402618408 0.04192482307553291
0.6129578351974487 0.7166451811790466 0.03888680040836334
0.6177291870117188 0.7141600251197815 0.04038410633802414
0.6215969324111938 0.7115797400474548 0.040077049285173416
0.6420391798019409 0.7010148763656616 0.04200828820466995
0.7132319808006287 0.6451656818389893 0.07297800481319427
0.5517126321792603 0.5227863192558289 -0.05347432196140289
0.5568616986274719 0.474680095911026 -0.01792457513511181
0.5691566467285156 0.47412240505218506 -0.005261604208499193
0.6079885959625244 0.7185571193695068 0.04116985574364662
0.7101551294326782 0.7039228677749634 0.12327592074871063
0.5413275361061096 0.47976329922676086 -0.05302842706441879
0.596548855304718 0.8324992060661316 0.05722540616989136
0.5417000651359558 0.5395256280899048 -0.09294559806585312
0.576039731502533 0.5840468406677246 -0.06302383542060852
0.5606513023376465 0.8577425479888916 0.03866501897573471
0.6434491276741028 0.7630734443664551 0.08381718397140503
0.6222896575927734 0.6360190510749817 -6.094468699302524e-05
0.6222405433654785 0.8000271916389465 0.07370399683713913
0.6697551012039185 0.630735456943512 0.016992056742310524
0.6418529152870178 0.6588261723518372 0.017453832551836967
0.6864352822303772 0.6659289002418518 0.05052534490823746
0.5664570331573486 0.8842786550521851 0.04643547907471657
0.589695394039154 0.5927137136459351 -0.04146803170442581
0.655950665473938 0.783921480178833 0.10771920531988144
0.6299399137496948 0.820644199848175 0.09355023503303528
0.6623440980911255 0.7257983684539795 0.07916668802499771
0.7280972003936768 0.6715714335441589 0.13770289719104767
0.6848139762878418 0.7323936223983765 0.1011650562286377
0.7282856702804565 0.6906009912490845 0.19556385278701782
0.6585253477096558 0.6833608746528625 0.04174334183335304
0.5702105164527893 0.561326265335083 -0.048652347177267075
0.5818678736686707 0.6365765929222107 -0.09236716479063034
0.5957715511322021 0.6363555788993835 -0.06392928957939148
0.572301983833313 0.6239209175109863 -0.11281333118677139
0.5737987160682678 0.4576478898525238 -0.024823514744639397
0.6102901101112366 0.44434258341789246 -0.027249768376350403
0.6423355340957642 0.440833181142807 -0.021783236414194107
0.6675091981887817 0.443393737077713 -0.008041970431804657
0.683262825012207 0.45091208815574646 0.009739461354911327
0.690677285194397 0.48070862889289856 0.05301991477608681
0.7410765886306763 0.5355586409568787 0.17581599950790405
0.67625892162323 0.5103161334991455 0.03950820863246918
0.655389130115509 0.5182418823242188 0.023677263408899307
0.6268324851989746 0.5191296339035034 0.01110071036964655
0.599670946598053 0.5153629183769226 0.0036545635666698217
0.5792908072471619 0.5107263326644897 -0.003460686421021819
0.5656048059463501 0.5060073137283325 -0.007845986634492874
0.728561282157898 0.5312356352806091 0.2606593370437622
0.5950000286102295 0.640119194984436 -0.051427096128463745
0.5605757236480713 0.5729854702949524 -0.08584579080343246
0.5665159225463867 0.6424961686134338 -0.11252105981111526
0.5533008575439453 0.6540927886962891 -0.1026177927851677
0.5655533671379089 0.6451552510261536 -0.10041145980358124
0.589251697063446 0.646221399307251 -0.04301735386252403
0.5492138862609863 0.6574125289916992 -0.10894713550806046
0.545520544052124 0.6608525514602661 -0.08003444224596024
0.5644054412841797 0.4878818988800049 -2.5980514692491852e-05
0.5548110008239746 0.49598461389541626 -0.01578085869550705
0.5507447719573975 0.5031017065048218 -0.03382467105984688
0.6651005148887634 0.47229158878326416 0.025425128638744354
0.6788705587387085 0.4645015001296997 0.02696755714714527
0.3711566925048828 0.47285011410713196 -0.024094657972455025
0.3968229293823242 0.4722501039505005 -0.024094657972455025
0.36980703473091125 0.45277491211891174 -0.024094657972455025
0.3453679084777832 0.47341322898864746 -0.024094657972455025
0.37234312295913696 0.49283483624458313 -0.024094657972455025
0.6255629062652588 0.47216376662254333 0.010861685499548912
0.6507313847541809 0.4708881378173828 0.010861685499548912
0.6241291761398315 0.4515005648136139 0.010861685499548912
0.5999478697776794 0.4734113812446594 0.010861685499548912
0.6269291043281555 0.492797315120697 0.010861685499548912
