ply
format ascii 1.0
element vertex 478
property float x
property float y
property float z
end_header
0.49889451265335083 0.6858476400375366 -0.0632946565747261
0.48440003395080566 0.6364116072654724 -0.13744215667247772
0.4902506470680237 0.6545300483703613 -0.07297377288341522
0.46834319829940796 0.550848126411438 -0.10534602403640747
0.4837952256202698 0.6104066371917725 -0.1465698778629303
0.4853070378303528 0.5760051608085632 -0.13820025324821472
0.49155595898628235 0.4928504526615143 -0.07675716280937195
0.33650439977645874 0.4799026846885681 0.04060887545347214
0.49380233883857727 0.4383823275566101 -0.06295014917850494
0.4940843880176544 0.4064027667045593 -0.06927435845136642
0.4985564351081848 0.2741265594959259 -0.04841017723083496
0.4990512728691101 0.6943856477737427 -0.05986307933926582
0.4997861385345459 0.7031943202018738 -0.05299345776438713
0.5006973147392273 0.7085369825363159 -0.04298454523086548
0.4989565312862396 0.7653591632843018 -0.02372811734676361
0.4983396828174591 0.7747527360916138 -0.02779058739542961
0.49800872802734375 0.7869126200675964 -0.03236812725663185
0.4981980323791504 0.8007724285125732 -0.026954051107168198
0.49843746423721313 0.8299523591995239 -0.004283591639250517
0.48616448044776917 0.648486852645874 -0.12449599802494049
0.4640347957611084 0.6451199650764465 -0.08891645073890686
0.25964874029159546 0.3909199833869934 0.15979425609111786
0.4002332091331482 0.50234454870224 0.011275182478129864
0.37800872325897217 0.503095269203186 0.01481353398412466
0.3563641607761383 0.5018172264099121 0.022991320118308067
0.3276021480560303 0.4879183769226074 0.04578430578112602
0.4191836714744568 0.4994305372238159 0.010426206514239311
0.36526596546173096 0.43832066655158997 0.002545383758842945
0.39152318239212036 0.44266778230667114 0.00017270610260311514
0.34159576892852783 0.44132351875305176 0.012462136335670948
0.3268699645996094 0.4498554468154907 0.024117624387145042
0.3096809983253479 0.502444326877594 0.059790801256895065
0.4103895425796509 0.8526363372802734 0.0377328023314476
0.32824480533599854 0.473244845867157 0.04918556660413742
0.25063157081604004 0.49662941694259644 0.17432881891727448
0.2856428027153015 0.48670879006385803 0.08551155775785446
0.3743925094604492 0.6008166074752808 -0.008143902756273746
0.4626081585884094 0.6814349293708801 -0.057353485375642776
0.4661986529827118 0.7016859650611877 -0.0454871766269207
0.42981621623039246 0.688016414642334 -0.037078358232975006
0.4087722599506378 0.696092426776886 -0.009259391576051712
0.4396199584007263 0.7019215822219849 -0.02935440093278885
0.419994592666626 0.7047504186630249 -0.004610105417668819
0.383014053106308 0.7524280548095703 0.04449145123362541
0.46451205015182495 0.6353554129600525 -0.13378223776817322
0.46142578125 0.6100306510925293 -0.14193134009838104
0.29692554473876953 0.4315868020057678 0.0306051317602396
0.4270861744880676 0.5426335334777832 -0.01907392404973507
0.41151806712150574 0.6187607645988464 -0.06807077676057816
0.41177964210510254 0.604300856590271 -0.060484644025564194
0.30683374404907227 0.5934464931488037 0.030345113947987556
0.46452370285987854 0.5782128572463989 -0.12818843126296997
0.3481390178203583 0.4115445613861084 -0.019796285778284073
0.3173367381095886 0.4166697859764099 0.0027474614325910807
0.2778496742248535 0.34753504395484924 0.1072690486907959
0.44751909375190735 0.4402930736541748 -0.05023045837879181
0.4141019582748413 0.45425140857696533 0.005815357901155949
0.3640657663345337 0.7198135256767273 0.04728470370173454
0.28806525468826294 0.7277281880378723 0.2492675930261612
0.428983211517334 0.6342028379440308 -0.059385061264038086
0.4483706057071686 0.6422273516654968 -0.06462555378675461
0.3855852484703064 0.7150874137878418 0.045967310667037964
0.39210575819015503 0.715853214263916 0.03876578062772751
0.306723415851593 0.40196943283081055 0.015502644702792168
0.4101647734642029 0.6266791224479675 -0.05395616218447685
0.39073845744132996 0.41826748847961426 -0.038010336458683014
0.3872004449367523 0.39991533756256104 -0.04434238746762276
0.3648907542228699 0.2883646786212921 -0.00037151837022975087
0.29095757007598877 0.37402909994125366 0.05457135662436485
0.37736237049102783 0.33845117688179016 -0.024840066209435463
0.2856619954109192 0.42095932364463806 0.052421439439058304
0.2709193527698517 0.4082241654396057 0.10230812430381775
0.4635605812072754 0.6922119855880737 -0.053406380116939545
0.4344511032104492 0.6954820156097412 -0.03345970809459686
0.4141298830509186 0.7006765007972717 -0.008634109981358051
0.4340718686580658 0.6377832293510437 -0.05581381544470787
0.3888559341430664 0.7154748439788818 0.042003970593214035
0.4003012776374817 0.7379698753356934 0.0290133785456419
0.39519500732421875 0.7163066267967224 0.037763215601444244
0.440650075674057 0.6317608952522278 -0.09515455365180969
0.4252881109714508 0.7072405815124512 -0.0017470710445195436
0.44445568323135376 0.7058113813400269 -0.02061360515654087
0.4696308970451355 0.706890881061554 -0.03563523292541504
0.46050745248794556 0.8263719081878662 0.001198007259517908
0.4616432785987854 0.7977235317230225 -0.02068520151078701
0.4628077745437622 0.7839105129241943 -0.024525851011276245
0.46542423963546753 0.7719418406486511 -0.01967470534145832
0.46917271614074707 0.7635566592216492 -0.01611585170030594
0.4259144365787506 0.7473565936088562 0.012823759578168392
0.4206041097640991 0.7507412433624268 0.009632772766053677
0.41418418288230896 0.7570996880531311 0.007925487123429775
0.4098414182662964 0.7650261521339417 0.01369461975991726
0.38569003343582153 0.6838830709457397 -0.003410306992009282
0.2619406282901764 0.6055215001106262 0.28012946248054504
0.4880443811416626 0.6523313522338867 -0.09162882715463638
0.41254717111587524 0.7355177998542786 0.02934829704463482
0.40611210465431213 0.7359262704849243 0.0277099609375
0.4563210606575012 0.6511422395706177 -0.0636274442076683
0.41785669326782227 0.639022946357727 -0.03569862246513367
0.45245328545570374 0.6468684077262878 -0.06531930714845657
0.4020083546638489 0.5542437434196472 -0.007468728814274073
0.36232489347457886 0.5677217245101929 0.0031583874952048063
0.40751269459724426 0.6133249998092651 -0.04551994800567627
0.31102055311203003 0.3122047483921051 0.05118654668331146
0.3246857523918152 0.349501371383667 0.013162187300622463
0.34153783321380615 0.39369213581085205 -0.015227886848151684
0.4016677737236023 0.7810518145561218 0.03141722455620766
0.44029298424720764 0.41062992811203003 -0.06092248857021332
0.4323729872703552 0.3358093798160553 -0.04871717840433121
0.4251285195350647 0.2768014073371887 -0.034092340618371964
0.3379037380218506 0.49691808223724365 0.03496803715825081
0.28653377294540405 0.517666757106781 0.07667098939418793
0.43128272891044617 0.4958111345767975 0.012158228084445
0.306401789188385 0.4594610333442688 0.04758615791797638
0.44327372312545776 0.5285873413085938 -0.03063426911830902
0.42594462633132935 0.6140260100364685 -0.0942462831735611
0.2629951238632202 0.5385453701019287 0.10743993520736694
0.30065855383872986 0.5339142680168152 0.05459810420870781
0.32849735021591187 0.5435654520988464 0.030250374227762222
0.37122565507888794 0.5416710376739502 0.01399957574903965
0.40317749977111816 0.5340415239334106 0.005067032761871815
0.4267314672470093 0.5254223942756653 -0.0053870161063969135
0.47041186690330505 0.49868935346603394 -0.06392503529787064
0.2632826268672943 0.5866183638572693 0.1035076454281807
0.2901490330696106 0.45666688680648804 0.05998850241303444
0.47364988923072815 0.647352397441864 -0.12186472117900848
0.42505955696105957 0.5667866468429565 -0.029214486479759216
0.2513119578361511 0.4947047531604767 0.2572113275527954
0.44439396262168884 0.5153524875640869 -0.012119829654693604
0.4066149592399597 0.6127930879592896 -0.01914641447365284
0.31916704773902893 0.47456657886505127 0.054741889238357544
0.426885724067688 0.596210777759552 -0.08520980179309845
0.2710348069667816 0.6649128794670105 0.27066105604171753
0.43091124296188354 0.48842084407806396 0.01843845285475254
0.44555389881134033 0.5851808786392212 -0.11137458682060242
0.3250812888145447 0.7829145193099976 0.1296725571155548
0.33431878685951233 0.8142857551574707 0.16892871260643005
0.2526988089084625 0.5983978509902954 0.19214576482772827
0.2980010509490967 0.7500754594802856 0.15555796027183533
0.26003924012184143 0.44865262508392334 0.1451835185289383
0.4088138937950134 0.8781722187995911 0.05130685865879059
0.47768139839172363 0.6512961983680725 -0.08925161510705948
0.4031641483306885 0.5821227431297302 -0.01738293096423149
0.26810693740844727 0.48962071537971497 0.11229521781206131
0.3585389256477356 0.48791325092315674 0.024547532200813293
0.377584844827652 0.4898838400840759 0.016941742971539497
0.39577773213386536 0.7409353852272034 0.033558182418346405
0.26711416244506836 0.6370245814323425 0.11409646272659302
0.45063430070877075 0.9159883260726929 0.05133131518959999
0.38835608959198 0.8754130601882935 0.10592375695705414
0.363858699798584 0.8490518927574158 0.1348421275615692
0.4960230886936188 0.33673495054244995 -0.06093050539493561
0.49946048855781555 0.922874391078949 0.039473988115787506
0.3962447941303253 0.48951178789138794 0.013740774244070053
0.41412439942359924 0.4885595440864563 0.01519690826535225
0.4256739616394043 0.48887157440185547 0.018648309633135796
0.27593111991882324 0.4512367844581604 0.08576468378305435
0.4093051552772522 0.4694945514202118 0.011588677763938904
0.38959765434265137 0.4602794051170349 0.008191639557480812
0.3698574900627136 0.45715779066085815 0.01105940155684948
0.3506101667881012 0.45965561270713806 0.019096095114946365
0.3390744924545288 0.4651377201080322 0.02866734191775322
0.25146928429603577 0.43708518147468567 0.21397267282009125
0.34554457664489746 0.4843032658100128 0.03320164605975151
0.4922308921813965 0.6698741912841797 -0.06359460204839706
0.4088703691959381 0.6727839112281799 -0.026575330644845963
0.42905837297439575 0.6319039463996887 -0.06979168206453323
0.454841285943985 0.6693183183670044 -0.05708719789981842
0.4935648441314697 0.4644286632537842 -0.06036221981048584
0.3541807234287262 0.8183108568191528 0.10802923142910004
0.3810873031616211 0.8476641178131104 0.08155296742916107
0.44773685932159424 0.8996007442474365 0.02420705556869507
0.31053659319877625 0.7778725624084473 0.21000780165195465
0.4238888621330261 0.48120447993278503 0.015543106012046337
0.4545834958553314 0.5377221703529358 -0.06692686676979065
0.49788185954093933 0.9060803055763245 0.013822566717863083
0.41541624069213867 0.899081826210022 0.07457147538661957
0.2613197863101959 0.6532896161079407 0.1907169669866562
0.44517654180526733 0.7571653127670288 -0.0028390386141836643
0.4394867718219757 0.7634615302085876 -0.005871349014341831
0.4348495900630951 0.7733672857284546 -0.007811578456312418
0.4320456385612488 0.786149799823761 -0.0028049114625900984
0.42583051323890686 0.8076285123825073 0.01529798936098814
0.40378236770629883 0.7093318700790405 0.018453413620591164
0.3985484838485718 0.7073286771774292 0.01995084621012211
0.39423829317092896 0.7048010230064392 0.01992874965071678
0.36933422088623047 0.698775053024292 0.023543449118733406
0.29087790846824646 0.6485421061515808 0.06295540928840637
0.45756304264068604 0.512205183506012 -0.04553450644016266
0.4474722743034363 0.473025381565094 -0.003199218539521098
0.43343716859817505 0.4744035005569458 0.009099016897380352
0.40895915031433105 0.7104463577270508 0.02017994411289692
0.29597246646881104 0.7107670307159424 0.10717210918664932
0.46708977222442627 0.473888635635376 -0.03898852318525314
0.4183986186981201 0.8272681832313538 0.02775402180850506
0.4874778091907501 0.5475722551345825 -0.11635297536849976
0.4692251980304718 0.5259705185890198 -0.08712136000394821
0.4894665479660034 0.521165132522583 -0.0953705757856369
0.4364911913871765 0.5745770335197449 -0.06404892355203629
0.4972139000892639 0.8813589811325073 0.0009383839787915349
0.4978219270706177 0.8528969287872314 -0.0010888465913012624
0.4552232325077057 0.8483251929283142 0.00834650918841362
0.36928853392601013 0.7632216215133667 0.05855901539325714
0.3887025713920593 0.6318451762199402 -0.007846321910619736
0.3918793797492981 0.7981873750686646 0.045578133314847946
0.3367333710193634 0.6283590197563171 0.00871990341693163
0.36780524253845215 0.6557514071464539 0.0057920734398067
0.3201785087585449 0.6662149429321289 0.03747459873557091
0.4489007890224457 0.8757926225662231 0.0119675537571311
0.4226464629173279 0.585621178150177 -0.04404687508940697
0.3555462062358856 0.7862791419029236 0.08096153289079666
0.38356974720954895 0.8202020525932312 0.06301698088645935
0.3487473130226135 0.7265803217887878 0.05757157504558563
0.27595794200897217 0.6807233691215515 0.12575885653495789
0.32447493076324463 0.7358078360557556 0.08038098365068436
0.2757677435874939 0.7044775485992432 0.1838105469942093
0.35061585903167725 0.6819918155670166 0.026250438764691353
0.44086796045303345 0.5522668361663818 -0.046559255570173264
0.4330093264579773 0.6269487738609314 -0.09984029829502106
0.4183935523033142 0.6283911466598511 -0.071743443608284
0.4425615072250366 0.6117945909500122 -0.1194140613079071
0.42921769618988037 0.45225661993026733 -0.008819603361189365
0.3916396498680115 0.4343233108520508 -0.010930494405329227
0.35835808515548706 0.4289357364177704 -0.006244513671845198
0.33176809549331665 0.4323466718196869 0.006822052411735058
0.31414198875427246 0.44229406118392944 0.024620527401566505
0.30496519804000854 0.48036736249923706 0.06578215211629868
0.24891334772109985 0.5470139980316162 0.1855558454990387
0.3215136229991913 0.5124353766441345 0.04733402281999588
0.34449076652526855 0.5202016830444336 0.030722802504897118
0.3743878901004791 0.5209473371505737 0.017803121358156204
0.40255802869796753 0.5171036720275879 0.011004581116139889
0.4243736267089844 0.5118412971496582 0.005605111364275217
0.43934667110443115 0.506278395652771 0.0021688237320631742
0.2566469609737396 0.5498936176300049 0.27762266993522644
0.4187878370285034 0.6324874758720398 -0.0592925138771534
0.45180797576904297 0.5608828663825989 -0.08564795553684235
0.4484947621822357 0.6309301853179932 -0.12060558050870895
0.46198776364326477 0.6424558758735657 -0.11142243444919586
0.4495028257369995 0.6343746185302734 -0.1084527000784874
0.42464983463287354 0.6383848786354065 -0.051087602972984314
0.4661945104598999 0.645377516746521 -0.11820483952760696
0.46980389952659607 0.6491434574127197 -0.08899403363466263
0.4387018084526062 0.4900251030921936 0.012820432893931866
0.45076286792755127 0.49541568756103516 -0.003822402562946081
0.4576277732849121 0.49959439039230347 -0.022892897948622704
0.3327511250972748 0.4696160554885864 0.03760193660855293
0.31810206174850464 0.4603849947452545 0.03957962989807129
0.5082968473434448 0.5508098602294922 -0.11018970608711243
0.6681197881698608 0.48470577597618103 0.005201290361583233
0.5142761468887329 0.6449654698371887 -0.09258851408958435
0.7832398414611816 0.38980618119239807 0.10447968542575836
0.6039865016937256 0.5066280961036682 -0.01188644114881754
0.6272594332695007 0.507339358329773 -0.01283881813287735
0.6503005027770996 0.505328893661499 -0.00892267469316721
0.6801429986953735 0.49241113662719727 0.008030101656913757
0.5841439366340637 0.5020793676376343 -0.00784891564399004
0.6367393732070923 0.4428107738494873 -0.026659885421395302
0.6098508238792419 0.4454629123210907 -0.023056522011756897
0.6618338823318481 0.44675472378730774 -0.0210272204130888
0.6780943870544434 0.45533430576324463 -0.012024113908410072
0.7045767903327942 0.506220281124115 0.019070858135819435
0.59347003698349 0.8560796976089478 0.020704466849565506
0.6768415570259094 0.47867852449417114 0.011987801641225815
0.7923436164855957 0.49801141023635864 0.11916669458150864
0.7349641919136047 0.4909924864768982 0.039965078234672546
0.6257559061050415 0.6006940603256226 -0.03201534226536751
0.537423849105835 0.67992103099823 -0.0637563169002533
0.5363802909851074 0.7006194591522217 -0.051641736179590225
0.5765267610549927 0.6852357983589172 -0.050217412412166595
0.6022157073020935 0.6923486590385437 -0.027262341231107712
0.5677170753479004 0.7000347971916199 -0.04124709591269493
0.5915993452072144 0.7019432783126831 -0.02027810923755169
0.6303260922431946 0.7521709203720093 0.021083349362015724
0.5056540369987488 0.6354483962059021 -0.1367987096309662
0.5075109601020813 0.6099988222122192 -0.1455894410610199
0.7139051556587219 0.4377656579017639 -0.012405674904584885
0.5702284574508667 0.5424123406410217 -0.03450128808617592
0.574537456035614 0.6182128190994263 -0.08200710266828537
0.5764852166175842 0.6036595702171326 -0.07492560148239136
0.7033094167709351 0.5940441489219666 -0.009032062254846096
0.5076916217803955 0.5780746936798096 -0.1329139620065689
0.6515289545059204 0.41601330041885376 -0.04984040558338165
0.687437891960144 0.42254579067230225 -0.03489231318235397
0.7534525394439697 0.34577277302742004 0.057561635971069336
0.5445821285247803 0.44058921933174133 -0.06022275239229202
0.5867722630500793 0.45556795597076416 -0.013066927902400494
0.6506544351577759 0.7191480994224548 0.019481318071484566
0.768195390701294 0.7335975170135498 0.1987002044916153
0.5571295619010925 0.6336221098899841 -0.06980495154857635
0.535664975643158 0.6415762305259705 -0.06988024711608887
0.6320928335189819 0.7095334529876709 0.02169393002986908
0.6247570514678955 0.7106566429138184 0.017199907451868057
0.7020677924156189 0.4078368544578552 -0.024598682299256325
0.5789747834205627 0.6259280443191528 -0.06762291491031647
0.6047669053077698 0.4206521511077881 -0.058735284954309464
0.6082539558410645 0.4023125469684601 -0.06536812335252762
0.6441531181335449 0.2863845229148865 -0.028642825782299042
0.7284080982208252 0.37517914175987244 0.010590752586722374
0.6231343150138855 0.3386976420879364 -0.04880053177475929
0.7311608791351318 0.4272899329662323 0.006444388069212437
0.7590305805206299 0.4099067449569702 0.05254514142870903
0.537493109703064 0.6909175515174866 -0.05988643690943718
0.5720398426055908 0.6932829022407532 -0.04602880775928497
0.5970182418823242 0.6973479390144348 -0.02539900317788124
0.552139163017273 0.6371229887008667 -0.06405863165855408
0.6284272074699402 0.7100327014923096 0.01934092491865158
0.6131294965744019 0.7330042719841003 0.009778679348528385
0.6214317083358765 0.7112821340560913 0.01680194027721882
0.53895503282547 0.63150954246521 -0.10455959290266037
0.5872416496276855 0.7044321298599243 -0.016560498625040054
0.5638676285743713 0.7038710713386536 -0.03168960288167
0.5349343419075012 0.7059383988380432 -0.04189431667327881
0.538987934589386 0.8269296884536743 -0.005225246772170067
0.5371280312538147 0.7963234782218933 -0.027479365468025208
0.5357494354248047 0.7825692296028137 -0.03169853985309601
0.5340747237205505 0.7705612182617188 -0.02661406435072422
0.5319669246673584 0.7622581124305725 -0.022792913019657135
0.5842418670654297 0.7443114519119263 -0.0020685370545834303
0.5886406898498535 0.7472150325775146 -0.0052719032391905785
0.5943219661712646 0.7530345916748047 -0.007434289902448654
0.5984381437301636 0.7605963945388794 -0.0026567133609205484
0.6167198419570923 0.6829433441162109 -0.023695772513747215
0.799888014793396 0.6088697910308838 0.2239786684513092
0.6017373204231262 0.7316782474517822 0.010859130881726742
0.607404351234436 0.7315043210983276 0.00912717916071415
0.5275706648826599 0.650645911693573 -0.06885002553462982
0.573311984539032 0.6381750702857971 -0.046547457575798035
0.5313256978988647 0.6463407874107361 -0.0704033374786377
0.5979040265083313 0.5540339946746826 -0.0282275527715683
0.6406053304672241 0.5677858591079712 -0.025245903059840202
0.5837804675102234 0.6126480102539062 -0.06044672429561615
0.7090176343917847 0.3099706768989563 0.010656343773007393
0.6846299171447754 0.35050731897354126 -0.02209719456732273
0.6602299213409424 0.3978503942489624 -0.04702839255332947
0.6074231863021851 0.7815058827400208 0.01229861844331026
0.5509305596351624 0.4112907648086548 -0.0715453252196312
0.5630557537078857 0.3356434404850006 -0.06101108342409134
0.5767531394958496 0.2755204439163208 -0.048228248953819275
0.6693132519721985 0.5008007884025574 -0.000654811505228281
0.733401358127594 0.520997941493988 0.03136886656284332
0.5708726644515991 0.4973001480102539 -0.0041448622941970825
0.7042346000671387 0.4649635851383209 0.006470218300819397
0.5512266755104065 0.5284387469291687 -0.043043337762355804
0.5541398525238037 0.6138569116592407 -0.10542835295200348
0.7646193504333496 0.5403131246566772 0.05629097670316696
0.7148129940032959 0.5363361239433289 0.012063625268638134
0.6816750168800354 0.5443999171257019 -0.006440118420869112
0.6338935494422913 0.5421286821365356 -0.014286559075117111
0.5993810892105103 0.5341914892196655 -0.016432004049420357
0.5734930038452148 0.5249571800231934 -0.021414117887616158
0.5152624845504761 0.49862945079803467 -0.06916923820972443
0.7626789808273315 0.5887149572372437 0.05252189189195633
0.7266106605529785 0.4621158242225647 0.014867794699966908
0.4994991421699524 0.64745032787323 -0.12426016479730606
0.5692610740661621 0.5663003921508789 -0.04378170147538185
0.8074592351913452 0.49516934156417847 0.1982881873846054
0.5536683201789856 0.5141713619232178 -0.0245004091411829
0.58848637342453 0.6120287179946899 -0.03400949388742447
0.6891331672668457 0.47950202226638794 0.01581439934670925
0.5560999512672424 0.5958764553070068 -0.09661195427179337
0.789296567440033 0.669850766658783 0.21716056764125824
0.57072913646698 0.4898372292518616 0.0015748211881145835
0.5313171744346619 0.5851050019264221 -0.1196947991847992
0.704303503036499 0.7894394993782043 0.09179241210222244
0.7037498354911804 0.8221123814582825 0.13020537793636322
0.790393590927124 0.6018764972686768 0.13710883259773254
0.7383005023002625 0.7559304237365723 0.11114015430212021
0.777209460735321 0.44976806640625 0.0922815352678299
0.5961990356445312 0.882767915725708 0.033119671046733856
0.49872925877571106 0.6511416435241699 -0.09074406325817108
0.5943236351013184 0.5816928148269653 -0.03561217337846756
0.759759247303009 0.4944106936454773 0.06219816207885742
0.6459323167800903 0.4929956793785095 -0.006599943619221449
0.6265415549278259 0.4955032765865326 -0.010775228030979633
0.6181030869483948 0.7357351779937744 0.012906488962471485
0.7613612413406372 0.6400865912437439 0.06476189941167831
0.5505735874176025 0.9187526106834412 0.04069836065173149
0.6285994648933411 0.8814914226531982 0.08019839972257614
0.6632739305496216 0.8564424514770508 0.10289005935192108
0.6074546575546265 0.49500614404678345 -0.01004038006067276
0.5891284942626953 0.4926701784133911 -0.005262355785816908
0.5769484639167786 0.49157553911209106 0.0003721803950611502
0.747736930847168 0.45656532049179077 0.03699842467904091
0.5918931365013123 0.47078484296798706 -0.009342549368739128
0.6119918823242188 0.4629945456981659 -0.01615752838551998
0.6322544813156128 0.4616374373435974 -0.017270242795348167
0.6519230008125305 0.465154767036438 -0.013061069883406162
0.6638492345809937 0.4706394672393799 -0.005691461730748415
0.7999567985534668 0.4364634156227112 0.15610547363758087
0.6589037179946899 0.48896902799606323 -0.0005793360178358853
0.5872315764427185 0.6718016862869263 -0.04186101630330086
0.5553329586982727 0.6314985752105713 -0.07957960665225983
0.5327252149581909 0.6690207719802856 -0.0635666698217392
0.6675820350646973 0.8247783184051514 0.07724835723638535
0.6330158710479736 0.8536859154701233 0.05715722590684891
0.5504438877105713 0.9022217988967896 0.013970062136650085
0.7373403310775757 0.784461259841919 0.1643163412809372
0.5773828625679016 0.48229077458381653 -0.0031727757304906845
0.5309404730796814 0.5376296639442444 -0.07510489225387573
0.5921852588653564 0.9036238193511963 0.05530885234475136
0.7823123335838318 0.6578947305679321 0.13826113939285278
0.5603354573249817 0.7548989653587341 -0.014091921970248222
0.5645382404327393 0.7607661485671997 -0.017501799389719963
0.5683844089508057 0.770336389541626 -0.020156890153884888
0.5709532499313354 0.7828295230865479 -0.015535004436969757
0.5781552195549011 0.8081502318382263 0.0010364383924752474
0.6111860275268555 0.7052522897720337 -0.000922014529351145
0.6163472533226013 0.7028158903121948 -0.001050432212650776
0.6210572123527527 0.6999868750572205 -0.0021657797042280436
0.6400027275085449 0.6977639198303223 -0.0019452404230833054
0.7274652719497681 0.6505894660949707 0.020275626331567764
0.5324974656105042 0.5122218728065491 -0.054443359375
0.5514818429946899 0.47299110889434814 -0.014027172699570656
0.5673701167106628 0.4749137759208679 -0.006533923093229532
0.6065298318862915 0.706675112247467 0.0015830127522349358
0.7308107614517212 0.7144361734390259 0.06473764777183533
0.5269858837127686 0.4731980562210083 -0.04539734870195389
0.5861136317253113 0.8294039964675903 0.012380391359329224
0.5117284059524536 0.525905966758728 -0.09153236448764801
0.5502304434776306 0.5744292140007019 -0.07462853193283081
0.5431731343269348 0.849640965461731 0.0008486560545861721
0.6448926329612732 0.7653068900108337 0.032006386667490005
0.6101939082145691 0.6311821341514587 -0.027098380029201508
0.6183760166168213 0.8005002737045288 0.024545904248952866
0.6687209010124207 0.6290254592895508 -0.022303016856312752
0.6360008120536804 0.6556576490402222 -0.01859719306230545
0.6922622919082642 0.6679565906524658 0.002009869087487459
0.5480841398239136 0.8779020309448242 0.002251130063086748
0.5689975023269653 0.5849614143371582 -0.05734756588935852
0.661727249622345 0.7906837463378906 0.05125436559319496
0.6279904842376709 0.8244677186012268 0.0401274636387825
0.6666325926780701 0.7281500101089478 0.02552245743572712
0.7554311156272888 0.6845207214355469 0.07876262813806534
0.6962158679962158 0.7394929528236389 0.04412463679909706
0.7666221261024475 0.7097288966178894 0.13367439806461334
0.6599660515785217 0.682188093662262 -0.003350715385749936
0.5493258237838745 0.5520743727684021 -0.05809813737869263
0.546199381351471 0.6267707347869873 -0.11002922058105469
0.5666442513465881 0.6279217600822449 -0.08353869616985321
0.5313141942024231 0.611834704875946 -0.12767377495765686
0.568421483039856 0.45302850008010864 -0.023747824132442474
0.6067120432853699 0.43733763694763184 -0.03280617669224739
0.6415196061134338 0.43359896540641785 -0.035071831196546555
0.671162486076355 0.4377632439136505 -0.027776984497904778
0.6923709511756897 0.448056697845459 -0.013928522355854511
0.7088031768798828 0.48497825860977173 0.02420791983604431
0.7941895723342896 0.5493768453598022 0.12886354327201843
0.689873456954956 0.5156037211418152 0.008752993308007717
0.664639413356781 0.5221834778785706 -0.0030472769867628813
0.6319553256034851 0.5232278108596802 -0.009992548264563084
0.6014302968978882 0.5192717909812927 -0.010882112197577953
0.5780501365661621 0.5129396915435791 -0.010788291692733765
0.5615659952163696 0.5062811970710754 -0.011239978484809399
0.805331289768219 0.5514880418777466 0.2189648449420929
0.5684472322463989 0.6318124532699585 -0.07084199041128159
0.5291369557380676 0.5608248710632324 -0.09394535422325134
0.525282621383667 0.6310927867889404 -0.12699422240257263
0.5143074989318848 0.6427587270736694 -0.11510840058326721
0.5274820923805237 0.6346094608306885 -0.1149793490767479
0.5637344121932983 0.6375495791435242 -0.060792990028858185
0.5082143545150757 0.6455127000808716 -0.12118001282215118
0.5075979232788086 0.6490111947059631 -0.09158700704574585
0.5623417496681213 0.49057242274284363 -0.001095099956728518
0.5485574007034302 0.49484384059906006 -0.014298138208687305
0.5386858582496643 0.49825164675712585 -0.031715504825115204
0.670867919921875 0.474933385848999 0.0018154345452785492
0.6887840628623962 0.46574822068214417 0.0016841001342982054
0.36649858951568604 0.47181737422943115 0.022641124203801155
0.3886409401893616 0.4717869162559509 0.022641124203801155
0.366730272769928 0.4505634009838104 0.022641124203801155
0.3441292643547058 0.4718340039253235 0.022641124203801155
0.36623626947402954 0.49294644594192505 0.022641124203801155
0.6183456182479858 0.476143479347229 -0.004812583792954683
0.6438245177268982 0.47562241554260254 -0.004812583792954683
0.6183506846427917 0.4553292393684387 -0.004812583792954683
0.5935696363449097 0.47650182247161865 -0.004812583792954683
0.6185024380683899 0.4971790313720703 -0.004812583792954683
