ply
format ascii 1.0
element vertex 478
property float x
property float y
property float z
end_header
0.4757119119167328 0.7251662015914917 -0.035680416971445084
0.457601398229599 0.6700965166091919 -0.12297205626964569
0.47498613595962524 0.6857243776321411 -0.055846501141786575
0.44913527369499207 0.5775611400604248 -0.10515010356903076
0.4558607339859009 0.6445713043212891 -0.1357782930135727
0.46033596992492676 0.6076675653457642 -0.13376587629318237
0.47844576835632324 0.5139002799987793 -0.09236744791269302
0.34377241134643555 0.4722357988357544 0.03675973042845726
0.48431873321533203 0.44329142570495605 -0.08931314945220947
0.48397210240364075 0.4112296998500824 -0.1022949293255806
0.48945435881614685 0.2935766875743866 -0.11486942321062088
0.4777219295501709 0.7310937643051147 -0.029651015996932983
0.4812853932380676 0.73558509349823 -0.021486928686499596
0.48549240827560425 0.7379018664360046 -0.010686051100492477
0.48751237988471985 0.7720947265625 0.00037696113577112556
0.48684269189834595 0.7832271456718445 -0.0016637499211356044
0.4878346621990204 0.7968124151229858 -0.00460502365604043
0.4910661578178406 0.81142258644104 0.000702492892742157
0.4989160895347595 0.8289015293121338 0.023901021108031273
0.46215134859085083 0.6809497475624084 -0.10841543972492218
0.4433673620223999 0.6748894453048706 -0.07172704488039017
0.3064323663711548 0.37989091873168945 0.12885119020938873
0.4091337323188782 0.5025729537010193 0.004237358924001455
0.38732877373695374 0.5028022527694702 0.011149981990456581
0.3661043643951416 0.500715970993042 0.021649979054927826
0.34028491377830505 0.47803911566734314 0.04490851238369942
0.42537951469421387 0.5006319284439087 0.00015747988072689623
0.36996990442276 0.4261787533760071 -0.00715353200212121
0.3964511752128601 0.4343516230583191 -0.014668683521449566
0.34727001190185547 0.42671191692352295 0.005886869039386511
0.334420382976532 0.43467310070991516 0.018642254173755646
0.32886356115341187 0.49365854263305664 0.06298857927322388
0.421233594417572 0.8487424850463867 0.08762902021408081
0.337615042924881 0.4605594277381897 0.04474479705095291
0.3002474904060364 0.48033607006073 0.17564603686332703
0.3143404722213745 0.4691249430179596 0.08628229051828384
0.3779415488243103 0.6125285029411316 0.00753442570567131
0.4477660655975342 0.7179862856864929 -0.02737608551979065
0.45678895711898804 0.7309995889663696 -0.010872956365346909
0.4305068850517273 0.7183749079704285 -0.0024001493584364653
0.4193013310432434 0.7190338373184204 0.02906830795109272
0.4400607645511627 0.7280365824699402 0.008271019905805588
0.4286283254623413 0.726492166519165 0.03501056879758835
0.3965626060962677 0.7459880709648132 0.09084212779998779
0.4388408064842224 0.6673632264137268 -0.11774878203868866
0.43519845604896545 0.6424199342727661 -0.12910813093185425
0.3121548593044281 0.40977972745895386 0.022310111671686172
0.42620640993118286 0.5549005270004272 -0.019294042140245438
0.4020523726940155 0.6407499313354492 -0.05049298703670502
0.404657244682312 0.6249968409538269 -0.045413851737976074
0.3211449980735779 0.5971413850784302 0.05387090891599655
0.4407497048377991 0.6082603335380554 -0.12125881761312485
0.3461885154247284 0.3965899348258972 -0.03603353351354599
0.3232364356517792 0.39712023735046387 -0.008921477943658829
0.31505098938941956 0.34413790702819824 0.06831265985965729
0.4353950619697571 0.43643730878829956 -0.07340037822723389
0.4187493324279785 0.44970083236694336 -0.011624202132225037
0.3773963749408722 0.7159026861190796 0.09227215498685837
0.3371082544326782 0.6938199996948242 0.2911437749862671
0.41718989610671997 0.6576727628707886 -0.0423661544919014
0.43389105796813965 0.6691630482673645 -0.046947333961725235
0.4061492681503296 0.7214269638061523 0.0901915654540062
0.41216951608657837 0.7241335511207581 0.08156994730234146
0.31728318333625793 0.37942439317703247 -0.00042037246748805046
0.40370362997055054 0.6469425559043884 -0.0352012999355793
0.3814173936843872 0.40800437331199646 -0.05840718001127243
0.3772105574607849 0.3884134590625763 -0.0685504674911499
0.3715021312236786 0.30154427886009216 -0.052757855504751205
0.31552553176879883 0.3691214919090271 0.030848229303956032
0.3764305114746094 0.3484780490398407 -0.061360858380794525
0.3064848482608795 0.3959842920303345 0.04090876132249832
0.30559754371643066 0.3975534439086914 0.08437817543745041
0.45151135325431824 0.7256999015808105 -0.02065826579928398
0.4349612295627594 0.7236679792404175 0.0031683226116001606
0.423615962266922 0.722916305065155 0.030775751918554306
0.4221242666244507 0.6618323922157288 -0.03882698342204094
0.40917760133743286 0.722743570804596 0.08538118749856949
0.4183863699436188 0.7400288581848145 0.07092903554439545
0.41496726870536804 0.7255280613899231 0.08015306293964386
0.42239969968795776 0.6588295698165894 -0.07840432971715927
0.43402814865112305 0.7293622493743896 0.03835592046380043
0.44564181566238403 0.7312219142913818 0.017515279352664948
0.462493360042572 0.7344021797180176 3.674281060739304e-06
0.4652412533760071 0.8226780891418457 0.03401894122362137
0.46168380975723267 0.8044698238372803 0.011506038717925549
0.4598671495914459 0.7901870608329773 0.007135195191949606
0.4611354470252991 0.7770843505859375 0.009945486672222614
0.4647018611431122 0.7674354910850525 0.011387540958821774
0.4363870322704315 0.7491027116775513 0.04704902321100235
0.43182262778282166 0.7517661452293396 0.04540255665779114
0.4273150563240051 0.7570618391036987 0.04567579925060272
0.42477232217788696 0.7640869617462158 0.053548797965049744
0.39189523458480835 0.6945630311965942 0.03129808232188225
0.32137835025787354 0.5729544162750244 0.29275667667388916
0.467509001493454 0.6844089031219482 -0.07510487735271454
0.4278241991996765 0.7393328547477722 0.06798629462718964
0.4226885437965393 0.7390626668930054 0.0679793506860733
0.4434691071510315 0.6795370578765869 -0.04398482292890549
0.41168642044067383 0.6592844724655151 -0.017309589311480522
0.43848347663879395 0.6747485995292664 -0.04671498388051987
0.40608805418014526 0.564531683921814 -0.0018711930606514215
0.37022411823272705 0.5764489769935608 0.015932869166135788
0.4036378562450409 0.6321831941604614 -0.02912045270204544
0.3335258960723877 0.31733694672584534 0.006004557944834232
0.33707964420318604 0.3515055179595947 -0.01681913249194622
0.3406026363372803 0.376714825630188 -0.0364723801612854
0.41385722160339355 0.7765159606933594 0.07585965096950531
0.42639660835266113 0.4053916931152344 -0.08902207762002945
0.4247298240661621 0.35109764337539673 -0.09117180109024048
0.42147013545036316 0.29473093152046204 -0.09322072565555573
0.3488422632217407 0.4919945299625397 0.0347248837351799
0.31228262186050415 0.5080493092536926 0.08469191193580627
0.43491464853286743 0.4977720081806183 -0.0006689709844067693
0.32237255573272705 0.4418187141418457 0.04253304377198219
0.4388739764690399 0.5430193543434143 -0.03434235230088234
0.40993350744247437 0.6395815014839172 -0.07867127656936646
0.29496052861213684 0.5293484330177307 0.12144695222377777
0.3193255364894867 0.531123697757721 0.06587700545787811
0.340532124042511 0.5470160245895386 0.04055479168891907
0.37985020875930786 0.5475590825080872 0.020061111077666283
0.40895581245422363 0.5402049422264099 0.005537747405469418
0.4280174970626831 0.5333216190338135 -0.009588540531694889
0.4600222706794739 0.517963171005249 -0.07631893455982208
0.2898329496383667 0.5778346657752991 0.12825724482536316
0.31240466237068176 0.43635255098342896 0.05516672134399414
0.45042508840560913 0.6789315938949585 -0.10446213185787201
0.4219476580619812 0.5824376940727234 -0.0242513008415699
0.3127272427082062 0.47046875953674316 0.2450854778289795
0.4416996240615845 0.5256063342094421 -0.02072964794933796
0.4052755534648895 0.6294617056846619 -0.005179632920771837
0.3322332799434662 0.45949429273605347 0.05130472779273987
0.4135776162147522 0.6199619174003601 -0.07299026101827621
0.32640787959098816 0.6307753324508667 0.2974415123462677
0.4346902370452881 0.4891711473464966 0.003196227364242077
0.42615851759910583 0.6122500896453857 -0.1016969308257103
0.35086560249328613 0.7676267623901367 0.18214502930641174
0.366152822971344 0.7920006513595581 0.22455410659313202
0.2938353717327118 0.5777859687805176 0.21566660702228546
0.3284093737602234 0.7301228046417236 0.20561379194259644
0.3022504150867462 0.4360320270061493 0.1357031911611557
0.4218755066394806 0.872921347618103 0.10675202310085297
0.4570152759552002 0.6826009154319763 -0.07193661481142044
0.4046041667461395 0.5957313179969788 -0.007626361679285765
0.30616286396980286 0.4686322510242462 0.11431819200515747
0.36505863070487976 0.4869520366191864 0.020317526534199715
0.3852388262748718 0.4897245168685913 0.011433085426688194
0.4151529371738434 0.742058515548706 0.07741040736436844
0.2932663857936859 0.6249899864196777 0.14859813451766968
0.46197834610939026 0.9132524728775024 0.10840477049350739
0.4102538228034973 0.8624095320701599 0.16394099593162537
0.39121776819229126 0.8319505453109741 0.19222693145275116
0.4858945608139038 0.35288140177726746 -0.10990236699581146
0.5077241063117981 0.9254007935523987 0.09198293834924698
0.4043576717376709 0.48920202255249023 0.005667395889759064
0.42111435532569885 0.4882838726043701 0.004243900068104267
0.4309978485107422 0.48902833461761475 0.005168207921087742
0.30597755312919617 0.42750513553619385 0.0799713134765625
0.4160076975822449 0.4659314453601837 -0.0026312333066016436
0.3968620300292969 0.45305564999580383 -0.0031551418360322714
0.3757088780403137 0.4473242461681366 0.0020426195114851
0.35644087195396423 0.44783109426498413 0.01238627266138792
0.34583228826522827 0.4527633488178253 0.022785978391766548
0.3049103915691376 0.4201776385307312 0.19091379642486572
0.3520010709762573 0.48062223196029663 0.02959785982966423
0.48056894540786743 0.6998931169509888 -0.04408854991197586
0.409209668636322 0.6903722882270813 0.0026306479703634977
0.4156826138496399 0.6560812592506409 -0.054038722068071365
0.4466639459133148 0.6960875988006592 -0.03378583490848541
0.4840810000896454 0.47680389881134033 -0.0827154815196991
0.3773963153362274 0.8049555420875549 0.16324365139007568
0.3996577262878418 0.8379168510437012 0.1373564898967743
0.45576155185699463 0.8997279405593872 0.07737250626087189
0.35002976655960083 0.7485886812210083 0.26191407442092896
0.4286078214645386 0.4808430075645447 0.0006653718883171678
0.4427866041660309 0.5589381456375122 -0.0701984316110611
0.5032830238342285 0.9123430848121643 0.06159809231758118
0.4316968619823456 0.8912269473075867 0.13304105401039124
0.2994839549064636 0.629906415939331 0.22449597716331482
0.44792741537094116 0.7590950727462769 0.02808433398604393
0.4433339238166809 0.7653449773788452 0.026734020560979843
0.4402720332145691 0.7750794291496277 0.02684406377375126
0.43968844413757324 0.7876701354980469 0.03367472440004349
0.43531203269958496 0.8034928441047668 0.05584372580051422
0.41976264119148254 0.7254526019096375 0.06046433374285698
0.415408194065094 0.7226773500442505 0.06251228600740433
0.4116915464401245 0.7198774814605713 0.062141045928001404
0.38013893365859985 0.7021826505661011 0.0632786974310875
0.30942848324775696 0.6449264287948608 0.09819929301738739
0.44979116320610046 0.5294402837753296 -0.053851883858442307
0.44627588987350464 0.475272536277771 -0.02349315769970417
0.43600982427597046 0.4741128087043762 -0.00883141066879034
0.4243338108062744 0.7280560731887817 0.06221587210893631
0.3195950984954834 0.698988139629364 0.1510879248380661
0.45933017134666443 0.4804348945617676 -0.05931458622217178
0.42890065908432007 0.8238028883934021 0.07209420204162598
0.4667372703552246 0.5758717060089111 -0.11891646683216095
0.4539965093135834 0.5495811104774475 -0.09426024556159973
0.472553551197052 0.5464497208595276 -0.10514398664236069
0.4262743592262268 0.5954453349113464 -0.05861660838127136
0.5007022023200989 0.8875442743301392 0.04283834248781204
0.500139057636261 0.8556063175201416 0.03374278545379639
0.46104660630226135 0.8471870422363281 0.0479467399418354
0.3842146396636963 0.7570374011993408 0.10647374391555786
0.38965725898742676 0.645621120929718 0.011817751452326775
0.4053846001625061 0.7928849458694458 0.0929359570145607
0.3446686267852783 0.6358340382575989 0.033374812453985214
0.3731200695037842 0.6654052138328552 0.03384847193956375
0.3323781192302704 0.6676754951477051 0.0710964947938919
0.4550817906856537 0.8764117956161499 0.05931628495454788
0.417463481426239 0.6037966012954712 -0.03505859151482582
0.3736376166343689 0.7776241898536682 0.13246263563632965
0.39876899123191833 0.8134787678718567 0.1144075021147728
0.3630215525627136 0.7219792008399963 0.10349024832248688
0.30354997515678406 0.6656960844993591 0.1667715311050415
0.3426979184150696 0.7279263734817505 0.12685513496398926
0.31127411127090454 0.6807225346565247 0.22787734866142273
0.36104461550712585 0.6856399178504944 0.06266435980796814
0.43301254510879517 0.5705498456954956 -0.04566553980112076
0.4150058627128601 0.6535137295722961 -0.08336661756038666
0.4071285128593445 0.6514068245887756 -0.05372687801718712
0.4202020764350891 0.641024649143219 -0.10402637720108032
0.426846444606781 0.448614239692688 -0.030167387798428535
0.3904531002044678 0.42581620812416077 -0.028912320733070374
0.35879233479499817 0.4169468879699707 -0.01903458870947361
0.33571115136146545 0.41729536652565 -0.001856085960753262
0.3236735761165619 0.425110399723053 0.017499929293990135
0.32504454255104065 0.4645899534225464 0.0642988309264183
0.2949095368385315 0.5286986827850342 0.19884935021400452
0.3365338444709778 0.5078237652778625 0.0512951985001564
0.35643357038497925 0.5204175114631653 0.03381988778710365
0.3844277262687683 0.522729218006134 0.018579630181193352
0.41049477458000183 0.5193638801574707 0.006585646886378527
0.42850857973098755 0.5154555439949036 -0.0023724837228655815
0.4402453303337097 0.5119376182556152 -0.00918568391352892
0.3195902407169342 0.5205362439155579 0.27677568793296814
0.409701406955719 0.6544663906097412 -0.04115835577249527
0.435916006565094 0.5849618911743164 -0.08279333263635635
0.4253928065299988 0.6608606576919556 -0.10426097363233566
0.4401968717575073 0.6725519895553589 -0.09442263096570969
0.4284783899784088 0.6631166934967041 -0.09211286157369614
0.41582387685775757 0.6606436371803284 -0.033126216381788254
0.4436904489994049 0.6764101386070251 -0.10066356509923935
0.44932377338409424 0.679593563079834 -0.07176142930984497
0.4408566951751709 0.49231836199760437 -0.003150444244965911
0.4496343731880188 0.5017531514167786 -0.01950053498148918
0.4526755213737488 0.5101911425590515 -0.03601739928126335
0.34055113792419434 0.4570399522781372 0.03265264630317688
0.32927340269088745 0.4443933367729187 0.03483789041638374
0.48927950859069824 0.5791558623313904 -0.11578039824962616
0.6688990592956543 0.49449580907821655 -0.04200172424316406
0.49597790837287903 0.6782310009002686 -0.07976449280977249
0.8016394972801208 0.38538193702697754 0.011779884807765484
0.598008930683136 0.5149628520011902 -0.046481844037771225
0.6226293444633484 0.5167728662490845 -0.04963252693414688
0.6475569605827332 0.5157495141029358 -0.04883671924471855
0.6824274659156799 0.5011833310127258 -0.038824647665023804
0.5770898461341858 0.5099284648895264 -0.03969939425587654
0.6294173002243042 0.443485826253891 -0.07108174264431
0.6002963185310364 0.4465717673301697 -0.06512542814016342
0.6572731733322144 0.4479632079601288 -0.06790179014205933
0.6766656637191772 0.4580143690109253 -0.061080366373062134
0.7082906365394592 0.5141849517822266 -0.0271078459918499
0.6074019074440002 0.8661781549453735 0.04981949180364609
0.6795363426208496 0.4865697920322418 -0.03774271905422211
0.8158880472183228 0.49532410502433777 0.05162928253412247
0.7412729263305664 0.494075745344162 -0.014688561670482159
0.6257590651512146 0.6224679946899414 -0.04414394497871399
0.512776255607605 0.7204241156578064 -0.04124167561531067
0.5178245902061462 0.7334651947021484 -0.023816391825675964
0.554819643497467 0.7248127460479736 -0.030928203836083412
0.5866071581840515 0.7271448969841003 -0.010857298970222473
0.5527427792549133 0.7322295904159546 -0.017366986721754074
0.5818590521812439 0.7317439317703247 0.000562877394258976
0.6465740203857422 0.7610362768173218 0.03815827891230583
0.47978663444519043 0.6701497435569763 -0.12451604008674622
0.4817691147327423 0.6446959376335144 -0.1372639387845993
0.7091102600097656 0.43810588121414185 -0.07246316224336624
0.5672549605369568 0.5603592991828918 -0.05229686200618744
0.561786949634552 0.6495326161384583 -0.08084681630134583
0.5662685632705688 0.6326262950897217 -0.07677554339170456
0.7114449143409729 0.6134268045425415 -0.032430388033390045
0.4844628572463989 0.6098560094833374 -0.13179898262023926
0.6373977661132812 0.41875314712524414 -0.10066352784633636
0.677280843257904 0.4233812689781189 -0.09074067324399948
0.7629852294921875 0.34676626324653625 -0.03659919276833534
0.5303038358688354 0.44528302550315857 -0.0941682979464531
0.5768254995346069 0.4580499231815338 -0.052395544946193695
0.669188380241394 0.7320937514305115 0.02956158109009266
0.825003981590271 0.7270572185516357 0.18522758781909943
0.5440462827682495 0.665688157081604 -0.065414197742939
0.5219205617904663 0.6730581521987915 -0.05850702151656151
0.632739245891571 0.7301909923553467 0.03478893265128136
0.6253067255020142 0.7317746877670288 0.0324459969997406
0.6909059882164001 0.40629106760025024 -0.08831271529197693
0.5687525868415833 0.6553983688354492 -0.0650196522474289
0.5890893340110779 0.42465049028396606 -0.10283012688159943
0.5903854966163635 0.40537500381469727 -0.11420281231403351
0.6384632587432861 0.3015916347503662 -0.11196539551019669
0.7334402799606323 0.37636759877204895 -0.06667967140674591
0.6182345747947693 0.35081857442855835 -0.11394097656011581
0.7279157638549805 0.424344003200531 -0.06087826192378998
0.7704460620880127 0.40780124068260193 -0.026544135063886642
0.5151862502098083 0.7281678915023804 -0.03443600982427597
0.5535858869552612 0.7289648056030273 -0.023913489654660225
0.5841354131698608 0.7296091318130493 -0.006121954880654812
0.5397024154663086 0.6687330007553101 -0.05694612115621567
0.6287978887557983 0.730987012386322 0.03370615467429161
0.6101207137107849 0.7470290064811707 0.02718116156756878
0.6219350099563599 0.7325135469436646 0.03234521672129631
0.5202475190162659 0.6658943891525269 -0.09898587316274643
0.5796912908554077 0.7328919768333435 0.00535849342122674
0.551531195640564 0.7339411377906799 -0.006675516255199909
0.5198757648468018 0.7360392808914185 -0.013486688025295734
0.5408276319503784 0.8278093338012695 0.02036539651453495
0.5289444923400879 0.8083090782165527 -0.0032161506824195385
0.5249759554862976 0.7937589287757874 -0.008228338323533535
0.5220386385917664 0.780205488204956 -0.004964643623679876
0.5203860998153687 0.7700156569480896 -0.0026909722946584225
0.5786947011947632 0.7539801597595215 0.013857846148312092
0.5826614499092102 0.7573343515396118 0.011994988657534122
0.5881988406181335 0.7633659243583679 0.011338597163558006
0.5931679606437683 0.7707556486129761 0.016740573570132256
0.6193077564239502 0.7055965065956116 -0.014025184325873852
0.8484603762626648 0.5949041843414307 0.1726328432559967
0.5996620655059814 0.7449949383735657 0.02610083669424057
0.6045845746994019 0.7454471588134766 0.025707988068461418
0.5135402679443359 0.6820357441902161 -0.05539463460445404
0.5656136274337769 0.6665514707565308 -0.04091275483369827
0.5172955393791199 0.6777993440628052 -0.05790357664227486
0.5954394340515137 0.5717845559120178 -0.046411193907260895
0.6408684849739075 0.5869214534759521 -0.04541132599115372
0.5754390358924866 0.640053391456604 -0.061554230749607086
0.7107840776443481 0.31808990240097046 -0.0791684091091156
0.684579610824585 0.3564184308052063 -0.09450150281190872
0.6443424820899963 0.3990408778190613 -0.105365090072155
0.618345320224762 0.7897292375564575 0.032659679651260376
0.5332939028739929 0.4149215817451477 -0.11165054887533188
0.5543377995491028 0.35196489095687866 -0.11800888180732727
0.5670531988143921 0.2945440709590912 -0.12292084842920303
0.6697757244110107 0.5110507011413574 -0.044308919459581375
0.7414335012435913 0.528803825378418 -0.015726149082183838
0.5628873705863953 0.5050390362739563 -0.036236200481653214
0.7050178050994873 0.4683205783367157 -0.048511605709791183
0.5467894077301025 0.5473384857177734 -0.060780059546232224
0.5372834205627441 0.6469537019729614 -0.10306479781866074
0.7816823720932007 0.547810971736908 0.007428559474647045
0.7196308970451355 0.5483626127243042 -0.028196042403578758
0.6822429895401001 0.5592812299728394 -0.039741821587085724
0.630615234375 0.5567144155502319 -0.04087483510375023
0.5947768688201904 0.5474382042884827 -0.04036518931388855
0.5684399008750916 0.537769079208374 -0.04385841637849808
0.5038484334945679 0.5195520520210266 -0.08754958212375641
0.7832353711128235 0.5992802977561951 0.01489709597080946
0.72777259349823 0.4631374180316925 -0.04503142461180687
0.4762975871562958 0.6808018684387207 -0.10986842215061188
0.5641556978225708 0.5878147482872009 -0.05575363710522652
0.8420593738555908 0.4824239909648895 0.11992430686950684
0.5473046898841858 0.5272650718688965 -0.047100841999053955
0.5832127928733826 0.6370617747306824 -0.03708669915795326
0.6922507286071777 0.4864303469657898 -0.03516934812068939
0.5422636866569519 0.6260664463043213 -0.0977788046002388
0.8432061672210693 0.6588158011436462 0.18347755074501038
0.5631974935531616 0.4965893626213074 -0.033874593675136566
0.5128679871559143 0.6160866022109985 -0.12004072219133377
0.74208003282547 0.8012162446975708 0.09762860089540482
0.7501907348632812 0.8284440040588379 0.1439317911863327
0.8261386752128601 0.601637601852417 0.0919235423207283
0.7815488576889038 0.7640364170074463 0.10657885670661926
0.7947503328323364 0.4473382234573364 0.017004825174808502
0.612322986125946 0.8934730291366577 0.06669910252094269
0.47864067554473877 0.6836764812469482 -0.07526619732379913
0.5909836888313293 0.6029124855995178 -0.046991873532533646
0.7716805934906006 0.4955791234970093 0.002697712043300271
0.6421748399734497 0.503282904624939 -0.04862715303897858
0.6206136345863342 0.5044623613357544 -0.04966306313872337
0.6155118942260742 0.7496082782745361 0.030438115820288658
0.7879093289375305 0.6501943469047546 0.03925174102187157
0.5623295903205872 0.9247232675552368 0.08717778325080872
0.6548439264297485 0.889475405216217 0.11119179427623749
0.6986222267150879 0.8649070858955383 0.1261906623840332
0.6007723212242126 0.5026060342788696 -0.04666411876678467
0.5815665125846863 0.4992486834526062 -0.040743447840213776
0.5690631866455078 0.49804094433784485 -0.03516978770494461
0.7517634034156799 0.45399582386016846 -0.02821660228073597
0.5835971832275391 0.4729864001274109 -0.04858062043786049
0.6043311357498169 0.4630413055419922 -0.056603144854307175
0.6271347999572754 0.46194642782211304 -0.06027209758758545
0.6498655676841736 0.46706852316856384 -0.058480143547058105
0.6642041802406311 0.47480499744415283 -0.05292978510260582
0.82651686668396 0.42791152000427246 0.06833994388580322
0.6575354933738708 0.49952900409698486 -0.04547138139605522
0.5834958553314209 0.6984266638755798 -0.031400568783283234
0.5405004620552063 0.6646177768707275 -0.07530853897333145
0.5222303867340088 0.7000327110290527 -0.04792013019323349
0.6977112293243408 0.836168646812439 0.09444426745176315
0.6575289964675903 0.8656156063079834 0.0830811858177185
0.5598080158233643 0.9110013246536255 0.0553584098815918
0.7916221022605896 0.7845185995101929 0.1665380299091339
0.5693414807319641 0.48778480291366577 -0.04043110832571983
0.5194503664970398 0.5618246793746948 -0.08788257092237473
0.6100358963012695 0.911115288734436 0.09405776858329773
0.8242020606994629 0.6586673259735107 0.10695143043994904
0.5509361028671265 0.7630711793899536 0.0033900891430675983
0.5548673868179321 0.77011638879776 0.0011286719236522913
0.5592479109764099 0.7804140448570251 -0.00015096989227458835
0.5635054707527161 0.7930828332901001 0.0055885910987854
0.5835362672805786 0.8129969835281372 0.023791301995515823
0.6070984601974487 0.7315026521682739 0.016625136137008667
0.610131025314331 0.7298848628997803 0.014951047487556934
0.6133014559745789 0.7282963395118713 0.011984975077211857
0.6505827903747559 0.7156762480735779 0.00599916186183691
0.74652099609375 0.6669325232505798 0.0037993700243532658
0.5247113108634949 0.5323976278305054 -0.07270525395870209
0.5416667461395264 0.47975069284439087 -0.04718775674700737
0.5587124228477478 0.4801265597343445 -0.04280951991677284
0.6039302945137024 0.7326899766921997 0.020283905789256096
0.7620130181312561 0.7268974184989929 0.05647425726056099
0.5155799388885498 0.48197391629219055 -0.07291343063116074
0.5976521968841553 0.8378084897994995 0.038070764392614365
0.4966973662376404 0.5510835647583008 -0.1039058119058609
0.5398122668266296 0.6002752780914307 -0.08141942322254181
0.5488532781600952 0.854561448097229 0.03183133155107498
0.6654145121574402 0.7770636081695557 0.04699422046542168
0.609286367893219 0.6546826958656311 -0.0301816388964653
0.6354652643203735 0.811046302318573 0.0457439124584198
0.675167977809906 0.6507471203804016 -0.03452673554420471
0.6404999494552612 0.6773249506950378 -0.020281963050365448
0.707584798336029 0.6870124340057373 -0.007127444259822369
0.5554971098899841 0.8858860731124878 0.038450658321380615
0.5616715550422668 0.6095367074012756 -0.06380151212215424
0.6867862343788147 0.803652822971344 0.06572059541940689
0.6488901376724243 0.8368782997131348 0.0632522776722908
0.6881868839263916 0.742118239402771 0.031805235892534256
0.7875747084617615 0.6938933730125427 0.0621991865336895
0.724006175994873 0.7544217109680176 0.0456671416759491
0.8119314312934875 0.7128728628158569 0.11617997288703918
0.6723664999008179 0.7005071640014648 -0.003285415470600128
0.5415832996368408 0.5748592019081116 -0.07045834511518478
0.5274959802627563 0.6614341735839844 -0.10560768842697144
0.5526010990142822 0.660474956035614 -0.07940007746219635
0.5095697641372681 0.6463576555252075 -0.1227266862988472
0.556924045085907 0.4572322964668274 -0.06280150264501572
0.5948846340179443 0.44064852595329285 -0.07678521424531937
0.6312052607536316 0.43612393736839294 -0.08172661066055298
0.6635805368423462 0.43967434763908386 -0.07768505066633224
0.688758134841919 0.45029377937316895 -0.06751799583435059
0.7134106159210205 0.4905465245246887 -0.027945922687649727
0.823503851890564 0.5480098724365234 0.07163215428590775
0.692165732383728 0.5260137319564819 -0.03353721648454666
0.6637510657310486 0.5339277386665344 -0.04000832512974739
0.6282927989959717 0.5344417095184326 -0.04177001118659973
0.5965187549591064 0.5293108224868774 -0.04064145311713219
0.5725520849227905 0.5225886702537537 -0.037743084132671356
0.5553138256072998 0.516298234462738 -0.0378258042037487
0.8468780517578125 0.5367039442062378 0.1519727110862732
0.5565266013145447 0.662837028503418 -0.06628495454788208
0.513900637626648 0.5881140828132629 -0.10088320076465607
0.5024919509887695 0.6665995121002197 -0.11837203800678253
0.4938304126262665 0.6769884824752808 -0.10257063060998917
0.5069403648376465 0.669409990310669 -0.1065782681107521
0.5533833503723145 0.6676861643791199 -0.05424600467085838
0.4860769808292389 0.6795889735221863 -0.10733766853809357
0.4884951114654541 0.6819781064987183 -0.0774395763874054
0.5540545582771301 0.49817803502082825 -0.033783409744501114
0.5409406423568726 0.5044478178024292 -0.041802890598773956
0.5302213430404663 0.5103866457939148 -0.05468429997563362
0.6726408004760742 0.48113176226615906 -0.04648536816239357
0.6898016929626465 0.470465749502182 -0.04931873455643654
0.3729902505874634 0.4664810597896576 0.01411720272153616
0.3952317237854004 0.46757134795188904 0.01411720272153616
0.37498801946640015 0.4449138045310974 0.01411720272153616
0.3510698676109314 0.46547359228134155 0.01411720272153616
0.3710630536079407 0.4882292151451111 0.01411720272153616
0.6175094246864319 0.4794508218765259 -0.04648376628756523
0.6453777551651001 0.47905588150024414 -0.04648376628756523
0.6183325052261353 0.4560978412628174 -0.04648376628756523
0.590600311756134 0.47943517565727234 -0.04648376628756523
0.6168643236160278 0.5030036568641663 -0.04648376628756523
