ply
format ascii 1.0
element vertex 478
property float x
property float y
property float z
end_header
0.4508818984031677 0.7191882729530334 -0.07617200165987015
0.4057904779911041 0.6190163493156433 -0.12897638976573944
0.43654054403305054 0.6501240134239197 -0.07230321317911148
0.4131332337856293 0.5342510342597961 -0.07923528552055359
0.4049230217933655 0.5914680361747742 -0.135203555226326
0.41639894247055054 0.5577397346496582 -0.12354137003421783
0.45354264974594116 0.4777747392654419 -0.05521681532263756
0.3487865626811981 0.4771146774291992 0.13058628141880035
0.46486717462539673 0.42398300766944885 -0.03572092205286026
0.4647567868232727 0.39188113808631897 -0.03729451820254326
0.4828956127166748 0.2691386640071869 5.440565655590035e-05
0.45238596200942993 0.7279868125915527 -0.07382134348154068
0.45606058835983276 0.7357441782951355 -0.06692026555538177
0.46086469292640686 0.7402836084365845 -0.05572626739740372
0.4614797830581665 0.7579494714736938 -0.04898219183087349
0.4596595764160156 0.7681045532226562 -0.052560217678546906
0.4592878520488739 0.7813844084739685 -0.05832011252641678
0.46172183752059937 0.7963961362838745 -0.05552677810192108
0.4553668797016144 0.838093101978302 -0.035499416291713715
0.41494816541671753 0.6351318359375 -0.11794386059045792
0.4066118001937866 0.6365606784820557 -0.07688365131616592
0.3344653844833374 0.4034651219844818 0.29338765144348145
0.40171873569488525 0.49760276079177856 0.0742495134472847
0.38139036297798157 0.5001029968261719 0.0868331789970398
0.3636225461959839 0.4995284676551819 0.1035546064376831
0.34853997826576233 0.48704129457473755 0.13794617354869843
0.4175119698047638 0.4907752275466919 0.06354428082704544
0.3651774525642395 0.4313806891441345 0.0822058692574501
0.3892287313938141 0.432770311832428 0.06753753125667572
0.34604448080062866 0.43638262152671814 0.10040124505758286
0.3371470272541046 0.44640403985977173 0.11661231517791748
0.33813923597335815 0.5049042701721191 0.15563586354255676
0.38133418560028076 0.8754006028175354 0.03178497031331062
0.34526124596595764 0.47185218334198 0.14236341416835785
0.33118563890457153 0.5075681805610657 0.29971906542778015
0.33196818828582764 0.4879653751850128 0.19292986392974854
0.36385300755500793 0.6059403419494629 0.04357266426086426
0.42615634202957153 0.7131781578063965 -0.05727541446685791
0.4357943534851074 0.7336126565933228 -0.048599597066640854
0.40969353914260864 0.7189133167266846 -0.02650604583323002
0.4010958671569824 0.7280451059341431 0.004991100635379553
0.42239391803741455 0.734268069267273 -0.024179253727197647
0.41330474615097046 0.7373244166374207 0.0031415338162332773
0.37979018688201904 0.7814087867736816 0.05479487404227257
0.38925987482070923 0.6188384294509888 -0.1188819408416748
0.3862708806991577 0.5926415920257568 -0.12278895825147629
0.315153568983078 0.42530953884124756 0.13978229463100433
0.40915122628211975 0.5381088256835938 0.023150257766246796
0.37146466970443726 0.6151161193847656 -0.03216974809765816
0.3761153817176819 0.6010639071464539 -0.022744053974747658
0.3206087350845337 0.6061866283416748 0.11159051954746246
0.3985469937324524 0.560920238494873 -0.10391110181808472
0.33800044655799866 0.3951640725135803 0.06652633845806122
0.320227712392807 0.4055682420730591 0.10299675166606903
0.33535465598106384 0.35620829463005066 0.23644857108592987
0.4160088896751404 0.4125201106071472 -0.0037517682649195194
0.41069257259368896 0.4409698247909546 0.06382805109024048
0.3669668734073639 0.7547003626823425 0.07273858040571213
0.3615604639053345 0.7548876404762268 0.32369476556777954
0.38859832286834717 0.6307156085968018 -0.03275151923298836
0.40392404794692993 0.6389161348342896 -0.05122380703687668
0.39792871475219727 0.7461702227592468 0.06206575036048889
0.4030613601207733 0.745630145072937 0.048841338604688644
0.3168119192123413 0.3905578851699829 0.12274470180273056
0.37764522433280945 0.6271544098854065 -0.02072625234723091
0.3680940270423889 0.39528024196624756 0.030364109203219414
0.36328360438346863 0.37535008788108826 0.028839945793151855
0.38050511479377747 0.29155439138412476 0.09894180297851562
0.3263448476791382 0.37623995542526245 0.173411563038826
0.37595924735069275 0.3345400094985962 0.06272698193788528
0.3135451674461365 0.4157278835773468 0.16958239674568176
0.32287660241127014 0.4151330590248108 0.2292541116476059
0.4297703206539154 0.7251338362693787 -0.05503760278224945
0.4155280590057373 0.7277865409851074 -0.0262207742780447
0.40659743547439575 0.7330789566040039 0.0016891654813662171
0.39509785175323486 0.6355579495429993 -0.03432660922408104
0.40046411752700806 0.7458638548851013 0.05418800190091133
0.4053429961204529 0.7540135979652405 0.03122515231370926
0.4056597352027893 0.7455560564994812 0.04622673988342285
0.38548293709754944 0.621979296207428 -0.06744694709777832
0.4200407862663269 0.7400285005569458 0.005121981259435415
0.429067462682724 0.7381206154823303 -0.0164177343249321
0.44238394498825073 0.7385048866271973 -0.03776540234684944
0.4269287884235382 0.8337565660476685 -0.019594920799136162
0.43756988644599915 0.7926561832427979 -0.037947237491607666
0.4362752437591553 0.7777413129806519 -0.03950865939259529
0.4385557174682617 0.7649489045143127 -0.03340795263648033
0.4428730010986328 0.7557718753814697 -0.030612116679549217
0.4202406406402588 0.7509159445762634 0.010069026611745358
0.41550886631011963 0.7553225755691528 0.006363579537719488
0.41110262274742126 0.7620814442634583 0.004076889716088772
0.4083794951438904 0.7711244821548462 0.010838707908987999
0.37190115451812744 0.7034423351287842 0.020141908898949623
0.36489853262901306 0.6262221932411194 0.384177565574646
0.42523884773254395 0.6431412696838379 -0.08840823173522949
0.4135656952857971 0.7486386895179749 0.03168715909123421
0.4091382622718811 0.750790536403656 0.029504533857107162
0.4105958342552185 0.6492791771888733 -0.05294780060648918
0.39030271768569946 0.6432649493217468 -0.011710218153893948
0.4070519804954529 0.6443290114402771 -0.05314963683485985
0.3909485638141632 0.5543375611305237 0.04305689409375191
0.35993072390556335 0.5733685493469238 0.06645940244197845
0.3783952593803406 0.6135191917419434 -0.00898660346865654
0.34956249594688416 0.31812137365341187 0.16797395050525665
0.3434184491634369 0.3483055830001831 0.1190895065665245
0.33366093039512634 0.3758753836154938 0.07795827835798264
0.38932815194129944 0.8011783957481384 0.03213519603013992
0.4060680866241455 0.38032060861587524 -0.007970580831170082
0.4177923798561096 0.32957369089126587 0.01721668615937233
0.42282217741012573 0.2767390012741089 0.04102283716201782
0.3528115451335907 0.49539345502853394 0.12260304391384125
0.3264308273792267 0.5231664180755615 0.17932888865470886
0.42729541659355164 0.4834924340248108 0.06185845285654068
0.3304731249809265 0.4569651782512665 0.14939668774604797
0.4205223023891449 0.5204898118972778 0.007625123485922813
0.3732101023197174 0.6045538783073425 -0.06141205132007599
0.3121383488178253 0.5490322709083557 0.2188391089439392
0.3252866566181183 0.5405147075653076 0.14986832439899445
0.3375132083892822 0.5489364862442017 0.11198052018880844
0.36921635270118713 0.5436830520629883 0.07943631708621979
0.39546579122543335 0.5322397351264954 0.05856303125619888
0.41334813833236694 0.519580602645874 0.03928130492568016
0.4365248680114746 0.4848053455352783 -0.03307059779763222
0.3036594092845917 0.601622998714447 0.2080385684967041
0.3237767815589905 0.4543302655220032 0.17037265002727509
0.40456151962280273 0.6344234943389893 -0.11023718118667603
0.4006197452545166 0.5628736019134521 0.010483602993190289
0.3590724468231201 0.5120282173156738 0.38214629888534546
0.4253356456756592 0.5054777264595032 0.027958238497376442
0.3851451277732849 0.6160570383071899 0.015477584674954414
0.34263643622398376 0.4729692339897156 0.15104152262210846
0.38059526681900024 0.5874166488647461 -0.05082268640398979
0.3620826005935669 0.6881271600723267 0.3614215552806854
0.42991113662719727 0.4745241105556488 0.07075662910938263
0.38805341720581055 0.571258544921875 -0.08093120157718658
0.33736181259155273 0.8126864433288574 0.17374883592128754
0.3553719222545624 0.8480349779129028 0.2072090208530426
0.32121947407722473 0.6153929233551025 0.30273476243019104
0.3307866156101227 0.7766354084014893 0.2200927436351776
0.32838037610054016 0.4582250118255615 0.27292805910110474
0.37582504749298096 0.9076629877090454 0.04495105519890785
0.41630759835243225 0.6421310305595398 -0.08279823511838913
0.38693925738334656 0.5833997130393982 0.026766188442707062
0.3299753665924072 0.4939323663711548 0.2283322960138321
0.3622947335243225 0.4841782748699188 0.10555268079042435
0.3790990710258484 0.48591893911361694 0.09084758907556534
0.40257593989372253 0.7586003541946411 0.03837259113788605
0.3063635230064392 0.654682457447052 0.2069690078496933
0.4106152653694153 0.9550435543060303 0.02326030656695366
0.3698672950267792 0.9108560085296631 0.11040690541267395
0.3611951470375061 0.8841593265533447 0.15462681651115417
0.4722413420677185 0.32699841260910034 -0.019276101142168045
0.4593449532985687 0.9673715829849243 -0.009204325266182423
0.3975387215614319 0.48406219482421875 0.0794302374124527
0.41433799266815186 0.4795917272567749 0.07412181049585342
0.42471444606781006 0.4767453670501709 0.07350064069032669
0.3231528103351593 0.4510658383369446 0.20385484397411346
0.4122306704521179 0.4617615342140198 0.07385705411434174
0.39392828941345215 0.4574003517627716 0.07775992900133133
0.37438780069351196 0.45643067359924316 0.0886097401380539
0.35771411657333374 0.4598366320133209 0.10376881062984467
0.34976130723953247 0.4649447798728943 0.11715129762887955
0.34324488043785095 0.45215165615081787 0.34568434953689575
0.3534489572048187 0.48076683282852173 0.11966748535633087
0.4419666528701782 0.6733475923538208 -0.06784813851118088
0.38353192806243896 0.6855185031890869 -0.005658298265188932
0.384613573551178 0.6262511610984802 -0.04298309236764908
0.412034809589386 0.6751313209533691 -0.050099488347768784
0.46467339992523193 0.4511410593986511 -0.03582531213760376
0.34892845153808594 0.8483269214630127 0.1310938000679016
0.36161738634109497 0.8779700994491577 0.08886778354644775
0.40408915281295776 0.9302630424499512 -0.0004650210903491825
0.35823512077331543 0.8085293769836426 0.2681609094142914
0.42381349205970764 0.46882450580596924 0.07208934426307678
0.41573095321655273 0.5253301858901978 -0.03482398763298988
0.45178911089897156 0.9417281150817871 -0.03206881135702133
0.38353025913238525 0.9353015422821045 0.06471821665763855
0.32355913519859314 0.6727226376533508 0.28844285011291504
0.429470956325531 0.7530235648155212 -0.010038388893008232
0.42443662881851196 0.7600926160812378 -0.01302026491612196
0.42087623476982117 0.7704263925552368 -0.015709197148680687
0.41988158226013184 0.7841142416000366 -0.011553654447197914
0.40353941917419434 0.8195507526397705 0.006938687060028315
0.4072238504886627 0.741521954536438 0.028677919879555702
0.4017540216445923 0.7396228313446045 0.03325078263878822
0.3972879946231842 0.7370668053627014 0.03674120083451271
0.3659130036830902 0.7271819710731506 0.05080162733793259
0.3132122755050659 0.6655957698822021 0.140926331281662
0.4293348789215088 0.5008320212364197 -0.011207304894924164
0.43501195311546326 0.45430469512939453 0.039180681109428406
0.4289603531360626 0.4581528306007385 0.06018223240971565
0.413021445274353 0.7426636815071106 0.028884660452604294
0.3209005892276764 0.7340417504310608 0.17356929183006287
0.43886128067970276 0.4527586102485657 -0.0034271730110049248
0.39448708295822144 0.8457174897193909 0.019984936341643333
0.4296671450138092 0.5299178957939148 -0.09956471621990204
0.4240151643753052 0.5104407072067261 -0.05973704531788826
0.4414942264556885 0.5043464303016663 -0.07604514807462692
0.3979646563529968 0.5660841464996338 -0.030387872830033302
0.4493889808654785 0.9070836305618286 -0.0420810729265213
0.45279937982559204 0.8691611886024475 -0.038696590811014175
0.41884130239486694 0.8627285361289978 -0.015191365964710712
0.3615480065345764 0.792519748210907 0.07563281059265137
0.37302958965301514 0.6397653818130493 0.030200036242604256
0.37679576873779297 0.8225581645965576 0.049213070422410965
0.33658844232559204 0.6389162540435791 0.06855224817991257
0.3584449291229248 0.6691669225692749 0.04598340764641762
0.326930433511734 0.6843243837356567 0.09731532633304596
0.40718716382980347 0.8976627588272095 -0.010982207953929901
0.39273905754089355 0.5818681120872498 -0.007558919955044985
0.34782135486602783 0.8147751092910767 0.10424678772687912
0.36554771661758423 0.8468134999275208 0.06955339014530182
0.34774911403656006 0.7579262256622314 0.09304062277078629
0.3132500946521759 0.7016136050224304 0.20712962746620178
0.3309211730957031 0.7632391452789307 0.12676098942756653
0.3270817995071411 0.7268524765968323 0.2675440013408661
0.34917840361595154 0.7067888975143433 0.06797588616609573
0.40916815400123596 0.543769359588623 -0.010517634451389313
0.3775304853916168 0.6165832877159119 -0.06970398873090744
0.3758756220340729 0.6240182518959045 -0.041154295206069946
0.3770955204963684 0.5970941781997681 -0.09166441857814789
0.41580748558044434 0.4316207766532898 0.04369469732046127
0.381053626537323 0.4188802242279053 0.05603399872779846
0.3526590168476105 0.4182696044445038 0.0739581435918808
0.33336520195007324 0.42463475465774536 0.09838732331991196
0.3260490298271179 0.4371681213378906 0.12321712076663971
0.33799391984939575 0.48034900426864624 0.16645637154579163
0.32382962107658386 0.5609612464904785 0.3062937259674072
0.34111204743385315 0.5149816274642944 0.1372264176607132
0.3533470332622528 0.5213995575904846 0.11012770980596542
0.376282274723053 0.5201650857925415 0.08563442528247833
0.40052080154418945 0.5134860873222351 0.06829965114593506
0.41817253828048706 0.5043062567710876 0.05329296365380287
0.42920562624931335 0.49553173780441284 0.04474952071905136
0.3665802776813507 0.5692599415779114 0.3933609426021576
0.3819015622138977 0.6312136650085449 -0.03047509677708149
0.4035031795501709 0.5475326180458069 -0.05423230677843094
0.3809201121330261 0.6164681911468506 -0.09808219224214554
0.3997167944908142 0.6312016844749451 -0.09718840569257736
0.38870203495025635 0.6227642297744751 -0.08650041371583939
0.39122211933135986 0.639291524887085 -0.027897320687770844
0.4002259373664856 0.633118212223053 -0.10544119030237198
0.41044914722442627 0.6403905749320984 -0.07985842972993851
0.4341917335987091 0.47492796182632446 0.05932256579399109
0.43804478645324707 0.4809821844100952 0.03541047126054764
0.4349120855331421 0.48509639501571655 0.012964081950485706
0.34652891755104065 0.46879056096076965 0.1286986917257309
0.33592933416366577 0.45770758390426636 0.13534994423389435
0.4523300230503082 0.5343452095985413 -0.10373733937740326
0.6733953356742859 0.47969257831573486 -0.048622917383909225
0.45487838983535767 0.63788241147995 -0.09579765796661377
0.8516377806663513 0.3833973705768585 0.02392013743519783
0.5953474044799805 0.4990227222442627 -0.04092730954289436
0.6217125058174133 0.5015370845794678 -0.051677946001291275
0.6491184830665588 0.5013659000396729 -0.05666035786271095
0.6907984018325806 0.48906153440475464 -0.05161620303988457
0.5731943249702454 0.49270501732826233 -0.02708219364285469
0.6296361684799194 0.4283198416233063 -0.062300439924001694
0.6005313396453857 0.43085020780563354 -0.046068307012319565
0.6594077944755554 0.4325483739376068 -0.06663335859775543
0.6810349822044373 0.4429348111152649 -0.06403402239084244
0.718851625919342 0.5070394277572632 -0.048536963760852814
0.5674757361412048 0.8926498889923096 -0.05435580760240555
0.6862261295318604 0.473061740398407 -0.04530147463083267
0.858704686164856 0.505129337310791 0.019405068829655647
0.760539174079895 0.4918571710586548 -0.03669821470975876
0.598722517490387 0.6066447496414185 -0.07398289442062378
0.4839724898338318 0.7140902876853943 -0.08805974572896957
0.4885823726654053 0.7348390817642212 -0.07720422744750977
0.5255364179611206 0.7238764762878418 -0.08997613191604614
0.5576578974723816 0.7335345149040222 -0.08269588649272919
0.5222753286361694 0.7372387051582336 -0.08014726638793945
0.5516694784164429 0.7412607669830322 -0.0715821385383606
0.6058261394500732 0.7876760959625244 -0.05909387394785881
0.4290332794189453 0.6194638609886169 -0.1347162127494812
0.43161654472351074 0.5926574468612671 -0.14178504049777985
0.7224118709564209 0.4236307442188263 -0.07554413378238678
0.5480621457099915 0.5370152592658997 -0.052264999598264694
0.5269688367843628 0.6157973408699036 -0.10345332324504852
0.5341611504554749 0.601142406463623 -0.09628509730100632
0.6931020617485046 0.6083710789680481 -0.08342403173446655
0.440980464220047 0.5609328746795654 -0.12830768525600433
0.6381577849388123 0.3921969532966614 -0.08331263810396194
0.6845209002494812 0.40260863304138184 -0.0848006010055542
0.7969502210617065 0.3328854441642761 -0.005149266682565212
0.515315592288971 0.4168218970298767 -0.05282892659306526
0.5761726498603821 0.44117289781570435 -0.02804230898618698
0.6288353800773621 0.7597401738166809 -0.06486625969409943
0.8677051067352295 0.7819374203681946 0.07123404741287231
0.5095699429512024 0.631958544254303 -0.08606819808483124
0.48603227734565735 0.6401395201683044 -0.07782717794179916
0.6022377014160156 0.7510083913803101 -0.05728241056203842
0.5957150459289551 0.750518798828125 -0.05618361756205559
0.7047027945518494 0.3873405456542969 -0.07716205716133118
0.5368264317512512 0.6282462477684021 -0.09058105945587158
0.5819873213768005 0.3956221342086792 -0.0723734050989151
0.584556519985199 0.3755316436290741 -0.07681203633546829
0.6413727402687073 0.2721822261810303 -0.03961353003978729
0.7493910789489746 0.3614327311515808 -0.046939898282289505
0.6089167594909668 0.3225777745246887 -0.05870844051241875
0.7483105659484863 0.4149317145347595 -0.06117771565914154
0.8003371357917786 0.40245771408081055 -0.02086678147315979
0.4859999120235443 0.7259259223937988 -0.0858013704419136
0.5233246684074402 0.7312697768211365 -0.08629853278398514
0.5541813969612122 0.7375832200050354 -0.07892084121704102
0.5054969787597656 0.6371294260025024 -0.07759752869606018
0.5987840294837952 0.7507412433624268 -0.05625153332948685
0.5807233452796936 0.75883549451828 -0.061594750732183456
0.5924176573753357 0.7502855062484741 -0.05562625452876091
0.4796139597892761 0.622495710849762 -0.11616138368844986
0.5500668883323669 0.743302047252655 -0.06565584242343903
0.5217310190200806 0.7402899861335754 -0.06872240453958511
0.49127328395843506 0.7394958138465881 -0.06698356568813324
0.4948462247848511 0.8380236625671387 -0.048596762120723724
0.49630260467529297 0.7953298687934875 -0.06922642886638641
0.49291056394577026 0.7799842357635498 -0.07164464145898819
0.4915401339530945 0.7666336297988892 -0.06522733718156815
0.4914039075374603 0.7572551369667053 -0.06088963896036148
0.5501806735992432 0.7546987533569336 -0.06095818430185318
0.5533698797225952 0.7591714859008789 -0.06461240351200104
0.5577613711357117 0.7665849924087524 -0.0692494809627533
0.5621023774147034 0.7757478356361389 -0.06826076656579971
0.5784007906913757 0.7060635089874268 -0.0802142471075058
0.9078443050384521 0.63801109790802 0.10257665812969208
0.5725474953651428 0.7533097267150879 -0.057460617274045944
0.5760855674743652 0.7554523944854736 -0.059870291501283646
0.47604256868362427 0.6510375142097473 -0.07914839684963226
0.5334870219230652 0.6453068256378174 -0.06747902929782867
0.480616956949234 0.6458733677864075 -0.0788012370467186
0.5775479674339294 0.5532623529434204 -0.05844602361321449
0.6206669807434082 0.5727289319038391 -0.07234105467796326
0.5452398061752319 0.6141512393951416 -0.08473667502403259
0.7282924652099609 0.2943885326385498 -0.029223060235381126
0.6871858835220337 0.334187775850296 -0.05810784175992012
0.6490047574043274 0.37305948138237 -0.08050281554460526
0.5755018591880798 0.8092418313026428 -0.06108054146170616
0.5194944143295288 0.38416776061058044 -0.06164085119962692
0.5406101942062378 0.3224075436592102 -0.045629389584064484
0.562508225440979 0.26517075300216675 -0.028610624372959137
0.6747869253158569 0.49804988503456116 -0.05585683509707451
0.7557938694953918 0.5262805223464966 -0.047632087022066116
0.5579605102539062 0.48654139041900635 -0.018562830984592438
0.716343879699707 0.45681557059288025 -0.058016955852508545
0.5260148048400879 0.5194634199142456 -0.05275007709860802
0.4966989755630493 0.6046781539916992 -0.11915061622858047
0.7999004125595093 0.5502821207046509 -0.0386882908642292
0.7256109714508057 0.5419548153877258 -0.06337488442659378
0.680025041103363 0.5484650135040283 -0.06933297961950302
0.6237223148345947 0.5427567362785339 -0.05918083339929581
0.5859872102737427 0.5313160419464111 -0.04628567025065422
0.5569228529930115 0.5191258192062378 -0.03906845673918724
0.47936028242111206 0.4841320514678955 -0.058944232761859894
0.7921220660209656 0.6077988147735596 -0.049150921404361725
0.74482262134552 0.45566314458847046 -0.05672960355877876
0.4288786053657532 0.6350226402282715 -0.12287209182977676
0.5400791168212891 0.5622751712799072 -0.06223501265048981
0.9077639579772949 0.5070672035217285 0.09217951446771622
0.5331611037254333 0.5055350065231323 -0.033118970692157745
0.5560948848724365 0.6167123913764954 -0.06000174954533577
0.7018980383872986 0.47397688031196594 -0.045994553714990616
0.5053154230117798 0.5874062180519104 -0.109316885471344
0.8974353671073914 0.7083171010017395 0.0914698988199234
0.5603821277618408 0.4790205955505371 -0.01336543820798397
0.4714016914367676 0.5715049505233765 -0.1238412857055664
0.7430817484855652 0.8416403532028198 -0.01978895626962185
0.7640513181686401 0.8832788467407227 0.014989787712693214
0.8617000579833984 0.6259325742721558 0.022186050191521645
0.7938613295555115 0.8040153384208679 -0.007160960230976343
0.8331804275512695 0.4489056468009949 0.005264029372483492
0.5783155560493469 0.9298962950706482 -0.04772651195526123
0.43633076548576355 0.6423661708831787 -0.09058496356010437
0.5672289729118347 0.5831619501113892 -0.06365587562322617
0.7976868152618408 0.49917465448379517 -0.02441803552210331
0.642859160900116 0.486812949180603 -0.05147930979728699
0.6195396184921265 0.48775359988212585 -0.04815983027219772
0.5856615304946899 0.7634090781211853 -0.06153810769319534
0.793280303478241 0.6670941114425659 -0.04153575375676155
0.5218341946601868 0.9697137475013733 -0.02738865278661251
0.6411986947059631 0.9413571953773499 -0.01503537967801094
0.6985310912132263 0.9183807373046875 -0.002622027415782213
0.5986506938934326 0.48595038056373596 -0.039101652801036835
0.5794939398765564 0.4823797941207886 -0.02753840759396553
0.566889762878418 0.4806775450706482 -0.01753666251897812
0.776801586151123 0.4528351128101349 -0.04092603176832199
0.5845881700515747 0.46283280849456787 -0.030135594308376312
0.6068667769432068 0.4564463198184967 -0.04302135482430458
0.6280221343040466 0.45532315969467163 -0.052200667560100555
0.650813102722168 0.4585886597633362 -0.05671995133161545
0.6664994359016418 0.4640089273452759 -0.054754115641117096
0.8869185447692871 0.43767285346984863 0.06211130693554878
0.6599920392036438 0.4837423264980316 -0.05108039081096649
0.5444326400756836 0.6872003674507141 -0.08155367523431778
0.5043947696685791 0.6271885633468628 -0.09309202432632446
0.4814280569553375 0.6760705709457397 -0.08154651522636414
0.6895345449447632 0.8773057460784912 -0.026142679154872894
0.6374741196632385 0.9055912494659424 -0.0355120487511158
0.5142776966094971 0.9429506063461304 -0.05128708481788635
0.8195180296897888 0.8405239582061768 0.04197070375084877
0.5677924752235413 0.47266435623168945 -0.020542269572615623
0.49026697874069214 0.5247671008110046 -0.07522320002317429
0.5814950466156006 0.9596317410469055 -0.028524044901132584
0.855902373790741 0.6905763745307922 0.019397443160414696
0.5216110944747925 0.7556825876235962 -0.06328517198562622
0.5240463614463806 0.7630380392074585 -0.06785992532968521
0.5270166993141174 0.7740093469619751 -0.07336209714412689
0.5304759740829468 0.7878967523574829 -0.07218217849731445
0.5383298397064209 0.8266358375549316 -0.06102976202964783
0.5776641964912415 0.7457612752914429 -0.06504537165164948
0.5810105800628662 0.7441835403442383 -0.0689103901386261
0.584622323513031 0.742154598236084 -0.07190509140491486
0.6081776022911072 0.7306360602378845 -0.07533743977546692
0.7318688631057739 0.6753962635993958 -0.07086223363876343
0.5022021532058716 0.4999302625656128 -0.05374949425458908
0.5329999327659607 0.4579801559448242 -0.013991326093673706
0.5543398261070251 0.4614357352256775 -0.016700787469744682
0.5744040608406067 0.7467818260192871 -0.06047939509153366
0.7561666965484619 0.7525366544723511 -0.04106799140572548
0.4993523061275482 0.45632821321487427 -0.034737762063741684
0.5549826622009277 0.8581950664520264 -0.05530226603150368
0.4658079743385315 0.5101063251495361 -0.08156153559684753
0.5078492164611816 0.5661829113960266 -0.08375880122184753
0.500666618347168 0.8699910640716553 -0.05150040239095688
0.6359548568725586 0.8055002689361572 -0.055990781635046005
0.5809597969055176 0.6411895751953125 -0.06582201272249222
0.600044310092926 0.8366274237632751 -0.054803770035505295
0.6453196406364441 0.6427488923072815 -0.08408215641975403
0.6077703237533569 0.672507643699646 -0.07505786418914795
0.680942714214325 0.69286048412323 -0.07773295789957047
0.506618320941925 0.9077136516571045 -0.058864742517471313
0.5338924527168274 0.5815865397453308 -0.07482438534498215
0.6674230694770813 0.8357564210891724 -0.04575423523783684
0.6197541356086731 0.8676089644432068 -0.046094149351119995
0.6590665578842163 0.7686347365379333 -0.06563522666692734
0.7931524515151978 0.7191019058227539 -0.03144093602895737
0.7069293260574341 0.7813476920127869 -0.054926685988903046
0.8375612497329712 0.7504540085792542 0.011234447360038757
0.638267993927002 0.7121460437774658 -0.0769328773021698
0.514902651309967 0.5432160496711731 -0.06800369918346405
0.4861711859703064 0.6173324584960938 -0.12225580215454102
0.5166043043136597 0.6250554323196411 -0.10143926739692688
0.4636085331439972 0.5978513360023499 -0.13410460948944092
0.5506550073623657 0.43519288301467896 -0.029999228194355965
0.5920497179031372 0.4185730218887329 -0.05295328423380852
0.630570650100708 0.41455399990081787 -0.06954431533813477
0.6666370034217834 0.42025935649871826 -0.07566342502832413
0.6963301301002502 0.4339800477027893 -0.07166504114866257
0.7272078394889832 0.4829217195510864 -0.04376460239291191
0.863249659538269 0.564527153968811 0.01897215098142624
0.6979259848594666 0.5165156722068787 -0.05457698926329613
0.6643681526184082 0.5219619274139404 -0.05720256268978119
0.625508725643158 0.5203996300697327 -0.051901400089263916
0.5914347767829895 0.5138738751411438 -0.03974262624979019
0.5652376413345337 0.5053437948226929 -0.02807064726948738
0.5458284616470337 0.497089147567749 -0.02126619778573513
0.9102747440338135 0.5725821256637573 0.10414186865091324
0.5228362083435059 0.6324871182441711 -0.0895083099603653
0.47877126932144165 0.547592282295227 -0.09615957736968994
0.45527708530426025 0.6180489659309387 -0.13151653110980988
0.4491475820541382 0.6333993673324585 -0.11650188267230988
0.4626854658126831 0.6245226263999939 -0.12075193971395493
0.5199565887451172 0.6410371661186218 -0.07743329554796219
0.43966710567474365 0.6343957185745239 -0.12112388014793396
0.4467063248157501 0.641488790512085 -0.0931391641497612
0.5484554767608643 0.478626012802124 -0.01019070390611887
0.530227541923523 0.4830884337425232 -0.016088882461190224
0.514908492565155 0.4861512780189514 -0.030333105474710464
0.6767563223838806 0.46870583295822144 -0.05139610171318054
0.6975690722465515 0.45658835768699646 -0.05629714950919151
0.39252525568008423 0.46783751249313354 0.09679760783910751
0.41434335708618164 0.4683499336242676 0.09679760783910751
0.3929561674594879 0.44804537296295166 0.09679760783910751
0.3708866536617279 0.467435359954834 0.09679760783910751
0.39200663566589355 0.487762987613678 0.09679760783910751
0.6357116103172302 0.4688799977302551 -0.04068475589156151
0.6614018082618713 0.46952420473098755 -0.04068475589156151
0.6358556747436523 0.4493659734725952 -0.04068475589156151
0.6106090545654297 0.4681469202041626 -0.04068475589156151
0.6357530355453491 0.48820048570632935 -0.04068475589156151
