ply
format ascii 1.0
element vertex 478
property float x
property float y
property float z
end_header
0.4774506986141205 0.7228720784187317 -0.05343921110033989
0.4582095146179199 0.6538453102111816 -0.13537083566188812
0.46956390142440796 0.6725121736526489 -0.0690380111336708
0.4500575065612793 0.5602015256881714 -0.10624203085899353
0.45818576216697693 0.626169741153717 -0.14598606526851654
0.4630705416202545 0.5887798070907593 -0.1395624428987503
0.48004281520843506 0.4967537522315979 -0.08291119337081909
0.3364059627056122 0.4830901026725769 0.048439159989356995
0.4867214262485504 0.42798733711242676 -0.0711560919880867
0.48773694038391113 0.39296668767929077 -0.07931260764598846
0.4992101490497589 0.2652091681957245 -0.0711779072880745
0.47816193103790283 0.7279934287071228 -0.04893260821700096
0.47969770431518555 0.7321998476982117 -0.0417967326939106
0.48184531927108765 0.7347305417060852 -0.03201732411980629
0.4792998433113098 0.7713915705680847 -0.015564264729619026
0.47827330231666565 0.7788617610931396 -0.019656602293252945
0.47780877351760864 0.7883425951004028 -0.024734938517212868
0.4785183370113373 0.7992184162139893 -0.020892824977636337
0.47854360938072205 0.8384019136428833 -0.00044076505582779646
0.4613802433013916 0.6665863990783691 -0.12160376459360123
0.4408275783061981 0.6617305874824524 -0.0841728076338768
0.2835196852684021 0.3771076500415802 0.16572831571102142
0.40103879570961 0.5055314302444458 0.013915839605033398
0.376609206199646 0.504828155040741 0.020229801535606384
0.3541303873062134 0.5025474429130554 0.03068154864013195
0.3282102644443512 0.4901794195175171 0.055452145636081696
0.42198652029037476 0.5039499402046204 0.01133474987000227
0.36632609367370605 0.4344683289527893 0.006417518015950918
0.3951813578605652 0.43946242332458496 0.0008157296106219292
0.3409932851791382 0.43789681792259216 0.018991142511367798
0.3256056010723114 0.4481234550476074 0.03186331316828728
0.30954188108444214 0.5009505748748779 0.07215940207242966
0.3941243886947632 0.8614215850830078 0.05504915863275528
0.32927191257476807 0.47729530930519104 0.05758002772927284
0.26497283577919006 0.4856885075569153 0.19192227721214294
0.2928883731365204 0.48204362392425537 0.09905567020177841
0.36049458384513855 0.6062226891517639 0.002012788550928235
0.44264495372772217 0.7160385251045227 -0.045082252472639084
0.44754841923713684 0.7273807525634766 -0.03132636845111847
0.4152176082134247 0.714504599571228 -0.020855331793427467
0.3963913023471832 0.7139832973480225 0.010502273216843605
0.4235197901725769 0.72318434715271 -0.011957120150327682
0.4054093360900879 0.7206029891967773 0.015198270790278912
0.3676499128341675 0.752662181854248 0.06783908605575562
0.43860507011413574 0.6517928242683411 -0.13029026985168457
0.43626105785369873 0.6246784329414368 -0.13959869742393494
0.29870709776878357 0.42148518562316895 0.0400419756770134
0.41753607988357544 0.5470375418663025 -0.015522385947406292
0.39373427629470825 0.6297189593315125 -0.060054656118154526
0.3957213759422302 0.6140698194503784 -0.053142696619033813
0.2952362298965454 0.5935719609260559 0.048475828021764755
0.4426060914993286 0.5901526212692261 -0.12736764550209045
0.34356972575187683 0.4016675353050232 -0.016480134800076485
0.3155773878097534 0.405701220035553 0.010050824843347073
0.299073189496994 0.3340390920639038 0.1082317978143692
0.44035840034484863 0.4316856861114502 -0.05508691817522049
0.4197060763835907 0.4526318907737732 0.004387119319289923
0.34791672229766846 0.7193047404289246 0.07197601348161697
0.29227185249328613 0.724824845790863 0.2811649441719055
0.40988391637802124 0.6470538973808289 -0.05291970446705818
0.4278895854949951 0.6570786237716675 -0.0587015226483345
0.3707731366157532 0.7157611846923828 0.07026022672653198
0.37694865465164185 0.7181165218353271 0.061931200325489044
0.3086705207824707 0.3885919451713562 0.02201012149453163
0.39335858821868896 0.637126624584198 -0.04533896595239639
0.3832763135433197 0.40840303897857666 -0.03896758332848549
0.38030365109443665 0.3880477845668793 -0.04638591408729553
0.37205076217651367 0.2773410677909851 -0.010897895321249962
0.3038633465766907 0.36004874110221863 0.05978265032172203
0.3780924379825592 0.3267729580402374 -0.029858341440558434
0.2915399372577667 0.407761812210083 0.06150456890463829
0.28656819462776184 0.394477516412735 0.11116378754377365
0.4442414939403534 0.7224943041801453 -0.03989611566066742
0.4190139174461365 0.7191603779792786 -0.016276810318231583
0.40063321590423584 0.7173945903778076 0.011349072679877281
0.4147380292415619 0.6510316729545593 -0.04908047616481781
0.3738902807235718 0.7169100046157837 0.06569935381412506
0.38552647829055786 0.7377725839614868 0.05055081844329834
0.3799601197242737 0.7193921804428101 0.060696791857481
0.41855287551879883 0.6463481783866882 -0.08914860337972641
0.4103137254714966 0.7231550812721252 0.017544807866215706
0.42811208963394165 0.726127564907074 -0.0036454396322369576
0.4516543745994568 0.7306018471717834 -0.021466298028826714
0.44188976287841797 0.8329434394836426 0.008759910240769386
0.44325169920921326 0.7945160865783691 -0.0106683149933815
0.44352930784225464 0.7836269736289978 -0.013397670350968838
0.44607013463974 0.7745750546455383 -0.008082358166575432
0.4501619338989258 0.7678212523460388 -0.004604516085237265
0.409514456987381 0.7492149472236633 0.030138645321130753
0.40428435802459717 0.751651406288147 0.02679852582514286
0.39835798740386963 0.7564409971237183 0.02527202107012272
0.39476266503334045 0.7628380060195923 0.03182585909962654
0.3682054579257965 0.6913356184959412 0.015392975881695747
0.27586281299591064 0.5964546203613281 0.3036087453365326
0.46503111720085144 0.6705427169799805 -0.08812324702739716
0.39715468883514404 0.7371857166290283 0.04984557256102562
0.3908810019493103 0.7367547750473022 0.04848789796233177
0.4360888600349426 0.6669599413871765 -0.05727481469511986
0.40066200494766235 0.6499820947647095 -0.02771296538412571
0.43200141191482544 0.6622663736343384 -0.0592074990272522
0.3924744129180908 0.5580425262451172 -0.0006307325675152242
0.35168424248695374 0.5700834393501282 0.01434499491006136
0.392209529876709 0.6226619482040405 -0.03730858862400055
0.32588285207748413 0.299767404794693 0.04705539718270302
0.33253014087677 0.3363690972328186 0.013695099391043186
0.3385920524597168 0.38137632608413696 -0.013204807415604591
0.38574111461639404 0.7838991284370422 0.05118628218770027
0.433301717042923 0.39960551261901855 -0.06705766916275024
0.42989394068717957 0.3262135684490204 -0.05894092470407486
0.42762672901153564 0.2669658064842224 -0.05087332800030708
0.3369627594947815 0.49792027473449707 0.04413709044456482
0.2863835096359253 0.5142531394958496 0.09206544607877731
0.43571558594703674 0.5008940100669861 0.011676670052111149
0.3081071972846985 0.45629024505615234 0.0573253259062767
0.43348604440689087 0.5329766869544983 -0.029167555272579193
0.4052535891532898 0.6264342665672302 -0.08817382156848907
0.2647373676300049 0.5318800210952759 0.12692731618881226
0.29356351494789124 0.5305209755897522 0.06994974613189697
0.3165406584739685 0.5407788157463074 0.04317839443683624
0.3600887060165405 0.5416399240493774 0.023493364453315735
0.39474576711654663 0.536446213722229 0.010704685002565384
0.41973382234573364 0.5293171405792236 -0.002643262967467308
0.4596993029117584 0.5021899938583374 -0.06757505983114243
0.25803953409194946 0.5822216868400574 0.12661069631576538
0.2951240837574005 0.44936367869377136 0.07101426273584366
0.44892507791519165 0.6647765636444092 -0.11785249412059784
0.41289395093917847 0.5735269784927368 -0.024703865870833397
0.27380985021591187 0.48162364959716797 0.2721880376338959
0.4379960298538208 0.5197802186012268 -0.011723197065293789
0.39235764741897583 0.6214088797569275 -0.011392837390303612
0.32052239775657654 0.4769315719604492 0.06425715982913971
0.4086340367794037 0.6068737506866455 -0.08011188358068466
0.27999112010002136 0.6589203476905823 0.29813793301582336
0.4387974441051483 0.49334031343460083 0.017152931541204453
0.42514464259147644 0.596351683139801 -0.10845675319433212
0.315764844417572 0.786238968372345 0.15750780701637268
0.32997891306877136 0.8174804449081421 0.19994249939918518
0.25550320744514465 0.5920314788818359 0.21719208359718323
0.2902708649635315 0.7514309287071228 0.18507103621959686
0.2756582200527191 0.4364612102508545 0.15827633440494537
0.3931753635406494 0.8875433206558228 0.07068856805562973
0.45448562502861023 0.6689497232437134 -0.0850655660033226
0.3908417224884033 0.5883746147155762 -0.010350324213504791
0.2806861698627472 0.4844174087047577 0.1277066469192505
0.35730960965156555 0.48959922790527344 0.030731435865163803
0.37753528356552124 0.4917895793914795 0.021614687517285347
0.3813599944114685 0.7397254109382629 0.05607221648097038
0.25836464762687683 0.6345087885856628 0.14018914103507996
0.4330189824104309 0.9282854795455933 0.069179467856884
0.37859368324279785 0.8827413320541382 0.13117976486682892
0.3572683334350586 0.8545019626617432 0.16324563324451447
0.49310362339019775 0.32841506600379944 -0.07668899744749069
0.47904375195503235 0.9390319585800171 0.05267100781202316
0.3987264037132263 0.4925519824028015 0.016436394304037094
0.4193631112575531 0.4928501844406128 0.01610255241394043
0.4326496720314026 0.49375808238983154 0.018322035670280457
0.28637102246284485 0.44161099195480347 0.09777490049600601
0.41742879152297974 0.46999937295913696 0.011356865055859089
0.3958815336227417 0.4586734175682068 0.010164136067032814
0.37281784415245056 0.4551606774330139 0.014928685501217842
0.3514884114265442 0.45888856053352356 0.024932067841291428
0.33919382095336914 0.46636098623275757 0.03537377715110779
0.2750972807407379 0.4234784245491028 0.22437113523483276
0.34456008672714233 0.48666468262672424 0.040522485971450806
0.4722743630409241 0.6887837052345276 -0.05820019915699959
0.3908112943172455 0.6838196516036987 -0.012488043867051601
0.40926575660705566 0.6451072096824646 -0.06356871128082275
0.43528059124946594 0.6859773397445679 -0.048627663403749466
0.48568448424339294 0.4615185260772705 -0.06815867125988007
0.344490647315979 0.8231715559959412 0.13412927091121674
0.36915379762649536 0.8544278740882874 0.10453743487596512
0.42854636907577515 0.9120652675628662 0.039243459701538086
0.3097898066043854 0.7782187461853027 0.24308137595653534
0.43190932273864746 0.48455125093460083 0.01478063128888607
0.4405853748321533 0.5446508526802063 -0.06721032410860062
0.47616371512413025 0.9219752550125122 0.024092812091112137
0.4015918970108032 0.9086652994155884 0.09648725390434265
0.25971290469169617 0.6493428945541382 0.21830859780311584
0.427379846572876 0.7601050138473511 0.011761483736336231
0.42163020372390747 0.7648544311523438 0.008674712851643562
0.417277455329895 0.7726233601570129 0.0066082370467484
0.41511714458465576 0.7830069661140442 0.011710015125572681
0.4087613821029663 0.8123560547828674 0.030204473063349724
0.38968151807785034 0.7190818786621094 0.04059432074427605
0.38526543974876404 0.716816782951355 0.042863279581069946
0.3818206787109375 0.7144809365272522 0.04293127357959747
0.3520897626876831 0.7019993662834167 0.04622963070869446
0.276905357837677 0.6490307450294495 0.08623664081096649
0.44737792015075684 0.5162466168403625 -0.04675746336579323
0.44947201013565063 0.47379788756370544 -0.007173048797994852
0.43934640288352966 0.47607338428497314 0.007124598603695631
0.39484065771102905 0.7211892008781433 0.041751667857170105
0.2840898633003235 0.7118749022483826 0.13380186259746552
0.4620552062988281 0.4729807674884796 -0.044550273567438126
0.4021821618080139 0.8344188332557678 0.04291253164410591
0.46887844800949097 0.5576381683349609 -0.11954139918088913
0.454386442899704 0.532899796962738 -0.08997500687837601
0.4742780029773712 0.5287317633628845 -0.10032185167074203
0.42110639810562134 0.5833499431610107 -0.06098181754350662
0.47554364800453186 0.8959392309188843 0.009224578738212585
0.4772138297557831 0.8645588159561157 0.004810144659131765
0.436482697725296 0.8577149510383606 0.01799149252474308
0.35564741492271423 0.7657537460327148 0.08270786702632904
0.37364673614501953 0.6395872235298157 0.0032648686319589615
0.3776260316371918 0.8029685020446777 0.0657421201467514
0.3207930624485016 0.6321766376495361 0.023672277107834816
0.3514549434185028 0.661959707736969 0.021771179512143135
0.3036268353462219 0.6689777374267578 0.05742718651890755
0.4293758273124695 0.8874578475952148 0.02487771026790142
0.40877392888069153 0.5940477848052979 -0.03879161551594734
0.3436947464942932 0.7901114821434021 0.10625676065683365
0.37024688720703125 0.8261838555335999 0.08443155884742737
0.33389484882354736 0.727823793888092 0.08281819522380829
0.2666866183280945 0.679805338382721 0.1532675325870514
0.3109169602394104 0.7379241585731506 0.10621220618486404
0.2713274359703064 0.7031677961349487 0.2139117419719696
0.33382415771484375 0.6852701306343079 0.047245316207408905
0.4279431104660034 0.5591983795166016 -0.044298481196165085
0.41105014085769653 0.6408551931381226 -0.09379860013723373
0.39952290058135986 0.640572190284729 -0.0642315149307251
0.41910630464553833 0.6254363059997559 -0.11453867703676224
0.42993685603141785 0.4481734037399292 -0.01213459949940443
0.39038342237472534 0.42868179082870483 -0.01105492003262043
0.3556672930717468 0.4230831563472748 -0.002635422395542264
0.3290596008300781 0.42619359493255615 0.013786129653453827
0.3128405511379242 0.43751174211502075 0.033284299075603485
0.30862993001937866 0.4793289303779602 0.07706773281097412
0.2575591206550598 0.5383729934692383 0.20769567787647247
0.31793761253356934 0.5114374756813049 0.058919183909893036
0.3386254906654358 0.519055962562561 0.04070866480469704
0.3690406084060669 0.521528422832489 0.025449443608522415
0.39952635765075684 0.519808828830719 0.014685135334730148
0.4230644106864929 0.5159416794776917 0.007371535990387201
0.4386661648750305 0.5109121203422546 0.0017837485065683722
0.2758547067642212 0.5383235216140747 0.2968781292438507
0.40073972940444946 0.6442173719406128 -0.05153549462556839
0.4346505403518677 0.5698633193969727 -0.08444254100322723
0.4238958954811096 0.6463366746902466 -0.11596038937568665
0.43801653385162354 0.658922016620636 -0.10705108195543289
0.42595306038856506 0.6497425436973572 -0.10353158414363861
0.40645265579223633 0.6504212021827698 -0.04378189146518707
0.44174960255622864 0.6623438000679016 -0.11392960697412491
0.44656598567962646 0.6662849187850952 -0.08452985435724258
0.4444420337677002 0.49489524960517883 0.010843362659215927
0.451183557510376 0.4995671212673187 -0.0063603902235627174
0.4524964988231659 0.5032832026481628 -0.025021279230713844
0.33290156722068787 0.47239193320274353 0.0451984703540802
0.3180611729621887 0.4602741301059723 0.04810730367898941
0.49042177200317383 0.5615513920783997 -0.11562872678041458
0.6664162874221802 0.49162477254867554 -0.02003435790538788
0.4936785101890564 0.6642541289329529 -0.09139108657836914
0.808388352394104 0.3866983950138092 0.0606912337243557
0.5973353385925293 0.5113804340362549 -0.030231917276978493
0.6218088865280151 0.513398289680481 -0.03284792974591255
0.6464837789535522 0.5119398236274719 -0.03078335151076317
0.6806830167770386 0.499531626701355 -0.017205798998475075
0.5762609243392944 0.5056625604629517 -0.02340286411345005
0.6333616375923157 0.43600744009017944 -0.04932790249586105
0.604609489440918 0.43779194355010986 -0.04326631873846054
0.660466194152832 0.4426931142807007 -0.04539254307746887
0.6785557866096497 0.4548773169517517 -0.037738293409347534
0.7067192196846008 0.5129960179328918 -0.005992901511490345
0.5785900354385376 0.8758243322372437 0.022417234256863594
0.6769325733184814 0.4854937195777893 -0.01411912590265274
0.8165664672851562 0.5029008984565735 0.0854802131652832
0.7416211366653442 0.49502283334732056 0.011354366317391396
0.6208378672599792 0.6151886582374573 -0.043516676872968674
0.5178475379943848 0.7184484601020813 -0.057740092277526855
0.519274115562439 0.7297173738479614 -0.04328977316617966
0.5588757395744324 0.7200844287872314 -0.04656200483441353
0.5889339447021484 0.7207186818122864 -0.02477273903787136
0.554092526435852 0.7273852229118347 -0.035131391137838364
0.581998884677887 0.7258520126342773 -0.015382127836346626
0.6269785165786743 0.7640014886856079 0.02274537831544876
0.48062336444854736 0.6538042426109314 -0.13625502586364746
0.4830501675605774 0.6264398694038391 -0.14678168296813965
0.7170010805130005 0.43347907066345215 -0.042776234447956085
0.563232958316803 0.5516519546508789 -0.044914890080690384
0.5585856437683105 0.6361169815063477 -0.08749986439943314
0.562473714351654 0.6198733448982239 -0.08150983601808548
0.7073211669921875 0.6081165075302124 -0.02647690661251545
0.48629090189933777 0.5915553569793701 -0.13666751980781555
0.6464893817901611 0.4030681550502777 -0.07332318276166916
0.6861229538917542 0.41344523429870605 -0.06164603680372238
0.7725432515144348 0.34036505222320557 0.0140616400167346
0.5354576110839844 0.4251127243041992 -0.0736265629529953
0.5803151726722717 0.4492722153663635 -0.031405095010995865
0.6513682007789612 0.7312966585159302 0.018261874094605446
0.7924274206161499 0.7517337799072266 0.1848372370004654
0.5408281683921814 0.6524347066879272 -0.07303932309150696
0.5182756185531616 0.6604155898094177 -0.06881953030824661
0.6313498020172119 0.7221819162368774 0.023135289549827576
0.6241133213043213 0.7239745259284973 0.019887130707502365
0.7035448551177979 0.39619916677474976 -0.0546916164457798
0.5647727847099304 0.6435402035713196 -0.07227889448404312
0.5968326926231384 0.4050939083099365 -0.07778512686491013
0.6003520488739014 0.38365018367767334 -0.0862826481461525
0.6501330137252808 0.27852025628089905 -0.06448982656002045
0.741457998752594 0.3691074252128601 -0.02475655823945999
0.6257192492485046 0.32937273383140564 -0.0759839192032814
0.7385550737380981 0.4204202890396118 -0.026985328644514084
0.7766096591949463 0.4070848226547241 0.015011066570878029
0.5188003182411194 0.7248885035514832 -0.052541036158800125
0.5563317537307739 0.7240457534790039 -0.04087960720062256
0.5854041576385498 0.7234190702438354 -0.021443022415041924
0.5360400080680847 0.6558743715286255 -0.06541717797517776
0.6276319026947021 0.7230308651924133 0.021680405363440514
0.6075687408447266 0.7427552342414856 0.012972493655979633
0.6206187009811401 0.7249366641044617 0.0198722742497921
0.5191437602043152 0.650833010673523 -0.10761382430791855
0.5792367458343506 0.7274106740951538 -0.011485978029668331
0.551856279373169 0.7294012308120728 -0.02541806921362877
0.5194306969642639 0.7325491309165955 -0.03379252552986145
0.5213251709938049 0.8373926877975464 -0.003372462932020426
0.51944500207901 0.7969521284103394 -0.02401711419224739
0.5180533528327942 0.7859363555908203 -0.02737388201057911
0.516701340675354 0.7765523195266724 -0.02186354249715805
0.5152817368507385 0.7696381211280823 -0.017677661031484604
0.5751169323921204 0.7533450126647949 0.0009028175263665617
0.5792748928070068 0.7557434439659119 -0.002594825578853488
0.5843813419342041 0.760736882686615 -0.0051359995268285275
0.5881848335266113 0.7672868967056274 -0.0005423409747891128
0.6100879311561584 0.6999528408050537 -0.02423524670302868
0.8320826292037964 0.6182872653007507 0.196829691529274
0.596404492855072 0.7419770956039429 0.013760260306298733
0.6018880605697632 0.7416398525238037 0.012135965749621391
0.5093905925750732 0.669630765914917 -0.06740473955869675
0.5602107048034668 0.6558843851089478 -0.04919005557894707
0.5134980082511902 0.6652728915214539 -0.06898539513349533
0.5924450755119324 0.5644692182540894 -0.04003840312361717
0.6380812525749207 0.5796400308609009 -0.039114780724048615
0.5711408257484436 0.6289946436882019 -0.0666416734457016
0.7219200134277344 0.30294013023376465 -0.029582688584923744
0.6931610107421875 0.3420542776584625 -0.05414179340004921
0.6565035581588745 0.38208746910095215 -0.07382933050394058
0.5990242958068848 0.7943082451820374 0.013965671882033348
0.5414827466011047 0.39038193225860596 -0.08685503900051117
0.5618129372596741 0.327506959438324 -0.0826159343123436
0.5787221193313599 0.2673300802707672 -0.07770147919654846
0.6679299473762512 0.5079588890075684 -0.024324895814061165
0.7372183799743652 0.5286994576454163 0.005126204341650009
0.5620691180229187 0.5000059604644775 -0.019245844334363937
0.7072765827178955 0.4672010838985443 -0.02205340564250946
0.5431499481201172 0.536415696144104 -0.05259409546852112
0.5352692008018494 0.631605327129364 -0.11019068211317062
0.7794085741043091 0.5498747825622559 0.028731336817145348
0.7154816389083862 0.5456580519676208 -0.01183551549911499
0.6788385510444641 0.5537816286087036 -0.02691875770688057
0.6281937956809998 0.5509128570556641 -0.030142920091748238
0.5920239090919495 0.5420536994934082 -0.030022140592336655
0.5652035474777222 0.5313854217529297 -0.0329991914331913
0.5043582320213318 0.5033530592918396 -0.07740660011768341
0.7768218517303467 0.601755678653717 0.028769230470061302
0.7322046160697937 0.46228885650634766 -0.01603616029024124
0.4755595624446869 0.6661843061447144 -0.12262964248657227
0.5600732564926147 0.5780308246612549 -0.05302105098962784
0.8404637575149536 0.4971514344215393 0.16055969893932343
0.5445003509521484 0.5188708901405334 -0.03526020422577858
0.5784454941749573 0.6277030110359192 -0.040849026292562485
0.6909483671188354 0.4858156144618988 -0.01092260330915451
0.5394726395606995 0.6115390658378601 -0.10253332555294037
0.8186855912208557 0.6840189695358276 0.19626078009605408
0.5627434253692627 0.4917309284210205 -0.014925427734851837
0.5120776295661926 0.5995317697525024 -0.1248314380645752
0.7096627950668335 0.8115607500076294 0.08442536741495132
0.7099742293357849 0.8452346920967102 0.1266271471977234
0.8142845630645752 0.6143115162849426 0.11109288036823273
0.7517715096473694 0.777251660823822 0.0993422269821167
0.7986570596694946 0.4508310556411743 0.055951185524463654
0.5804086923599243 0.904315710067749 0.03591575846076012
0.47624948620796204 0.6698012948036194 -0.0879870355129242
0.5868884325027466 0.5946300625801086 -0.04555031657218933
0.7702591419219971 0.4980617165565491 0.031164351850748062
0.6411168575286865 0.49914437532424927 -0.029390640556812286
0.6205899119377136 0.5005497932434082 -0.031540919095277786
0.6126481890678406 0.7449184060096741 0.01586863026022911
0.7760663032531738 0.6562148332595825 0.04536886140704155
0.5308637619018555 0.9384292364120483 0.04939888417720795
0.6175929307937622 0.9046228528022766 0.0829429179430008
0.6591212153434753 0.8800906538963318 0.10307953506708145
0.6008443236351013 0.49873143434524536 -0.028830120339989662
0.5816693305969238 0.4953168034553528 -0.022595107555389404
0.5688464045524597 0.49375346302986145 -0.016252698376774788
0.7580260634422302 0.45450708270072937 0.0037820436991751194
0.5870658755302429 0.4695158898830414 -0.028324048966169357
0.608643651008606 0.46041202545166016 -0.036201756447553635
0.6294980049133301 0.4599011540412903 -0.03924980014562607
0.6500208973884583 0.4656335711479187 -0.03675095736980438
0.6627389192581177 0.4737657904624939 -0.030696826055645943
0.8297691345214844 0.435776025056839 0.1144678071141243
0.655590295791626 0.4957088232040405 -0.02477371320128441
0.575829803943634 0.6902844905853271 -0.04236866161227226
0.5379173755645752 0.6506874561309814 -0.08283890783786774
0.5152836441993713 0.6890851259231567 -0.061156824231147766
0.6642335653305054 0.8470538854598999 0.07481489330530167
0.6231611371040344 0.8758513927459717 0.05757572129368782
0.530132532119751 0.9215278625488281 0.020014172419905663
0.7533146142959595 0.8055376410484314 0.1564525067806244
0.5703422427177429 0.48334524035453796 -0.020635072141885757
0.5179601311683655 0.547091543674469 -0.08289853483438492
0.5759041905403137 0.9256049394607544 0.06062064319849014
0.804924488067627 0.6739122867584229 0.11671534180641174
0.5470045208930969 0.7631667256355286 -0.010543886572122574
0.5508725047111511 0.7680073976516724 -0.014489799737930298
0.5541462302207947 0.7758945822715759 -0.01791137270629406
0.556267261505127 0.7863092422485352 -0.013607440516352654
0.564706563949585 0.8203417658805847 0.002517779590561986
0.6060434579849243 0.7245005369186401 0.0029876548796892166
0.6099514961242676 0.7228013277053833 0.0020700937602669
0.6136466860771179 0.7210827469825745 1.91010349226417e-06
0.6382380127906799 0.7122840285301208 -0.0031828738283365965
0.7365233898162842 0.6677091717720032 0.004977330565452576
0.5229949951171875 0.5186029076576233 -0.06327386945486069
0.5435246825218201 0.4684150218963623 -0.02801959216594696
0.5597492456436157 0.4722941219806671 -0.02274700254201889
0.6020243763923645 0.7259939908981323 0.005478688981384039
0.7415986061096191 0.7337973117828369 0.05234724283218384
0.5172575116157532 0.4670477509498596 -0.05702797323465347
0.5724247097969055 0.8458197116851807 0.013461725786328316
0.49722930788993835 0.5342046022415161 -0.09839607030153275
0.5364869236946106 0.5873581171035767 -0.08165308088064194
0.5246599316596985 0.863985002040863 0.003971358761191368
0.6412780284881592 0.7811276316642761 0.03150415048003197
0.6028937101364136 0.6475061178207397 -0.034166719764471054
0.6096733212471008 0.8172041177749634 0.02511073648929596
0.668702244758606 0.6452621817588806 -0.035171542316675186
0.632286548614502 0.6723435521125793 -0.025270020589232445
0.6964770555496216 0.6852623820304871 -0.010194513015449047
0.5283709168434143 0.8956191539764404 0.0066512515768408775
0.5575363636016846 0.5986520051956177 -0.064876027405262
0.658279299736023 0.8102732300758362 0.04905330389738083
0.6185097694396973 0.8443349599838257 0.04031287878751755
0.667540431022644 0.7433330416679382 0.02130274660885334
0.7700798511505127 0.7027989625930786 0.06272874027490616
0.7004422545433044 0.7583293914794922 0.036684438586235046
0.7862737774848938 0.7288755178451538 0.11683858186006546
0.6607232689857483 0.6976355314254761 -0.00931715127080679
0.5382721424102783 0.5627673864364624 -0.06662201881408691
0.5263059735298157 0.645928680896759 -0.11381898820400238
0.5497031211853027 0.6467861533164978 -0.08742343634366989
0.509491503238678 0.6292803287506104 -0.1303754597902298
0.5609753727912903 0.4440614581108093 -0.04064156115055084
0.6005922555923462 0.4272678792476654 -0.05254517123103142
0.6369935870170593 0.4250849187374115 -0.05738252028822899
0.6687514781951904 0.43235641717910767 -0.05261796712875366
0.69296795129776 0.44645434617996216 -0.041142161935567856
0.712851881980896 0.4904743432998657 -0.0030597939621657133
0.8185293674468994 0.5581884980201721 0.09846774488687515
0.6895893812179565 0.5233931541442871 -0.015026736073195934
0.661247730255127 0.5296924710273743 -0.02373421937227249
0.6262792348861694 0.5302832126617432 -0.027489325031638145
0.5946258902549744 0.5252286791801453 -0.02709043025970459
0.570368230342865 0.5175327658653259 -0.02399308793246746
0.5534229874610901 0.5095654129981995 -0.02381097711622715
0.8385690450668335 0.5565730333328247 0.18582573533058167
0.552924633026123 0.6502295732498169 -0.0743168368935585
0.5129842162132263 0.5725359916687012 -0.10063378512859344
0.5026758909225464 0.6502777934074402 -0.12849754095077515
0.49267011880874634 0.6622583270072937 -0.11432097107172012
0.5064756870269775 0.6541064381599426 -0.11643532663583755
0.5488712191581726 0.6558007597923279 -0.06290023773908615
0.48528653383255005 0.6647433042526245 -0.11982759833335876
0.486128568649292 0.6681350469589233 -0.08958545327186584
0.5534470677375793 0.4916890859603882 -0.015871282666921616
0.5402402281761169 0.4955454468727112 -0.026447325944900513
0.5291098952293396 0.49954676628112793 -0.041623134166002274
0.6703386306762695 0.4800106883049011 -0.023736726492643356
0.690526008605957 0.4690006971359253 -0.02514846809208393
0.3908379375934601 0.4754375219345093 0.0264772716909647
0.4184862971305847 0.47717881202697754 0.0264772716909647
0.39211922883987427 0.45154762268066406 0.0264772716909647
0.36278271675109863 0.4736466705799103 0.0264772716909647
0.38925474882125854 0.4988808333873749 0.0264772716909647
0.6282390356063843 0.48182040452957153 -0.026128580793738365
0.6555553078651428 0.48277774453163147 -0.026128580793738365
0.6294366717338562 0.45660436153411865 -0.026128580793738365
0.6016741991043091 0.48072537779808044 -0.026128580793738365
0.6272245645523071 0.5069192051887512 -0.026128580793738365
