ply
format ascii 1.0
element vertex 478
property float x
property float y
property float z
end_header
0.5180466175079346 0.7287775278091431 -0.036149945110082626
0.5428780317306519 0.6696357131004333 -0.12149734050035477
0.531053900718689 0.6829986572265625 -0.053217727690935135
0.5148935914039612 0.579472541809082 -0.11449361592531204
0.5439350605010986 0.6452059745788574 -0.13475514948368073
0.54054856300354 0.6085293889045715 -0.13281939923763275
0.5274404883384705 0.5133132338523865 -0.0921698585152626
0.3358291983604431 0.48324286937713623 -0.03531244769692421
0.5234456062316895 0.4425596594810486 -0.09059369564056396
0.5240535736083984 0.4078690707683563 -0.1048302948474884
0.5184022784233093 0.2683684229850769 -0.11531391739845276
0.5173742771148682 0.7374106049537659 -0.03036259114742279
0.5160105228424072 0.7459082007408142 -0.021283026784658432
0.5145571231842041 0.7514681220054626 -0.008208091370761395
0.5132242441177368 0.7517603635787964 -0.005825999192893505
0.5136960744857788 0.7640156745910645 -0.006008581258356571
0.5134584307670593 0.7778089046478271 -0.008573805913329124
0.5123926997184753 0.7920389175415039 -0.0028895491268485785
0.5200045704841614 0.8094340562820435 0.02310567907989025
0.5396252870559692 0.6792781352996826 -0.10678941756486893
0.5100027322769165 0.6751469373703003 -0.07741653919219971
0.21089041233062744 0.3633708953857422 0.02552313357591629
0.4077466130256653 0.5080730319023132 -0.042845260351896286
0.38298505544662476 0.5098475217819214 -0.04535096138715744
0.35790979862213135 0.5086162686347961 -0.043420739471912384
0.32278040051460266 0.4914880692958832 -0.031155390664935112
0.42904067039489746 0.5038638114929199 -0.0367283932864666
0.3740009069442749 0.4357401132583618 -0.0692945122718811
0.40315526723861694 0.43959593772888184 -0.06407439708709717
0.34677666425704956 0.4397992193698883 -0.0645907074213028
0.3280640244483948 0.4493321478366852 -0.05621916055679321
0.2978966534137726 0.5077285170555115 -0.018202772364020348
0.42648783326148987 0.8465690612792969 0.0485474094748497
0.32516080141067505 0.4748871326446533 -0.030320994555950165
0.2037455141544342 0.4790235757827759 0.06777205318212509
0.26447153091430664 0.4885040521621704 -0.004374352283775806
0.3917081654071808 0.6199334263801575 -0.038657743483781815
0.4849582612514496 0.7224574089050293 -0.04068024829030037
0.48503750562667847 0.7433800101280212 -0.023369599133729935
0.451521635055542 0.7248530387878418 -0.03115782141685486
0.427724689245224 0.7265381813049316 -0.014504039660096169
0.45742714405059814 0.7395923137664795 -0.01830802485346794
0.4351159930229187 0.7359525561332703 -0.003299457486718893
0.3947947323322296 0.753910481929779 0.030485259369015694
0.522532045841217 0.6689656972885132 -0.12285032123327255
0.5203620791435242 0.6447970271110535 -0.1358051300048828
0.2932955324649811 0.43197014927864075 -0.06424065679311752
0.4445241391658783 0.5579121112823486 -0.049586761742830276
0.45240458846092224 0.6469041705131531 -0.0771675705909729
0.4490443170070648 0.6307036876678467 -0.07314670830965042
0.30692780017852783 0.6104549169540405 -0.023731041699647903
0.5180068016052246 0.6103600859642029 -0.13014517724514008
0.36497926712036133 0.41092008352279663 -0.09719549119472504
0.32472723722457886 0.41643238067626953 -0.08465837687253952
0.24575142562389374 0.32380008697509766 -0.02654166705906391
0.476257860660553 0.4416038393974304 -0.09410411864519119
0.42706310749053955 0.45179903507232666 -0.05137835443019867
0.373605877161026 0.7301194667816162 0.024631919339299202
0.22234490513801575 0.7017940282821655 0.20114152133464813
0.46928757429122925 0.6618378162384033 -0.06141571328043938
0.4897122085094452 0.6699443459510803 -0.05519966781139374
0.3937254548072815 0.7266209721565247 0.027166342362761497
0.3996517062187195 0.7285637855529785 0.02358117699623108
0.309730589389801 0.39931923151016235 -0.08083198964595795
0.4480743110179901 0.6527135372161865 -0.06101224198937416
0.4155973792076111 0.4182751774787903 -0.1012948527932167
0.4135565161705017 0.3979937732219696 -0.1127857193350792
0.3664243221282959 0.2760929465293884 -0.10942277312278748
0.27514415979385376 0.3602811396121979 -0.05850902944803238
0.3887427747249603 0.33408570289611816 -0.11337295174598694
0.27431315183639526 0.41834044456481934 -0.050937067717313766
0.24035018682479858 0.3914296627044678 -0.015281520783901215
0.4845873713493347 0.7339064478874207 -0.03445078432559967
0.45451152324676514 0.7325959205627441 -0.02506864070892334
0.4314032793045044 0.7312501668930054 -0.010273236781358719
0.4738244414329529 0.6650146842002869 -0.053482696413993835
0.3968379497528076 0.7276102900505066 0.025506392121315002
0.4113914966583252 0.7387403249740601 0.016772450879216194
0.4027111530303955 0.7295669317245483 0.023340851068496704
0.4873787462711334 0.6619542241096497 -0.09610101580619812
0.43771475553512573 0.7395740151405334 0.002808788325637579
0.4600169062614441 0.7445285320281982 -0.006009322591125965
0.48597803711891174 0.7491699457168579 -0.01103677786886692
0.48515990376472473 0.8081365823745728 0.01955522783100605
0.4791669249534607 0.7895196080207825 -0.006711090449243784
0.48101964592933655 0.7751544117927551 -0.012316619977355003
0.48314082622528076 0.7613089680671692 -0.009349123574793339
0.48511749505996704 0.7498936653137207 -0.00866821501404047
0.437162846326828 0.7399865984916687 0.004840911366045475
0.4332336485385895 0.7446649670600891 0.003662625327706337
0.4286026656627655 0.7511342763900757 0.0023413507733494043
0.4248320460319519 0.7585951685905457 0.007501850835978985
0.41155046224594116 0.7036589980125427 -0.016160115599632263
0.18803885579109192 0.5745279788970947 0.19392725825309753
0.5358254909515381 0.6820359826087952 -0.0728534534573555
0.4206514060497284 0.7350782752037048 0.01585162803530693
0.41615626215934753 0.736648678779602 0.0157217588275671
0.4983971416950226 0.6791288256645203 -0.052026279270648956
0.4531156122684479 0.6636548638343811 -0.03656597435474396
0.49437984824180603 0.6747735738754272 -0.0545446053147316
0.4171033501625061 0.569589376449585 -0.042360514402389526
0.3732803165912628 0.5850046277046204 -0.038941871374845505
0.442203551530838 0.6377829313278198 -0.05754117667675018
0.2956605851650238 0.2939579486846924 -0.07333389669656754
0.32264548540115356 0.3398967385292053 -0.08997128903865814
0.35739409923553467 0.3907434344291687 -0.1013525202870369
0.41955646872520447 0.7765470743179321 0.025141404941678047
0.47239193320274353 0.40897518396377563 -0.1124747097492218
0.45273783802986145 0.3354114294052124 -0.1203954666852951
0.4381074905395508 0.26856115460395813 -0.12251245975494385
0.33543163537979126 0.5025014877319336 -0.037493687123060226
0.2662698030471802 0.5251080989837646 -0.00546248396858573
0.4431910514831543 0.4996257424354553 -0.033365264534950256
0.30005744099617004 0.4604029059410095 -0.04075426608324051
0.4639493227005005 0.544719934463501 -0.058613017201423645
0.4721025228500366 0.6446619629859924 -0.10015936195850372
0.23530887067317963 0.5372244715690613 0.020291095599532127
0.28813436627388 0.5450605750083923 -0.01942375861108303
0.32550668716430664 0.5568579435348511 -0.0328044518828392
0.376221239566803 0.55422443151474 -0.03572933375835419
0.411732941865921 0.5446363687515259 -0.03676570951938629
0.43788227438926697 0.5348033308982849 -0.041385676711797714
0.5032442212104797 0.5182248950004578 -0.08672433346509933
0.23876996338367462 0.5909345149993896 0.027692537754774094
0.2768612504005432 0.45674973726272583 -0.036104295402765274
0.5268372297286987 0.6787259578704834 -0.10807310789823532
0.4493955671787262 0.5859395861625671 -0.052761394530534744
0.18148431181907654 0.4625105559825897 0.14054739475250244
0.4592413604259491 0.5240077376365662 -0.0452769510447979
0.4358970522880554 0.63485187292099 -0.03309570252895355
0.31318384408950806 0.4759191572666168 -0.027069756761193275
0.46840059757232666 0.6246395111083984 -0.09499316662549973
0.20011606812477112 0.6367047429084778 0.2030336707830429
0.4421522617340088 0.49111390113830566 -0.031209971755743027
0.4933610260486603 0.615626335144043 -0.11769899725914001
0.301128089427948 0.7803575992584229 0.10392025858163834
0.29648709297180176 0.8003362417221069 0.15158870816230774
0.2041698694229126 0.5864155888557434 0.10982757806777954
0.26123690605163574 0.7434697151184082 0.1181061863899231
0.21971696615219116 0.43098515272140503 0.030947433784604073
0.422576904296875 0.869597852230072 0.06800105422735214
0.5256110429763794 0.6810586452484131 -0.07291550189256668
0.4246560037136078 0.6008862853050232 -0.0427766889333725
0.23687419295310974 0.49075424671173096 0.015115400776267052
0.3627014458179474 0.49379247426986694 -0.04370374232530594
0.3845394551753998 0.495694100856781 -0.04562816768884659
0.4072520434856415 0.7414391040802002 0.020455030724406242
0.241353377699852 0.6404314041137695 0.05147433653473854
0.46747899055480957 0.8993121385574341 0.08739639073610306
0.38570940494537354 0.8623384237289429 0.11284073442220688
0.34581470489501953 0.8370866775512695 0.1295931339263916
0.5218974351882935 0.3372494578361511 -0.11335831135511398
0.5159096717834473 0.9016900062561035 0.09147974103689194
0.40489673614501953 0.4941575527191162 -0.04315823316574097
0.424426406621933 0.49184510111808777 -0.03752426430583
0.43690258264541626 0.4917592704296112 -0.03207242861390114
0.2531476318836212 0.4486663341522217 -0.017421072348952293
0.4189820885658264 0.46753934025764465 -0.046704258769750595
0.3971540331840515 0.4566684365272522 -0.05482994392514229
0.3753863275051117 0.45452016592025757 -0.05775153264403343
0.35355833172798157 0.4584697484970093 -0.05466792359948158
0.3398357331752777 0.4651256203651428 -0.04795503243803978
0.19058597087860107 0.40720731019973755 0.0858440175652504
0.34719300270080566 0.4890880584716797 -0.03945738822221756
0.5285821557044983 0.6973919868469238 -0.042118366807699203
0.4420078992843628 0.6957722902297974 -0.030107852071523666
0.47126880288124084 0.6604952812194824 -0.0720314159989357
0.4938017427921295 0.6968390941619873 -0.045662522315979004
0.523099422454834 0.4748278558254242 -0.08305774629116058
0.3437963128089905 0.8144711256027222 0.0967138260602951
0.38206911087036133 0.8422383069992065 0.08466319739818573
0.46849700808525085 0.8871941566467285 0.056012824177742004
0.2559043765068054 0.7571219205856323 0.17914515733718872
0.43502911925315857 0.4824634790420532 -0.038088358938694
0.4884800612926483 0.5605118870735168 -0.08637908846139908
0.5186942219734192 0.8898459076881409 0.06090609356760979
0.4257338345050812 0.8848457336425781 0.0947539284825325
0.2128305286169052 0.641564130783081 0.12370949238538742
0.45946067571640015 0.7453429698944092 -0.003751103300601244
0.45567628741264343 0.7539107203483582 -0.005184256937354803
0.45227542519569397 0.7645343542098999 -0.0070183840580284595
0.4496934115886688 0.7773442268371582 -0.001648905104957521
0.4494387209415436 0.7956178784370422 0.018905384466052055
0.4162488281726837 0.7320878505706787 0.010189934633672237
0.41227972507476807 0.7293428182601929 0.008167569525539875
0.40881943702697754 0.7266204357147217 0.00566483847796917
0.3866240680217743 0.714687705039978 0.001414523459970951
0.28049248456954956 0.6606253385543823 0.013011149130761623
0.4839858114719391 0.5299938917160034 -0.07109340280294418
0.4646983742713928 0.4746593236923218 -0.04650658741593361
0.4465957283973694 0.4746822118759155 -0.041576460003852844
0.420513391494751 0.7348724603652954 0.014245027676224709
0.27506133913993835 0.7145097255706787 0.06525865942239761
0.49089735746383667 0.47796767950057983 -0.07263871282339096
0.43588772416114807 0.8203103542327881 0.035127002745866776
0.5360556244850159 0.5766062140464783 -0.11830198019742966
0.5090833306312561 0.5509205460548401 -0.10313012450933456
0.5318970084190369 0.5466794967651367 -0.1050526574254036
0.47066378593444824 0.5988388657569885 -0.07902004569768906
0.5204026699066162 0.8680377006530762 0.04090649262070656
0.5200336575508118 0.8374030590057373 0.03248794004321098
0.4781026840209961 0.8357201814651489 0.030566632747650146
0.3735010623931885 0.7678903937339783 0.04217860475182533
0.41193097829818726 0.6518643498420715 -0.026300208643078804
0.4022185504436493 0.7971709966659546 0.04098754748702049
0.3460082411766052 0.6473398208618164 -0.028039881959557533
0.3843728303909302 0.6743814945220947 -0.018591493368148804
0.3197716474533081 0.6823078989982605 -0.001870043110102415
0.4719415605068207 0.8654693365097046 0.037592675536870956
0.45258986949920654 0.6080252528190613 -0.060698002576828
0.35275259613990784 0.7889154553413391 0.06482869386672974
0.38947242498397827 0.8192117214202881 0.06181047111749649
0.35025715827941895 0.7372551560401917 0.030342141166329384
0.24763832986354828 0.6814007759094238 0.07379255443811417
0.31488853693008423 0.7433330416679382 0.04833295941352844
0.22912387549877167 0.6933572888374329 0.13134035468101501
0.35921990871429443 0.6991082429885864 -0.0027519501745700836
0.46894600987434387 0.5728734135627747 -0.06826822459697723
0.48047518730163574 0.6578722596168518 -0.10285704582929611
0.46043452620506287 0.6569551825523376 -0.07585079967975616
0.4957358241081238 0.6449649930000305 -0.12005765736103058
0.4483169913291931 0.4524819850921631 -0.06248646229505539
0.4090709090232849 0.4342471957206726 -0.07553128153085709
0.3721581697463989 0.42874854803085327 -0.07926135510206223
0.3400122821331024 0.43225783109664917 -0.07374302297830582
0.3153194785118103 0.4426233768463135 -0.06164489686489105
0.2924985885620117 0.48265138268470764 -0.018990948796272278
0.20040351152420044 0.5325078368186951 0.0890868678689003
0.31442147493362427 0.5198607444763184 -0.025590354576706886
0.34320908784866333 0.5291847586631775 -0.033630240708589554
0.3784073293209076 0.5297728776931763 -0.037061527371406555
0.4098389446735382 0.5245722532272339 -0.03709975630044937
0.43401241302490234 0.5181273818016052 -0.03522460535168648
0.45140865445137024 0.5121364593505859 -0.03577633574604988
0.18299046158790588 0.5169458985328674 0.17387855052947998
0.45837172865867615 0.6596390604972839 -0.062462881207466125
0.49257519841194153 0.5875241756439209 -0.09888526052236557
0.5023401379585266 0.6640671491622925 -0.11626669764518738
0.5110943913459778 0.6737145781517029 -0.10062061250209808
0.4988701343536377 0.6658181548118591 -0.10425058752298355
0.46286579966545105 0.6644611358642578 -0.05038527026772499
0.517990231513977 0.676965594291687 -0.10553425550460815
0.5167340040206909 0.6791350245475769 -0.07507918030023575
0.45165717601776123 0.49290287494659424 -0.031463831663131714
0.46565598249435425 0.49996769428253174 -0.04055234044790268
0.47619378566741943 0.5064529180526733 -0.05345471575856209
0.33182525634765625 0.47036105394363403 -0.04036848247051239
0.31530308723449707 0.46083077788352966 -0.042732756584882736
0.5541623830795288 0.5785403847694397 -0.10465966165065765
0.6621224880218506 0.4767298102378845 0.035376206040382385
0.558111310005188 0.6730439066886902 -0.06972864270210266
0.7292441725730896 0.36129826307296753 0.13691209256649017
0.5994822978973389 0.5031250715255737 0.0028642478864639997
0.621811032295227 0.5042953491210938 0.009537676349282265
0.6432583928108215 0.502490758895874 0.020024878904223442
0.6683511137962341 0.4838733375072479 0.043813202530145645
0.5816148519515991 0.4987066686153412 -0.000746212899684906
0.6397318840026855 0.4348895251750946 -0.011582206934690475
0.6128700971603394 0.43825244903564453 -0.018428286537528038
0.6621807217597961 0.4383794665336609 0.0019095767056569457
0.6744176745414734 0.44656676054000854 0.015503371134400368
0.6854062080383301 0.49909746646881104 0.062460269778966904
0.5944753885269165 0.8363004326820374 0.08151964843273163
0.6689786911010742 0.46774840354919434 0.04369211941957474
0.7337749004364014 0.4700056314468384 0.17729876935482025
0.707214891910553 0.4781140089035034 0.08622031658887863
0.6324030160903931 0.6137662529945374 0.007883736863732338
0.5480144023895264 0.7202622890472412 -0.028380362316966057
0.5427666902542114 0.7413168549537659 -0.011994069442152977
0.5721133947372437 0.720100998878479 -0.005814943928271532
0.5869476199150085 0.7204041481018066 0.020209886133670807
0.5633741021156311 0.7357133626937866 0.0037773700896650553
0.5782034397125244 0.7309467792510986 0.026134198531508446
0.6161019802093506 0.7448784112930298 0.0744970515370369
0.5607600212097168 0.6672576665878296 -0.11656186729669571
0.5644338726997375 0.643403947353363 -0.1283164918422699
0.706656813621521 0.4280112087726593 0.021117661148309708
0.5844695568084717 0.5550548434257507 -0.018949132412672043
0.5993884801864624 0.6425466537475586 -0.04846913367509842
0.5977707505226135 0.6268150806427002 -0.04356908053159714
0.6951113343238831 0.599738359451294 0.05266455560922623
0.5601086020469666 0.6092097163200378 -0.12055156379938126
0.6651479601860046 0.41249585151672363 -0.03811094909906387
0.6916654109954834 0.41582542657852173 -0.010702099651098251
0.7170859575271606 0.3242477774620056 0.07351746410131454
0.569231390953064 0.4394991993904114 -0.07458268851041794
0.5892977714538574 0.4493107497692108 -0.014323939569294453
0.6344912052154541 0.7199019193649292 0.07792185246944427
0.690239667892456 0.6838076114654541 0.3049848675727844
0.5835584998130798 0.6581187844276428 -0.040181562304496765
0.5671436190605164 0.6680361032485962 -0.044483818113803864
0.6077395677566528 0.7195280194282532 0.07336593419313431
0.6024198532104492 0.7219513654708862 0.06445677578449249
0.7022113800048828 0.39826500415802 -0.0019423604244366288
0.5973696708679199 0.648513674736023 -0.03294530138373375
0.6254370808601379 0.41846057772636414 -0.06062377616763115
0.6308298110961914 0.39887934923171997 -0.07092132419347763
0.64736407995224 0.2782411277294159 -0.052457213401794434
0.7106095552444458 0.3585830330848694 0.0286145880818367
0.6389148831367493 0.33481118083000183 -0.06530453264713287
0.7167688608169556 0.4134371876716614 0.04022310674190521
0.7249219417572021 0.3875530958175659 0.08336274325847626
0.546082079410553 0.7318130731582642 -0.022234197705984116
0.5679243206977844 0.7283822894096375 -0.0013198923552408814
0.5828459858894348 0.7256038784980774 0.02150045894086361
0.5783588290214539 0.6616970300674438 -0.03625008836388588
0.6049742698669434 0.7207745313644409 0.06835018843412399
0.5937057733535767 0.7321397066116333 0.05303685739636421
0.5994200706481934 0.7232391238212585 0.0630989745259285
0.5787166953086853 0.6584744453430176 -0.0765359029173851
0.5741326212882996 0.7351387143135071 0.030724089592695236
0.5588415265083313 0.7411412000656128 0.014782071113586426
0.5391218066215515 0.7473252415657043 0.0006562827038578689
0.5493326187133789 0.8050616979598999 0.030533647164702415
0.5422740578651428 0.7866100668907166 0.005240791942924261
0.5420154929161072 0.7722866535186768 0.0003827223554253578
0.5403385758399963 0.7586756944656372 0.00310944439843297
0.5376020669937134 0.7474868893623352 0.003159248735755682
0.5730974674224854 0.7345198392868042 0.03280194476246834
0.5776525735855103 0.7388613224029541 0.03162626549601555
0.5819978713989258 0.7448759078979492 0.03125699609518051
0.5850525498390198 0.752091109752655 0.038308631628751755
0.6157770156860352 0.6967655420303345 0.02361324429512024
0.7128788232803345 0.5621567368507385 0.3089534044265747
0.5847170948982239 0.729273796081543 0.05079938471317291
0.5894108414649963 0.7304297685623169 0.050678182393312454
0.5591281652450562 0.6779909729957581 -0.04142571985721588
0.5894954204559326 0.6599889993667603 -0.014416455291211605
0.5631113052368164 0.6733858585357666 -0.04420686885714531
0.6059097051620483 0.5655739307403564 -0.0015988163650035858
0.6440773606300354 0.5785451531410217 0.0158447977155447
0.5989682674407959 0.6338463425636292 -0.027056822553277016
0.6925853490829468 0.2958548367023468 0.008268853649497032
0.6838556528091431 0.3399637043476105 -0.019909145310521126
0.6730979681015015 0.3919389545917511 -0.03879208862781525
0.5989640355110168 0.768627941608429 0.06106964126229286
0.5788388252258301 0.40876445174217224 -0.09156497567892075
0.5865181088447571 0.33573630452156067 -0.09535478800535202
0.5914547443389893 0.2698279321193695 -0.09371915459632874
0.6597499847412109 0.49566155672073364 0.033281613141298294
0.7064885497093201 0.5147900581359863 0.08410858362913132
0.5706413388252258 0.49451762437820435 -0.0013032328570261598
0.6919650435447693 0.45414257049560547 0.041261423379182816
0.5710068941116333 0.5425465106964111 -0.03410059213638306
0.5915894508361816 0.6409423351287842 -0.07685872167348862
0.729814887046814 0.5262139439582825 0.1213851198554039
0.6947184205055237 0.5362786650657654 0.06491409242153168
0.6700202226638794 0.5495913028717041 0.03918001428246498
0.6296581029891968 0.5480818748474121 0.019301854074001312
0.5998017191886902 0.5388967990875244 0.005215377546846867
0.5792742967605591 0.5298705101013184 -0.009674523025751114
0.547186017036438 0.5175557136535645 -0.07651558518409729
0.7303732633590698 0.577788233757019 0.12828616797924042
0.7079567909240723 0.44922709465026855 0.053908031433820724
0.5509415864944458 0.6775150895118713 -0.10301316529512405
0.5854612588882446 0.5831097364425659 -0.0230754092335701
0.7267861366271973 0.45486223697662354 0.25959262251853943
0.5642955303192139 0.5202062129974365 -0.020657844841480255
0.5978835821151733 0.6309528350830078 -0.0027887767646461725
0.6767428517341614 0.4682547450065613 0.05060173198580742
0.5889461040496826 0.6213992834091187 -0.07117488235235214
0.7041177749633789 0.6213326454162598 0.313298761844635
0.5701867341995239 0.48559412360191345 0.0021976889111101627
0.5757272839546204 0.6133004426956177 -0.10062607377767563
0.6682822704315186 0.761998176574707 0.17900721728801727
0.6548912525177002 0.7811553478240967 0.23082681000232697
0.7316575050354004 0.5723413825035095 0.21934020519256592
0.6916833519935608 0.7246752977371216 0.20640550553798676
0.7305651307106018 0.4247349202632904 0.1361609846353531
0.5945513248443604 0.8582016229629517 0.10379202663898468
0.5455192923545837 0.6803990602493286 -0.06974980980157852
0.6033941507339478 0.5968891978263855 -0.0064137945882976055
0.7219420671463013 0.47885406017303467 0.11458835005760193
0.6421060562133789 0.4888911843299866 0.01843671128153801
0.6228029131889343 0.4915502369403839 0.009291757829487324
0.5971758961677551 0.7345830798149109 0.059278473258018494
0.7244759798049927 0.6253102421760559 0.1487375795841217
0.5572091937065125 0.8926740884780884 0.10813882201910019
0.6078718900680542 0.8475854396820068 0.16442199051380157
0.6285396814346313 0.8195620775222778 0.19437383115291595
0.6035748720169067 0.490098237991333 0.003659519599750638
0.5856536626815796 0.4872083067893982 0.002520990092307329
0.574800968170166 0.4865606725215912 0.003899011993780732
0.7197034358978271 0.4399369955062866 0.07939689606428146
0.5898460149765015 0.46312209963798523 -0.005350911989808083
0.610101580619812 0.4534377455711365 -0.006648922339081764
0.6316676139831543 0.45140910148620605 -0.0015974524430930614
0.6504728198051453 0.4547041356563568 0.009078985080122948
0.6604480147361755 0.4602110981941223 0.020276544615626335
0.7327671051025391 0.4022696018218994 0.20269641280174255
0.6542842388153076 0.48331010341644287 0.027974968776106834
0.5961676836013794 0.6911730170249939 0.0003397640830371529
0.5851757526397705 0.6566599607467651 -0.05176132172346115
0.5599261522293091 0.6949548125267029 -0.03295724466443062
0.6406189203262329 0.7975356578826904 0.15777602791786194
0.618073582649231 0.8276492357254028 0.1328672468662262
0.5616819262504578 0.8806897401809692 0.07544887810945511
0.6739795207977295 0.7379215955734253 0.2724415063858032
0.5763727426528931 0.47697940468788147 -0.0012023031013086438
0.5637702941894531 0.5589110851287842 -0.06984175741672516
0.5859943628311157 0.8735999464988708 0.13286201655864716
0.7225497961044312 0.625253438949585 0.22890682518482208
0.5573979020118713 0.7410395741462708 0.01721515879034996
0.5617986917495728 0.7492218017578125 0.016436884179711342
0.5650447607040405 0.7594728469848633 0.015662332996726036
0.5668574571609497 0.7721254229545593 0.021840786561369896
0.5774197578430176 0.7896884083747864 0.04497027397155762
0.5903151631355286 0.7263287305831909 0.046650126576423645
0.5944110751152039 0.7230693101882935 0.04800625890493393
0.5980287790298462 0.7199879884719849 0.04791657626628876
0.6302617788314819 0.7059000730514526 0.05088649317622185
0.7068194150924683 0.6465541124343872 0.09559445083141327
0.5587533712387085 0.5287703275680542 -0.05390283465385437
0.5599439144134521 0.47111645340919495 -0.02444876730442047
0.5700677037239075 0.47072210907936096 -0.010357489809393883
0.585396945476532 0.7298086881637573 0.04939800128340721
0.6975780129432678 0.6977260112762451 0.14853979647159576
0.5468195676803589 0.47558093070983887 -0.05956967920064926
0.5864591598510742 0.8120310306549072 0.06368865817785263
0.5512620806694031 0.5499822497367859 -0.09441002458333969
0.5789541006088257 0.5964193344116211 -0.057153597474098206
0.5553980469703674 0.8312638401985168 0.044156383723020554
0.6305577754974365 0.7559776306152344 0.09281957149505615
0.6157326698303223 0.6463367342948914 0.011890695430338383
0.6094807982444763 0.7865241169929504 0.08075471222400665
0.6686279773712158 0.6374756097793579 0.031694378703832626
0.6369479894638062 0.6665124893188477 0.029284659773111343
0.6826441884040833 0.669596254825592 0.06629922240972519
0.5615519881248474 0.8597705364227295 0.0556228868663311
0.5875305533409119 0.6050459742546082 -0.03337347134947777
0.6426050662994385 0.7737594842910767 0.1226237490773201
0.6177674531936646 0.8061025142669678 0.10625213384628296
0.6515140533447266 0.7248281836509705 0.09165661782026291
0.7141122221946716 0.6648026704788208 0.1667519509792328
0.6731371283531189 0.7275266647338867 0.11876380443572998
0.7099063396453857 0.6753775477409363 0.2315141260623932
0.6522173881530762 0.6889464855194092 0.053958769887685776
0.5741091370582581 0.5706878900527954 -0.0447070375084877
0.5859888195991516 0.6539469361305237 -0.08163868635892868
0.5939971804618835 0.6526944041252136 -0.05155951529741287
0.579909086227417 0.6419718265533447 -0.1033179983496666
0.5790984630584717 0.4488990008831024 -0.032353807240724564
0.6173471212387085 0.4324951171875 -0.03187648952007294
0.6502512693405151 0.4284851551055908 -0.022405676543712616
0.6747515797615051 0.43135926127433777 -0.0049798679538071156
0.6884329319000244 0.4397616684436798 0.015400107018649578
0.689819872379303 0.4735354781150818 0.06381970643997192
0.7350426912307739 0.5208530426025391 0.20132356882095337
0.6750107407569885 0.5120647549629211 0.050478141754865646
0.6545476317405701 0.5222894549369812 0.03271256014704704
0.6257060170173645 0.523617148399353 0.017559954896569252
0.5985312461853027 0.5188452005386353 0.006073863245546818
0.578896701335907 0.512803316116333 -0.0025678365491330624
0.5659497380256653 0.5074156522750854 -0.009088817983865738
0.718431830406189 0.5071975588798523 0.2923738360404968
0.5911366939544678 0.6555026769638062 -0.038695111870765686
0.5682978630065918 0.585676908493042 -0.0818738341331482
0.574340283870697 0.6606359481811523 -0.1029234528541565
0.5611814260482788 0.6710283160209656 -0.09278485924005508
0.5722870230674744 0.6624172925949097 -0.09050155431032181
0.5850577354431152 0.6608919501304626 -0.030426017940044403
0.5576159954071045 0.6749141216278076 -0.09914752840995789
0.5525908470153809 0.6775773763656616 -0.0697038546204567
0.5641269087791443 0.488250195980072 -0.0035574641078710556
0.556066632270813 0.49619758129119873 -0.019425608217716217
0.5528711080551147 0.5037440657615662 -0.03602329269051552
0.6655193567276001 0.46440041065216064 0.03079095482826233
0.6801445484161377 0.45552191138267517 0.032948002219200134
0.37246817350387573 0.471364289522171 -0.04242207482457161
0.3982018828392029 0.47145962715148926 -0.04242207482457161
0.37372148036956787 0.4471091330051422 -0.04242207482457161
0.34638020396232605 0.47144725918769836 -0.04242207482457161
0.37096744775772095 0.49585241079330444 -0.04242207482457161
0.617907702922821 0.46981045603752136 0.012024741619825363
0.6426824927330017 0.4694927930831909 0.012024741619825363
0.6171509623527527 0.4459342956542969 0.012024741619825363
0.59292072057724 0.47005486488342285 0.012024741619825363
0.618736743927002 0.4936680793762207 0.012024741619825363
