ply
format ascii 1.0
element vertex 478
property float x
property float y
property float z
end_header
0.5189847946166992 0.7012905478477478 -0.03412468731403351
0.5100865960121155 0.6473820209503174 -0.11805985122919083
0.5092326998710632 0.6582212448120117 -0.053496915847063065
0.4913610816001892 0.5667454600334167 -0.10767350345849991
0.5101763606071472 0.6251625418663025 -0.13035465776920319
0.510044515132904 0.5925725102424622 -0.12880253791809082
0.5094659328460693 0.5112220644950867 -0.0923176035284996
0.369655042886734 0.4911686182022095 -0.008616886101663113
0.5092958211898804 0.46675124764442444 -0.09347866475582123
0.5093836784362793 0.44006872177124023 -0.10690236836671829
0.5089084506034851 0.3111783564090729 -0.11615946143865585
0.5187947750091553 0.7067379951477051 -0.02891569584608078
0.5183671712875366 0.7112978100776672 -0.021091578528285027
0.5179416537284851 0.7138110995292664 -0.009727868251502514
0.5153180956840515 0.7469862103462219 0.005521137733012438
0.5157907009124756 0.7566050887107849 0.004775860346853733
0.5157933831214905 0.7682427167892456 0.002802712842822075
0.5155161023139954 0.781132698059082 0.009787437506020069
0.5086003541946411 0.8019471168518066 0.03422500193119049
0.5098956227302551 0.6561464667320251 -0.10433299839496613
0.4853208661079407 0.650266170501709 -0.07355287671089172
0.26338857412338257 0.39279019832611084 0.05920860916376114
0.429434597492218 0.5047033429145813 -0.023767640814185143
0.40908151865005493 0.5073630809783936 -0.022968966513872147
0.38809481263160706 0.5073012113571167 -0.018429525196552277
0.3591090142726898 0.4962642192840576 -0.003353370353579521
0.44581785798072815 0.4996557831764221 -0.022956030443310738
0.39405035972595215 0.4585369825363159 -0.045250438153743744
0.41665685176849365 0.45900803804397583 -0.04451579973101616
0.3733609914779663 0.4623335003852844 -0.0381324365735054
0.35981541872024536 0.46882814168930054 -0.028151901438832283
0.33923250436782837 0.5062767863273621 0.010138055309653282
0.425682008266449 0.8256717324256897 0.07175250351428986
0.36032018065452576 0.4864037334918976 -0.003361754585057497
0.2592901289463043 0.488660603761673 0.10076691210269928
0.30971112847328186 0.4910045862197876 0.026007911190390587
0.39469045400619507 0.599667489528656 -0.018429385498166084
0.4847208261489868 0.6949055194854736 -0.03351934626698494
0.48534145951271057 0.7065259218215942 -0.018059469759464264
0.45234039425849915 0.6921640038490295 -0.01791495829820633
0.42935845255851746 0.6897685527801514 0.005759076215326786
0.45750510692596436 0.7009673118591309 -0.006834116298705339
0.43577104806900024 0.6963367462158203 0.013969824649393559
0.39572644233703613 0.7279783487319946 0.06011510640382767
0.49097561836242676 0.6457754969596863 -0.11683708429336548
0.4889681041240692 0.6238886117935181 -0.1284893900156021
0.32638901472091675 0.4518894851207733 -0.035174522548913956
0.44370758533477783 0.5477743148803711 -0.03707069531083107
0.43513017892837524 0.6220108866691589 -0.06488817185163498
0.43460240960121155 0.6078683733940125 -0.06032809615135193
0.32916784286499023 0.5889115333557129 0.005926565267145634
0.4901488721370697 0.593638002872467 -0.12251472473144531
0.381141722202301 0.43762677907943726 -0.07786104828119278
0.3499634861946106 0.4422282576560974 -0.06100381910800934
0.28565680980682373 0.3596213757991791 0.006327485665678978
0.47400587797164917 0.4557463228702545 -0.08935277163982391
0.43650710582733154 0.46477046608924866 -0.0356067419052124
0.3770172595977783 0.699288010597229 0.05564024671912193
0.2888699769973755 0.6915053725242615 0.22324571013450623
0.4502622187137604 0.6360350251197815 -0.052421119064092636
0.46868300437927246 0.6443638801574707 -0.05174149200320244
0.3962743878364563 0.6871775388717651 0.05658241733908653
0.401770681142807 0.6898679733276367 0.05154024809598923
0.3358151912689209 0.42748185992240906 -0.054802607744932175
0.432645708322525 0.6267744898796082 -0.049847785383462906
0.42266836762428284 0.44100069999694824 -0.08764582872390747
0.4182644188404083 0.42522695660591125 -0.09809044748544693
0.37944337725639343 0.31827226281166077 -0.08744014799594879
0.3048684597015381 0.3915456533432007 -0.02825087122619152
0.3957187533378601 0.36937063932418823 -0.09439775347709656
0.30976277589797974 0.4397047758102417 -0.020353101193904877
0.28113991022109985 0.41696035861968994 0.01766720972955227
0.4846290051937103 0.7014041543006897 -0.027603035792708397
0.45489877462387085 0.6968778371810913 -0.012285401113331318
0.4325830936431885 0.6931777596473694 0.008662338368594646
0.4547296166419983 0.6389381289482117 -0.04733269289135933
0.39909207820892334 0.6885200142860413 0.05381336808204651
0.41383597254753113 0.710469663143158 0.045430976897478104
0.40428870916366577 0.6912579536437988 0.05084516108036041
0.4643630385398865 0.6374415755271912 -0.08648057281970978
0.43856045603752136 0.6987362504005432 0.01839660480618477
0.46007025241851807 0.7037516236305237 0.0035461275838315487
0.48652195930480957 0.7095299959182739 -0.007075815927237272
0.47331809997558594 0.7981330752372742 0.03575943782925606
0.4813409447669983 0.7765696048736572 0.011262821033596992
0.4824533462524414 0.7637742161750793 0.005262487567961216
0.48407167196273804 0.7522258162498474 0.007441388908773661
0.4860955476760864 0.7436084747314453 0.008186531253159046
0.4391975998878479 0.722752034664154 0.02987886592745781
0.4355860948562622 0.7258235812187195 0.028872234746813774
0.43095508217811584 0.7312201261520386 0.02904512546956539
0.42767661809921265 0.7380400896072388 0.03514513373374939
0.40386539697647095 0.6744286417961121 0.005135840270668268
0.2619818449020386 0.5786859393119812 0.21880532801151276
0.5095908045768738 0.6580508351325989 -0.07241791486740112
0.42348939180374146 0.7096595764160156 0.043592728674411774
0.41861218214035034 0.7094234228134155 0.043621309101581573
0.47673481702804565 0.6530410647392273 -0.04807233810424805
0.4385874569416046 0.6368029713630676 -0.028526190668344498
0.47289004921913147 0.6488978862762451 -0.051214490085840225
0.420898973941803 0.5565784573554993 -0.026170780882239342
0.38342615962028503 0.5681224465370178 -0.01801295205950737
0.42953455448150635 0.6140738725662231 -0.045040883123874664
0.32300540804862976 0.33385995030403137 -0.044479597359895706
0.3417918384075165 0.3744359016418457 -0.06436561793088913
0.3723328113555908 0.42126017808914185 -0.07931358367204666
0.41536709666252136 0.7559351921081543 0.05309499800205231
0.4676017165184021 0.431478351354599 -0.10591255128383636
0.44923722743988037 0.3690403699874878 -0.10962096601724625
0.43909692764282227 0.3113408386707306 -0.11083970218896866
0.37007996439933777 0.5036149024963379 -0.01056093629449606
0.31446343660354614 0.5175127983093262 0.026151668280363083
0.4555865228176117 0.49499475955963135 -0.021609846502542496
0.335934042930603 0.47368645668029785 -0.01095863152295351
0.45938345789909363 0.5372574925422668 -0.04872111976146698
0.451191782951355 0.6213411688804626 -0.0887928232550621
0.2803667187690735 0.5324884653091431 0.054626595228910446
0.33327847719192505 0.5333781242370605 0.0123171117156744
0.3626178503036499 0.5431702136993408 -0.0039796289056539536
0.4028644561767578 0.5415173172950745 -0.01437404751777649
0.4316725730895996 0.533583402633667 -0.02035854011774063
0.4521183371543884 0.5254303216934204 -0.029190056025981903
0.4885312020778656 0.5153765082359314 -0.0828578993678093
0.28216391801834106 0.5762498378753662 0.06262820214033127
0.31563711166381836 0.46913769841194153 -0.004111375194042921
0.49767857789993286 0.6549482345581055 -0.10349134355783463
0.44325485825538635 0.5713061094284058 -0.03979506716132164
0.25134268403053284 0.47886475920677185 0.16899628937244415
0.46794039011001587 0.5168149471282959 -0.03634979948401451
0.4269331097602844 0.611533522605896 -0.020758653059601784
0.35032346844673157 0.48579055070877075 0.0005985174211673439
0.45068445801734924 0.6039341688156128 -0.08350711315870285
0.27164363861083984 0.6336254477500916 0.22611667215824127
0.4527260363101959 0.488372802734375 -0.01877809315919876
0.4705001413822174 0.5975514650344849 -0.10773878544569016
0.3341829180717468 0.7542060017585754 0.1342473179101944
0.3392503261566162 0.7789435982704163 0.1746176779270172
0.2634209990501404 0.5806565880775452 0.14116331934928894
0.30671003460884094 0.7205593585968018 0.1479196399450302
0.2690082788467407 0.4485546350479126 0.06403347104787827
0.42347362637519836 0.8499560356140137 0.08915912359952927
0.49960005283355713 0.6567746996879578 -0.07123934477567673
0.4224547743797302 0.5833481550216675 -0.027335472404956818
0.2864076793193817 0.49018120765686035 0.04794270172715187
0.3922302722930908 0.4965464770793915 -0.018996587023139
0.41017401218414307 0.49679380655288696 -0.023560887202620506
0.4099695682525635 0.712306797504425 0.04970606788992882
0.28417253494262695 0.6212324500083923 0.08493586629629135
0.4634581506252289 0.884958028793335 0.09937416762113571
0.39944952726364136 0.8428990840911865 0.13287393748760223
0.3720390200614929 0.8155840039253235 0.1519380360841751
0.5091760754585266 0.37064480781555176 -0.11320589482784271
0.5094121694564819 0.8909612894058228 0.09579462558031082
0.4264322817325592 0.49420827627182007 -0.024678116664290428
0.44126248359680176 0.4905867576599121 -0.02220167964696884
0.4497808814048767 0.4890337288379669 -0.0189288929104805
0.29522261023521423 0.4607985019683838 0.015437589026987553
0.4335150718688965 0.47713983058929443 -0.029491335153579712
0.4154830873012543 0.47376298904418945 -0.03543561324477196
0.3984661102294922 0.474450945854187 -0.035083089023828506
0.38211819529533386 0.4777514934539795 -0.029488470405340195
0.37170255184173584 0.48164841532707214 -0.021351464092731476
0.25304892659187317 0.4300680160522461 0.11710451543331146
0.379483699798584 0.49425479769706726 -0.013469819910824299
0.5089608430862427 0.6721657514572144 -0.041739534586668015
0.4288440942764282 0.6675087809562683 -0.01576588861644268
0.45117318630218506 0.6350081562995911 -0.0633438229560852
0.47386789321899414 0.6699019074440002 -0.03942340612411499
0.5092802047729492 0.48563146591186523 -0.08437085151672363
0.36484968662261963 0.7893387079238892 0.12483793497085571
0.3937169909477234 0.8192801475524902 0.10928375273942947
0.4621780216693878 0.8707720041275024 0.07221733778715134
0.3128510117530823 0.7402636408805847 0.20083244144916534
0.4464561939239502 0.483717679977417 -0.023656632751226425
0.4742133319377899 0.5506274700164795 -0.07799331098794937
0.5095168352127075 0.877402663230896 0.06947297602891922
0.428427517414093 0.8678308725357056 0.11202274262905121
0.2713605761528015 0.6299353241920471 0.153701514005661
0.46098485589027405 0.7349386215209961 0.01746400259435177
0.4571179151535034 0.7411577701568604 0.016663137823343277
0.4538888931274414 0.7502663731575012 0.016705824062228203
0.45192188024520874 0.7618739604949951 0.02304445020854473
0.44003117084503174 0.7808102369308472 0.04291665181517601
0.4163135588169098 0.6925016641616821 0.03328327834606171
0.41314947605133057 0.6901438236236572 0.033203594386577606
0.4103958010673523 0.6877662539482117 0.03169035539031029
0.3849039673805237 0.6840693354606628 0.02970600314438343
0.3098090589046478 0.6359308362007141 0.04520225152373314
0.47449082136154175 0.5252689719200134 -0.06442683190107346
0.46901676058769226 0.47796812653541565 -0.038086388260126114
0.4549534320831299 0.47804075479507446 -0.02959316596388817
0.41987931728363037 0.6946831345558167 0.03616847097873688
0.3090735971927643 0.6889601349830627 0.09756715595722198
0.4887564778327942 0.4814959764480591 -0.06819859892129898
0.4329212009906769 0.8006975650787354 0.058505818247795105
0.5098457336425781 0.5646077990531921 -0.11523677408695221
0.4899260401725769 0.5421618223190308 -0.09767130762338638
0.5096332430839539 0.5387256145477295 -0.1030651330947876
0.4573421776294708 0.5826932787895203 -0.06862393766641617
0.5093451142311096 0.854114830493927 0.05161010101437569
0.5089690685272217 0.8255505561828613 0.0432945154607296
0.46930694580078125 0.8206452131271362 0.04760025441646576
0.3819955587387085 0.7398611903190613 0.0727529376745224
0.4080316126346588 0.6274781823158264 -0.00970339123159647
0.40553873777389526 0.7728900909423828 0.06878603994846344
0.35678955912590027 0.6232019066810608 -0.0013801123714074492
0.38575872778892517 0.6482393741607666 0.004807818681001663
0.3373594284057617 0.655012845993042 0.02980416640639305
0.46395787596702576 0.8479831218719482 0.0555814653635025
0.44263720512390137 0.5896002054214478 -0.0487896129488945
0.3679078221321106 0.7614481449127197 0.09534373134374619
0.3972652852535248 0.7944772839546204 0.08843977004289627
0.36202511191368103 0.7066531777381897 0.06295495480298996
0.29009878635406494 0.6598032116889954 0.10599720478057861
0.3372003734111786 0.7144002318382263 0.08176622539758682
0.284695565700531 0.6764776706695557 0.16072595119476318
0.3659004271030426 0.669395923614502 0.026069553568959236
0.45929011702537537 0.560889720916748 -0.05753782019019127
0.4576859176158905 0.6333390474319458 -0.09216215461492538
0.44149479269981384 0.6313114166259766 -0.06552920490503311
0.46919775009155273 0.6228358149528503 -0.11057746410369873
0.4531177878379822 0.4635120630264282 -0.04975518956780434
0.4194799065589905 0.45322006940841675 -0.05827505141496658
0.3901722729206085 0.4515446722507477 -0.058085449039936066
0.3647592067718506 0.454987108707428 -0.048456449061632156
0.34647542238235474 0.4620746076107025 -0.03350819647312164
0.33265000581741333 0.4883778691291809 0.009472534991800785
0.2589721083641052 0.5341974496841431 0.12231498956680298
0.3534455895423889 0.5158292651176453 0.0027303339447826147
0.3759385347366333 0.5225682258605957 -0.008235271088778973
0.40474754571914673 0.5226845741271973 -0.015874739736318588
0.43062230944633484 0.5176889896392822 -0.01925741508603096
0.44959762692451477 0.5114452838897705 -0.02309650182723999
0.4625650644302368 0.5062846541404724 -0.025862999260425568
0.25609737634658813 0.5277554392814636 0.20062856376171112
0.4408758282661438 0.6333441734313965 -0.05308094248175621
0.4740167260169983 0.5736351013183594 -0.08967339247465134
0.4743705987930298 0.6399561762809753 -0.1078638806939125
0.4848925471305847 0.649237871170044 -0.09534306079149246
0.47349172830581665 0.6414709687232971 -0.09637083858251572
0.44579583406448364 0.6379255056381226 -0.04301585629582405
0.4900585412979126 0.6527076959609985 -0.10061216354370117
0.491505891084671 0.6543275713920593 -0.07233323156833649
0.4608442187309265 0.48984092473983765 -0.021609047427773476
0.47225242853164673 0.4967699348926544 -0.03328721225261688
0.4797128736972809 0.503127932548523 -0.04811345413327217
0.3652975559234619 0.48456326127052307 -0.013590107671916485
0.35033243894577026 0.4760725498199463 -0.01412319578230381
0.5281032919883728 0.566964864730835 -0.10606323927640915
0.6554383635520935 0.49335432052612305 0.0012682665837928653
0.5339421033859253 0.6503167152404785 -0.0722694918513298
0.7408750057220459 0.3972731828689575 0.0760422870516777
0.5969447493553162 0.5076664090156555 -0.017356738448143005
0.6172756552696228 0.5092037916183472 -0.015191429294645786
0.6376688480377197 0.5089241862297058 -0.009513325057923794
0.665008544921875 0.4995720386505127 0.006993604823946953
0.5801392197608948 0.5037800669670105 -0.017968306317925453
0.6297624111175537 0.46123987436294556 -0.036885976791381836
0.6059507131576538 0.4626162648200989 -0.037900663912296295
0.6512704491615295 0.4645162522792816 -0.028532706201076508
0.6652280688285828 0.4712291657924652 -0.017949670553207397
0.6833432912826538 0.510593056678772 0.021104101091623306
0.5925318002700806 0.8267714977264404 0.0760265365242958
0.6640706062316895 0.48921999335289 0.006874555721879005
0.7486294507980347 0.4933931231498718 0.11463544517755508
0.7075360417366028 0.49752485752105713 0.03825007379055023
0.6213979721069336 0.601273775100708 -0.011396946385502815
0.5507060885429382 0.6957582831382751 -0.03144119679927826
0.5481544733047485 0.7074414491653442 -0.016146687790751457
0.5776766538619995 0.6933541297912598 -0.013790520839393139
0.5960820317268372 0.6914895176887512 0.011193178594112396
0.5719050765037537 0.702470600605011 -0.003331764368340373
0.5894845128059387 0.6985955238342285 0.018555114045739174
0.6206059455871582 0.7292210459709167 0.06621351838111877
0.5290512442588806 0.6458495259284973 -0.11583918333053589
0.5312485694885254 0.6239861249923706 -0.12732245028018951
0.695063591003418 0.45713329315185547 -0.02336171455681324
0.5729619860649109 0.5486066341400146 -0.032245516777038574
0.5834206938743591 0.6224714517593384 -0.060178209096193314
0.5835399627685547 0.6083167195320129 -0.05548647791147232
0.685208797454834 0.5916559100151062 0.01627524197101593
0.5297334790229797 0.5937055945396423 -0.12099936604499817
0.6439692378044128 0.4401768743991852 -0.06934553384780884
0.6739072799682617 0.44560569524765015 -0.05065053328871727
0.7210149765014648 0.364082008600235 0.021469291299581528
0.5507708191871643 0.45848292112350464 -0.08631318807601929
0.5853421688079834 0.46930810809135437 -0.03016565926373005
0.6392807960510254 0.700771689414978 0.06325005739927292
0.7243202328681946 0.695915162563324 0.23980526626110077
0.5681159496307373 0.6363797783851624 -0.049102701246738434
0.5499613881111145 0.64463871717453 -0.05001316964626312
0.6223391890525818 0.6901560425758362 0.06321927905082703
0.6162537932395935 0.6929187178611755 0.05757356435060501
0.6850940585136414 0.4328685700893402 -0.04384397715330124
0.5854369401931763 0.6273442506790161 -0.045198023319244385
0.6035972833633423 0.4430009126663208 -0.08169058710336685
0.6072797179222107 0.4276067018508911 -0.09189458191394806
0.6354269981384277 0.32144635915756226 -0.07854645699262619
0.7048196792602539 0.3960731029510498 -0.01658080704510212
0.6204963326454163 0.37226635217666626 -0.0874534398317337
0.7072817087173462 0.4471464157104492 -0.008035635575652122
0.7266978025436401 0.42159318923950195 0.030659236013889313
0.5498080253601074 0.7023900747299194 -0.0255865678191185
0.5748302340507507 0.6983076333999634 -0.00846702791750431
0.5929834842681885 0.695033609867096 0.013608509674668312
0.5635876655578613 0.6392908692359924 -0.044466856867074966
0.6192938685417175 0.691511869430542 0.06004555523395538
0.6059252023696899 0.712333083152771 0.050792042165994644
0.6131353378295898 0.6943524479866028 0.05674721300601959
0.5550438761711121 0.6377030611038208 -0.08328775316476822
0.5863868594169617 0.7010831236839294 0.02277972549200058
0.568893313407898 0.7052101492881775 0.0069130659103393555
0.5460910797119141 0.7104212641716003 -0.005091166589409113
0.5433683395385742 0.7985497713088989 0.03727492690086365
0.5472488403320312 0.7768520712852478 0.013077150098979473
0.5464110970497131 0.7639127969741821 0.007274863310158253
0.5446296334266663 0.7522392272949219 0.009489473886787891
0.5421605110168457 0.7435532212257385 0.010063556022942066
0.5827339887619019 0.7238203287124634 0.03427007421851158
0.5868223309516907 0.7268244028091431 0.03323762118816376
0.5915884971618652 0.7323163151741028 0.03355415165424347
0.5948802828788757 0.7392048239707947 0.03988718241453171
0.6124328970909119 0.6756088733673096 0.011313666589558125
0.7462501525878906 0.5835556983947754 0.23637892305850983
0.596114456653595 0.7115821838378906 0.048873282968997955
0.6011391878128052 0.7112822532653809 0.04885594919323921
0.5418999195098877 0.65337073802948 -0.04633456468582153
0.5795119404792786 0.6373492479324341 -0.024819422513246536
0.5458197593688965 0.6492519974708557 -0.04954032972455025
0.5951294898986816 0.5577685832977295 -0.020027460530400276
0.6321558356285095 0.5700922012329102 -0.010392999276518822
0.5882084965705872 0.6146941781044006 -0.04002203047275543
0.6875876188278198 0.33799904584884644 -0.03199348971247673
0.6705812811851501 0.37862634658813477 -0.05454183369874954
0.6511534452438354 0.42497915029525757 -0.0702923908829689
0.6012886762619019 0.7571216821670532 0.05821315571665764
0.5574199557304382 0.43393635749816895 -0.10290535539388657
0.5688880681991577 0.37053853273391724 -0.10579875856637955
0.5782296657562256 0.31320497393608093 -0.10616454482078552
0.6547411680221558 0.5058832764625549 -0.0007854608120396733
0.7054986357688904 0.5223545432090759 0.038108836859464645
0.5695987343788147 0.49989962577819824 -0.0171889029443264
0.6860756874084473 0.47811198234558105 0.00034227699507027864
0.5579862594604492 0.5378764271736145 -0.044987358152866364
0.5682721734046936 0.6218089461326599 -0.08493391424417496
0.7305633425712585 0.5367281436920166 0.06771139055490494
0.6916322708129883 0.5362790822982788 0.023901907727122307
0.6650664806365967 0.54413902759552 0.006041327025741339
0.62479567527771 0.5422406196594238 -0.006567922420799732
0.5948171019554138 0.5351499915122986 -0.014168217778205872
0.5732044577598572 0.5276044607162476 -0.02437218837440014
0.5300528407096863 0.515727162361145 -0.08133545517921448
0.7300076484680176 0.5803120732307434 0.07572843134403229
0.7029024958610535 0.47518402338027954 0.008213055320084095
0.5220189690589905 0.6549434065818787 -0.10268570482730865
0.5737107992172241 0.5719945430755615 -0.034876201301813126
0.7533954381942749 0.4833527207374573 0.18710792064666748
0.5570934414863586 0.5190325975418091 -0.03260374069213867
0.5901676416397095 0.6121830344200134 -0.015589715912938118
0.6734805703163147 0.4897119104862213 0.011275728233158588
0.568214476108551 0.6043074727058411 -0.07950688898563385
0.739322304725647 0.6381272077560425 0.24320855736732483
0.5707617402076721 0.49351489543914795 -0.014186039566993713
0.5489842891693115 0.5977528095245361 -0.10501759499311447
0.6825597286224365 0.7577878832817078 0.14414431154727936
0.6773185133934021 0.7827211618423462 0.1871573030948639
0.7473925352096558 0.5853769779205322 0.15505032241344452
0.7086879014968872 0.7246743440628052 0.159585103392601
0.7384739518165588 0.453047513961792 0.07759442925453186
0.5954095721244812 0.8512762188911438 0.09386318922042847
0.519694447517395 0.6567891836166382 -0.07072250545024872
0.5938886404037476 0.5843964219093323 -0.021530836820602417
0.7251253724098206 0.4992476999759674 0.061070993542671204
0.6344127655029297 0.49783915281295776 -0.010298927314579487
0.6169821619987488 0.49841031432151794 -0.015902860090136528
0.609933614730835 0.7142379283905029 0.05528831481933594
0.7290594577789307 0.625234842300415 0.09792660176753998
0.5550715923309326 0.8853952884674072 0.10262838751077652
0.6191751956939697 0.8447632789611816 0.14093993604183197
0.6462412476539612 0.818355917930603 0.16212889552116394
0.6003708839416504 0.4970216453075409 -0.018327724188566208
0.584798276424408 0.49486035108566284 -0.01691785827279091
0.5750917196273804 0.4941945970058441 -0.014135126024484634
0.7176138162612915 0.4693392813205719 0.028484301641583443
0.5893433690071106 0.48129481077194214 -0.023639516904950142
0.607081949710846 0.47673529386520386 -0.02857106365263462
0.6249415874481201 0.47628307342529297 -0.027072081342339516
0.642348051071167 0.4791901707649231 -0.020419558510184288
0.6530508399009705 0.4833720922470093 -0.01171875
0.7508150339126587 0.43427592515945435 0.1348017156124115
0.6465270519256592 0.4958608150482178 -0.004083189647644758
0.5884778499603271 0.6682995557785034 -0.010809406638145447
0.5673900246620178 0.6354262828826904 -0.05996289476752281
0.5441967844963074 0.6702958345413208 -0.03731243312358856
0.6527024507522583 0.7921558022499084 0.1328764259815216
0.6252277493476868 0.8216984868049622 0.11561406403779984
0.556427538394928 0.8713259696960449 0.07467126846313477
0.7021924257278442 0.7444366216659546 0.2157118320465088
0.5768946409225464 0.4885241389274597 -0.01855413056910038
0.5443018674850464 0.5510429739952087 -0.0752892717719078
0.5902146697044373 0.8687483072280884 0.11791069805622101
0.7413016557693481 0.6346863508224487 0.1675749272108078
0.5644644498825073 0.7353012561798096 0.020850272849202156
0.568616509437561 0.7415271401405334 0.020183056592941284
0.5720072388648987 0.75071120262146 0.020301705226302147
0.5741087198257446 0.7625343203544617 0.02670777589082718
0.5766950845718384 0.7815786600112915 0.046647898852825165
0.604117751121521 0.6953582763671875 0.03864208236336708
0.6077328324317932 0.6927106380462646 0.039014194160699844
0.6108696460723877 0.6902378797531128 0.03788340464234352
0.6310561895370483 0.6854143738746643 0.03709384426474571
0.7045296430587769 0.6390822529792786 0.05623278766870499
0.5434976816177368 0.5258705615997314 -0.06191062554717064
0.5538175106048584 0.48233911395072937 -0.0345320962369442
0.5674771070480347 0.483067125082016 -0.024894149973988533
0.6001408696174622 0.6977908611297607 0.04152068495750427
0.7058236002922058 0.6923321485519409 0.10870859026908875
0.5347188115119934 0.48485955595970154 -0.06581271439790726
0.5847066044807434 0.8017381429672241 0.06236506998538971
0.5291889309883118 0.5423741340637207 -0.09633363783359528
0.5607044696807861 0.5832877159118652 -0.06491365283727646
0.5482490658760071 0.8211135864257812 0.04928542673587799
0.6343039274215698 0.7416255474090576 0.07978253811597824
0.6082189679145813 0.6284042596817017 -0.0035216673277318478
0.6116126775741577 0.7743280529975891 0.07417749613523483
0.6586011648178101 0.6254037618637085 0.007134434767067432
0.6299799084663391 0.6497175693511963 0.012176679447293282
0.6776818633079529 0.6575421690940857 0.03937786445021629
0.5540705323219299 0.848467230796814 0.05772394686937332
0.5746932625770569 0.5901548266410828 -0.04423040151596069
0.6489666700363159 0.7636145353317261 0.10307922959327698
0.6209748983383179 0.7964349389076233 0.09438123553991318
0.6539535522460938 0.7087997794151306 0.07144394516944885
0.7237725257873535 0.663701057434082 0.11855708062648773
0.6787681579589844 0.7171338796615601 0.09131644666194916
0.7294044494628906 0.6810970306396484 0.17424125969409943
0.649652361869812 0.671230673789978 0.034278590232133865
0.5583735108375549 0.5615079402923584 -0.05362359806895256
0.56177818775177 0.6337176561355591 -0.08867483586072922
0.5771121978759766 0.6317277550697327 -0.061529491096735
0.5507090091705322 0.623060941696167 -0.10813181847333908
0.5696564316749573 0.46712708473205566 -0.04501068964600563
0.6043007373809814 0.45593583583831787 -0.05188005417585373
0.6351593732833862 0.4537625312805176 -0.050068315118551254
0.6604315042495728 0.4573300778865814 -0.03878561407327652
0.6777555346488953 0.46537724137306213 -0.022654959931969643
0.6882750988006592 0.4938216507434845 0.020752888172864914
0.7498341798782349 0.538982093334198 0.136534184217453
0.6717008948326111 0.5187258720397949 0.01318157184869051
0.6500601768493652 0.5242589116096497 0.0009992435807362199
0.621603786945343 0.5243209600448608 -0.008076172322034836
0.5953534841537476 0.5202290415763855 -0.01288226805627346
0.5756615996360779 0.5149441957473755 -0.018224922940135002
0.5620315074920654 0.5098865032196045 -0.021830454468727112
0.7499532699584961 0.532451331615448 0.21879158914089203
0.577311098575592 0.6337231397628784 -0.049135174602270126
0.5448151230812073 0.5739843845367432 -0.08685664087533951
0.5453786253929138 0.6400366425514221 -0.1057785302400589
0.5346132516860962 0.6493591070175171 -0.09406647831201553
0.5460178852081299 0.6417220830917358 -0.09411512315273285
0.5725840926170349 0.6382734775543213 -0.03965092822909355
0.5295930504798889 0.6527386903762817 -0.09957673400640488
0.5277159214019775 0.6543347835540771 -0.07142619043588638
0.5629380941390991 0.49479126930236816 -0.017606770619750023
0.5512729287147522 0.5006261467933655 -0.029965806752443314
0.544501781463623 0.505738377571106 -0.045483388006687164
0.6594201922416687 0.4866963326931 -0.003703273367136717
0.6739804744720459 0.47916850447654724 -0.003450402757152915
0.4052267074584961 0.4826663136482239 -0.021293088793754578
0.4270055592060089 0.4818493127822876 -0.021293088793754578
0.40383607149124146 0.4647684097290039 -0.021293088793754578
0.38303810358047485 0.4834136962890625 -0.021293088793754578
0.40641552209854126 0.5006983280181885 -0.021293088793754578
0.6173897385597229 0.483586847782135 -0.01371170487254858
0.6398400068283081 0.48421376943588257 -0.01371170487254858
0.6184117794036865 0.4666574001312256 -0.01371170487254858
0.594935417175293 0.4827693998813629 -0.01371170487254858
0.6164916753768921 0.5006034970283508 -0.01371170487254858
