ply
format ascii 1.0
element vertex 478
property float x
property float y
property float z
end_header
0.49800586700439453 0.7301573157310486 -0.07913105189800262
0.4946342706680298 0.6241849660873413 -0.13064925372600555
0.4959336817264557 0.6531455516815186 -0.07428871840238571
0.47606587409973145 0.5424320697784424 -0.09280051290988922
0.4947211444377899 0.5978002548217773 -0.13690555095672607
0.4954874515533447 0.5652201175689697 -0.12504981458187103
0.4973585307598114 0.48818209767341614 -0.053376298397779465
0.32777881622314453 0.47141581773757935 0.038205865770578384
0.4987422227859497 0.419684499502182 -0.031927745789289474
0.4992726147174835 0.3846738636493683 -0.03294099122285843
0.49954953789711 0.2732223868370056 0.000827669573482126
0.49807822704315186 0.7384136915206909 -0.07693567872047424
0.4979812800884247 0.7460009455680847 -0.06991349905729294
0.49801820516586304 0.7509015798568726 -0.059897977858781815
0.4987715482711792 0.7555408477783203 -0.047057755291461945
0.49865829944610596 0.7658681273460388 -0.05113283172249794
0.4983312785625458 0.7784395217895508 -0.05590353161096573
0.49796491861343384 0.7917312979698181 -0.05144202709197998
0.49461114406585693 0.8437950611114502 -0.030176576226949692
0.4949784278869629 0.6388683915138245 -0.11956074088811874
0.47346407175064087 0.6390467286109924 -0.08812985569238663
0.24503174424171448 0.3862426280975342 0.15985852479934692
0.39457589387893677 0.4949651062488556 0.011910880915820599
0.3713065981864929 0.49659958481788635 0.014072708785533905
0.34875571727752686 0.4957636296749115 0.021127181127667427
0.3176926076412201 0.48236262798309326 0.04142029583454132
0.4146764278411865 0.4902060031890869 0.015439550392329693
0.36172929406166077 0.4163212478160858 0.007628400810062885
0.38868051767349243 0.42120105028152466 0.00821910984814167
0.3360469341278076 0.42043256759643555 0.015686573460698128
0.31867551803588867 0.4321592450141907 0.025170085951685905
0.299640953540802 0.5012854337692261 0.052021484822034836
0.404793918132782 0.8686494827270508 -0.005123859737068415
0.3189295530319214 0.4655781388282776 0.04672534391283989
0.23551997542381287 0.4960184693336487 0.158307746052742
0.27411770820617676 0.48477596044540405 0.07781988382339478
0.37514054775238037 0.6065772175788879 -0.018246641382575035
0.46698495745658875 0.7231819033622742 -0.0756259486079216
0.4703502357006073 0.7435870170593262 -0.06619702279567719
0.438915491104126 0.7279319167137146 -0.061065129935741425
0.42022180557250977 0.7335824370384216 -0.04096318036317825
0.4474294185638428 0.7425591945648193 -0.05534790828824043
0.4298091232776642 0.7428894639015198 -0.036826398223638535
0.3836919367313385 0.7764801383018494 -0.0005294099100865424
0.47502750158309937 0.6231966614723206 -0.12859593331813812
0.4721371531486511 0.5979947447776794 -0.13407792150974274
0.2877730429172516 0.4065069556236267 0.03613818809390068
0.42567622661590576 0.543880820274353 -0.016179008409380913
0.4207792282104492 0.6175611615180969 -0.07141989469528198
0.41870903968811035 0.604905366897583 -0.06344190984964371
0.3040510416030884 0.6033139228820801 0.012974384240806103
0.47384506464004517 0.5676615834236145 -0.11793338507413864
0.3438974916934967 0.36765938997268677 -0.002438404830172658
0.31101298332214355 0.38183900713920593 0.01625177077949047
0.2673962116241455 0.3395872116088867 0.11748622357845306
0.44921642541885376 0.39480727910995483 -0.025112781673669815
0.4113171398639679 0.4344412088394165 0.014117451384663582
0.36732953786849976 0.7461453080177307 0.003960511647164822
0.26306360960006714 0.7418272495269775 0.20039859414100647
0.4385404586791992 0.6324042081832886 -0.0633709505200386
0.45765459537506104 0.6415156722068787 -0.06578610092401505
0.39691847562789917 0.7450036406517029 0.0017932227347046137
0.4029994010925293 0.7454785704612732 -0.004894857294857502
0.29834285378456116 0.36584529280662537 0.0289167370647192
0.4198199510574341 0.629828155040741 -0.05937598645687103
0.3889541029930115 0.3691393733024597 -0.01658906787633896
0.3851241171360016 0.3462357521057129 -0.019665218889713287
0.364010214805603 0.2816639542579651 0.030035315081477165
0.2817544937133789 0.357827752828598 0.06778007000684738
0.37549281120300293 0.32319363951683044 0.005269534885883331
0.27430349588394165 0.39784958958625793 0.05747482553124428
0.2587839365005493 0.39629074931144714 0.10594858229160309
0.4680706262588501 0.7346756458282471 -0.07357482612133026
0.44300979375839233 0.7357785105705261 -0.05919796600937843
0.42478686571121216 0.7383989691734314 -0.04094460606575012
0.44421127438545227 0.6378355622291565 -0.05806995555758476
0.4000006914138794 0.745266854763031 -0.0017094315262511373
0.41183531284332275 0.7525571584701538 -0.014376429840922356
0.40610986948013306 0.7457224130630493 -0.005367136560380459
0.44975194334983826 0.6230046153068542 -0.09473538398742676
0.434242844581604 0.7461550235748291 -0.033558133989572525
0.45154255628585815 0.7470043897628784 -0.04665694013237953
0.47293466329574585 0.7489778995513916 -0.056646112352609634
0.4589989483356476 0.8394516110420227 -0.028930073603987694
0.46745628118515015 0.7886828184127808 -0.04964908957481384
0.4688565135002136 0.7753179669380188 -0.05275658518075943
0.4710434079170227 0.7629311084747314 -0.0476178303360939
0.4736536741256714 0.7532147765159607 -0.043868422508239746
0.4348951578140259 0.7485331296920776 -0.024051090702414513
0.4303893744945526 0.7532023191452026 -0.027775518596172333
0.42519810795783997 0.759772002696991 -0.03155114874243736
0.4210010766983032 0.7673989534378052 -0.027445737272500992
0.3934744596481323 0.6995704174041748 -0.03212011605501175
0.2391035258769989 0.6123568415641785 0.24481314420700073
0.49526751041412354 0.646062433719635 -0.08988862484693527
0.421633780002594 0.7474318742752075 -0.012015948072075844
0.41682034730911255 0.7496669292449951 -0.014482071623206139
0.46422433853149414 0.6518108248710632 -0.06821081787347794
0.42760539054870605 0.645735502243042 -0.04339059442281723
0.46109911799430847 0.6468573808670044 -0.06735219061374664
0.3997848331928253 0.5579347014427185 -0.009320237673819065
0.3598743975162506 0.5738045573234558 -0.0028862946201115847
0.41473087668418884 0.6171781420707703 -0.050949208438396454
0.30544400215148926 0.30360493063926697 0.07096660137176514
0.31865447759628296 0.3319815397262573 0.03445873409509659
0.3359197974205017 0.3474450409412384 0.0034347104374319315
0.40147867798805237 0.8009876608848572 -0.01186563353985548
0.4419126510620117 0.35551321506500244 -0.031153244897723198
0.433763712644577 0.32512402534484863 -0.011618106625974178
0.4265495538711548 0.27326586842536926 0.0058586690574884415
0.329177588224411 0.49111664295196533 0.031717218458652496
0.2760193943977356 0.5211618542671204 0.06412215530872345
0.42773064970970154 0.48436403274536133 0.018975337967276573
0.29597848653793335 0.4464706480503082 0.046039387583732605
0.4430515468120575 0.5276467800140381 -0.023641813546419144
0.4350857138633728 0.6070889234542847 -0.09349535405635834
0.25048452615737915 0.5419173240661621 0.08869365602731705
0.2915560007095337 0.5376638174057007 0.04120854288339615
0.32190078496932983 0.54655921459198 0.01870550774037838
0.36714673042297363 0.5428986549377441 0.008675551041960716
0.4006110727787018 0.5327645540237427 0.00362703250721097
0.4261292815208435 0.520563006401062 -0.001389409531839192
0.47485774755477905 0.49392542243003845 -0.044757258147001266
0.2521245777606964 0.5951365232467651 0.07806482166051865
0.27919650077819824 0.444110631942749 0.058158908039331436
0.4831131398677826 0.6377477049827576 -0.118265800178051
0.4265374541282654 0.5680148005485535 -0.029357006773352623
0.23257702589035034 0.4966714084148407 0.23619648814201355
0.44524210691452026 0.5055172443389893 -0.003854770679026842
0.41244956851005554 0.6196221709251404 -0.02749810926616192
0.3085927367210388 0.4668934941291809 0.0512070469558239
0.43399548530578613 0.591744065284729 -0.08345500379800797
0.24678370356559753 0.6752520799636841 0.22933082282543182
0.42643797397613525 0.47603535652160645 0.02560674399137497
0.4536491930484772 0.5768950581550598 -0.10487603396177292
0.3081620931625366 0.8034353852272034 0.07824742794036865
0.31045210361480713 0.8349961638450623 0.11611068993806839
0.234200119972229 0.6048441529273987 0.1607825756072998
0.28026634454727173 0.7674441933631897 0.10666926950216293
0.24645566940307617 0.44338393211364746 0.13931144773960114
0.4001902639865875 0.8951094150543213 0.005375091452151537
0.48594141006469727 0.6449148058891296 -0.08827139437198639
0.40460658073425293 0.5866207480430603 -0.022178640589118004
0.2563113570213318 0.4927371144294739 0.101229727268219
0.3507145643234253 0.47834035754203796 0.023362962529063225
0.37034347653388977 0.48006343841552734 0.01745855063199997
0.4073631465435028 0.7560234069824219 -0.010799258947372437
0.2566460371017456 0.6482717990875244 0.08124588429927826
0.4430564045906067 0.9349356889724731 0.008840776979923248
0.3725237250328064 0.8947131633758545 0.055660996586084366
0.34359124302864075 0.8700222969055176 0.08230886608362198
0.4992736279964447 0.3287650942802429 -0.016786376014351845
0.4947568476200104 0.9426987171173096 0.0024988038931041956
0.38972145318984985 0.4794800877571106 0.016566939651966095
0.4079554080963135 0.47790107131004333 0.020107833668589592
0.4201178550720215 0.47738584876060486 0.02541554532945156
0.2635210156440735 0.4424903392791748 0.08237097412347794
0.4049625098705292 0.461958110332489 0.017539819702506065
0.3851209580898285 0.45510825514793396 0.01379589457064867
0.3658403754234314 0.45172494649887085 0.01523878425359726
0.3459596633911133 0.4531264901161194 0.021141793578863144
0.3329015374183655 0.45765063166618347 0.02831128239631653
0.2345236837863922 0.4361514747142792 0.20364484190940857
0.33731609582901 0.47509825229644775 0.031214119866490364
0.49632295966148376 0.6748334765434265 -0.07024940103292465
0.4165235459804535 0.684249222278595 -0.04609932377934456
0.43842431902885437 0.6274987459182739 -0.07118842005729675
0.46187838912010193 0.6755490899085999 -0.0679277703166008
0.4980063736438751 0.45560818910598755 -0.03395279869437218
0.338559627532959 0.8385375738143921 0.055945634841918945
0.368114173412323 0.8664975762367249 0.03209409862756729
0.4422750473022461 0.9167994260787964 -0.01747392676770687
0.28549644351005554 0.7955891489982605 0.1590682864189148
0.4195956885814667 0.47019582986831665 0.022624561563134193
0.4586755335330963 0.5329946279525757 -0.05642278492450714
0.4948723614215851 0.9248325824737549 -0.023067856207489967
0.40422096848487854 0.917447566986084 0.02763097546994686
0.24179652333259583 0.6629917621612549 0.15240737795829773
0.4521567225456238 0.7503432631492615 -0.035127587616443634
0.4479454457759857 0.7578836679458618 -0.03882450982928276
0.4442150890827179 0.7679299116134644 -0.04301834851503372
0.44143688678741455 0.7800873517990112 -0.039706096053123474
0.4254932403564453 0.8232790231704712 -0.023046938702464104
0.415897935628891 0.7439550757408142 -0.01940026506781578
0.4108023941516876 0.7415854930877686 -0.01889166049659252
0.40668201446533203 0.7388681769371033 -0.018750496208667755
0.37666016817092896 0.7203161120414734 -0.013561551459133625
0.2870987057685852 0.6610909700393677 0.03448782488703728
0.4594515562057495 0.5089700818061829 -0.03251007944345474
0.44735613465309143 0.4513711631298065 0.010224929079413414
0.43142735958099365 0.45719045400619507 0.019080040976405144
0.4211723804473877 0.746071457862854 -0.017976924777030945
0.2873791456222534 0.7272114753723145 0.06610087305307388
0.47063711285591125 0.4483862817287445 -0.019436899572610855
0.4145600199699402 0.8441423177719116 -0.012468565255403519
0.49623844027519226 0.5389152765274048 -0.10041136294603348
0.4753234088420868 0.5195422768592834 -0.07063755393028259
0.49678272008895874 0.5146759748458862 -0.07570531964302063
0.44089198112487793 0.5717234015464783 -0.060312915593385696
0.49484989047050476 0.8983860611915588 -0.03246992081403732
0.4947246313095093 0.8687163591384888 -0.030870230868458748
0.45280972123146057 0.8631037473678589 -0.02595500648021698
0.3635442554950714 0.7865944504737854 0.01214645430445671
0.39238014817237854 0.6408353447914124 -0.02124951034784317
0.38595882058143616 0.8185411691665649 0.0009164572693407536
0.3375248312950134 0.6375351548194885 -0.009581390768289566
0.3704083561897278 0.6675476431846619 -0.01685340516269207
0.3194064497947693 0.6805000901222229 0.007523019798099995
0.44573086500167847 0.8910927772521973 -0.02627316676080227
0.4261202812194824 0.586551308631897 -0.04506794363260269
0.3448489308357239 0.8077981472015381 0.0322020947933197
0.3742315173149109 0.8395193815231323 0.01632744073867798
0.3452991247177124 0.7500790357589722 0.014399971812963486
0.26471957564353943 0.6944316625595093 0.08681021630764008
0.3162584900856018 0.7563697099685669 0.03645498678088188
0.2559877336025238 0.7175506949424744 0.1386960744857788
0.3532677888870239 0.7010781168937683 -0.00535819074138999
0.44323334097862244 0.550250232219696 -0.04181167110800743
0.44249048829078674 0.6182132959365845 -0.09894067049026489
0.4283374845981598 0.625579833984375 -0.07462886720895767
0.4524226188659668 0.6011202931404114 -0.11390674114227295
0.42818963527679443 0.42242151498794556 0.0050053722225129604
0.38907384872436523 0.4015989601612091 0.0026404119562357664
0.3546357750892639 0.3974284827709198 0.0044524697586894035
0.3256852626800537 0.4048140048980713 0.014226806350052357
0.3054969906806946 0.42054444551467896 0.028577109798789024
0.2938344478607178 0.4754525423049927 0.060699064284563065
0.23172858357429504 0.5498936772346497 0.16064096987247467
0.3122907876968384 0.5113323330879211 0.03886941820383072
0.3371530771255493 0.5184709429740906 0.0247841514647007
0.36856046319007874 0.5183899402618408 0.014966157265007496
0.39828813076019287 0.5129621028900146 0.009821353480219841
0.42192983627319336 0.5049943923950195 0.010449630208313465
0.4382508397102356 0.49645406007766724 0.00901710707694292
0.23541754484176636 0.554086446762085 0.2486441433429718
0.4287838339805603 0.6332439184188843 -0.06343075633049011
0.457717627286911 0.5544066429138184 -0.07751820236444473
0.458730548620224 0.6195843815803528 -0.11711035668849945
0.4718628525733948 0.6339381337165833 -0.10864221304655075
0.45928582549095154 0.6246012449264526 -0.10606833547353745
0.43512439727783203 0.6417727470397949 -0.05589538812637329
0.4760323762893677 0.6361425518989563 -0.11504074931144714
0.4786398708820343 0.6431013345718384 -0.08818582445383072
0.4365101456642151 0.4758250117301941 0.021740827709436417
0.45098501443862915 0.48085832595825195 0.007233587559312582
0.4595825672149658 0.48385897278785706 -0.00894143059849739
0.32508599758148193 0.461783230304718 0.03629675135016441
0.3081441819667816 0.44720810651779175 0.03828233852982521
0.5167117118835449 0.5434697270393372 -0.09252869337797165
0.6635188460350037 0.4853190779685974 0.03893568739295006
0.5172448754310608 0.6402261853218079 -0.08782492578029633
0.7560936212539673 0.4005967676639557 0.16160322725772858
0.5970470905303955 0.5041002035140991 0.01245283056050539
0.6198733448982239 0.50734943151474 0.014787646010518074
0.6424137353897095 0.5074171423912048 0.021835587918758392
0.6737991571426392 0.4954061806201935 0.04203880950808525
0.5780580043792725 0.49672362208366394 0.015970615670084953
0.6353664398193359 0.4284757375717163 0.008278953842818737
0.6087453961372375 0.4306368827819824 0.008806279860436916
0.6605023145675659 0.43426570296287537 0.016453320160508156
0.6763546466827393 0.446394145488739 0.025927914306521416
0.6930007338523865 0.5137408375740051 0.052765656262636185
0.5874983072280884 0.8741356730461121 -0.00521917873993516
0.6726965308189392 0.4792338013648987 0.047426968812942505
0.7680789828300476 0.5125386714935303 0.15913783013820648
0.7228270769119263 0.4966910481452942 0.07882146537303925
0.6195309162139893 0.6128057241439819 -0.017542744055390358
0.5300580859184265 0.7229419350624084 -0.0753081813454628
0.5264753699302673 0.7436813116073608 -0.06598799675703049
0.5594257712364197 0.7275979518890381 -0.06036891043186188
0.5785853862762451 0.7337769269943237 -0.040351517498493195
0.5504283905029297 0.742546558380127 -0.05504560470581055
0.5685316920280457 0.7431079745292664 -0.03653496503829956
0.6131965517997742 0.7820844650268555 -0.0007080747745931149
0.5144671201705933 0.6243129372596741 -0.12838125228881836
0.5177947878837585 0.5990509986877441 -0.13393345475196838
0.7152644991874695 0.4194018244743347 0.037149421870708466
0.5695933699607849 0.5476467609405518 -0.01540305931121111
0.5719763040542603 0.621181070804596 -0.07039269804954529
0.5747407078742981 0.6083929538726807 -0.062428031116724014
0.6915647983551025 0.6138190031051636 0.013378147035837173
0.5174375176429749 0.5686798691749573 -0.11766435205936432
0.6594559550285339 0.38337722420692444 -0.0018069255165755749
0.6927818655967712 0.3959144055843353 0.016816074028611183
0.7325232028961182 0.35301676392555237 0.11877545714378357
0.551589846611023 0.40600842237472534 -0.024718821048736572
0.5854554772377014 0.4415048658847809 0.014859287068247795
0.6309731602668762 0.7524895668029785 0.003911883570253849
0.7418830394744873 0.7577897906303406 0.20334075391292572
0.5531100034713745 0.635406494140625 -0.06310566514730453
0.5336872339248657 0.6433899402618408 -0.06565289944410324
0.6018068194389343 0.7469736337661743 0.0017033718759194016
0.5956998467445374 0.746941328048706 -0.004786884877830744
0.7084554433822632 0.37888696789741516 0.0294645968824625
0.5729426741600037 0.6333053112030029 -0.05840644612908363
0.6135252118110657 0.38483870029449463 -0.016270145773887634
0.6190606355667114 0.36278241872787476 -0.019130568951368332
0.6371855139732361 0.2895750403404236 0.03079219162464142
0.7167773246765137 0.37206482887268066 0.06840171664953232
0.6241324543952942 0.3319319188594818 0.00596979446709156
0.7315505146980286 0.40962904691696167 0.05837336927652359
0.7409632802009583 0.41128993034362793 0.10693108290433884
0.5288083553314209 0.7346805334091187 -0.07326366752386093
0.5550095438957214 0.7358267903327942 -0.05875016748905182
0.5737847089767456 0.7386539578437805 -0.040463268756866455
0.5472357273101807 0.6404433846473694 -0.057551342993974686
0.5986828207969666 0.7470099925994873 -0.0017512652557343245
0.586701512336731 0.7540560960769653 -0.014198859222233295
0.5925238728523254 0.7469444870948792 -0.005199157167226076
0.5414714813232422 0.6254776120185852 -0.09406077116727829
0.5639388561248779 0.7460116744041443 -0.033189330250024796
0.5459120273590088 0.7468390464782715 -0.04628525301814079
0.5240200161933899 0.7489751577377319 -0.0563625767827034
0.5310194492340088 0.8416869044303894 -0.028987232595682144
0.5287940502166748 0.7894913554191589 -0.049407076090574265
0.5280695557594299 0.7759293913841248 -0.05253219231963158
0.5264873504638672 0.7633916735649109 -0.0473196767270565
0.5244102478027344 0.7536633610725403 -0.04359474405646324
0.563611626625061 0.7492797374725342 -0.023676780983805656
0.5680302977561951 0.7542823553085327 -0.027326030656695366
0.5728278756141663 0.7611114978790283 -0.030921734869480133
0.5767508745193481 0.769028902053833 -0.026916269212961197
0.6021457314491272 0.7044984698295593 -0.03141622617840767
0.7685319185256958 0.6293501257896423 0.24737222492694855
0.5770065188407898 0.7483537197113037 -0.011832776479423046
0.5817384719848633 0.7509154677391052 -0.014256084337830544
0.5274624228477478 0.6533814668655396 -0.06795291602611542
0.5650836825370789 0.6488559246063232 -0.042513877153396606
0.5303186774253845 0.6485488414764404 -0.06716509163379669
0.5954234004020691 0.5630757808685303 -0.008617681451141834
0.6354718804359436 0.5812265276908875 -0.0026071262545883656
0.5788830518722534 0.6208123564720154 -0.04986490681767464
0.6954342126846313 0.31504544615745544 0.07198626548051834
0.6800540685653687 0.34466591477394104 0.035163696855306625
0.670173168182373 0.3626081943511963 0.004106615204364061
0.5929578542709351 0.8062166571617126 -0.011726652272045612
0.5612756013870239 0.37018537521362305 -0.03091338649392128
0.5657391548156738 0.32960042357444763 -0.011068028397858143
0.5741052627563477 0.2774003744125366 0.006420414429157972
0.6618406772613525 0.5040885806083679 0.0322895348072052
0.7171988487243652 0.5339536666870117 0.0648413822054863
0.5657073855400085 0.4893338978290558 0.019442133605480194
0.7006471157073975 0.45952099561691284 0.04700037091970444
0.5522868633270264 0.5305135846138 -0.023104378953576088
0.5569997429847717 0.6101213097572327 -0.09267111867666245
0.7488035559654236 0.5569071173667908 0.089363232254982
0.6981407403945923 0.549984872341156 0.04209667071700096
0.6660744547843933 0.5566551089286804 0.01942894048988819
0.6211575269699097 0.5496810674667358 0.009209975600242615
0.5888980627059937 0.5370528697967529 0.0043182289227843285
0.5648499131202698 0.5232150554656982 -0.0007509051356464624
0.5200227499008179 0.4952426552772522 -0.04465707391500473
0.746242105960846 0.6098034977912903 0.07873298972845078
0.7205585837364197 0.4565504193305969 0.05916351452469826
0.5069119930267334 0.6384260654449463 -0.11804527044296265
0.5678383708000183 0.5714293122291565 -0.02828422747552395
0.7746562957763672 0.5129134058952332 0.2388816624879837
0.5471192002296448 0.5078389048576355 -0.003280198434367776
0.581445574760437 0.6232412457466125 -0.02604387141764164
0.6843277812004089 0.4801580309867859 0.05196992680430412
0.5589033365249634 0.5945813655853271 -0.08259198069572449
0.7603325843811035 0.6920841336250305 0.2318306416273117
0.5671401023864746 0.480832576751709 0.02600128762423992
0.5384616851806641 0.5788984894752502 -0.10439612716436386
0.6903306245803833 0.8154922127723694 0.07835280150175095
0.6883984804153442 0.8475017547607422 0.11797395348548889
0.7689548134803772 0.6217034459114075 0.16149868071079254
0.7201144695281982 0.7812971472740173 0.10699515044689178
0.7552179098129272 0.4586944580078125 0.14019903540611267
0.5919337272644043 0.9011993408203125 0.005425168666988611
0.5045623779296875 0.645378828048706 -0.08821467310190201
0.5899111032485962 0.591106116771698 -0.021202698349952698
0.744889497756958 0.504558265209198 0.10216169059276581
0.640582799911499 0.49198803305625916 0.024089666083455086
0.6212090849876404 0.4929601848125458 0.018059805035591125
0.5911778211593628 0.7578225135803223 -0.010844234377145767
0.7423131465911865 0.6627755165100098 0.08220116794109344
0.5469882488250732 0.938496470451355 0.009256822988390923
0.6213902831077576 0.9027252793312073 0.05648180842399597
0.6527928113937378 0.8801171183586121 0.08359301835298538
0.6022890210151672 0.4906001687049866 0.01693953573703766
0.5847387909889221 0.48615267872810364 0.020309513434767723
0.5730756521224976 0.48338818550109863 0.025624489411711693
0.739415168762207 0.4529949426651001 0.08347545564174652
0.5893757939338684 0.466158002614975 0.017831498757004738
0.6093789339065552 0.460875928401947 0.014210199005901814
0.628700315952301 0.460394024848938 0.015695538371801376
0.6478943824768066 0.4643845856189728 0.021624678745865822
0.6598818302154541 0.4702436029911041 0.029002556577324867
0.7692375779151917 0.4512597322463989 0.2059621810913086
0.6539006233215332 0.48898881673812866 0.03187814727425575
0.5779992938041687 0.6879001259803772 -0.04532860964536667
0.5530415773391724 0.630556046962738 -0.07047511637210846
0.5310057401657104 0.6773226857185364 -0.0676472932100296
0.6578108072280884 0.8486391305923462 0.05598783865571022
0.6265125274658203 0.8747897148132324 0.032097987830638885
0.5478594303131104 0.9202821850776672 -0.017552737146615982
0.7163946032524109 0.8099557161331177 0.1613539606332779
0.5744405388832092 0.47471922636032104 0.022945178672671318
0.5355161428451538 0.5349066257476807 -0.055903203785419464
0.5875074863433838 0.9233583211898804 0.0281483493745327
0.761365532875061 0.6797140836715698 0.15349292755126953
0.5460535287857056 0.7509418725967407 -0.03464550897479057
0.5499452352523804 0.7586337327957153 -0.03827214613556862
0.5532507300376892 0.7689051628112793 -0.0424189493060112
0.5555897951126099 0.7812979221343994 -0.039160605520009995
0.5664635300636292 0.8272228240966797 -0.022964652627706528
0.5829302072525024 0.7444431185722351 -0.019544430077075958
0.5880580544471741 0.7424120903015137 -0.01897868700325489
0.5924961566925049 0.7398531436920166 -0.018811509013175964
0.6205037236213684 0.7260462045669556 -0.01321357861161232
0.7100085020065308 0.6730602979660034 0.03459719195961952
0.5357080698013306 0.5111675262451172 -0.03241301700472832
0.5500242114067078 0.4561932682991028 0.010882709175348282
0.5644136667251587 0.46230053901672363 0.02002202905714512
0.5775837898254395 0.7462111115455627 -0.01764732040464878
0.7112231850624084 0.7396338582038879 0.0663195475935936
0.5272985696792603 0.4521082639694214 -0.018762610852718353
0.5778204798698425 0.8489810228347778 -0.012515854090452194
0.5185624361038208 0.5206320285797119 -0.07043242454528809
0.5525709390640259 0.5745477676391602 -0.059421710669994354
0.5374600887298584 0.8657002449035645 -0.02618340402841568
0.63255774974823 0.7940170764923096 0.012063004076480865
0.6017240881919861 0.6454396843910217 -0.020214134827256203
0.6085700988769531 0.8249166011810303 0.0007826373330317438
0.6574578881263733 0.6459421515464783 -0.009267495013773441
0.6244111657142639 0.6735931038856506 -0.01611492969095707
0.6766414046287537 0.6900475025177002 0.0076158237643539906
0.5444319844245911 0.8942914009094238 -0.02654409036040306
0.567630410194397 0.5897294878959656 -0.04407930001616478
0.6513141393661499 0.8168278336524963 0.031989723443984985
0.620523989200592 0.8469953536987305 0.016255926340818405
0.6518449783325195 0.7583959102630615 0.014146429486572742
0.7347985506057739 0.7086255550384521 0.08751963824033737
0.6811354160308838 0.7669334411621094 0.036302339285612106
0.7465208768844604 0.7333696484565735 0.13970071077346802
0.6432562470436096 0.7081630825996399 -0.005347025115042925
0.5510020852088928 0.5530147552490234 -0.040922921150922775
0.5488123893737793 0.6210330128669739 -0.09827481955289841
0.5637146830558777 0.6290799379348755 -0.07380235940217972
0.5384150743484497 0.6033357381820679 -0.11393994837999344
0.5701673626899719 0.43024349212646484 0.0057377987541258335
0.6099938154220581 0.41303810477256775 0.0030469768680632114
0.6445125937461853 0.41101914644241333 0.004999291617423296
0.6729050874710083 0.41908442974090576 0.015051658265292645
0.6923989057540894 0.4346417784690857 0.029648195952177048
0.7009848952293396 0.4879264533519745 0.06155738607048988
0.7711337804794312 0.5666881203651428 0.16139298677444458
0.6784488558769226 0.5236393809318542 0.039700496941804886
0.6532610058784485 0.5290994048118591 0.02537968009710312
0.6217662692070007 0.5270045399665833 0.015582998283207417
0.5927870273590088 0.519349217414856 0.010568414814770222
0.5705439448356628 0.5093390941619873 0.011193540878593922
0.5553461313247681 0.49942904710769653 0.009775147773325443
0.7720886468887329 0.5706591606140137 0.25118622183799744
0.5632539987564087 0.6365537047386169 -0.06252909451723099
0.535311222076416 0.5563546419143677 -0.07697150111198425
0.5315142273902893 0.6216179132461548 -0.11673108488321304
0.5187558531761169 0.6353854537010193 -0.10838208347558975
0.5315003991127014 0.6267725229263306 -0.10557705909013748
0.556988537311554 0.6445554494857788 -0.05509844049811363
0.5142980813980103 0.6372817754745483 -0.11477209627628326
0.5118447542190552 0.6439399719238281 -0.0879329964518547
0.5579794645309448 0.48021483421325684 0.02242160588502884
0.5441882014274597 0.4837605953216553 0.008028819225728512
0.5347346663475037 0.48636072874069214 -0.008570532314479351
0.6669917702674866 0.4749996066093445 0.03688693791627884
0.6862046122550964 0.4611086845397949 0.03906611353158951
0.36982786655426025 0.4674054980278015 0.02497580088675022
0.3935108780860901 0.46748483180999756 0.02497580088675022
0.36960795521736145 0.4470710754394531 0.02497580088675022
0.3458396792411804 0.4674493074417114 0.02497580088675022
0.36995869874954224 0.48769938945770264 0.02497580088675022
0.6204067468643188 0.47549840807914734 0.025466354563832283
0.6459267139434814 0.47663772106170654 0.025466354563832283
0.620924711227417 0.45216143131256104 0.025466354563832283
0.5949928164482117 0.47439801692962646 0.025466354563832283
0.6200982332229614 0.4986869692802429 0.025466354563832283
