ply
format ascii 1.0
element vertex 478
property float x
property float y
property float z
end_header
0.4909849762916565 0.7167268395423889 -0.05192900076508522
0.4817771911621094 0.6537149548530579 -0.12107449024915695
0.49024495482444763 0.6701585054397583 -0.05621807649731636
0.46593281626701355 0.5677738189697266 -0.09704425930976868
0.4801698923110962 0.6303903460502625 -0.1322980672121048
0.48178631067276 0.5954616069793701 -0.127082958817482
0.489128053188324 0.5041476488113403 -0.07665817439556122
0.34037524461746216 0.47748279571533203 0.04485355690121651
0.49009063839912415 0.4339103698730469 -0.06991294026374817
0.48884347081184387 0.4002453088760376 -0.0807817205786705
0.48967087268829346 0.2743091881275177 -0.07481248676776886
0.4912680685520172 0.7244768738746643 -0.04700243100523949
0.4926607310771942 0.7323010563850403 -0.037120189517736435
0.4947068691253662 0.7377400398254395 -0.022360481321811676
0.4945209324359894 0.738876223564148 -0.027724770829081535
0.49377426505088806 0.7506110072135925 -0.02707051858305931
0.4936121106147766 0.7647338509559631 -0.02958882413804531
0.4947117567062378 0.7786920666694641 -0.02377220056951046
0.5030466318130493 0.7940922975540161 0.00397723913192749
0.4846177101135254 0.6633050441741943 -0.10726749897003174
0.4666309952735901 0.6601108312606812 -0.07114429026842117
0.2710082232952118 0.3722078204154968 0.15649335086345673
0.4077076315879822 0.5035136342048645 0.011846398934721947
0.38387346267700195 0.5047744512557983 0.017485475167632103
0.3611680865287781 0.5032959580421448 0.027599560096859932
0.3335976004600525 0.4858894646167755 0.05176606774330139
0.4267977476119995 0.4993482232093811 0.009742587804794312
0.36568090319633484 0.43223318457603455 0.0012361787958070636
0.39410459995269775 0.4359566867351532 -0.004584950860589743
0.3414666950702667 0.43584445118904114 0.01361540611833334
0.32787054777145386 0.44481849670410156 0.02637643739581108
0.3171343505382538 0.5024227499961853 0.06830063462257385
0.43252032995224 0.8178481459617615 0.051477476954460144
0.33328086137771606 0.4690934121608734 0.05340712517499924
0.2718683183193207 0.47663283348083496 0.18461169302463531
0.2952187657356262 0.4821774363517761 0.0938950628042221
0.3908461928367615 0.6136473417282104 0.005460540764033794
0.46875065565109253 0.7102760672569275 -0.04436149820685387
0.4741826057434082 0.7300127148628235 -0.02963564358651638
0.4498269855976105 0.7167661190032959 -0.02487444505095482
0.43800491094589233 0.7240446209907532 -0.004931934177875519
0.4594160318374634 0.7301258444786072 -0.01726854033768177
0.44810646772384644 0.731838047504425 0.0002525033778510988
0.41416117548942566 0.7559419274330139 0.03989487886428833
0.46388572454452515 0.6525708436965942 -0.11655270308256149
0.45894330739974976 0.630275309085846 -0.12638066709041595
0.2944536507129669 0.4241105318069458 0.03553960472345352
0.4325062930583954 0.5515719652175903 -0.01392083428800106
0.4248468279838562 0.6377637982368469 -0.049495499581098557
0.42496222257614136 0.6230160593986511 -0.043663207441568375
0.33043503761291504 0.60555499792099 0.047603707760572433
0.46171844005584717 0.5974876284599304 -0.11560685187578201
0.3382103145122528 0.40530630946159363 -0.02031867392361164
0.31004393100738525 0.409710168838501 0.005736399441957474
0.28227078914642334 0.3347152769565582 0.09773631393909454
0.4406437575817108 0.4329978823661804 -0.05486058443784714
0.41906240582466125 0.44748836755752563 -0.00020774763834197074
0.3982980251312256 0.7371352314949036 0.04632902145385742
0.32976680994033813 0.6782453060150146 0.28424203395843506
0.4418862462043762 0.6513379216194153 -0.041737038642168045
0.4576406478881836 0.6589503884315491 -0.04664621129631996
0.4251936674118042 0.7353914976119995 0.0392267182469368
0.43033739924430847 0.7353370189666748 0.029792608693242073
0.2993062138557434 0.39192843437194824 0.016362065449357033
0.4274384677410126 0.6458848714828491 -0.03511293977499008
0.3804700970649719 0.41135990619659424 -0.04153795540332794
0.37442731857299805 0.3908119797706604 -0.04939927160739899
0.35661646723747253 0.28739041090011597 -0.019720831885933876
0.29114633798599243 0.3643033802509308 0.05017442628741264
0.3671867549419403 0.33855968713760376 -0.03750693425536156
0.28449732065200806 0.4106135964393616 0.05656985938549042
0.2776952087879181 0.39380496740341187 0.10212469100952148
0.4705454111099243 0.7212989926338196 -0.03977150097489357
0.4543507397174835 0.7241804599761963 -0.02224532887339592
0.4426584541797638 0.7281925678253174 -0.004464565776288509
0.4473465383052826 0.6550906300544739 -0.037983354181051254
0.42780473828315735 0.7353920340538025 0.03390699625015259
0.4344516396522522 0.7400187253952026 0.01752568781375885
0.4330991506576538 0.7353608012199402 0.028547735884785652
0.4465144872665405 0.6475300192832947 -0.07687649130821228
0.45292356610298157 0.7344856858253479 0.005901508964598179
0.46407461166381836 0.734124481678009 -0.005218984093517065
0.4780479371547699 0.7354453206062317 -0.015658188611268997
0.4769411087036133 0.7922837734222412 0.008798456750810146
0.4710463881492615 0.7752925157546997 -0.018321847543120384
0.4713374972343445 0.7613364458084106 -0.023354776203632355
0.47378069162368774 0.7473872900009155 -0.020451629534363747
0.4774467647075653 0.736569881439209 -0.02095136046409607
0.4521596133708954 0.7342338562011719 0.0021345065906643867
0.4471075236797333 0.739408016204834 0.0009650042047724128
0.44203126430511475 0.746142566204071 -0.0006327395676635206
0.43820297718048096 0.7538840770721436 0.00538633530959487
0.41445839405059814 0.7026643753051758 0.001936964225023985
0.2975843548774719 0.5644932985305786 0.30387431383132935
0.4872673749923706 0.6666182279586792 -0.07429517805576324
0.44393184781074524 0.7344493269920349 0.016849659383296967
0.43901222944259644 0.7370732426643372 0.016210351139307022
0.46470561623573303 0.6681616902351379 -0.045671675354242325
0.4369169771671295 0.658355176448822 -0.018138932064175606
0.46126359701156616 0.6637212038040161 -0.04702276363968849
0.41164514422416687 0.5646049976348877 0.0010498228948563337
0.3763246238231659 0.5808598399162292 0.01640062965452671
0.42436206340789795 0.6315553188323975 -0.028443172574043274
0.3081471621990204 0.3058041036128998 0.03600421920418739
0.3187073767185211 0.34454822540283203 0.004706589039415121
0.32987311482429504 0.384289026260376 -0.01842959225177765
0.43053221702575684 0.7695229053497314 0.027915900573134422
0.42982161045074463 0.4008779525756836 -0.06891033053398132
0.42257076501846313 0.33863380551338196 -0.06542866677045822
0.41534411907196045 0.27793070673942566 -0.057121653109788895
0.34309685230255127 0.49699217081069946 0.040863484144210815
0.2957788109779358 0.5193847417831421 0.08759849518537521
0.438556969165802 0.4947437047958374 0.010518782772123814
0.3093412518501282 0.453593909740448 0.051636967808008194
0.44554635882377625 0.5372220277786255 -0.02694922313094139
0.432339608669281 0.6323413848876953 -0.07647424191236496
0.2818725109100342 0.5322473645210266 0.12197626382112503
0.3078037202358246 0.5403090715408325 0.06602074205875397
0.3340633809566498 0.5528760552406311 0.03971630707383156
0.37710219621658325 0.5502934455871582 0.021722303703427315
0.40897005796432495 0.5404574871063232 0.009741685353219509
0.43136003613471985 0.5303288698196411 -0.0029611436184495687
0.4689401090145111 0.5092644095420837 -0.06262875348329544
0.29014167189598083 0.5838672518730164 0.12265782058238983
0.29366588592529297 0.4497506022453308 0.06526070833206177
0.4734955132007599 0.6623694896697998 -0.1039285659790039
0.4342744052410126 0.5789856314659119 -0.020235354080796242
0.27679580450057983 0.46385183930397034 0.267037570476532
0.44740918278694153 0.519157350063324 -0.011461920104920864
0.42554107308387756 0.6300731301307678 -0.004861666355282068
0.3245387673377991 0.4698193073272705 0.05979648604989052
0.43357720971107483 0.6143175363540649 -0.06949996948242188
0.31165099143981934 0.6196791529655457 0.30116069316864014
0.4390350580215454 0.48569241166114807 0.015311294235289097
0.44599252939224243 0.6034793853759766 -0.09706804156303406
0.3585215210914612 0.75328528881073 0.15005084872245789
0.3691447079181671 0.7672092914581299 0.20027093589305878
0.2844157814979553 0.5749533176422119 0.2144310623407364
0.33553165197372437 0.7181180119514465 0.18240956962108612
0.2734356224536896 0.4316818118095398 0.1498243361711502
0.432062566280365 0.8343238830566406 0.07233522087335587
0.4781067669391632 0.6656436324119568 -0.07144634425640106
0.41717931628227234 0.5952022671699524 -0.005884617567062378
0.28138455748558044 0.48425567150115967 0.12193750590085983
0.36178284883499146 0.4882597327232361 0.027683351188898087
0.3823012709617615 0.49061310291290283 0.01896558329463005
0.4305288791656494 0.7435973882675171 0.023437922820448875
0.30268025398254395 0.6283244490623474 0.13693714141845703
0.47052937746047974 0.8624716997146606 0.07788549363613129
0.4177488088607788 0.824400782585144 0.1317436546087265
0.3961487412452698 0.8006817698478699 0.16149099171161652
0.4886561632156372 0.3383671045303345 -0.08083450794219971
0.513258695602417 0.8691039085388184 0.06368931382894516
0.4029085040092468 0.4896279573440552 0.014341546222567558
0.4218440353870392 0.487321674823761 0.014256230555474758
0.43370509147644043 0.4866634011268616 0.016605552285909653
0.28245702385902405 0.442605584859848 0.09177564084529877
0.4184240698814392 0.46308374404907227 0.007796925026923418
0.3970187306404114 0.4533146619796753 0.006226969417184591
0.3743501305580139 0.4509190320968628 0.010659793391823769
0.35401520133018494 0.454312264919281 0.020482061430811882
0.34286150336265564 0.46037209033966064 0.030918128788471222
0.269121915102005 0.41320329904556274 0.21699216961860657
0.3486703038215637 0.4833824932575226 0.03723636269569397
0.4920358657836914 0.687475860118866 -0.04921319708228111
0.43131938576698303 0.6920448541641235 -0.014131666161119938
0.4402429163455963 0.6486617922782898 -0.05226384475827217
0.46420881152153015 0.6881812810897827 -0.042171236127614975
0.4911681115627289 0.46674785017967224 -0.06430411338806152
0.3839326798915863 0.7847145795822144 0.12497708946466446
0.40753740072250366 0.8090439438819885 0.10023108869791031
0.46497777104377747 0.854178786277771 0.04522238299250603
0.3486620783805847 0.7284351587295532 0.24652965366840363
0.4324934482574463 0.4768255054950714 0.012014554813504219
0.4546956717967987 0.5506288409233093 -0.061761274933815
0.5095996260643005 0.8604457974433899 0.03221249580383301
0.44096440076828003 0.8463459014892578 0.100939080119133
0.29889070987701416 0.6243675351142883 0.21770763397216797
0.46329960227012634 0.7347874045372009 -0.010012744925916195
0.4581637680530548 0.743206799030304 -0.01077129878103733
0.45410048961639404 0.7538570761680603 -0.012562601827085018
0.4517563581466675 0.7664507031440735 -0.00738944998010993
0.45104163885116577 0.7825363874435425 0.015889719128608704
0.4392719864845276 0.7337155938148499 0.015952765941619873
0.43427717685699463 0.7321038842201233 0.016622569411993027
0.4301277697086334 0.7300626635551453 0.01711455173790455
0.4029533267021179 0.7188326716423035 0.02321457862854004
0.32486826181411743 0.649730384349823 0.08304424583911896
0.4573498070240021 0.521648645401001 -0.04321376979351044
0.4511338174343109 0.4688253402709961 -0.009263597428798676
0.43964365124702454 0.4696241319179535 0.0038658599369227886
0.44448453187942505 0.7351894378662109 0.0192350372672081
0.33377915620803833 0.6970909237861633 0.12783139944076538
0.4654292166233063 0.47116395831108093 -0.042640313506126404
0.4411783814430237 0.7997860908508301 0.035166457295417786
0.48443475365638733 0.5647250413894653 -0.10952984541654587
0.46691805124282837 0.540285050868988 -0.08333321660757065
0.4867826998233795 0.535801887512207 -0.09281855821609497
0.44175028800964355 0.5895834565162659 -0.05332888290286064
0.5066260099411011 0.8425079584121704 0.014311159029603004
0.5048342943191528 0.8173210620880127 0.009873070754110813
0.47111666202545166 0.8138908743858337 0.019464951008558273
0.3955116271972656 0.7602753043174744 0.059437140822410583
0.4082329273223877 0.6472315192222595 0.005552494898438454
0.4168187081813812 0.7822662591934204 0.04855256900191307
0.36028623580932617 0.63959139585495 0.024093279615044594
0.3903800845146179 0.6694562435150146 0.015373580157756805
0.34932494163513184 0.6732760667800903 0.05104628950357437
0.4650147259235382 0.8373643159866333 0.02747836336493492
0.433730810880661 0.6007556319236755 -0.03172726556658745
0.38247746229171753 0.7694215774536133 0.09004535526037216
0.407914936542511 0.7942109704017639 0.07423354685306549
0.37732577323913574 0.7343993186950684 0.06234809011220932
0.31517791748046875 0.6649357676506042 0.1499156504869461
0.3564242124557495 0.728718638420105 0.09190774708986282
0.3144795894622803 0.6712369918823242 0.21348318457603455
0.37928664684295654 0.6981779336929321 0.033251021057367325
0.44480010867118835 0.5642317533493042 -0.03957109525799751
0.4390656054019928 0.6437423825263977 -0.08164924383163452
0.4311330020427704 0.6463728547096252 -0.05284697189927101
0.443686842918396 0.6305273771286011 -0.10201019793748856
0.43007892370224 0.44528958201408386 -0.016493244096636772
0.3889256715774536 0.427876353263855 -0.016365714371204376
0.3538772165775299 0.4237077534198761 -0.008025677874684334
0.32758504152297974 0.4270972013473511 0.007802148349583149
0.3127267360687256 0.43685537576675415 0.02707429602742195
0.31192949414253235 0.47585439682006836 0.07226566225290298
0.27454420924186707 0.5256708860397339 0.20190326869487762
0.32787591218948364 0.5149484276771545 0.05526874586939812
0.3500837981700897 0.5245359539985657 0.037104010581970215
0.3805692195892334 0.5252816677093506 0.022476395592093468
0.40960708260536194 0.5201769471168518 0.012624602764844894
0.43091797828674316 0.5136950016021729 0.006022702436894178
0.4450407028198242 0.5074502825737 0.001010999665595591
0.28773757815361023 0.5132802724838257 0.2936137020587921
0.4340131878852844 0.6509914398193359 -0.04056914523243904
0.451822429895401 0.5765348672866821 -0.07604929059743881
0.4503021240234375 0.6477393507957458 -0.10285482555627823
0.46362778544425964 0.6572669744491577 -0.09360609948635101
0.45283153653144836 0.6497889161109924 -0.09066633880138397
0.44125261902809143 0.6569715142250061 -0.0329432487487793
0.46702462434768677 0.6604368090629578 -0.10018011182546616
0.471451997756958 0.6638051271438599 -0.07126776874065399
0.44572365283966064 0.48788172006607056 0.009794359095394611
0.4555799961090088 0.49504369497299194 -0.006586169358342886
0.4592437148094177 0.5011677742004395 -0.02347249910235405
0.3371747136116028 0.4651249051094055 0.040994156152009964
0.3211297392845154 0.45506560802459717 0.04298001155257225
0.505670428276062 0.5673492550849915 -0.10496269911527634
0.674567699432373 0.4795643389225006 -0.013464112766087055
0.5110742449760437 0.6600549817085266 -0.07718678563833237
0.7828567624092102 0.3588709533214569 0.0680224746465683
0.6087498664855957 0.5073716044425964 -0.02576240710914135
0.6322014331817627 0.507635235786438 -0.027572358027100563
0.6554970741271973 0.5049371719360352 -0.024506324902176857
0.6863892674446106 0.4874148666858673 -0.010129045695066452
0.5887073278427124 0.5035356283187866 -0.020020637661218643
0.63881516456604 0.4316346049308777 -0.04646093770861626
0.6113939881324768 0.4363766014575958 -0.04234738647937775
0.6650180816650391 0.4348311424255371 -0.041370511054992676
0.6824052929878235 0.4439999759197235 -0.0329953096807003
0.7097060084342957 0.5022066235542297 0.0016920266207307577
0.5952736139297485 0.822272777557373 0.024818142876029015
0.6836292743682861 0.47131362557411194 -0.00780321191996336
0.794169545173645 0.4684174060821533 0.09307722002267838
0.7393824458122253 0.48159143328666687 0.018950939178466797
0.6183704733848572 0.6127080917358398 -0.03155378997325897
0.5168189406394958 0.7128089666366577 -0.053906816989183426
0.5163153409957886 0.7324495315551758 -0.038330789655447006
0.5453606843948364 0.7231090664863586 -0.044775884598493576
0.565403938293457 0.7323540449142456 -0.03219829127192497
0.538588285446167 0.735216498374939 -0.0345318429172039
0.5573062896728516 0.7388725876808167 -0.022584814578294754
0.6105713248252869 0.7586578726768494 0.004818243905901909
0.5016123056411743 0.6525158286094666 -0.12160024791955948
0.5036632418632507 0.6299154758453369 -0.13249313831329346
0.7165337204933167 0.42190879583358765 -0.035077471286058426
0.5701770782470703 0.5499730706214905 -0.03834943845868111
0.564399003982544 0.6380324363708496 -0.07230323553085327
0.567319929599762 0.6229026913642883 -0.06723082065582275
0.6963160634040833 0.6038925051689148 -0.014348121359944344
0.5043491721153259 0.5969409942626953 -0.12333007901906967
0.6513121128082275 0.40160733461380005 -0.06899739801883698
0.6886073350906372 0.4065139889717102 -0.055364999920129776
0.7528326511383057 0.3208710551261902 0.01817268319427967
0.5432080626487732 0.4350651502609253 -0.07099098712205887
0.5889472961425781 0.44982630014419556 -0.030934618785977364
0.626891016960144 0.7396061420440674 0.004068681504577398
0.777202308177948 0.6814250349998474 0.20305004715919495
0.5471866726875305 0.6520589590072632 -0.05853588506579399
0.5285793542861938 0.6591822504997253 -0.055036209523677826
0.5921403169631958 0.745447039604187 0.0025825463235378265
0.5865583419799805 0.7449254989624023 -0.002357416320592165
0.7023876905441284 0.3881387710571289 -0.04890263080596924
0.5671132206916809 0.6466373205184937 -0.05731986090540886
0.6034802198410034 0.40960806608200073 -0.07510887831449509
0.6052470207214355 0.38857173919677734 -0.08392590284347534
0.6400934457778931 0.27753040194511414 -0.06535215675830841
0.7293233871459961 0.3540591299533844 -0.022106047719717026
0.6222069263458252 0.3316606879234314 -0.07731112092733383
0.7329035997390747 0.40798836946487427 -0.019106080755591393
0.7600389719009399 0.3837411403656006 0.019915342330932617
0.5166832208633423 0.723727822303772 -0.049271970987319946
0.5417925119400024 0.7297974228858948 -0.0408736988902092
0.5612708330154419 0.735843300819397 -0.029332594946026802
0.5422336459159851 0.6558985114097595 -0.05148450285196304
0.5891649127006531 0.7452393770217896 1.9763059754041024e-05
0.5775277018547058 0.7480345368385315 -0.011118239723145962
0.5833574533462524 0.7445530891418457 -0.0027158339507877827
0.5327879786491394 0.6475160717964172 -0.09238852560520172
0.5545284748077393 0.7408407926559448 -0.015796417370438576
0.536432683467865 0.7384788990020752 -0.021381717175245285
0.5163117051124573 0.7375718355178833 -0.024616077542304993
0.5330936312675476 0.7933529615402222 0.00021723512327298522
0.52279132604599 0.777686595916748 -0.02758449874818325
0.5203400254249573 0.763609766960144 -0.033006325364112854
0.5182563662528992 0.7494655847549438 -0.029887789860367775
0.5164118409156799 0.7385498285293579 -0.029854271560907364
0.5549465417861938 0.7401785850524902 -0.019513968378305435
0.5593897700309753 0.7453083992004395 -0.020779471844434738
0.5642907619476318 0.7523208260536194 -0.02307959832251072
0.5687644481658936 0.7600728273391724 -0.018739409744739532
0.593091607093811 0.7039726376533508 -0.029514344409108162
0.8061877489089966 0.5607172846794128 0.2126757651567459
0.5686508417129517 0.7418903112411499 -0.010565715841948986
0.5728182792663574 0.7447898387908936 -0.01139850914478302
0.5206294655799866 0.6684626936912537 -0.05393815413117409
0.5607359409332275 0.6595929861068726 -0.03561397269368172
0.5244426727294922 0.6640430688858032 -0.055129729211330414
0.5961030721664429 0.5627634525299072 -0.03153714910149574
0.6367705464363098 0.5788307785987854 -0.027893483638763428
0.5727974772453308 0.6319499015808105 -0.05259178206324577
0.7076283693313599 0.29282626509666443 -0.029029354453086853
0.6855194568634033 0.33542633056640625 -0.05334688350558281
0.6585373282432556 0.38014301657676697 -0.07019838690757751
0.589713990688324 0.7723054885864258 -0.0006324941641651094
0.546812891960144 0.4010125994682312 -0.08638899028301239
0.5587592720985413 0.33482134342193604 -0.08600302785634995
0.5697678327560425 0.27232348918914795 -0.08007095009088516
0.6753960847854614 0.4984737038612366 -0.017394041642546654
0.7389494776725769 0.518078088760376 0.013498548418283463
0.5753816962242126 0.49930518865585327 -0.01614883355796337
0.708615779876709 0.4536455273628235 -0.01623670756816864
0.551833987236023 0.5357939004898071 -0.04660273715853691
0.5477100014686584 0.6322115063667297 -0.09488347917795181
0.7673245668411255 0.5271286368370056 0.03808846324682236
0.7204891443252563 0.5387073159217834 -0.0032405490055680275
0.6871235370635986 0.5512005686759949 -0.019129415974020958
0.6391627192497253 0.5503891110420227 -0.023009879514575005
0.6044585108757019 0.5422238111495972 -0.02427280694246292
0.5784075260162354 0.5328154563903809 -0.02842048928141594
0.5134574174880981 0.5085551142692566 -0.07101062685251236
0.7612012624740601 0.5813918709754944 0.03958370164036751
0.729772686958313 0.44886115193367004 -0.009254690259695053
0.4967770576477051 0.6624104976654053 -0.10798756778240204
0.5650163888931274 0.5778962969779968 -0.04353656619787216
0.810134768486023 0.4540124237537384 0.1729915738105774
0.5578138828277588 0.5217583179473877 -0.03134532645344734
0.5771519541740417 0.6304537653923035 -0.028691153973340988
0.6952497363090515 0.4715123176574707 -0.004435061011463404
0.550399661064148 0.6138648986816406 -0.08820886164903641
0.796250581741333 0.6197207570075989 0.21412113308906555
0.5757322311401367 0.49061083793640137 -0.012458794750273228
0.5278028249740601 0.6029195785522461 -0.11073745787143707
0.7074529528617859 0.7595683932304382 0.08855371177196503
0.7130406498908997 0.7744427919387817 0.13887791335582733
0.7925904989242554 0.5720058679580688 0.12333953380584717
0.7411577105522156 0.7225919961929321 0.10996837913990021
0.7786262035369873 0.4218950867652893 0.062205538153648376
0.6022124290466309 0.8398860692977905 0.043134499341249466
0.49696722626686096 0.6655212044715881 -0.07394333183765411
0.5879717469215393 0.5943065881729126 -0.03460565581917763
0.7651988863945007 0.4832153916358948 0.03935440629720688
0.6512219309806824 0.49071577191352844 -0.023503359407186508
0.6312152743339539 0.49388831853866577 -0.026413144543766975
0.5823798179626465 0.7517305612564087 -0.007331334985792637
0.7557947039604187 0.6282461881637573 0.05722295865416527
0.5609009861946106 0.8655871152877808 0.06235283240675926
0.6363893747329712 0.8315173983573914 0.09208405762910843
0.6713064908981323 0.8087899088859558 0.11164722591638565
0.6119579672813416 0.4935627281665802 -0.024445973336696625
0.5936374068260193 0.49176692962646484 -0.019111480563879013
0.5816135406494141 0.4916673004627228 -0.013386867009103298
0.7504327893257141 0.44024455547332764 0.011401438154280186
0.5960025191307068 0.46663743257522583 -0.02633379027247429
0.6156021356582642 0.45580723881721497 -0.03353770449757576
0.6364763975143433 0.45301520824432373 -0.03553945943713188
0.6571974158287048 0.45614880323410034 -0.03217335790395737
0.6699479222297668 0.4622021019458771 -0.025411449372768402
0.8006837368011475 0.4008769989013672 0.1245388612151146
0.664900541305542 0.4854319989681244 -0.018310382962226868
0.5691679120063782 0.6928157806396484 -0.037901341915130615
0.5460606813430786 0.649207353591919 -0.06832516193389893
0.5236077308654785 0.6885903477668762 -0.05207490175962448
0.6723920106887817 0.7920153737068176 0.07520148158073425
0.6388736367225647 0.8162041306495667 0.06092226877808571
0.5591844916343689 0.8572173118591309 0.029404552653431892
0.7480233907699585 0.7335925102233887 0.17381551861763
0.5819999575614929 0.48156747221946716 -0.01860932633280754
0.5296095609664917 0.5497241020202637 -0.07508184760808945
0.6000686287879944 0.8517905473709106 0.07176148146390915
0.7837625741958618 0.6244701147079468 0.13098524510860443
0.5367903709411621 0.7387654185295105 -0.025987105444073677
0.5407734513282776 0.7472652196884155 -0.027380285784602165
0.5446272492408752 0.7581049203872681 -0.030187217518687248
0.5480374097824097 0.770525336265564 -0.025732412934303284
0.5638220906257629 0.784558117389679 -0.0046290066093206406
0.5727588534355164 0.7419763803482056 -0.012555358931422234
0.5769800543785095 0.7408995628356934 -0.014652901329100132
0.5810695886611938 0.7394241094589233 -0.01626366563141346
0.6131753921508789 0.7205497622489929 -0.015987791121006012
0.7169886827468872 0.6501380801200867 0.016081428155303
0.5323552489280701 0.5205614566802979 -0.05723148211836815
0.5536370873451233 0.47251826524734497 -0.0271891001611948
0.5709025263786316 0.473705917596817 -0.02196539379656315
0.568571150302887 0.7428561449050903 -0.008157511241734028
0.723600447177887 0.6998515129089355 0.06012526899576187
0.527400016784668 0.4747270345687866 -0.05318676307797432
0.5815361738204956 0.8030883073806763 0.012180564925074577
0.5099005103111267 0.5396702885627747 -0.09050601720809937
0.5466720461845398 0.5889446139335632 -0.07053788751363754
0.5434105396270752 0.8155713081359863 0.008405983448028564
0.6370260715484619 0.7640999555587769 0.01895575225353241
0.5990854501724243 0.6472993493080139 -0.024565139785408974
0.6124497652053833 0.7863326668739319 0.016575850546360016
0.6578786969184875 0.6392240524291992 -0.023641685023903847
0.6220295429229736 0.6698178648948669 -0.02248598262667656
0.680625855922699 0.6742448806762695 -0.0036355762276798487
0.5532131791114807 0.8397293090820312 0.012654036283493042
0.56267911195755 0.6000718474388123 -0.053249605000019073
0.6612470746040344 0.774870753288269 0.04328087344765663
0.6290443539619446 0.7997653484344482 0.03837747499346733
0.6548215746879578 0.7374557852745056 0.013511700555682182
0.7495719194412231 0.6665746569633484 0.07422399520874023
0.6895817518234253 0.7326220273971558 0.03505649045109749
0.7699941396713257 0.6735795140266418 0.13125702738761902
0.6421632766723633 0.6994625926017761 -0.0117866275832057
0.5473936200141907 0.5632327198982239 -0.058227986097335815
0.5396187901496887 0.6438365578651428 -0.0984417125582695
0.5565043091773987 0.6468893885612488 -0.07216521352529526
0.526737630367279 0.6302429437637329 -0.11548642814159393
0.5697207450866699 0.44847798347473145 -0.04116228222846985
0.6072684526443481 0.428178071975708 -0.05219864100217819
0.6427529454231262 0.42191869020462036 -0.05503949522972107
0.6732577681541443 0.42497915029525757 -0.04906616732478142
0.6957454681396484 0.43520212173461914 -0.03658308833837509
0.7138895988464355 0.4764953553676605 0.0038312841206789017
0.797173261642456 0.5198054909706116 0.10831674188375473
0.6953691244125366 0.5148758888244629 -0.007424673531204462
0.6696204543113708 0.5246692895889282 -0.017311591655015945
0.6366687417030334 0.5268704891204834 -0.022066552191972733
0.6061676144599915 0.5231499671936035 -0.022544391453266144
0.582709550857544 0.5172128081321716 -0.020523881539702415
0.5659388303756714 0.5108449459075928 -0.020695088431239128
0.8103334903717041 0.5060350894927979 0.1999051868915558
0.5573714971542358 0.6517619490623474 -0.059391506016254425
0.5269150733947754 0.5758475661277771 -0.08960247039794922
0.5204322934150696 0.6478599905967712 -0.11352252960205078
0.511029839515686 0.6576598882675171 -0.0997619554400444
0.5225449204444885 0.6501624584197998 -0.10155625641345978
0.5521081686019897 0.6579276323318481 -0.048665162175893784
0.504968523979187 0.6605851054191589 -0.1051843911409378
0.5050665140151978 0.663759708404541 -0.07548592984676361
0.5667705535888672 0.49236658215522766 -0.01335124857723713
0.5521029829978943 0.4984912574291229 -0.023747490718960762
0.5414736270904541 0.5040478706359863 -0.03759975731372833
0.6774364113807678 0.46711090207099915 -0.017814887687563896
0.6939281225204468 0.4555642008781433 -0.019516322761774063
0.3935101628303528 0.4676148295402527 0.023234574124217033
0.4178653955459595 0.4676330089569092 0.023234574124217033
0.39307934045791626 0.4453467130661011 0.023234574124217033
0.3690624237060547 0.4676438868045807 0.023234574124217033
0.39360547065734863 0.489997923374176 0.023234574124217033
0.6279209852218628 0.4709562063217163 -0.021769830957055092
0.6522611379623413 0.46965473890304565 -0.021769830957055092
0.6264860033988953 0.4489441514015198 -0.021769830957055092
0.6039530038833618 0.4719827175140381 -0.021769830957055092
0.6295247673988342 0.49307429790496826 -0.021769830957055092
