ply
format ascii 1.0
element vertex 478
property float x
property float y
property float z
end_header
0.5014398097991943 0.7244694232940674 -0.06022462993860245
0.49641600251197815 0.6534808874130249 -0.14403370022773743
0.49742448329925537 0.6710006594657898 -0.07494180649518967
0.4767138361930847 0.5630978941917419 -0.11538954824209213
0.49636587500572205 0.6265425682067871 -0.15454450249671936
0.4969272017478943 0.5900760889053345 -0.14708493649959564
0.4987618327140808 0.5013931393623352 -0.08537165075540543
0.3368907868862152 0.4801233410835266 0.02299600839614868
0.499435156583786 0.4461973011493683 -0.07167764008045197
0.4994901120662689 0.41507643461227417 -0.07905030995607376
0.4994462728500366 0.28076839447021484 -0.06290294229984283
0.5014071464538574 0.7319726943969727 -0.05572677403688431
0.5011983513832092 0.739007830619812 -0.04836687073111534
0.5011993646621704 0.7432869076728821 -0.03884860873222351
0.5000472068786621 0.7821460366249084 -0.022076847031712532
0.5001642107963562 0.7912476062774658 -0.027637815102934837
0.4999103844165802 0.8024119138717651 -0.03342266008257866
0.49968528747558594 0.8150668144226074 -0.02983728051185608
0.4985029399394989 0.8452625274658203 -0.008390362374484539
0.4967334568500519 0.6656033992767334 -0.12983554601669312
0.4700217843055725 0.6614620685577393 -0.09355209767818451
0.2444755733013153 0.392309308052063 0.13036270439624786
0.39967623353004456 0.4950926899909973 -0.0007626793230883777
0.3780546486377716 0.49742910265922546 0.0009035879047587514
0.355737566947937 0.498677134513855 0.0073013827204704285
0.3246462941169739 0.48882821202278137 0.027356896549463272
0.4177844822406769 0.4914710521697998 0.0002593570970930159
0.3629660904407501 0.4454440474510193 -0.013545410707592964
0.3883923292160034 0.44580501317977905 -0.013147274032235146
0.3399750888347626 0.45034509897232056 -0.005587410647422075
0.32486769556999207 0.45847654342651367 0.005131116136908531
0.30153021216392517 0.5039048790931702 0.04070066288113594
0.3997974097728729 0.8771134614944458 0.035116568207740784
0.3266061544418335 0.4765093922615051 0.030481336638331413
0.2257254421710968 0.5005136728286743 0.15200479328632355
0.2710753083229065 0.4893869161605835 0.06417795270681381
0.36547064781188965 0.6109412312507629 -0.018920326605439186
0.4596238136291504 0.71774822473526 -0.057245731353759766
0.46138477325439453 0.7351255416870117 -0.04276963695883751
0.42098167538642883 0.7196964025497437 -0.037665124982595444
0.3943101465702057 0.7214375734329224 -0.008548256941139698
0.4288712739944458 0.7315985560417175 -0.027092715725302696
0.4036487936973572 0.7293858528137207 -0.0012434808304533362
0.36287879943847656 0.7630344033241272 0.04642704874277115
0.4745522439479828 0.6523908376693726 -0.1415484994649887
0.4720745086669922 0.6260918378829956 -0.15132054686546326
0.2908700108528137 0.44596874713897705 0.005282370373606682
0.42462193965911865 0.5505051612854004 -0.028465278446674347
0.411124050617218 0.632108747959137 -0.07679858058691025
0.4101555347442627 0.6166877150535583 -0.06928995251655579
0.289945513010025 0.6017530560493469 0.01465776190161705
0.4740890860557556 0.5923106670379639 -0.13857786357402802
0.34990057349205017 0.42587876319885254 -0.0415884330868721
0.31585443019866943 0.4327479898929596 -0.021889247000217438
0.26975882053375244 0.35093235969543457 0.07716625183820724
0.4529322385787964 0.44196873903274536 -0.06313896179199219
0.4106994867324829 0.4524315893650055 -0.005147584713995457
0.34075552225112915 0.7282018065452576 0.04702967032790184
0.241033136844635 0.742210865020752 0.24268735945224762
0.42912548780441284 0.6481736898422241 -0.06561542302370071
0.450565367937088 0.6569293141365051 -0.06864523887634277
0.3586299419403076 0.7253893613815308 0.049217984080314636
0.365717351436615 0.7276830673217773 0.043241895735263824
0.3023892641067505 0.4182315468788147 -0.010589422658085823
0.4076395034790039 0.6393317580223083 -0.061508942395448685
0.39538896083831787 0.42711350321769714 -0.05565589293837547
0.3914594054222107 0.4094133973121643 -0.06332660466432571
0.36357539892196655 0.29516351222991943 -0.025304686278104782
0.2869531512260437 0.38212716579437256 0.027995724231004715
0.37968525290489197 0.3482922315597534 -0.045306455343961716
0.2750117778778076 0.43343818187713623 0.025685923174023628
0.25998422503471375 0.4140627980232239 0.07608536630868912
0.4597933292388916 0.7273467779159546 -0.05188480392098427
0.42471423745155334 0.7259540557861328 -0.03224054351449013
0.398909330368042 0.7254360914230347 -0.006338497623801231
0.43429815769195557 0.6517916917800903 -0.06101305037736893
0.36224374175071716 0.7264942526817322 0.04604971408843994
0.3791707754135132 0.7481086850166321 0.032629549503326416
0.3689715564250946 0.7289478182792664 0.042264096438884735
0.44487065076828003 0.6471548080444336 -0.10353865474462509
0.4079933166503906 0.732305645942688 0.001618477632291615
0.43293410539627075 0.7354617118835449 -0.018058782443404198
0.46388596296310425 0.7397395372390747 -0.033193428069353104
0.4562162160873413 0.8418452739715576 -0.004024449735879898
0.45767027139663696 0.8103101253509521 -0.024809807538986206
0.45878952741622925 0.7978639602661133 -0.027471743524074554
0.4610039293766022 0.7870439291000366 -0.021191686391830444
0.4639904201030731 0.7787290215492249 -0.01614481955766678
0.4088989496231079 0.7598333358764648 0.014621006324887276
0.40407663583755493 0.7624161243438721 0.010532981716096401
0.3982800245285034 0.7673991322517395 0.008556744083762169
0.3944401741027832 0.7739341259002686 0.014569032937288284
0.3728955388069153 0.6959018111228943 -0.005021535791456699
0.2188720405101776 0.6108169555664062 0.2648531198501587
0.49709513783454895 0.6692032814025879 -0.09459409862756729
0.3910282254219055 0.7476018667221069 0.03300901874899864
0.38489726185798645 0.7471562623977661 0.03110215626657009
0.459343820810318 0.6665099263191223 -0.06757164001464844
0.4145337641239166 0.6517682075500488 -0.040888939052820206
0.4550822973251343 0.6619237065315247 -0.0693177580833435
0.3971298336982727 0.5617246627807617 -0.01814289577305317
0.3537304997444153 0.5754568576812744 -0.010378298349678516
0.40388721227645874 0.6253196001052856 -0.053412050008773804
0.30729833245277405 0.317748486995697 0.02279367484152317
0.3252641260623932 0.3594205975532532 -0.011155401356518269
0.34173205494880676 0.4082490801811218 -0.03823541849851608
0.38654208183288574 0.7948305010795593 0.03194740414619446
0.446603924036026 0.413764089345932 -0.07573907822370529
0.43543076515197754 0.3441673815250397 -0.06465896219015121
0.4251418113708496 0.28379160165786743 -0.05394425615668297
0.33632737398147583 0.49556779861450195 0.017656326293945312
0.2735346555709839 0.5196318626403809 0.05691968649625778
0.4293981194496155 0.4874138832092285 0.0028386672493070364
0.300124853849411 0.4673537611961365 0.02579442970454693
0.44318151473999023 0.5368016362190247 -0.04000119864940643
0.42946749925613403 0.6286668181419373 -0.10375525802373886
0.24090278148651123 0.5442811250686646 0.08681628108024597
0.29240119457244873 0.5360920429229736 0.036263640969991684
0.32429784536361694 0.5454544425010681 0.014076264575123787
0.36990493535995483 0.541613757610321 0.0005861564422957599
0.40248996019363403 0.5319486856460571 -0.005934441927820444
0.42588070034980774 0.5226619839668274 -0.014811684377491474
0.4757285714149475 0.5073520541191101 -0.07377300411462784
0.2370995581150055 0.5937157273292542 0.08530116826295853
0.2792282700538635 0.46443045139312744 0.03648616373538971
0.4829007685184479 0.6643868684768677 -0.12810227274894714
0.42257529497146606 0.5765064358711243 -0.03762674704194069
0.21969333291053772 0.49564751982688904 0.23349851369857788
0.4442499279975891 0.5126403570175171 -0.020711269229650497
0.40067538619041443 0.6240029335021973 -0.02557547390460968
0.3146873712539673 0.47802460193634033 0.03509845212101936
0.42888525128364563 0.6096122860908508 -0.09476540982723236
0.22491973638534546 0.674830436706543 0.2595705986022949
0.4277155101299286 0.47943243384361267 0.008943060413002968
0.4517911672592163 0.5990750193595886 -0.12190261483192444
0.29329073429107666 0.8032650351524353 0.12536567449569702
0.29996880888938904 0.8369545340538025 0.16696789860725403
0.2174805998802185 0.605857253074646 0.1755642592906952
0.25934362411499023 0.7677556872367859 0.148472860455513
0.2421087920665741 0.4527878761291504 0.12078280746936798
0.39821141958236694 0.905764102935791 0.049272242933511734
0.4857127070426941 0.6680710315704346 -0.09270649403333664
0.39754384756088257 0.5916996598243713 -0.026216663420200348
0.24825063347816467 0.49152112007141113 0.08998260647058487
0.3602586090564728 0.4832913875579834 0.009110549464821815
0.37891915440559387 0.4832669496536255 0.0029920688830316067
0.3745619058609009 0.750076413154602 0.037180084735155106
0.23553946614265442 0.6468208432197571 0.09979110211133957
0.44664594531059265 0.9452351927757263 0.052102237939834595
0.3721450865268707 0.9029206037521362 0.1056031808257103
0.33984294533729553 0.8749068379402161 0.1342545747756958
0.49943259358406067 0.3439013659954071 -0.07184813916683197
0.4997391104698181 0.9512417316436768 0.043882038444280624
0.39625242352485657 0.481659471988678 0.001333907013759017
0.41273242235183716 0.4798458218574524 0.004221477545797825
0.4231563210487366 0.47969114780426025 0.008547038771212101
0.25993457436561584 0.4567774832248688 0.061076030135154724
0.40723881125450134 0.4651504158973694 0.00024599157040938735
0.38764360547065735 0.46013885736465454 -0.004968726541846991
0.36862850189208984 0.4606870412826538 -0.003908544313162565
0.3503700792789459 0.4650457501411438 0.002350948750972748
0.3387959599494934 0.470225989818573 0.011064412072300911
0.22858932614326477 0.437732994556427 0.18670079112052917
0.34714382886886597 0.4820512533187866 0.01644974946975708
0.49782517552375793 0.6877751350402832 -0.06419707834720612
0.40209484100341797 0.6863479018211365 -0.03007349744439125
0.43020784854888916 0.6462804079055786 -0.07670346647500992
0.45626890659332275 0.686215341091156 -0.060172293335199356
0.49932393431663513 0.4714832305908203 -0.06837250292301178
0.3304147720336914 0.8412925004959106 0.10636202991008759
0.36358213424682617 0.8732930421829224 0.08011676371097565
0.44391727447509766 0.9275611639022827 0.02274329960346222
0.268157422542572 0.7965666055679321 0.20613276958465576
0.42109301686286926 0.4738323986530304 0.005189066752791405
0.4586566388607025 0.5483028888702393 -0.07645814120769501
0.4988648593425751 0.9334293007850647 0.01582014001905918
0.40588489174842834 0.9280128479003906 0.07407988607883453
0.22140854597091675 0.6639260649681091 0.17759816348552704
0.43384280800819397 0.7707629799842834 -0.0024439587723463774
0.4287334680557251 0.7765807509422302 -0.0068445890210568905
0.42477455735206604 0.785159170627594 -0.009377973154187202
0.4224545657634735 0.796319842338562 -0.004492767620831728
0.4160999059677124 0.8228982090950012 0.012939060106873512
0.38222020864486694 0.7281004786491394 0.022485822439193726
0.3775669038295746 0.7255526781082153 0.023286135867238045
0.37372881174087524 0.723036527633667 0.0222883652895689
0.35012781620025635 0.708598792552948 0.0227933581918478
0.2645796537399292 0.6594422459602356 0.049967341125011444
0.4602322280406952 0.5207552909851074 -0.05495939403772354
0.4469461739063263 0.467806339263916 -0.011082001030445099
0.43065345287323 0.4679054617881775 -0.00045163408503867686
0.38712459802627563 0.730280339717865 0.024369779974222183
0.26319390535354614 0.7250281572341919 0.09820009022951126
0.46944794058799744 0.4717496633529663 -0.047930195927619934
0.4077918529510498 0.8474245071411133 0.025038866326212883
0.49759548902511597 0.5597241520881653 -0.12507908046245575
0.47612449526786804 0.5366322994232178 -0.09704561531543732
0.4981929361820221 0.5317056775093079 -0.10394109785556793
0.43794727325439453 0.5862976908683777 -0.07282152026891708
0.49852943420410156 0.9062159061431885 0.0003427377378102392
0.4984738528728485 0.873063862323761 -0.003565391292795539
0.4509391188621521 0.8689115643501282 0.004244753159582615
0.3496689796447754 0.7778151035308838 0.058272507041692734
0.37950557470321655 0.6432482004165649 -0.014827154576778412
0.3762403428554535 0.8163049817085266 0.044835690408945084
0.32117271423339844 0.63930743932724 -0.003618001937866211
0.3541666269302368 0.6674080491065979 -0.0005102158174850047
0.2980179786682129 0.6780228018760681 0.027124501764774323
0.4451088607311249 0.9010144472122192 0.008649165742099285
0.4203597903251648 0.5966601967811584 -0.052126359194517136
0.33423227071762085 0.8052297830581665 0.07908107340335846
0.3670661449432373 0.8424984216690063 0.061505090445280075
0.3261827826499939 0.7382937669754028 0.05418368801474571
0.24107879400253296 0.6931697130203247 0.11465488374233246
0.297568678855896 0.7509092092514038 0.07482823729515076
0.23432499170303345 0.7187418937683105 0.17381960153579712
0.3308864235877991 0.6925104260444641 0.020707162097096443
0.44154390692710876 0.5624847412109375 -0.055494457483291626
0.43712541460990906 0.6423419117927551 -0.1090325117111206
0.4188506603240967 0.6423817873001099 -0.079502172768116
0.4497065544128418 0.6275493502616882 -0.12941038608551025
0.42962339520454407 0.4510962665081024 -0.019268058240413666
0.3920259475708008 0.4403025209903717 -0.025651391595602036
0.35893505811691284 0.43916523456573486 -0.024545753374695778
0.33095812797546387 0.4441509246826172 -0.013868963345885277
0.3111723065376282 0.4534647464752197 0.0025272383354604244
0.29577553272247314 0.48436492681503296 0.045256104320287704
0.21877658367156982 0.5523390769958496 0.16557426750659943
0.31623023748397827 0.5131981372833252 0.029454125091433525
0.3412315249443054 0.519537091255188 0.014645966701209545
0.3729591369628906 0.5179727077484131 0.004124723374843597
0.4014435410499573 0.5121315121650696 -0.0001589855382917449
0.42282724380493164 0.5060685873031616 -0.003720460692420602
0.4379251003265381 0.5005865693092346 -0.006064799148589373
0.21839439868927002 0.5520303845405579 0.2578468322753906
0.41770660877227783 0.6459144353866577 -0.06612342596054077
0.45715102553367615 0.5730597972869873 -0.09547264873981476
0.4558022618293762 0.6475364565849304 -0.12931737303733826
0.46880531311035156 0.6591660380363464 -0.1177227720618248
0.45529040694236755 0.650600254535675 -0.11630341410636902
0.4232710301876068 0.6517550349235535 -0.05662846192717552
0.47432589530944824 0.6623080372810364 -0.12446241080760956
0.476640909910202 0.6657312512397766 -0.09305866807699203
0.43623435497283936 0.48162275552749634 0.004462067037820816
0.44969162344932556 0.4896523356437683 -0.011465489864349365
0.45831722021102905 0.4966800808906555 -0.031175557523965836
0.33181557059288025 0.47393864393234253 0.019290147349238396
0.31478381156921387 0.467182993888855 0.01994996890425682
0.5190809965133667 0.562543511390686 -0.11627831310033798
0.6741923689842224 0.4780164361000061 0.01706852950155735
0.5246405005455017 0.6608205437660217 -0.0942721888422966
0.7639999389648438 0.3864911198616028 0.12103740125894547
0.6037058234214783 0.4966607391834259 -0.004584148060530424
0.6283009648323059 0.49806034564971924 -0.003714791964739561
0.6528404951095581 0.4980336129665375 0.0017762568313628435
0.6855120062828064 0.48658502101898193 0.0208662748336792
0.5827485918998718 0.49312451481819153 -0.0026845564134418964
0.6444262862205505 0.44092991948127747 -0.018311768770217896
0.6148720383644104 0.4427702724933624 -0.01700243167579174
0.6705932021141052 0.44475415349006653 -0.011133023537695408
0.686775803565979 0.4526780843734741 -0.000950427318457514
0.7078163623809814 0.5009000301361084 0.03391847759485245
0.6002528071403503 0.876606822013855 0.03219655156135559
0.6842677593231201 0.47357305884361267 0.024212129414081573
0.783184289932251 0.49548792839050293 0.14298725128173828
0.7366436719894409 0.48525696992874146 0.05644863098859787
0.6352227330207825 0.6093919277191162 -0.02304808236658573
0.5432310700416565 0.7183781266212463 -0.058765243738889694
0.5407454371452332 0.7358219623565674 -0.044170230627059937
0.58134925365448 0.7209380865097046 -0.040693141520023346
0.6065391302108765 0.7236339449882507 -0.012477252632379532
0.5728415250778198 0.7329134941101074 -0.029850967228412628
0.5967086553573608 0.731583297252655 -0.00472929747775197
0.6394954919815063 0.7623419165611267 0.04170117899775505
0.5185103416442871 0.6520264148712158 -0.14211206138134003
0.5212332606315613 0.6255663633346558 -0.15198004245758057
0.7211002707481384 0.4370609521865845 -0.0019583937246352434
0.5754507184028625 0.5489369034767151 -0.031202422454953194
0.5857938528060913 0.6310393214225769 -0.07961233705282211
0.5873256325721741 0.6155860424041748 -0.07225742191076279
0.7129091620445251 0.5991690754890442 0.008141658268868923
0.5201641917228699 0.591692328453064 -0.1394454687833786
0.6613457202911377 0.4186515808105469 -0.04587429016828537
0.6967540979385376 0.42405831813812256 -0.027719521895051003
0.7376883029937744 0.3448094129562378 0.06892618536949158
0.5501899123191833 0.44021451473236084 -0.06418941169977188
0.5892465114593506 0.45122236013412476 -0.008251550607383251
0.662723958492279 0.7273608446121216 0.04182127118110657
0.7689402103424072 0.7400168180465698 0.23453964293003082
0.5673986673355103 0.6473513841629028 -0.06791948527097702
0.5455613136291504 0.6564277410507202 -0.06978045403957367
0.6392138600349426 0.7302164435386658 0.04452962428331375
0.6320813298225403 0.7320677638053894 0.03895244747400284
0.7093901634216309 0.4084184765815735 -0.01701776310801506
0.5896652936935425 0.6385099291801453 -0.06420308351516724
0.613186776638031 0.42226773500442505 -0.05849018692970276
0.6176255941390991 0.40352070331573486 -0.06637641042470932
0.6387379169464111 0.29093873500823975 -0.02980152890086174
0.7195244431495667 0.3744199275970459 0.020738713443279266
0.6220611333847046 0.3430113196372986 -0.04905848577618599
0.7351169586181641 0.4244586229324341 0.01790783554315567
0.7474865913391113 0.40706753730773926 0.06761527061462402
0.5426855087280273 0.7280906438827515 -0.05339084565639496
0.577180027961731 0.7274338006973267 -0.035193853080272675
0.6018075942993164 0.7277185320854187 -0.01011878252029419
0.5621294379234314 0.6511390209197998 -0.06262537837028503
0.635616660118103 0.73110032081604 0.04151056334376335
0.6191403865814209 0.7514764070510864 0.028554916381835938
0.6286348700523376 0.7330657243728638 0.03807947412133217
0.5503575205802917 0.6462160348892212 -0.10539161413908005
0.5921803116798401 0.7342491745948792 -0.0016483908984810114
0.5684518814086914 0.7365486025810242 -0.02062389813363552
0.5382901430130005 0.7402952909469604 -0.03466065600514412
0.5417938828468323 0.8418731689453125 -0.005367685109376907
0.5413129329681396 0.811151385307312 -0.026388222351670265
0.5405145883560181 0.7984619140625 -0.029245542362332344
0.5387238264083862 0.7874977588653564 -0.02299601025879383
0.5357366800308228 0.7791351675987244 -0.017859987914562225
0.5893932580947876 0.7616087198257446 0.011329003609716892
0.5946353077888489 0.7644063234329224 0.007165499031543732
0.600441038608551 0.7696132659912109 0.005191991105675697
0.6044288873672485 0.7763861417770386 0.011067936196923256
0.6279821991920471 0.6954265236854553 -0.009266585111618042
0.7908568382263184 0.6076160669326782 0.2561895549297333
0.6068333983421326 0.7504997253417969 0.029108518734574318
0.6132291555404663 0.7502617239952087 0.027165306732058525
0.5367652177810669 0.66636061668396 -0.06861363351345062
0.5832211375236511 0.6512474417686462 -0.04304463788866997
0.5409812927246094 0.6616165041923523 -0.07035693526268005
0.6032500267028809 0.5599810481071472 -0.02159786969423294
0.6478735208511353 0.5733848214149475 -0.015030206181108952
0.594087541103363 0.6244024038314819 -0.05640198290348053
0.6981753706932068 0.3119574785232544 0.016163624823093414
0.679338276386261 0.35209786891937256 -0.01682925596833229
0.6693901419639587 0.3998262286186218 -0.043157435953617096
0.6143402457237244 0.7943347692489624 0.028085503727197647
0.5583648085594177 0.41023504734039307 -0.0769188329577446
0.5645678639411926 0.3415595293045044 -0.06638186424970627
0.5749315619468689 0.2815991938114166 -0.05606395751237869
0.6734156608581543 0.4941851794719696 0.011412094347178936
0.7353705167770386 0.5161438584327698 0.04923844709992409
0.5693011283874512 0.48924508690834045 0.00024338485673069954
0.7109523415565491 0.4612281322479248 0.01886604167521
0.5568096041679382 0.5353013277053833 -0.04220975562930107
0.566368818283081 0.6276271343231201 -0.10599124431610107
0.7653696537017822 0.5401272773742676 0.07823632657527924
0.7188560962677002 0.533415675163269 0.0290000569075346
0.687175989151001 0.5437111854553223 0.007824924774467945
0.6382655501365662 0.5416352152824402 -0.0041494304314255714
0.6022336483001709 0.5331026315689087 -0.009520761668682098
0.5761927962303162 0.5242047309875488 -0.017553716897964478
0.5226739645004272 0.5065580010414124 -0.07460001111030579
0.7683520317077637 0.590427577495575 0.07672546803951263
0.7309375405311584 0.45802122354507446 0.028583135455846786
0.5107830762863159 0.664149820804596 -0.12852059304714203
0.5765050649642944 0.5752586722373962 -0.040330056101083755
0.790306806564331 0.4912058711051941 0.2240321785211563
0.55661940574646 0.5139166712760925 -0.022806929424405098
0.5978000164031982 0.6232438683509827 -0.028381966054439545
0.6955564618110657 0.47469472885131836 0.02861068584024906
0.5676558613777161 0.608537495136261 -0.09707922488451004
0.7850108742713928 0.6720446348190308 0.2512209117412567
0.5697675347328186 0.48102498054504395 0.006406599655747414
0.5436824560165405 0.5981428027153015 -0.123504638671875
0.7132381796836853 0.8018409609794617 0.11899594962596893
0.7084032297134399 0.8359209299087524 0.16050700843334198
0.7906192541122437 0.6020384430885315 0.1663917601108551
0.7480233311653137 0.7657455205917358 0.14091728627681732
0.7658206224441528 0.44688814878463745 0.11177437752485275
0.6022418737411499 0.90514075756073 0.046105433255434036
0.5084435343742371 0.6678084135055542 -0.09300294518470764
0.6019367575645447 0.5904275178909302 -0.029517104849219322
0.7571128606796265 0.48744329810142517 0.08143617957830429
0.6491715312004089 0.4830194413661957 0.0038883902598172426
0.6282775402069092 0.48377758264541626 -0.0015837214887142181
0.6239234805107117 0.753665030002594 0.03284769505262375
0.7702226042747498 0.6440940499305725 0.09157248586416245
0.5535072684288025 0.9448598623275757 0.05032576248049736
0.6318645477294922 0.9016517400741577 0.10101927071809769
0.666712760925293 0.8737061619758606 0.1287507712841034
0.6079083681106567 0.4826242923736572 -0.002471057465299964
0.5881612300872803 0.48117196559906006 0.0009695969056338072
0.5753784775733948 0.48147356510162354 0.005773212295025587
0.7477967739105225 0.45066845417022705 0.052634935826063156
0.5935936570167542 0.4656367301940918 -0.003163795918226242
0.6157262921333313 0.4596313238143921 -0.008946104906499386
0.637925386428833 0.45897042751312256 -0.008640928193926811
0.6589213013648987 0.4623432755470276 -0.0030794949270784855
0.6716722249984741 0.46718841791152954 0.005264538340270519
0.7805575132369995 0.43245697021484375 0.17720898985862732
0.663576066493988 0.48074644804000854 0.010751841589808464
0.5972532033920288 0.6860120296478271 -0.0332363024353981
0.5659040808677673 0.6453729867935181 -0.07869894802570343
0.5406923890113831 0.6862759590148926 -0.06159468740224838
0.6743685007095337 0.840168833732605 0.10099225491285324
0.6392689347267151 0.8724154829978943 0.07579058408737183
0.5549715757369995 0.9273277521133423 0.020930085331201553
0.7413123846054077 0.794906735420227 0.19855061173439026
0.5774354934692383 0.474945604801178 0.002204114105552435
0.5394091010093689 0.5472707748413086 -0.07789499312639236
0.5958294868469238 0.9269745349884033 0.07053983211517334
0.7864943742752075 0.6608495116233826 0.16889356076717377
0.5653547644615173 0.7716629505157471 -0.005026352591812611
0.5705029964447021 0.7775989174842834 -0.009604413993656635
0.5744055509567261 0.7863749265670776 -0.012284448370337486
0.5767728090286255 0.7978242635726929 -0.007356225047260523
0.5832266807556152 0.8224533200263977 0.01000795979052782
0.6167669296264648 0.7312497496604919 0.018248986452817917
0.6215219497680664 0.7289186716079712 0.018813977017998695
0.6257553696632385 0.7264780402183533 0.017665168270468712
0.6522387266159058 0.708042323589325 0.017719140276312828
0.7394940853118896 0.6571472883224487 0.042781274765729904
0.5389470458030701 0.5197091102600098 -0.05656525492668152
0.5513725280761719 0.4681782126426697 -0.0130095100030303
0.5669898986816406 0.46839314699172974 -0.002907227724790573
0.6117873191833496 0.733238935470581 0.020462239161133766
0.7425257563591003 0.7230086922645569 0.09106098860502243
0.5301480293273926 0.4718327522277832 -0.04893062636256218
0.5921592116355896 0.8470106720924377 0.02209608443081379
0.5209562182426453 0.535921573638916 -0.09782321751117706
0.5595952272415161 0.5853936076164246 -0.07489443570375443
0.5472332835197449 0.8688251972198486 0.0028151068836450577
0.6532480120658875 0.7769532799720764 0.05324408784508705
0.6201393008232117 0.6422028541564941 -0.018470248207449913
0.625245988368988 0.8156324625015259 0.0407487154006958
0.6808005571365356 0.6374262571334839 -0.008774441666901112
0.6472142934799194 0.6662872433662415 -0.005014840979129076
0.7052048444747925 0.6762214303016663 0.02112472616136074
0.5531821250915527 0.9008936882019043 0.006903126370161772
0.5777585506439209 0.5955607891082764 -0.05477672070264816
0.669532835483551 0.8040675520896912 0.07384467124938965
0.6350387334823608 0.8416920900344849 0.05741643160581589
0.6775698661804199 0.7372393012046814 0.048391975462436676
0.7654149532318115 0.6907497048377991 0.10684607177972794
0.7071227431297302 0.7493522763252258 0.06856980919837952
0.7738159894943237 0.716132640838623 0.165241077542305
0.672231912612915 0.6914221048355103 0.01514354720711708
0.5569941997528076 0.5613596439361572 -0.05760481581091881
0.5581218600273132 0.641282856464386 -0.11113033443689346
0.577610433101654 0.6413906216621399 -0.08190765976905823
0.5446267127990723 0.6266586184501648 -0.13114264607429504
0.5711721181869507 0.44983339309692383 -0.02179296873509884
0.6135123372077942 0.4366162121295929 -0.028926653787493706
0.6509019136428833 0.43375182151794434 -0.02881423756480217
0.6810517311096191 0.43746474385261536 -0.01915852166712284
0.7012966275215149 0.446363627910614 -0.0036998933646827936
0.713555097579956 0.4804101884365082 0.03832857310771942
0.7895770072937012 0.5479362607002258 0.1561509668827057
0.6939049959182739 0.5110760927200317 0.02288833260536194
0.6679519414901733 0.5182439684867859 0.008940478786826134
0.6338779330253601 0.5182334780693054 -0.000483989977510646
0.6020576357841492 0.5135107040405273 -0.0038468639831990004
0.5779004693031311 0.5078187584877014 -0.006443709600716829
0.5613503456115723 0.5021042823791504 -0.008319317363202572
0.7915248870849609 0.5482134819030762 0.24848613142967224
0.5790071487426758 0.6450725197792053 -0.0684630498290062
0.53944331407547 0.5721175074577332 -0.09701085835695267
0.5380885601043701 0.6467460989952087 -0.13052307069301605
0.5253881812095642 0.6586527228355408 -0.11839572340250015
0.5391349792480469 0.6498536467552185 -0.11756428331136703
0.5738106966018677 0.6510841846466064 -0.05853315815329552
0.5196412205696106 0.6618509292602539 -0.1250411421060562
0.5176951289176941 0.6652221083641052 -0.09353335201740265
0.5610821843147278 0.48324036598205566 0.0023207934573292732
0.5483772158622742 0.49092480540275574 -0.01316327229142189
0.5412994027137756 0.4975874722003937 -0.032609906047582626
0.6789758205413818 0.47087085247039795 0.013323873281478882
0.6967613101005554 0.4620487689971924 0.013638235628604889
0.3744405508041382 0.4709058105945587 0.008396156132221222
0.3966748118400574 0.4699401557445526 0.008396156132221222
0.3735964000225067 0.4508357048034668 0.008396156132221222
0.35168617963790894 0.4716959595680237 0.008396156132221222
0.3749848008155823 0.49095577001571655 0.008396156132221222
0.6307623386383057 0.46943849325180054 0.003873607376590371
0.6590825319290161 0.46876609325408936 0.003873607376590371
0.6301791667938232 0.4482988119125366 0.003873607376590371
0.602286159992218 0.4698193073272705 0.003873607376590371
0.631432056427002 0.490614652633667 0.003873607376590371
