ply
format ascii 1.0
element vertex 478
property float x
property float y
property float z
end_header
0.5068651437759399 0.6714673638343811 -0.09696993976831436
0.5045406222343445 0.5956548452377319 -0.1367427259683609
0.5031604766845703 0.6292101740837097 -0.08678693324327469
0.48512136936187744 0.530592143535614 -0.08641642332077026
0.5051754117012024 0.5712997317314148 -0.13942193984985352
0.505485475063324 0.5459014773368835 -0.12237706035375595
0.5057821273803711 0.489923894405365 -0.03517179936170578
0.33651629090309143 0.48661839962005615 0.05124259740114212
0.5069775581359863 0.4373657703399658 -0.0022970831487327814
0.5082666277885437 0.40565136075019836 0.0036739457864314318
0.5118833780288696 0.3016584813594818 0.061586733907461166
0.5067737698554993 0.6792052388191223 -0.0964624285697937
0.5061148405075073 0.6865360140800476 -0.09160672873258591
0.5055942535400391 0.6910296678543091 -0.08587309718132019
0.5028412938117981 0.7562813758850098 -0.0719524696469307
0.5031329989433289 0.7659552097320557 -0.0810227021574974
0.5027347803115845 0.7783101201057434 -0.08871902525424957
0.5020484328269958 0.7921050190925598 -0.0879124253988266
0.4979953169822693 0.8106268644332886 -0.07323432713747025
0.5038224458694458 0.6118346452713013 -0.1276106983423233
0.48213353753089905 0.6151446104049683 -0.09817429631948471
0.23954129219055176 0.42422056198120117 0.18729394674301147
0.3989375829696655 0.5039647221565247 0.02613697201013565
0.3767729699611664 0.5053751468658447 0.026548026129603386
0.3546611964702606 0.5047945976257324 0.032326821237802505
0.3242974877357483 0.49640998244285583 0.05229685828089714
0.41751018166542053 0.49919217824935913 0.03136085718870163
0.36702144145965576 0.4415324628353119 0.027468128129839897
0.3921797275543213 0.4441666007041931 0.030645815655589104
0.342313289642334 0.44554537534713745 0.03329406678676605
0.32570579648017883 0.45517343282699585 0.041261762380599976
0.30260270833969116 0.5115796327590942 0.06045731529593468
0.3981998562812805 0.8440410494804382 -0.057541586458683014
0.32756248116493225 0.4833372235298157 0.06033782288432121
0.22746098041534424 0.5257382988929749 0.16597233712673187
0.2735350728034973 0.49857866764068604 0.08797648549079895
0.3729291558265686 0.596680760383606 -0.026291830465197563
0.4648537039756775 0.6671605706214905 -0.09479944407939911
0.4673142731189728 0.6857514381408691 -0.08883494138717651
0.4229978322982788 0.6769044995307922 -0.08152343332767487
0.39424240589141846 0.6889304518699646 -0.06036955118179321
0.4339483082294464 0.6893642544746399 -0.07728801667690277
0.40753060579299927 0.6962241530418396 -0.057290345430374146
0.37057363986968994 0.74660724401474 -0.028034431859850883
0.4846501648426056 0.5953664183616638 -0.13535284996032715
0.48234596848487854 0.5721558928489685 -0.13744483888149261
0.28916627168655396 0.4335867166519165 0.05558691546320915
0.42880597710609436 0.5449304580688477 -0.009885141626000404
0.4230860471725464 0.5979362726211548 -0.08049754798412323
0.4206683933734894 0.5880360007286072 -0.0705263540148735
0.29626375436782837 0.5964380502700806 0.0039061689749360085
0.4836641848087311 0.5486199259757996 -0.11656862497329712
0.34971076250076294 0.40247204899787903 0.024574097245931625
0.3143511116504669 0.41332942247390747 0.03979547321796417
0.26718753576278687 0.3755049705505371 0.15420600771903992
0.45638591051101685 0.423933207988739 0.0034039418678730726
0.4135681688785553 0.45358747243881226 0.03692004829645157
0.35140669345855713 0.7154393196105957 -0.02091386169195175
0.24455583095550537 0.7629860639572144 0.15916714072227478
0.4418887197971344 0.6121891140937805 -0.07383415102958679
0.46271562576293945 0.6200494170188904 -0.07757819443941116
0.36209607124328613 0.7175387144088745 -0.01932753622531891
0.3703378140926361 0.7172231078147888 -0.024384887889027596
0.29984861612319946 0.39914822578430176 0.05524903163313866
0.42014339566230774 0.6101704835891724 -0.07030567526817322
0.3964615762233734 0.4041324257850647 0.011844063177704811
0.3924081325531006 0.38439902663230896 0.01244751550257206
0.37253814935684204 0.3110013008117676 0.08165787160396576
0.2862456440925598 0.38838332891464233 0.09955344349145889
0.3869475722312927 0.3473348021507263 0.04808878153562546
0.27331122756004333 0.4254925847053528 0.07843445986509323
0.25837332010269165 0.42883700132369995 0.13170640170574188
0.46534109115600586 0.6773172616958618 -0.09402657300233841
0.42831796407699585 0.6838045716285706 -0.08021218329668045
0.4007239043712616 0.6929604411125183 -0.060772962868213654
0.4473109245300293 0.61744624376297 -0.06901798397302628
0.36616581678390503 0.7174214720726013 -0.021753115579485893
0.3792474567890167 0.7356570363044739 -0.03614964708685875
0.37406596541404724 0.7170162796974182 -0.024833470582962036
0.4567987024784088 0.600773274898529 -0.10277590900659561
0.4127742648124695 0.6977044939994812 -0.05624087154865265
0.438690721988678 0.6923158764839172 -0.07164991647005081
0.4695407450199127 0.6902233362197876 -0.08314897865056992
0.457425981760025 0.8072272539138794 -0.07202503830194473
0.45710232853889465 0.7883204221725464 -0.08586452156305313
0.45980727672576904 0.7746757864952087 -0.08563145995140076
0.4630678594112396 0.7624282836914062 -0.07744169980287552
0.4668046534061432 0.7538292407989502 -0.06895086169242859
0.4117717146873474 0.7416700720787048 -0.04536496475338936
0.40530240535736084 0.7449162602424622 -0.05198775976896286
0.39713236689567566 0.7507278919219971 -0.05730408430099487
0.3909708857536316 0.7579808831214905 -0.05417041853070259
0.3825051188468933 0.6713898181915283 -0.04856131225824356
0.22003677487373352 0.6464412808418274 0.22730953991413116
0.5033478736877441 0.62077796459198 -0.10035128146409988
0.3937755823135376 0.7327550053596497 -0.031381454318761826
0.38642674684524536 0.7336142063140869 -0.03562456741929054
0.4691661596298218 0.6290663480758667 -0.08227404206991196
0.42673012614250183 0.6254284977912903 -0.056293945759534836
0.4662458300590515 0.624671220779419 -0.08013889938592911
0.40023916959762573 0.5573563575744629 -0.007230094168335199
0.35787397623062134 0.5695584416389465 -0.005407537333667278
0.41483402252197266 0.6001774072647095 -0.05993993952870369
0.31005537509918213 0.3365817368030548 0.11566755175590515
0.3272934556007385 0.35999220609664917 0.07195942103862762
0.3408789336681366 0.38431161642074585 0.034030210226774216
0.39154914021492004 0.7706633806228638 -0.0435020737349987
0.4493674039840698 0.39125823974609375 0.003214461961761117
0.4455781579017639 0.3468390703201294 0.0349256731569767
0.437416672706604 0.3010469675064087 0.06259272992610931
0.3356977105140686 0.50225830078125 0.04217130318284035
0.2766135334968567 0.5286732316017151 0.06884310394525528
0.4295074939727783 0.4935428500175476 0.03626150265336037
0.2997737228870392 0.4666854441165924 0.06149253249168396
0.4482381343841553 0.529666543006897 -0.01424654945731163
0.4409507215023041 0.5861581563949585 -0.10016287863254547
0.2448481023311615 0.5563290119171143 0.0884837880730629
0.29463857412338257 0.5417575240135193 0.0431714802980423
0.3265792727470398 0.5480057001113892 0.02099568583071232
0.3721621334552765 0.5442325472831726 0.012856556102633476
0.4054584503173828 0.535143256187439 0.011081689968705177
0.4307788610458374 0.5239766836166382 0.008830275386571884
0.48267561197280884 0.4959886372089386 -0.028266893699765205
0.2427610456943512 0.6014716625213623 0.06839123368263245
0.2795833349227905 0.46469295024871826 0.07346868515014648
0.49231958389282227 0.610889732837677 -0.12689875066280365
0.4285779595375061 0.5623586773872375 -0.028577933087944984
0.21720483899116516 0.5358600616455078 0.2418958693742752
0.44981446862220764 0.5105290412902832 0.009805615060031414
0.41089916229248047 0.6045452952384949 -0.03592080995440483
0.3147563338279724 0.4843115210533142 0.06429767608642578
0.4391033947467804 0.5745285749435425 -0.08762077987194061
0.22803393006324768 0.7040092945098877 0.19954338669776917
0.4282899498939514 0.4863940477371216 0.04476667568087578
0.46183672547340393 0.5590740442276001 -0.10597110539674759
0.29601043462753296 0.795552134513855 0.033794112503528595
0.29895198345184326 0.8345273733139038 0.06253432482481003
0.22221717238426208 0.625582754611969 0.14768491685390472
0.2641223967075348 0.7689445614814758 0.06551146507263184
0.24231114983558655 0.47505056858062744 0.1566997468471527
0.3954288363456726 0.8714161515235901 -0.05445181578397751
0.49432802200317383 0.6198173761367798 -0.09905926138162613
0.40437936782836914 0.579266369342804 -0.02564062364399433
0.25081390142440796 0.5055505037307739 0.10987969487905502
0.3582038879394531 0.4899730980396271 0.03680957108736038
0.3766818642616272 0.4911198019981384 0.03177342936396599
0.3730167746543884 0.7386256456375122 -0.033516790717840195
0.24255883693695068 0.6516202688217163 0.06135265529155731
0.44100499153137207 0.9098407030105591 -0.05994681268930435
0.36722302436828613 0.8795459866523743 -0.005428839009255171
0.3362560272216797 0.8608031272888184 0.025533704087138176
0.5105246305465698 0.35083359479904175 0.03254926949739456
0.49344056844711304 0.9161452651023865 -0.06516638398170471
0.39462924003601074 0.4906150698661804 0.03228729963302612
0.4112175405025482 0.48883262276649475 0.037310998886823654
0.4222645163536072 0.48775261640548706 0.043783124536275864
0.2602103054523468 0.4624579846858978 0.09793607890605927
0.408718466758728 0.4746623933315277 0.037710145115852356
0.39033836126327515 0.4701041579246521 0.033638015389442444
0.3725401759147644 0.46880337595939636 0.033551886677742004
0.35385429859161377 0.4715251326560974 0.037809256464242935
0.3414056599140167 0.47613465785980225 0.04394572600722313
0.22429582476615906 0.4749652147293091 0.22109195590019226
0.34568893909454346 0.48830294609069824 0.04427142068743706
0.5032253265380859 0.6466979384422302 -0.08459135890007019
0.4112747311592102 0.6569215655326843 -0.06264155358076096
0.4426364004611969 0.6069964170455933 -0.07981700450181961
0.4648028314113617 0.6473531723022461 -0.08415541797876358
0.505979061126709 0.4669862389564514 -0.009737816639244556
0.32986027002334595 0.8248460292816162 0.006669700611382723
0.3619765341281891 0.8475708961486816 -0.02290348708629608
0.4397653341293335 0.8886502981185913 -0.08020292967557907
0.26928970217704773 0.8062453269958496 0.10976497083902359
0.4219539165496826 0.481289267539978 0.042416661977767944
0.46575620770454407 0.5280303955078125 -0.04758630692958832
0.4944498836994171 0.8946563005447388 -0.0846935585141182
0.4005542993545532 0.8962878584861755 -0.0380699522793293
0.2270369827747345 0.679680347442627 0.12834739685058594
0.4366050660610199 0.7488556504249573 -0.058630578219890594
0.42997294664382935 0.7549588084220886 -0.06606445461511612
0.42397645115852356 0.7646726965904236 -0.07202069461345673
0.41958168148994446 0.7765994071960449 -0.07051489502191544
0.41937264800071716 0.7920007109642029 -0.05998528376221657
0.3856804668903351 0.7053598761558533 -0.038947369903326035
0.3790065050125122 0.7039483189582825 -0.038131073117256165
0.37339794635772705 0.7016738057136536 -0.0379251204431057
0.3611084818840027 0.6900528073310852 -0.03201444074511528
0.2730540633201599 0.6543484926223755 0.013974185101687908
0.46622440218925476 0.5111901760101318 -0.0191938653588295
0.45004409551620483 0.4664018750190735 0.03315175697207451
0.43307408690452576 0.4711344242095947 0.041230473667383194
0.3910500407218933 0.7054806351661682 -0.038465287536382675
0.2705395817756653 0.7214443683624268 0.033829186111688614
0.4750395119190216 0.46284157037734985 0.0032276040874421597
0.40791258215904236 0.817031979560852 -0.05728903040289879
0.5055166482925415 0.5270082950592041 -0.09245693683624268
0.48388242721557617 0.5142542123794556 -0.058300264179706573
0.505599319934845 0.5094131231307983 -0.06200277805328369
0.4454454481601715 0.5608749985694885 -0.05945762246847153
0.49564602971076965 0.8679196834564209 -0.08881121873855591
0.49688056111335754 0.8374536037445068 -0.0812363550066948
0.4497711658477783 0.8335097432136536 -0.07661505788564682
0.3536483347415924 0.7614935040473938 -0.020757397636771202
0.3892814517021179 0.6248012185096741 -0.03295418992638588
0.37794914841651917 0.7930285334587097 -0.038107339292764664
0.32995128631591797 0.6242781281471252 -0.024130430072546005
0.36280325055122375 0.6484758853912354 -0.031472098082304
0.30683451890945435 0.6655683517456055 -0.013335531577467918
0.44215714931488037 0.8627849221229553 -0.08333802223205566
0.42781829833984375 0.5755236148834229 -0.04780766740441322
0.33568084239959717 0.7883071899414062 -0.008774855174124241
0.36711573600769043 0.8172779083251953 -0.031504373997449875
0.3332247734069824 0.7257964015007019 -0.014690649695694447
0.24781863391399384 0.6961181163787842 0.05846819654107094
0.30338597297668457 0.7404534816741943 0.003386911703273654
0.23943796753883362 0.7288798093795776 0.10436335951089859
0.34008702635765076 0.6774300932884216 -0.02486937679350376
0.4480271637439728 0.5454133152961731 -0.036995988339185715
0.44910532236099243 0.595859706401825 -0.10635022073984146
0.4312759339809418 0.6049536466598511 -0.0845007672905922
0.46133360266685486 0.5777766704559326 -0.1193731352686882
0.43236982822418213 0.4448474645614624 0.030398013070225716
0.39429351687431335 0.4286454916000366 0.027821926400065422
0.3605356812477112 0.42547646164894104 0.02779756300151348
0.3312613368034363 0.431527316570282 0.03470257669687271
0.3102659285068512 0.4450743496417999 0.04681852087378502
0.2967868745326996 0.49078524112701416 0.072750024497509
0.22198686003684998 0.5751896500587463 0.1579992026090622
0.3167407810688019 0.5195516347885132 0.04637056216597557
0.34157246351242065 0.5241917967796326 0.03251984715461731
0.3731333911418915 0.5237272381782532 0.023682374507188797
0.40239691734313965 0.5189060568809509 0.02106376923620701
0.4252312481403351 0.5115259885787964 0.024033619090914726
0.44122305512428284 0.5035249590873718 0.024598218500614166
0.21756196022033691 0.5916058421134949 0.2433476746082306
0.4305313229560852 0.61277174949646 -0.07422987371683121
0.4652492105960846 0.543159008026123 -0.07372661679983139
0.46797269582748413 0.594234824180603 -0.12397608906030655
0.48127588629722595 0.6091627478599548 -0.11722283065319061
0.46786534786224365 0.6009013652801514 -0.11359401047229767
0.4359568953514099 0.6211767196655273 -0.06770431995391846
0.48530063033103943 0.6100278496742249 -0.1237809807062149
0.487189382314682 0.6185317635536194 -0.09854892641305923
0.43785610795021057 0.4861408770084381 0.04109138250350952
0.45353442430496216 0.49005091190338135 0.026255499571561813
0.4637170135974884 0.4917977452278137 0.008293197490274906
0.33386486768722534 0.48005691170692444 0.05090906843543053
0.3143644332885742 0.4678509533405304 0.052828434854745865
0.5255978107452393 0.5321632623672485 -0.08381475508213043
0.6761494874954224 0.48934391140937805 0.0694170594215393
0.5244690179824829 0.6167267560958862 -0.0961148589849472
0.7642389535903931 0.44607412815093994 0.21732217073440552
0.6117936372756958 0.5046300888061523 0.03738962113857269
0.6321947574615479 0.508680522441864 0.040340110659599304
0.653644323348999 0.5101585984230042 0.04846137389540672
0.6865750551223755 0.49797001481056213 0.07126990705728531
0.595446765422821 0.497226744890213 0.04012436419725418
0.6422650218009949 0.43885311484336853 0.042439159005880356
0.6191677451133728 0.4411379098892212 0.04229874536395073
0.6659277081489563 0.44364508986473083 0.0508064441382885
0.6822066307067871 0.4540921747684479 0.06000244989991188
0.7048590183258057 0.5168365836143494 0.08034221827983856
0.5909001231193542 0.8505121469497681 -0.04944523051381111
0.6861773729324341 0.48316335678100586 0.07921149581670761
0.7714558243751526 0.5474909543991089 0.19376593828201294
0.7345609664916992 0.5035003423690796 0.11066576093435287
0.6313916444778442 0.6057299375534058 -0.014839975163340569
0.5482480525970459 0.6679176092147827 -0.09133569896221161
0.5436574816703796 0.6867231130599976 -0.08583449572324753
0.5878327488899231 0.6776661276817322 -0.07472822070121765
0.6132363677024841 0.690484344959259 -0.051346324384212494
0.5748759508132935 0.6904793381690979 -0.07159724086523056
0.5985589027404785 0.6978050470352173 -0.04979957640171051
0.627831220626831 0.7539130449295044 -0.0173873882740736
0.5242498517036438 0.5968968868255615 -0.1335657238960266
0.5277632474899292 0.5738272070884705 -0.13546134531497955
0.717009961605072 0.4322475790977478 0.07730547338724136
0.578343391418457 0.5503770709037781 -0.002121501136571169
0.5843062996864319 0.6030511856079102 -0.07244640588760376
0.5867689251899719 0.5931993126869202 -0.06227903068065643
0.7054057121276855 0.6112040877342224 0.02164837345480919
0.5269421935081482 0.5501546263694763 -0.1140558049082756
0.6575943231582642 0.39869874715805054 0.03902818262577057
0.6915065050125122 0.410744845867157 0.05808934569358826
0.7409956455230713 0.3965378999710083 0.18121810257434845
0.5573354959487915 0.41999536752700806 0.007933657616376877
0.5996898412704468 0.4505459666252136 0.04656343534588814
0.6486823558807373 0.7236641049385071 -0.00802508182823658
0.7407714128494263 0.7817895412445068 0.18783414363861084
0.5644477605819702 0.6159829497337341 -0.06770577281713486
0.5430423617362976 0.6223927140235901 -0.07465303689241409
0.6384375095367432 0.7208511829376221 -0.008062651380896568
0.6300036311149597 0.7200011014938354 -0.014237094670534134
0.7065627574920654 0.39715224504470825 0.07517556846141815
0.5859289169311523 0.6152703762054443 -0.06245855614542961
0.6136965155601501 0.4000508785247803 0.021972117945551872
0.6177394390106201 0.3812905550003052 0.023242812603712082
0.6462039947509766 0.32460910081863403 0.09727500379085541
0.7226061224937439 0.4093191623687744 0.1220686212182045
0.6305612921714783 0.3608592748641968 0.06083284318447113
0.7342210412025452 0.42610734701156616 0.10203041881322861
0.7468308210372925 0.4504548907279968 0.15709656476974487
0.5468456149101257 0.6782987117767334 -0.09072719514369965
0.5813730955123901 0.684963583946228 -0.07395824790000916
0.6062910556793213 0.6945695281028748 -0.0526001937687397
0.5584568381309509 0.6206783056259155 -0.06404881179332733
0.6341894268989563 0.7204959392547607 -0.01127136591821909
0.6209262609481812 0.7384134531021118 -0.026909111067652702
0.626054048538208 0.7195281386375427 -0.014900038950145245
0.5508561134338379 0.6040836572647095 -0.09733716398477554
0.5921264886856079 0.6988438367843628 -0.04907078295946121
0.5689651370048523 0.6931732892990112 -0.06626833230257034
0.5402998924255371 0.6909402012825012 -0.08000601083040237
0.5374035239219666 0.8097074627876282 -0.06933697313070297
0.5450490713119507 0.7895360589027405 -0.08251181244850159
0.5438744425773621 0.7756751775741577 -0.08217493444681168
0.5414299368858337 0.7633057236671448 -0.07394981384277344
0.5375173687934875 0.7545316219329834 -0.06579025834798813
0.5889323949813843 0.7432608008384705 -0.03817303478717804
0.5956544280052185 0.7469897270202637 -0.0447065643966198
0.603435754776001 0.7531985640525818 -0.04976953938603401
0.6091199517250061 0.7608187198638916 -0.04621848836541176
0.620262086391449 0.6777692437171936 -0.03830490633845329
0.7698020339012146 0.6682658195495605 0.25867897272109985
0.6060813069343567 0.7347727417945862 -0.022566281259059906
0.6137390732765198 0.7359822988510132 -0.02675190009176731
0.5367659330368042 0.6308808326721191 -0.07949267327785492
0.5783377289772034 0.6297131180763245 -0.05014949291944504
0.5395478010177612 0.6267483234405518 -0.07730966806411743
0.6056097745895386 0.5646734833717346 0.002567456103861332
0.6467533111572266 0.5801255106925964 0.007083479780703783
0.5914140343666077 0.6057165861129761 -0.05142390727996826
0.7032247185707092 0.35508573055267334 0.13785430788993835
0.6851518154144287 0.3788539469242096 0.09031393378973007
0.6671616435050964 0.3817603588104248 0.04997323080897331
0.6049259901046753 0.7771472930908203 -0.03457524999976158
0.5634284615516663 0.3890858292579651 0.008214714005589485
0.5747988820075989 0.35394930839538574 0.04174960032105446
0.5850867033004761 0.3085747957229614 0.07053952664136887
0.6738085746765137 0.5066364407539368 0.06015118956565857
0.7296340465545654 0.5365292429924011 0.09087366610765457
0.5854241847991943 0.489996075630188 0.044223908334970474
0.7078824043273926 0.46733298897743225 0.0823034718632698
0.5602715611457825 0.5340094566345215 -0.008179944008588791
0.5674790143966675 0.5905121564865112 -0.09367977827787399
0.7546980381011963 0.5764528512954712 0.11331336945295334
0.709134042263031 0.5506788492202759 0.06411445885896683
0.6761353015899658 0.5568567514419556 0.038313060998916626
0.6324362754821777 0.5494636297225952 0.025814399123191833
0.6027791500091553 0.5368148684501648 0.020967630669474602
0.5805702209472656 0.5242310762405396 0.016618916764855385
0.5284711718559265 0.49805766344070435 -0.025795552879571915
0.7554712295532227 0.6207544803619385 0.09299610555171967
0.7272632718086243 0.4671778082847595 0.09669137746095657
0.5151907205581665 0.6118113398551941 -0.1254974901676178
0.5783623456954956 0.5674043297767639 -0.02048362046480179
0.7782793045043945 0.5577961206436157 0.274076908826828
0.5634542107582092 0.510488748550415 0.01580229587852955
0.5943745374679565 0.6101962924003601 -0.027610765770077705
0.6959676742553711 0.48379266262054443 0.08392753452062607
0.5694566965103149 0.5788418650627136 -0.08099469542503357
0.7594486474990845 0.7248280048370361 0.23022407293319702
0.5882112383842468 0.4824414551258087 0.05329689010977745
0.5477798581123352 0.5621160268783569 -0.10134340822696686
0.6913787722587585 0.8091335296630859 0.05248917639255524
0.6846845746040344 0.8483794331550598 0.08395446091890335
0.771896481513977 0.6467598676681519 0.17523188889026642
0.723394513130188 0.7848884463310242 0.08778568357229233
0.7597973346710205 0.4964711666107178 0.1836661994457245
0.5911529660224915 0.8782337307929993 -0.04550725594162941
0.5122618675231934 0.6204683780670166 -0.09823831170797348
0.6010854840278625 0.5860043168067932 -0.0161433145403862
0.7579878568649292 0.5116210579872131 0.13497357070446014
0.6518693566322327 0.4953036904335022 0.05253257229924202
0.6327978372573853 0.49506545066833496 0.04554395377635956
0.6270472407341003 0.7418234348297119 -0.023911703377962112
0.7533046007156372 0.6702548265457153 0.08536740392446518
0.5445071458816528 0.9130792021751404 -0.05446677282452583
0.6167795658111572 0.8881653547286987 0.008442874997854233
0.6477705836296082 0.8717771172523499 0.04296113923192024
0.6164377331733704 0.49214768409729004 0.04389306530356407
0.6020888686180115 0.4874703884124756 0.047076743096113205
0.5929588079452515 0.4844481945037842 0.052695322781801224
0.7474297285079956 0.4660691022872925 0.12272962182760239
0.6055387258529663 0.4727635979652405 0.04854319989681244
0.6225007772445679 0.4696670174598694 0.046094860881567
0.6395276784896851 0.46950870752334595 0.048211440443992615
0.6578437685966492 0.4723402261734009 0.05431791767477989
0.670548677444458 0.47666290402412415 0.061454858630895615
0.7751860618591309 0.4968443512916565 0.2527604103088379
0.6656871438026428 0.4929148554801941 0.06140907108783722
0.5930470824241638 0.661675214767456 -0.054616041481494904
0.5642207264900208 0.6110106110572815 -0.07410850375890732
0.5412821173667908 0.6494247317314148 -0.08073244243860245
0.6565595865249634 0.8362199068069458 0.021935155615210533
0.6248745322227478 0.8570241928100586 -0.010884932242333889
0.5474125742912292 0.892245352268219 -0.07548636198043823
0.7143474817276001 0.8225939869880676 0.13542823493480682
0.593817412853241 0.47839152812957764 0.05186142772436142
0.5438799858093262 0.5310516953468323 -0.043266426771879196
0.5838722586631775 0.9022627472877502 -0.02792382426559925
0.7643885612487793 0.6998891830444336 0.15548716485500336
0.5658944845199585 0.749850332736969 -0.05299999564886093
0.572306752204895 0.756452202796936 -0.06014411523938179
0.5777705907821655 0.7664210796356201 -0.0658976137638092
0.5813798904418945 0.7786626815795898 -0.06424886733293533
0.5757728815078735 0.7967517375946045 -0.053433578461408615
0.6173768043518066 0.707500696182251 -0.029691405594348907
0.624302089214325 0.706417977809906 -0.028072277083992958
0.6306450366973877 0.7042575478553772 -0.02723919041454792
0.6405092477798462 0.6976518630981445 -0.019787946715950966
0.7251005172729492 0.6703303456306458 0.03367225453257561
0.543586790561676 0.5145376920700073 -0.015134180895984173
0.5658434629440308 0.46337154507637024 0.039548151195049286
0.5824478268623352 0.4676680564880371 0.04945812001824379
0.6112263798713684 0.7072274088859558 -0.029637226834893227
0.7216342091560364 0.7368632555007935 0.0546981543302536
0.5395631790161133 0.46242275834083557 0.007013928610831499
0.5841320753097534 0.8226653337478638 -0.0503954254090786
0.5269598364830017 0.5159796476364136 -0.0560845211148262
0.5624444484710693 0.5649676322937012 -0.05342699587345123
0.5426262021064758 0.8364830017089844 -0.07342144101858139
0.6407365798950195 0.7706825137138367 -0.008551830425858498
0.6141495108604431 0.6317089796066284 -0.02285679243505001
0.6150178909301758 0.8006302118301392 -0.02843697927892208
0.6722277402877808 0.6363596320152283 -0.010031070560216904
0.6389457583427429 0.6573830246925354 -0.019470684230327606
0.6920496821403503 0.6789003610610962 0.0027427508030086756
0.5472427606582642 0.8662496209144592 -0.07908614724874496
0.5790242552757263 0.5802878737449646 -0.04025859385728836
0.6545826196670532 0.7990679740905762 0.005443091504275799
0.6229779124259949 0.826094925403595 -0.02054576203227043
0.6633683443069458 0.7362015843391418 5.413385952124372e-05
0.7448155879974365 0.7138195037841797 0.0819951593875885
0.6896599531173706 0.7533901333808899 0.02071142941713333
0.7493909001350403 0.7474423050880432 0.1301528960466385
0.6599138379096985 0.6875450015068054 -0.011278631165623665
0.5601438283920288 0.5495093464851379 -0.030652344226837158
0.5588809251785278 0.5996390581130981 -0.10048443078994751
0.5757736563682556 0.6095717549324036 -0.07773156464099884
0.5481507778167725 0.5808931589126587 -0.11474855244159698
0.5817916393280029 0.44061416387557983 0.03897426277399063
0.615757942199707 0.4252172112464905 0.03920230269432068
0.6469852924346924 0.42286768555641174 0.04185253009200096
0.674781322479248 0.4302690625190735 0.052124686539173126
0.6958941221237183 0.4440820515155792 0.06655590981245041
0.7125370502471924 0.493106484413147 0.09355074912309647
0.774286150932312 0.5969716906547546 0.1861094832420349
0.6896638870239258 0.5255539417266846 0.06509561091661453
0.6642024517059326 0.5310673117637634 0.04872165247797966
0.6339541673660278 0.5280258655548096 0.03705612197518349
0.6071780323982239 0.5197664499282837 0.031703900545835495
0.5875096917152405 0.510218620300293 0.032050807029008865
0.5733532309532166 0.5015750527381897 0.03112875297665596
0.7747569680213928 0.613503634929657 0.2752518951892853
0.5755881071090698 0.6171982884407043 -0.0675496831536293
0.5441845059394836 0.5460574626922607 -0.06912362575531006
0.5407584309577942 0.5969250798225403 -0.12032817304134369
0.5261192917823792 0.6110213994979858 -0.11509110778570175
0.5401105284690857 0.6036310195922852 -0.1097571924328804
0.5695225596427917 0.6249237656593323 -0.062125787138938904
0.5222063064575195 0.6115177273750305 -0.12202218919992447
0.5193340182304382 0.6196698546409607 -0.09710503369569778
0.5785249471664429 0.48190218210220337 0.04834248125553131
0.5621504783630371 0.48758941888809204 0.03158960118889809
0.5505298376083374 0.4915606379508972 0.012522278353571892
0.6789236068725586 0.4802667498588562 0.06902090460062027
0.6940972805023193 0.4672834873199463 0.0725213885307312
0.3734445571899414 0.4785422086715698 0.04141023010015488
0.3942449986934662 0.47878900170326233 0.04141023010015488
0.3732278347015381 0.4611940383911133 0.04141023010015488
0.35211896896362305 0.47840479016304016 0.04141023010015488
0.37346625328063965 0.495555579662323 0.04141023010015488
0.641350269317627 0.47705066204071045 0.05528629571199417
0.6608335375785828 0.4779117703437805 0.05528629571199417
0.641348659992218 0.45829230546951294 0.05528629571199417
0.6219428777694702 0.4756675958633423 0.05528629571199417
0.6412899494171143 0.4953666925430298 0.05528629571199417
