ply
format ascii 1.0
element vertex 478
property float x
property float y
property float z
end_header
0.49238699674606323 0.7482150793075562 -0.043378084897994995
0.4793464243412018 0.6707807183265686 -0.13282276690006256
0.48482856154441833 0.6870015859603882 -0.06144183501601219
0.46378564834594727 0.5674375295639038 -0.11394499987363815
0.4790453612804413 0.6418607831001282 -0.14598862826824188
0.48110270500183105 0.6002362370491028 -0.14276109635829926
0.4891771972179413 0.4950183629989624 -0.09556660056114197
0.3331878185272217 0.4701308608055115 0.0225960873067379
0.49195438623428345 0.41789019107818604 -0.09213657677173615
0.4919964075088501 0.3789605498313904 -0.10554195195436478
0.4980345070362091 0.23200294375419617 -0.11168716102838516
0.4926281273365021 0.7536498308181763 -0.03797728568315506
0.4929564595222473 0.757826030254364 -0.02918967604637146
0.49357086420059204 0.7606075406074524 -0.01647942140698433
0.49357205629348755 0.7901877164840698 -0.0046640075743198395
0.4932878315448761 0.8030732870101929 -0.0057058860547840595
0.49289241433143616 0.818551778793335 -0.008408302441239357
0.4927968382835388 0.8341172933578491 -0.0013674816582351923
0.48898547887802124 0.8518284559249878 0.025569777935743332
0.4809829592704773 0.6826109290122986 -0.1176895871758461
0.45764878392219543 0.6758474111557007 -0.08042421191930771
0.24746295809745789 0.3446435332298279 0.12274634093046188
0.3964225947856903 0.4991074800491333 -0.0065217227675020695
0.37237420678138733 0.4998135566711426 -0.0014573711669072509
0.3499223589897156 0.49652692675590515 0.007714839186519384
0.3235633075237274 0.47848498821258545 0.03034028224647045
0.41703909635543823 0.4941942095756531 -0.007528924848884344
0.36059150099754333 0.41912412643432617 -0.02218763157725334
0.3886433243751526 0.423613578081131 -0.02622157149016857
0.3357161581516266 0.42300835251808167 -0.010052156634628773
0.320647656917572 0.43293800950050354 0.0029589636251330376
0.30222511291503906 0.4930177330970764 0.04792176932096481
0.40470319986343384 0.8737533688545227 0.0774611160159111
0.326139897108078 0.4619876742362976 0.03084421344101429
0.2359951138496399 0.46639806032180786 0.16372446715831757
0.2777131497859955 0.47078895568847656 0.07163403928279877
0.3661479353904724 0.6133929491043091 -0.004661520943045616
0.4590199887752533 0.7406655550003052 -0.037638042122125626
0.4625355005264282 0.7531402111053467 -0.02159414254128933
0.4303530156612396 0.741334080696106 -0.016025936231017113
0.410642147064209 0.7420974373817444 0.0117613160982728
0.4381795823574066 0.7500123381614685 -0.005800618790090084
0.419673889875412 0.7481607794761658 0.018370145931839943
0.37543684244155884 0.7699268460273743 0.071025051176548
0.45876553654670715 0.6684466004371643 -0.12900134921073914
0.45569950342178345 0.6400958299636841 -0.14096583425998688
0.2849158048629761 0.4060809016227722 0.006378329824656248
0.42150843143463135 0.5473098158836365 -0.027162112295627594
0.40656203031539917 0.6421727538108826 -0.062253985553979874
0.4072493314743042 0.624627411365509 -0.05678299814462662
0.29478025436401367 0.5993589758872986 0.03569728136062622
0.45941296219825745 0.6015968918800354 -0.1321239173412323
0.33563899993896484 0.38338664174079895 -0.04930922016501427
0.30481135845184326 0.3892967104911804 -0.02398531511425972
0.26584115624427795 0.2993847131729126 0.06055898219347
0.4393463432788849 0.4145932197570801 -0.07975329458713531
0.41300472617149353 0.4369269609451294 -0.02033771388232708
0.3554256558418274 0.7378414273262024 0.07140560448169708
0.273530513048172 0.7199119329452515 0.28889429569244385
0.42369550466537476 0.6598986983299255 -0.05232875049114227
0.44283080101013184 0.6702014207839966 -0.054389964789152145
0.3837307095527649 0.7432863712310791 0.06884918361902237
0.3906795382499695 0.745458722114563 0.0607646144926548
0.2924147844314575 0.3693942129611969 -0.015039137564599514
0.4056699573993683 0.6495804786682129 -0.045962218195199966
0.37946170568466187 0.3897215723991394 -0.06881806999444962
0.3748505413532257 0.3666665256023407 -0.07921487838029861
0.35520118474960327 0.24215450882911682 -0.05968650430440903
0.2774711549282074 0.3330884277820587 0.01716427505016327
0.365828275680542 0.30064657330513 -0.07197342067956924
0.27224674820899963 0.39060938358306885 0.02558906003832817
0.2575702369213104 0.36892417073249817 0.07096284627914429
0.46013033390045166 0.7479921579360962 -0.03172851726412773
0.43401819467544556 0.7460606694221497 -0.01101897656917572
0.41484516859054565 0.7452502846717834 0.013469666242599487
0.42873889207839966 0.6638470888137817 -0.046853188425302505
0.3872688412666321 0.7443898320198059 0.06444723159074783
0.399862676858902 0.760200560092926 0.05127541348338127
0.39403027296066284 0.7465507388114929 0.0597892664372921
0.4343147277832031 0.6596599221229553 -0.08993001282215118
0.4242156147956848 0.7504420280456543 0.02271193638443947
0.44239434599876404 0.7527744770050049 0.005135009065270424
0.4655073285102844 0.7564899921417236 -0.009197917766869068
0.4528266191482544 0.8474206924438477 0.03122766502201557
0.45689156651496887 0.8272863626480103 0.004813246428966522
0.4586353302001953 0.8120624423027039 -0.0009529019007459283
0.46173232793807983 0.7967500686645508 0.001997565384954214
0.46533557772636414 0.7850965261459351 0.0028536682948470116
0.42481034994125366 0.7667624950408936 0.03199676424264908
0.4193893074989319 0.7707217335700989 0.030390068888664246
0.41313204169273376 0.7771037220954895 0.029746074229478836
0.4083738327026367 0.7845773696899414 0.03684499114751816
0.37964361906051636 0.7079165577888489 0.014714776538312435
0.24810731410980225 0.5806025862693787 0.29460209608078003
0.4826749265193939 0.6855362057685852 -0.08218494057655334
0.4116877317428589 0.7579376101493835 0.04950388893485069
0.4057406783103943 0.7585458755493164 0.049113593995571136
0.45122015476226807 0.6809501647949219 -0.05128902196884155
0.4134348928928375 0.6628046631813049 -0.02496354654431343
0.44718292355537415 0.6758296489715576 -0.05413982272148132
0.39549410343170166 0.5596439242362976 -0.011949293315410614
0.35335785150527954 0.5740447640419006 0.002658318029716611
0.4032500982284546 0.6333531737327576 -0.03970004618167877
0.29923751950263977 0.26397284865379333 -0.002492914441972971
0.3113420307636261 0.3087034523487091 -0.02951342985033989
0.32736051082611084 0.36001908779144287 -0.04968954995274544
0.3945513665676117 0.7996645569801331 0.059045255184173584
0.43101274967193604 0.3779882490634918 -0.09649844467639923
0.4248318076133728 0.3019203543663025 -0.09823485463857651
0.4193474352359772 0.23265597224235535 -0.09618035703897476
0.3326309025287628 0.4895545244216919 0.020075540989637375
0.27672266960144043 0.50933438539505 0.06820937246084213
0.4305732846260071 0.48890990018844604 -0.007182746659964323
0.298733651638031 0.44179803133010864 0.027627987787127495
0.4381490647792816 0.5321810245513916 -0.041372012346982956
0.41991186141967773 0.6392645239830017 -0.09085166454315186
0.24886879324913025 0.5241110920906067 0.10434506088495255
0.28968167304992676 0.5305275917053223 0.04877630993723869
0.31742846965789795 0.5435498952865601 0.024439040571451187
0.3626706004142761 0.5429210662841797 0.007683294825255871
0.3969193696975708 0.5345594882965088 -0.003941303119063377
0.4219200015068054 0.5241762399673462 -0.016726689413189888
0.4671023488044739 0.5003809928894043 -0.0816105380654335
0.2487172782421112 0.5812368988990784 0.11027573049068451
0.2802419364452362 0.43509000539779663 0.03936583921313286
0.4679298996925354 0.6806990504264832 -0.11482067406177521
0.42018383741378784 0.5774854421615601 -0.032796360552310944
0.23820263147354126 0.4558636546134949 0.2454468458890915
0.44024568796157837 0.5118602514266968 -0.026377039030194283
0.40247923135757446 0.6309163570404053 -0.013381008058786392
0.3149866461753845 0.46198147535324097 0.03736378252506256
0.42160314321517944 0.6175679564476013 -0.08439883589744568
0.25641679763793945 0.6486036777496338 0.2978828251361847
0.43199509382247925 0.4794006049633026 -0.0034535075537860394
0.43994230031967163 0.6073106527328491 -0.11332271248102188
0.31403428316116333 0.7941259741783142 0.1682433784008026
0.3251466453075409 0.8215135931968689 0.21727536618709564
0.2372244894504547 0.5836156010627747 0.2038552463054657
0.28371235728263855 0.7557376027107239 0.19238398969173431
0.24612385034561157 0.41314923763275146 0.12339440733194351
0.40447404980659485 0.8972495794296265 0.09818889200687408
0.4720233082771301 0.6838467121124268 -0.07965770363807678
0.3974813222885132 0.5936164259910583 -0.017334656789898872
0.2602041959762573 0.4725308418273926 0.09962945431470871
0.3530493974685669 0.4816535413265228 0.006356101483106613
0.37242305278778076 0.48529237508773804 -0.00163550628349185
0.39482688903808594 0.7625695466995239 0.05693977698683739
0.2525235712528229 0.6369883418083191 0.13107237219810486
0.4466988742351532 0.9344156980514526 0.10465987771749496
0.3855907917022705 0.8897077441215515 0.1562328338623047
0.35906755924224854 0.8607981204986572 0.18385347723960876
0.4942677319049835 0.3050422668457031 -0.11160643398761749
0.492877721786499 0.9424012899398804 0.09253620356321335
0.39283543825149536 0.4846906363964081 -0.005677829496562481
0.4125259220600128 0.4820324778556824 -0.005058606155216694
0.42551735043525696 0.480979859828949 -0.0023938987869769335
0.2655022144317627 0.42604494094848633 0.0647297352552414
0.4106768071651459 0.4561057388782501 -0.012812319211661816
0.3897021412849426 0.4464341998100281 -0.015768561512231827
0.36832380294799805 0.44412219524383545 -0.012201960198581219
0.34837907552719116 0.4474712312221527 -0.002698619617149234
0.3368321657180786 0.45332208275794983 0.007828010246157646
0.23879209160804749 0.39374464750289917 0.18856780230998993
0.340961754322052 0.47600722312927246 0.015326883643865585
0.48594409227371216 0.7049263715744019 -0.049324896186590195
0.4040645658969879 0.6997958421707153 -0.009964874014258385
0.42362892627716064 0.6580645442008972 -0.06383679807186127
0.44924435019493103 0.702135443687439 -0.04206608235836029
0.491854190826416 0.4544852674007416 -0.0848819762468338
0.3472200036048889 0.8326054811477661 0.1500268429517746
0.37598997354507446 0.8643066883087158 0.12652111053466797
0.442433625459671 0.9211845397949219 0.07217992097139359
0.29774555563926697 0.7781906127929688 0.2564275860786438
0.42527177929878235 0.47013550996780396 -0.007467888295650482
0.4496901035308838 0.547478437423706 -0.07764793932437897
0.4905712306499481 0.9284423589706421 0.06147583946585655
0.4128294587135315 0.9159695506095886 0.12647029757499695
0.24524447321891785 0.6452887058258057 0.21307547390460968
0.4426524043083191 0.7765563130378723 0.016228554770350456
0.437134325504303 0.784660279750824 0.015123186632990837
0.43206587433815 0.7958697080612183 0.014213006012141705
0.4285445213317871 0.8092229962348938 0.02087472938001156
0.41893547773361206 0.8272181749343872 0.04398099705576897
0.40457695722579956 0.7469268441200256 0.040923453867435455
0.3996117115020752 0.7446854710578918 0.04203484579920769
0.39560943841934204 0.7424228191375732 0.04148492217063904
0.36164426803588867 0.7198775410652161 0.043264538049697876
0.27687937021255493 0.6563373804092407 0.07888446748256683
0.4532260000705719 0.5146849155426025 -0.060062799602746964
0.4452618956565857 0.45868825912475586 -0.027994807809591293
0.4333053529262543 0.4612770974636078 -0.015187455341219902
0.40964990854263306 0.7489944696426392 0.04349691420793533
0.2823176980018616 0.7194366455078125 0.13432802259922028
0.46215856075286865 0.45926594734191895 -0.06337185204029083
0.41179659962654114 0.8484278321266174 0.06153980642557144
0.48385825753211975 0.5647318363189697 -0.12590371072292328
0.4650747776031494 0.5358617901802063 -0.10109833627939224
0.48639029264450073 0.5315724015235901 -0.11024373769760132
0.4315418303012848 0.5902512669563293 -0.06761307269334793
0.4893687665462494 0.9057227373123169 0.04238611087203026
0.48923277854919434 0.8764865398406982 0.034474655985832214
0.4481372535228729 0.8712300658226013 0.043964799493551254
0.36088675260543823 0.7816125750541687 0.08812933415174484
0.3824668824672699 0.6498934030532837 0.001117234816774726
0.38500267267227173 0.8178137540817261 0.07779894024133682
0.3253535032272339 0.6415855288505554 0.017547208815813065
0.35892724990844727 0.6740989089012146 0.018652843311429024
0.3072355389595032 0.6800699830055237 0.05263218656182289
0.4425678253173828 0.899467945098877 0.053677037358284
0.4183390736579895 0.6011109352111816 -0.04431390389800072
0.3476056456565857 0.8029174208641052 0.11600196361541748
0.3770732283592224 0.8388591408729553 0.1013898104429245
0.3384048342704773 0.7441123723983765 0.08324888348579407
0.26156142354011536 0.6839674115180969 0.15038169920444489
0.3128119707107544 0.7499013543128967 0.10822010040283203
0.25970104336738586 0.7029032707214355 0.2158372402191162
0.3400075435638428 0.7003672122955322 0.04380110651254654
0.43587446212768555 0.5622850656509399 -0.05356929823756218
0.42668741941452026 0.6544099450111389 -0.09554727375507355
0.41317933797836304 0.6536086797714233 -0.06478224694728851
0.43635445833206177 0.6395201086997986 -0.11685483157634735
0.4253222346305847 0.4319444000720978 -0.03712213411927223
0.385022908449173 0.4116976261138916 -0.039257220923900604
0.35000425577163696 0.4067695438861847 -0.032664261758327484
0.322432279586792 0.4109889566898346 -0.01704666018486023
0.30517250299453735 0.422284334897995 0.0024558817967772484
0.2986111044883728 0.46662265062332153 0.04994531720876694
0.23382964730262756 0.5245739817619324 0.18628957867622375
0.31378602981567383 0.5062264800071716 0.036236412823200226
0.33606284856796265 0.5164433121681213 0.020030532032251358
0.3673941493034363 0.5191131234169006 0.0068465955555438995
0.39773374795913696 0.5151870846748352 -0.002689740154892206
0.4211861193180084 0.5081870555877686 -0.008870355784893036
0.4369625747203827 0.50094074010849 -0.014291062019765377
0.2435200810432434 0.5170160531997681 0.2783220708370209
0.413858026266098 0.6571890115737915 -0.05116495117545128
0.44669073820114136 0.5768423676490784 -0.09204588830471039
0.442106157541275 0.6614416241645813 -0.11622375249862671
0.4554964303970337 0.6735289096832275 -0.10459547489881516
0.4429666996002197 0.6638342142105103 -0.10327893495559692
0.41983234882354736 0.6634014248847961 -0.04156443476676941
0.46006855368614197 0.6777677536010742 -0.11111876368522644
0.4637840986251831 0.68089359998703 -0.07999055832624435
0.43899720907211304 0.48115426301956177 -0.008349423296749592
0.4489370584487915 0.48729056119918823 -0.02361721359193325
0.45380398631095886 0.49242162704467773 -0.04056607186794281
0.3306771516799927 0.45788174867630005 0.017987171187996864
0.3125540316104889 0.44482171535491943 0.019841136410832405
0.5053367018699646 0.568333089351654 -0.11972782760858536
0.6733689308166504 0.48035383224487305 -0.019723791629076004
0.5100544691085815 0.6776472330093384 -0.08483047038316727
0.7974557280540466 0.35295477509498596 0.05913904309272766
0.6063346266746521 0.5080194473266602 -0.03360769897699356
0.6296953558921814 0.5085409283638 -0.03406370058655739
0.6533209681510925 0.5055018067359924 -0.030045393854379654
0.6864920258522034 0.48877716064453125 -0.014528116211295128
0.5864235162734985 0.503241777420044 -0.028937099501490593
0.6365558505058289 0.42438414692878723 -0.057027172297239304
0.6090400815010071 0.4285099506378174 -0.05386602133512497
0.663558840751648 0.4290464520454407 -0.05014742538332939
0.6819477677345276 0.440126895904541 -0.040375251322984695
0.7103793621063232 0.5041951537132263 -0.00017833703896030784
0.5849140286445618 0.8816107511520386 0.05802062526345253
0.6828362941741943 0.47234177589416504 -0.013470745645463467
0.8065173625946045 0.47890210151672363 0.09809689223766327
0.7432612776756287 0.4836668372154236 0.017492057755589485
0.6255325675010681 0.6200213432312012 -0.03220563754439354
0.5275938510894775 0.7433401942253113 -0.04505959153175354
0.5253649950027466 0.7556586861610413 -0.028539909049868584
0.559838056564331 0.74688321352005 -0.031249070540070534
0.5822809338569641 0.7494887709617615 -0.00898650847375393
0.5525765419006348 0.7547152042388916 -0.01934775896370411
0.5736618041992188 0.7546088695526123 0.0005985202151350677
0.6210140585899353 0.7781698703765869 0.044608909636735916
0.5012245178222656 0.6698830127716064 -0.1326448917388916
0.5034635663032532 0.6413074731826782 -0.14536689221858978
0.7183829545974731 0.4167560040950775 -0.04511492699384689
0.5697430372238159 0.5504605770111084 -0.04517294093966484
0.5703006386756897 0.6468266844749451 -0.07905685156583786
0.572591245174408 0.6288440227508545 -0.07418941706418991
0.708670973777771 0.6099978685379028 -0.009827949106693268
0.5042164325714111 0.6024875640869141 -0.13778361678123474
0.6496775150299072 0.3898187577724457 -0.08493221551179886
0.6882711052894592 0.3978593945503235 -0.06865517050027847
0.767409086227417 0.30589058995246887 0.0035167322494089603
0.5418468117713928 0.41791513562202454 -0.0915861427783966
0.5867311358451843 0.4422820806503296 -0.04275490716099739
0.6431819200515747 0.7469457983970642 0.039756279438734055
0.780168354511261 0.7360138893127441 0.2305012047290802
0.5522282719612122 0.6638860106468201 -0.06444083899259567
0.530742883682251 0.6727941036224365 -0.06047596037387848
0.6142239570617676 0.7534980773925781 0.041316691786050797
0.607065737247467 0.7550004124641418 0.03635034337639809
0.7044953107833862 0.3788125216960907 -0.06272830814123154
0.574337363243103 0.6544344425201416 -0.06237512826919556
0.6014439463615417 0.39446401596069336 -0.09332369267940521
0.6041946411132812 0.37139248847961426 -0.10431156307458878
0.6518325209617615 0.24498894810676575 -0.09251561015844345
0.7417589426040649 0.3409714698791504 -0.03531361371278763
0.6305947303771973 0.30443301796913147 -0.10081948339939117
0.7381060719490051 0.40274155139923096 -0.02931906096637249
0.7724186182022095 0.378758043050766 0.011395331472158432
0.5268908143043518 0.7506741881370544 -0.039158787578344345
0.5563206672668457 0.7512199282646179 -0.025501416996121407
0.5782896280288696 0.7521542906761169 -0.005682235583662987
0.5471171736717224 0.6675367951393127 -0.05679665505886078
0.6105509400367737 0.7542809247970581 0.03883858397603035
0.5961253643035889 0.7688553333282471 0.02947678416967392
0.6037249565124512 0.7556923031806946 0.0361047126352787
0.5348982214927673 0.6628986597061157 -0.10124462842941284
0.5695390701293945 0.7564103603363037 0.005902633536607027
0.5487765669822693 0.757045328617096 -0.007520142011344433
0.5236644148826599 0.7587672472000122 -0.016309738159179688
0.5282099843025208 0.8504548668861389 0.024401741102337837
0.5300657153129578 0.8304026126861572 -0.0025693115312606096
0.5285844802856445 0.8149352073669434 -0.00868919212371111
0.5262038111686707 0.7993878722190857 -0.005692961625754833
0.523284375667572 0.7875431180000305 -0.004413976334035397
0.568771243095398 0.7729890942573547 0.015190014615654945
0.5742418169975281 0.7773543000221252 0.013622073456645012
0.5803443193435669 0.7842519283294678 0.012383383698761463
0.5851086974143982 0.792164146900177 0.01824023202061653
0.6082732081413269 0.7147026658058167 -0.00900011695921421
0.8143717050552368 0.5949824452400208 0.23000316321849823
0.5839809775352478 0.7656596899032593 0.028659777715802193
0.5900911688804626 0.7667285799980164 0.02815711870789528
0.5218483209609985 0.6830810308456421 -0.057457029819488525
0.5679959654808044 0.6673808097839355 -0.037997376173734665
0.5260825753211975 0.6782026290893555 -0.05999844893813133
0.5981447696685791 0.5641933679580688 -0.035987112671136856
0.6427136659622192 0.5810315608978271 -0.02985451929271221
0.5794945955276489 0.6381233334541321 -0.05761801451444626
0.7210864424705505 0.26865825057029724 -0.04900120571255684
0.6967020034790039 0.3147837519645691 -0.07172419875860214
0.6588170528411865 0.3668648302555084 -0.08762442320585251
0.5967398285865784 0.8069117069244385 0.03748765587806702
0.5465307831764221 0.3803797960281372 -0.10908834636211395
0.5656418800354004 0.30384644865989685 -0.11313958466053009
0.5802463889122009 0.23404410481452942 -0.11278151720762253
0.6743041276931763 0.49948397278785706 -0.02208477072417736
0.7397781610488892 0.5216765403747559 0.014732678420841694
0.5729485154151917 0.4980100393295288 -0.026241663843393326
0.7103928327560425 0.45231735706329346 -0.021748412400484085
0.5503873825073242 0.5344249606132507 -0.05577748641371727
0.5505257844924927 0.6430031657218933 -0.10433651506900787
0.7764768004417419 0.5368658304214478 0.04395890608429909
0.7188568711280823 0.5411853194236755 -0.0014803340891376138
0.6831620931625366 0.5516908764839172 -0.018561478704214096
0.6343382000923157 0.5497258901596069 -0.025162575766444206
0.5997850298881531 0.540962815284729 -0.028927914798259735
0.5736542344093323 0.5301393270492554 -0.035384610295295715
0.5134837031364441 0.5012388825416565 -0.08767878264188766
0.7734869122505188 0.5950102210044861 0.05021756514906883
0.7334250211715698 0.44745343923568726 -0.014638802967965603
0.4946875274181366 0.6816631555557251 -0.11775188893079758
0.5672014951705933 0.5806782245635986 -0.050150852650403976
0.8221763372421265 0.4673709273338318 0.17798690497875214
0.5533194541931152 0.5170266628265381 -0.04094139114022255
0.5843345522880554 0.6357760429382324 -0.03143252432346344
0.6962640285491943 0.4724038243293762 -0.009157263673841953
0.5528042316436768 0.620803952217102 -0.09813908487558365
0.8033517599105835 0.6643569469451904 0.23630626499652863
0.5730645656585693 0.48914605379104614 -0.023219335824251175
0.5281515717506409 0.6094362735748291 -0.12334556132555008
0.705449640750885 0.8088027238845825 0.12352055311203003
0.7050727009773254 0.8363332748413086 0.17304350435733795
0.8039333820343018 0.5985783338546753 0.1384204477071762
0.7449086308479309 0.7712904214859009 0.13976143300533295
0.7908363342285156 0.4240790009498596 0.06030001863837242
0.5876611471176147 0.9057405591011047 0.07714211195707321
0.4937412142753601 0.6844531297683716 -0.08148352056741714
0.5926748514175415 0.5982522368431091 -0.03876444324851036
0.7705864906311035 0.4871414601802826 0.040045253932476044
0.6490578055381775 0.4913746416568756 -0.03066386468708515
0.6289942264556885 0.4946472942829132 -0.034343548119068146
0.6013396382331848 0.7716212868690491 0.033581458032131195
0.7705713510513306 0.6516751646995544 0.07313409447669983
0.5425605177879333 0.9389687180519104 0.0930953100323677
0.6211962103843689 0.8999632000923157 0.12721817195415497
0.6586959958076477 0.8735752105712891 0.1476716548204422
0.6097889542579651 0.49427923560142517 -0.03345945104956627
0.5916755199432373 0.49206462502479553 -0.02883709780871868
0.5794234275817871 0.4912145733833313 -0.02366616390645504
0.7572996616363525 0.43932467699050903 0.006617560982704163
0.5934293270111084 0.46292635798454285 -0.03749219328165054
0.6128004789352417 0.4512477517127991 -0.044606368988752365
0.6332837343215942 0.44864439964294434 -0.04583759978413582
0.6543338298797607 0.4528687000274658 -0.041033901274204254
0.6677520275115967 0.4604196548461914 -0.033213209360837936
0.8143652677536011 0.4035876393318176 0.12212099134922028
0.6631214618682861 0.48609617352485657 -0.024947738274931908
0.5790027976036072 0.7048956751823425 -0.027758371084928513
0.550452470779419 0.662102222442627 -0.07562121748924255
0.5255176424980164 0.7046635746955872 -0.04953370988368988
0.6636604070663452 0.8459293246269226 0.11391444504261017
0.6261265873908997 0.8755881786346436 0.09802500903606415
0.5420056581497192 0.9260357618331909 0.060584042221307755
0.7450889945030212 0.7936742901802063 0.2042764574289322
0.5793313384056091 0.47925063967704773 -0.02941063418984413
0.5289710164070129 0.5491254925727844 -0.08734304457902908
0.583685040473938 0.9235472679138184 0.10494827479124069
0.7946474552154541 0.6611660122871399 0.15052101016044617
0.5481482744216919 0.780975341796875 0.0036028579343110323
0.5534394979476929 0.7894541621208191 0.002041538944467902
0.5580739974975586 0.8011380434036255 0.00036390675813890994
0.5614442229270935 0.8148187398910522 0.006522815208882093
0.5667406916618347 0.8325991630554199 0.028259528800845146
0.5916526913642883 0.7547770142555237 0.019203778356313705
0.5963236689567566 0.753036379814148 0.018303919583559036
0.6003500819206238 0.7512835264205933 0.016369933262467384
0.6320160031318665 0.7280105948448181 0.013904240913689137
0.7335350513458252 0.6692823767662048 0.02983233891427517
0.5312867760658264 0.5162674784660339 -0.07021094113588333
0.5522943139076233 0.464380145072937 -0.041076429188251495
0.5688879489898682 0.4682510495185852 -0.033862851560115814
0.5869510769844055 0.7563430070877075 0.02254798263311386
0.7356752157211304 0.7335613965988159 0.08494040369987488
0.5256544351577759 0.46298643946647644 -0.07125955075025558
0.5766123533248901 0.8551117181777954 0.044417332857847214
0.5094691514968872 0.5367311239242554 -0.10632399469614029
0.5474989414215088 0.5930070281028748 -0.08035667985677719
0.5335428714752197 0.8748300075531006 0.03572849929332733
0.6388306021690369 0.7917641997337341 0.05783217027783394
0.6067972779273987 0.6558927297592163 -0.021506497636437416
0.6100600361824036 0.8265542387962341 0.053905729204416275
0.6704476475715637 0.6509685516357422 -0.01784091629087925
0.6330728530883789 0.6818299889564514 -0.009633802808821201
0.6947439908981323 0.6914951205253601 0.012015215121209621
0.5393959283828735 0.9039192199707031 0.04277564212679863
0.565788984298706 0.604423463344574 -0.06027226522564888
0.6573580503463745 0.8150595426559448 0.08163971453905106
0.6209352016448975 0.8491240739822388 0.07503333687782288
0.6631560325622559 0.7551085948944092 0.04683452472090721
0.7632378935813904 0.6989390850067139 0.09527096152305603
0.6963441371917725 0.7630435228347778 0.06646592170000076
0.7774263620376587 0.7188332676887512 0.156146839261055
0.6571900844573975 0.709756076335907 0.010182342492043972
0.5473821759223938 0.5647600293159485 -0.06732165813446045
0.5423576235771179 0.6580239534378052 -0.10780803859233856
0.5620284080505371 0.6581739187240601 -0.07897643744945526
0.5278320908546448 0.6421996355056763 -0.12643778324127197
0.5680801272392273 0.43742766976356506 -0.05511952191591263
0.6051876544952393 0.4174153506755829 -0.06540589034557343
0.6406261920928955 0.41258668899536133 -0.06693068891763687
0.6718866229057312 0.4177268147468567 -0.05846488103270531
0.6959574222564697 0.4307655096054077 -0.04395540431141853
0.7163362503051758 0.47790682315826416 0.0004356976132839918
0.8082014322280884 0.5383824706077576 0.11903244256973267
0.6942800879478455 0.5163819193840027 -0.009283444844186306
0.6666947603225708 0.5250551700592041 -0.019585898146033287
0.6332178115844727 0.5271188020706177 -0.025692768394947052
0.6028488278388977 0.5230036973953247 -0.028379403054714203
0.5795430541038513 0.5158076286315918 -0.02827012725174427
0.5629440546035767 0.5077696442604065 -0.030195577070116997
0.8199318051338196 0.5297348499298096 0.21136830747127533
0.5636216402053833 0.6616628170013428 -0.06505583226680756
0.5265693664550781 0.5786119103431702 -0.10201220214366913
0.521319568157196 0.6641952991485596 -0.12391446530818939
0.5102251172065735 0.6758337020874023 -0.1090470477938652
0.5235548615455627 0.6669300198554993 -0.11119481921195984
0.5585219264030457 0.6675252318382263 -0.05315690115094185
0.5037298798561096 0.6794126629829407 -0.11470215022563934
0.5029744505882263 0.6821229457855225 -0.08304306864738464
0.5642519593238831 0.489437460899353 -0.024899357929825783
0.5496860146522522 0.4932449460029602 -0.036184489727020264
0.5380592346191406 0.4968337118625641 -0.0508919358253479
0.6757667064666748 0.46659234166145325 -0.024719538167119026
0.6946662664413452 0.45417553186416626 -0.025502964854240417
0.3791552186012268 0.46389785408973694 0.0019856104627251625
0.4041682183742523 0.4640267491340637 0.0019856104627251625
0.37944430112838745 0.439746230840683 0.0019856104627251625
0.35363972187042236 0.4635241627693176 0.0019856104627251625
0.37851011753082275 0.48805946111679077 0.0019856104627251625
0.6260025501251221 0.4704737663269043 -0.03054032474756241
0.6507144570350647 0.47052568197250366 -0.03054032474756241
0.6253360509872437 0.4464128017425537 -0.03054032474756241
0.6018606424331665 0.47001293301582336 -0.03054032474756241
0.6266766786575317 0.49462711811065674 -0.03054032474756241
