ply
format ascii 1.0
element vertex 478
property float x
property float y
property float z
end_header
0.4749270975589752 0.7179948687553406 -0.07002274692058563
0.4534077048301697 0.630944013595581 -0.13657891750335693
0.4670041501522064 0.655364453792572 -0.07256366312503815
0.44401949644088745 0.5457654595375061 -0.0964612141251564
0.4518945515155792 0.6045884490013123 -0.14525464177131653
0.4564254879951477 0.5701676607131958 -0.1355285793542862
0.47292304039001465 0.4863150417804718 -0.0694943442940712
0.34119275212287903 0.48250073194503784 0.08431338518857956
0.4766790568828583 0.426843523979187 -0.05310307443141937
0.47510436177253723 0.3937157392501831 -0.058231204748153687
0.48117655515670776 0.2684799134731293 -0.030049439519643784
0.47548601031303406 0.7271047830581665 -0.0666029080748558
0.4770662784576416 0.7360358238220215 -0.05862471088767052
0.4792378544807434 0.7419344782829285 -0.046845197677612305
0.4788413643836975 0.7502843737602234 -0.040382951498031616
0.47814831137657166 0.7638109922409058 -0.043808236718177795
0.4781990051269531 0.7800956964492798 -0.0492175929248333
0.47943729162216187 0.7965127229690552 -0.04567692428827286
0.48261651396751404 0.8206120729446411 -0.022459296509623528
0.45791709423065186 0.6443958878517151 -0.12369466572999954
0.4410794675350189 0.6435859203338623 -0.08384857326745987
0.28315454721450806 0.3965429663658142 0.23002605140209198
0.3993394374847412 0.5026932954788208 0.04073365032672882
0.37729501724243164 0.5033315420150757 0.04886607453227043
0.3568480908870697 0.5026863813400269 0.06166904419660568
0.33339643478393555 0.49348995089530945 0.09098958224058151
0.4178754687309265 0.4992505609989166 0.03544988855719566
0.3662510812282562 0.43856701254844666 0.03876905143260956
0.39221274852752686 0.440879762172699 0.030362125486135483
0.3435468077659607 0.4434806704521179 0.05332665517926216
0.33016541600227356 0.45361703634262085 0.06781132519245148
0.316019743680954 0.5094742178916931 0.10785038024187088
0.40723365545272827 0.8544921875 0.032408930361270905
0.33491382002830505 0.47891965508461 0.09471872448921204
0.27768081426620483 0.5020410418510437 0.24135807156562805
0.29865172505378723 0.4964134097099304 0.14019422233104706
0.36986634135246277 0.6076896786689758 0.016902003437280655
0.4476570188999176 0.7111897468566895 -0.05800735950469971
0.45400482416152954 0.733673095703125 -0.04647970572113991
0.4258917570114136 0.717519223690033 -0.032925039529800415
0.41280871629714966 0.7251246571540833 -0.005239794030785561
0.43665698170661926 0.7331434488296509 -0.027487382292747498
0.42400383949279785 0.7344870567321777 -0.0030886533204466105
0.3831912875175476 0.764144778251648 0.043778032064437866
0.43482691049575806 0.6303281784057617 -0.12971358001232147
0.4305194914340973 0.605208158493042 -0.13674454391002655
0.30121850967407227 0.43659159541130066 0.08330078423023224
0.4179195761680603 0.5437160730361938 0.0007287938497029245
0.39571255445480347 0.6211788058280945 -0.05117171257734299
0.39733263850212097 0.6071239113807678 -0.04273107647895813
0.31162628531455994 0.6048969030380249 0.07095883041620255
0.4364999234676361 0.5731921792030334 -0.12058649212121964
0.3447221517562866 0.40915998816490173 0.019273461773991585
0.31738555431365967 0.4180191159248352 0.049622394144535065
0.29274314641952515 0.3514729142189026 0.1716880202293396
0.4368059039115906 0.43047863245010376 -0.030985014513134956
0.4144699275493622 0.45047974586486816 0.0319376178085804
0.3654356896877289 0.7375978827476501 0.055096402764320374
0.3228421211242676 0.7352958917617798 0.303753137588501
0.41339683532714844 0.6359491348266602 -0.04669960215687752
0.43093499541282654 0.6440423727035522 -0.05780129134654999
0.39878126978874207 0.738814651966095 0.048468105494976044
0.4044331908226013 0.7389421463012695 0.03799770027399063
0.3087327480316162 0.4030240476131439 0.06585399806499481
0.3978869318962097 0.6312800645828247 -0.03763290494680405
0.38396066427230835 0.4119146764278412 -0.008312401361763477
0.3794226348400116 0.3908822536468506 -0.012913464568555355
0.3580031991004944 0.2891122102737427 0.04414227232336998
0.2971818149089813 0.37625375390052795 0.11113179475069046
0.3650519847869873 0.3367074429988861 0.012969226576387882
0.2930501103401184 0.42660102248191833 0.10953646153211594
0.285360187292099 0.4122316241264343 0.16546665132045746
0.4499867558479309 0.7238781452178955 -0.05460945889353752
0.4310038089752197 0.7260799407958984 -0.031030884012579918
0.41803139448165894 0.7300328612327576 -0.00640803063288331
0.4192354381084442 0.6403077840805054 -0.044948477298021317
0.4016975164413452 0.7389073371887207 0.04242865741252899
0.409292995929718 0.7468822002410889 0.023106137290596962
0.4073773920536041 0.7390592098236084 0.036229826509952545
0.41847729682922363 0.6295884847640991 -0.083309106528759
0.429157018661499 0.7377163171768188 8.352201984962448e-05
0.4417022466659546 0.7378187775611877 -0.018130285665392876
0.45831727981567383 0.7395743131637573 -0.03501364216208458
0.45174291729927063 0.8178192973136902 -0.0131211644038558
0.4505673050880432 0.792810320854187 -0.03497831150889397
0.45096805691719055 0.7764410376548767 -0.03744371235370636
0.45366084575653076 0.7602605819702148 -0.03149032220244408
0.45776528120040894 0.7478101253509521 -0.028471220284700394
0.4288957715034485 0.742358922958374 0.004906903486698866
0.4231186807155609 0.748173177242279 0.001267196610569954
0.4173704981803894 0.7559007406234741 -0.0012633781880140305
0.41304856538772583 0.7647426128387451 0.004846010822802782
0.381436288356781 0.696331262588501 0.005654348060488701
0.30091241002082825 0.6125147938728333 0.34780293703079224
0.4624091386795044 0.6500917077064514 -0.09068227559328079
0.4199219048023224 0.740808367729187 0.023837033659219742
0.41437700390815735 0.7435719966888428 0.02178465761244297
0.4379616379737854 0.6536781787872314 -0.05820578709244728
0.40840357542037964 0.6455895304679871 -0.023094866424798965
0.4345123767852783 0.6490669846534729 -0.059129033237695694
0.3955913186073303 0.5584144592285156 0.016989273950457573
0.3594242334365845 0.5755184292793274 0.03433448448777199
0.3962823152542114 0.6178103089332581 -0.027616851031780243
0.3153958320617676 0.31491076946258545 0.10644255578517914
0.3220604956150055 0.3502075672149658 0.06145830452442169
0.3385504484176636 0.3892415165901184 0.026864131912589073
0.40041691064834595 0.7845601439476013 0.0255337655544281
0.4282143712043762 0.3972671926021576 -0.03989127278327942
0.41497617959976196 0.33142486214637756 -0.022184200584888458
0.41135889291763306 0.2747863829135895 -0.0024262643419206142
0.34142065048217773 0.4997342824935913 0.07764611393213272
0.29545989632606506 0.5271259546279907 0.12891225516796112
0.4300417900085449 0.49451369047164917 0.0357290655374527
0.3125475347042084 0.4656616151332855 0.09723908454179764
0.4317634701728821 0.5271889567375183 -0.01340740080922842
0.40447497367858887 0.6131624579429626 -0.0801447257399559
0.27753758430480957 0.5460773706436157 0.16542012989521027
0.3035889267921448 0.5417181849479675 0.10243207961320877
0.32594969868659973 0.5488410592079163 0.07040758430957794
0.36585134267807007 0.5453330278396606 0.04586248844861984
0.39672303199768066 0.5362852811813354 0.030767736956477165
0.4192503094673157 0.5253599286079407 0.015647776424884796
0.45355165004730225 0.49312686920166016 -0.05182202160358429
0.2778831720352173 0.5971143841743469 0.15867461264133453
0.29931560158729553 0.4642489552497864 0.11451616138219833
0.44632238149642944 0.6435058116912842 -0.11856483668088913
0.414617657661438 0.5686233043670654 -0.010324021801352501
0.2884727716445923 0.5015849471092224 0.330506831407547
0.4353468716144562 0.5122938752174377 0.006374831777065992
0.3987146019935608 0.6188352108001709 -0.0014031672617420554
0.3260984718799591 0.481518417596817 0.10219323635101318
0.4076520800590515 0.5959517955780029 -0.07026506960391998
0.3092457056045532 0.6724523305892944 0.333079993724823
0.4321494400501251 0.48658162355422974 0.043164584785699844
0.4210933446884155 0.582064688205719 -0.09991094470024109
0.337230920791626 0.7920645475387573 0.15556710958480835
0.35286831855773926 0.8224924206733704 0.20035572350025177
0.2793538272380829 0.6062269806861877 0.2552117109298706
0.31725335121154785 0.7586723566055298 0.19462555646896362
0.2814675569534302 0.45362669229507446 0.21132269501686096
0.40707165002822876 0.8809407353401184 0.04833902791142464
0.4528588056564331 0.6491753458976746 -0.08668467402458191
0.39633214473724365 0.5870317220687866 0.004222816321998835
0.28669634461402893 0.5020912885665894 0.1722499281167984
0.359136164188385 0.4865882396697998 0.06328154355287552
0.37709841132164 0.488253116607666 0.05186406150460243
0.4050547480583191 0.7508755326271057 0.029107339680194855
0.2849811315536499 0.6475977301597595 0.1647721379995346
0.4487870931625366 0.9194175601005554 0.04159383475780487
0.3953212797641754 0.8812484741210938 0.11456585675477982
0.3756493330001831 0.8563876748085022 0.15330418944358826
0.476677268743515 0.3295033276081085 -0.0461195632815361
0.4955073297023773 0.9268738627433777 0.019846905022859573
0.39610230922698975 0.48840296268463135 0.04463600739836693
0.4141961932182312 0.48771798610687256 0.04292704910039902
0.4260944128036499 0.4877192974090576 0.04466475173830986
0.2902122139930725 0.4608149826526642 0.14512726664543152
0.41292670369148254 0.467537522315979 0.03996850177645683
0.3939969539642334 0.4593411684036255 0.03998642787337303
0.37388938665390015 0.4573453366756439 0.04678279161453247
0.3550149202346802 0.46172383427619934 0.05872105807065964
0.3443169593811035 0.4687904417514801 0.07073411345481873
0.2820916473865509 0.44364410638809204 0.2871687114238739
0.348227322101593 0.4845981001853943 0.0749216079711914
0.46948015689849854 0.6752948760986328 -0.06555245816707611
0.39994847774505615 0.6825323700904846 -0.017215199768543243
0.41162824630737305 0.6323613524436951 -0.057157814502716064
0.4371832311153412 0.6760350465774536 -0.05413295328617096
0.47796204686164856 0.45582878589630127 -0.05131044238805771
0.3609876036643982 0.8257013559341431 0.12139502912759781
0.3835664391517639 0.8531983494758606 0.08621682226657867
0.44134843349456787 0.9008522629737854 0.011490304954349995
0.3375597298145294 0.7856749296188354 0.25488603115081787
0.42575669288635254 0.4788537323474884 0.04179840907454491
0.43669164180755615 0.5343090891838074 -0.053850337862968445
0.48904258012771606 0.9078384637832642 -0.008769692853093147
0.4176352024078369 0.9033030271530151 0.0745164304971695
0.2887338101863861 0.6611527800559998 0.2484242171049118
0.44112515449523926 0.7446589469909668 -0.012290075421333313
0.43528813123703003 0.7542679309844971 -0.015536259859800339
0.4307224154472351 0.7666199207305908 -0.0185703095048666
0.4280428886413574 0.78123539686203 -0.014396139420568943
0.4221351146697998 0.8036388158798218 0.00510950293391943
0.4143329858779907 0.7365825176239014 0.019122103229165077
0.4089396595954895 0.7344764471054077 0.021717777475714684
0.40450453758239746 0.7319762706756592 0.023442726582288742
0.36857861280441284 0.7150557041168213 0.03271692618727684
0.3018457591533661 0.6600353121757507 0.10294125974178314
0.4432806968688965 0.5084137320518494 -0.030963212251663208
0.44330793619155884 0.4666256904602051 0.016068702563643456
0.43305426836013794 0.46991437673568726 0.03265294432640076
0.41968539357185364 0.7384245991706848 0.02081397920846939
0.31052595376968384 0.7213943004608154 0.14316970109939575
0.4551312327384949 0.4647517800331116 -0.023839881643652916
0.4152512550354004 0.8277069330215454 0.019730044528841972
0.4623079299926758 0.5416110157966614 -0.11243752390146255
0.44823551177978516 0.5207660794258118 -0.07745135575532913
0.46753281354904175 0.5149435997009277 -0.08986220508813858
0.42018041014671326 0.5740787982940674 -0.049159202724695206
0.48509031534194946 0.880879282951355 -0.022338181734085083
0.4837747812271118 0.8485745191574097 -0.02215421386063099
0.4467577338218689 0.8445042967796326 -0.00669415108859539
0.3687240481376648 0.7752038240432739 0.0626467689871788
0.38271647691726685 0.6396763324737549 0.010849579237401485
0.3907332420349121 0.8047260642051697 0.042853180319070816
0.3368970453739166 0.6376236081123352 0.03726612776517868
0.3640347719192505 0.6655365824699402 0.024060698226094246
0.3240748643875122 0.677972137928009 0.06582551449537277
0.4405474066734314 0.8751548528671265 -0.0020045998971909285
0.410453200340271 0.587781548500061 -0.026745498180389404
0.35794299840927124 0.7958989143371582 0.09091915935277939
0.38338446617126465 0.8264592289924622 0.0643380656838417
0.3492770195007324 0.7421934008598328 0.07159369438886642
0.29515597224235535 0.6909558176994324 0.17123514413833618
0.33103400468826294 0.7479469776153564 0.10250691324472427
0.3009662330150604 0.7123222351074219 0.2346886694431305
0.3500250577926636 0.6969795227050781 0.04396139085292816
0.42669677734375 0.5512031316757202 -0.030436726287007332
0.41068828105926514 0.6250169277191162 -0.08713799715042114
0.40183955430984497 0.6299683451652527 -0.05732564628124237
0.41563937067985535 0.6082649230957031 -0.10912849009037018
0.4258677363395691 0.44557493925094604 0.014291331171989441
0.38905853033065796 0.4306551218032837 0.01883845031261444
0.3565611243247986 0.4280654191970825 0.030178602784872055
0.3314467668533325 0.433677077293396 0.04933980107307434
0.3165183961391449 0.4462759792804718 0.07146608829498291
0.31395429372787476 0.4885867238044739 0.1160682737827301
0.2752470374107361 0.5536139607429504 0.251758873462677
0.3246748745441437 0.518161952495575 0.0919477567076683
0.3440030515193939 0.5233951807022095 0.06944136321544647
0.37182533740997314 0.5231460332870483 0.050426654517650604
0.39939677715301514 0.5186411738395691 0.03815195709466934
0.4206015467643738 0.5119442343711853 0.028264280408620834
0.43466538190841675 0.5044392943382263 0.022205116227269173
0.2961881160736084 0.5569157004356384 0.3486512303352356
0.4046962261199951 0.6358444094657898 -0.04514448344707489
0.4307273328304291 0.5575623512268066 -0.07314425706863403
0.42147618532180786 0.6268473267555237 -0.11250749975442886
0.4370848536491394 0.6393861770629883 -0.10644567012786865
0.4250331521034241 0.6311233639717102 -0.09993926435709
0.41241592168807983 0.6429397463798523 -0.039289817214012146
0.43991273641586304 0.6418321132659912 -0.11417985707521439
0.44597119092941284 0.647404670715332 -0.0852382481098175
0.43801045417785645 0.48722344636917114 0.03495362773537636
0.44560521841049194 0.4910743832588196 0.014406168833374977
0.4475407600402832 0.49352526664733887 -0.006872532889246941
0.3387315273284912 0.47431161999702454 0.08140365779399872
0.32318276166915894 0.4658832848072052 0.08566111326217651
0.4843282997608185 0.5451322793960571 -0.11075568199157715
0.6641479730606079 0.47421208024024963 -0.019773289561271667
0.48868435621261597 0.6436084508895874 -0.09491034597158432
0.807098925113678 0.3766601085662842 0.06890124827623367
0.5972092151641846 0.4929301142692566 -0.026171879842877388
0.6200470328330994 0.49409282207489014 -0.03164448216557503
0.6445967555046082 0.4950132966041565 -0.03147744759917259
0.6806044578552246 0.4849381446838379 -0.019209841266274452
0.5776146054267883 0.4902367889881134 -0.017317838966846466
0.6313419938087463 0.4332081079483032 -0.045669954270124435
0.6041081547737122 0.4343717694282532 -0.03623552992939949
0.6574369072914124 0.43835288286209106 -0.044169291853904724
0.675349235534668 0.44793084263801575 -0.037541281431913376
0.7087740898132324 0.502473771572113 -0.010824227705597878
0.5873604416847229 0.8615473508834839 -0.01535602193325758
0.6761194467544556 0.4704623222351074 -0.014203902333974838
0.8192492723464966 0.49083733558654785 0.07917264103889465
0.7455882430076599 0.4875141382217407 0.006692429538816214
0.61355060338974 0.6060607433319092 -0.050509262830019
0.5065573453903198 0.7117748260498047 -0.07566631585359573
0.5063579082489014 0.7342475652694702 -0.06264068186283112
0.5398141145706177 0.720029354095459 -0.06924456357955933
0.5627223253250122 0.7275885343551636 -0.054693590849637985
0.5327364802360535 0.7345153093338013 -0.059066466987133026
0.554110050201416 0.7359840273857117 -0.04484108090400696
0.6124779582023621 0.7666151523590088 -0.01892678253352642
0.47526437044143677 0.6303388476371765 -0.13890758156776428
0.4769325852394104 0.6047433614730835 -0.14775700867176056
0.7112617492675781 0.43399566411972046 -0.04163355752825737
0.5603227019309998 0.5413420796394348 -0.04349839687347412
0.5524442195892334 0.6214441657066345 -0.09288404881954193
0.5569239258766174 0.6068798899650574 -0.08585445582866669
0.7002645134925842 0.601861834526062 -0.040558841079473495
0.48008298873901367 0.5725708603858948 -0.13462668657302856
0.6375371217727661 0.4070245027542114 -0.06658289581537247
0.677996039390564 0.4165950417518616 -0.058223046362400055
0.7650201320648193 0.3304187059402466 0.027469173073768616
0.5275869965553284 0.4258938729763031 -0.058978062123060226
0.5813723802566528 0.4432936906814575 -0.02215593494474888
0.6327469348907471 0.7394788265228271 -0.020792944356799126
0.8161106109619141 0.739255428314209 0.15393230319023132
0.5344392657279968 0.6365967392921448 -0.07724776118993759
0.5125056505203247 0.6444681882858276 -0.07304515689611435
0.5931278467178345 0.7390674948692322 -0.017121920362114906
0.5868507027626038 0.7393344044685364 -0.019755229353904724
0.6949120163917542 0.40073925256729126 -0.04925902932882309
0.558238685131073 0.6320686936378479 -0.07831060141324997
0.5879567861557007 0.4078383445739746 -0.06714938580989838
0.5910144448280334 0.3872102200984955 -0.0735488310456276
0.6325631141662598 0.27370646595954895 -0.03858214616775513
0.7313953638076782 0.35961735248565674 -0.016274884343147278
0.6083130240440369 0.3247339129447937 -0.0572076290845871
0.7334405183792114 0.4215034246444702 -0.02425863966345787
0.7721319198608398 0.39672553539276123 0.020291488617658615
0.5066144466400146 0.7243331074714661 -0.07209571450948715
0.5361394286155701 0.7278617024421692 -0.0652032196521759
0.5583289265632629 0.7319011688232422 -0.05168586224317551
0.5293759703636169 0.6411981582641602 -0.06994471698999405
0.5898635387420654 0.7392477989196777 -0.018291344866156578
0.5763469338417053 0.7471380829811096 -0.02824549749493599
0.5836133360862732 0.7394608855247498 -0.019822807982563972
0.5135807991027832 0.6294479370117188 -0.11165637522935867
0.5511128306388855 0.7386761903762817 -0.039396293461322784
0.5302590727806091 0.7386432886123657 -0.0476197674870491
0.5062047243118286 0.7400113940238953 -0.05152139812707901
0.5197052955627441 0.8193497657775879 -0.02862103283405304
0.5132455825805664 0.7933105826377869 -0.05202621594071388
0.5103395581245422 0.7768731117248535 -0.05515493080019951
0.5078259110450745 0.7605772018432617 -0.049061547964811325
0.5056689977645874 0.7480564117431641 -0.045152775943279266
0.5504764914512634 0.7429836988449097 -0.03453350439667702
0.5554653406143188 0.7485485672950745 -0.038137663155794144
0.5609853267669678 0.7562082409858704 -0.04199575260281563
0.5659622550010681 0.7649204730987549 -0.03895113617181778
0.5923609733581543 0.6975204944610596 -0.05121650546789169
0.8486519455909729 0.607334315776825 0.18057319521903992
0.5663167834281921 0.7414015531539917 -0.02550351619720459
0.5710013508796692 0.7439849376678467 -0.027753697708249092
0.5035155415534973 0.6544579267501831 -0.07327694445848465
0.5523133873939514 0.647113025188446 -0.055291302502155304
0.5077394247055054 0.6496604681015015 -0.07379774004220963
0.5893831253051758 0.5556833744049072 -0.04205964505672455
0.6327831745147705 0.5724033713340759 -0.045377135276794434
0.5651370882987976 0.6181078553199768 -0.07189424335956573
0.7084870934486389 0.29492032527923584 -0.011200175620615482
0.6786646246910095 0.3346104919910431 -0.04091750457882881
0.6469273567199707 0.3870869278907776 -0.06450054049491882
0.587558925151825 0.7876441478729248 -0.025662466883659363
0.5322673320770264 0.3920873999595642 -0.07030090689659119
0.5439683794975281 0.32504674792289734 -0.058549098670482635
0.5598205924034119 0.2660483419895172 -0.044151902198791504
0.6668154001235962 0.492077112197876 -0.026139788329601288
0.7423446774482727 0.5202456116676331 -0.003062587697058916
0.5644348859786987 0.48668038845062256 -0.01126017700880766
0.7057785391807556 0.4600798189640045 -0.023429851979017258
0.5395793914794922 0.5250137448310852 -0.04876134172081947
0.5296134948730469 0.6128061413764954 -0.11381548643112183
0.7815061807632446 0.5387694835662842 0.016205575317144394
0.7183064222335815 0.5375669002532959 -0.021531643345952034
0.679663360118866 0.546654462814331 -0.03504689410328865
0.6274843215942383 0.5426310300827026 -0.034647464752197266
0.5913986563682556 0.532782793045044 -0.030441202223300934
0.5648985505104065 0.5229675769805908 -0.030168835073709488
0.49793991446495056 0.49188530445098877 -0.06669972091913223
0.7780072689056396 0.5930929780006409 0.010342779569327831
0.7316734790802002 0.45758843421936035 -0.017811136320233345
0.4710860848426819 0.6436625719070435 -0.12588337063789368
0.5556827187538147 0.5668922066688538 -0.05314941704273224
0.8485511541366577 0.48837822675704956 0.1578645259141922
0.5436890721321106 0.5112723112106323 -0.029271725565195084
0.5721611976623535 0.6190952062606812 -0.04556331783533096
0.6907437443733215 0.472636878490448 -0.01210477389395237
0.5343729853630066 0.5953201651573181 -0.10457344353199005
0.8391835689544678 0.6720205545425415 0.17291110754013062
0.5665754079818726 0.4784078001976013 -0.005833556409925222
0.5064635276794434 0.5813739895820618 -0.12475743889808655
0.7241448760032654 0.8010132908821106 0.04547584801912308
0.7349744439125061 0.8329571485519409 0.08670791983604431
0.8230220079421997 0.6018940806388855 0.0932791456580162
0.7658885717391968 0.7650236487388611 0.06486407667398453
0.7979691028594971 0.43957778811454773 0.05608966946601868
0.5962268710136414 0.8896443843841553 -0.0036827202420681715
0.4728260934352875 0.6490663886070251 -0.09117507934570312
0.5818055272102356 0.5855309367179871 -0.04850563779473305
0.7761884331703186 0.49124863743782043 0.025404198095202446
0.6377411484718323 0.4777103066444397 -0.02812477946281433
0.6183707118034363 0.47810202836990356 -0.02892991714179516
0.5815786719322205 0.7509411573410034 -0.02596152201294899
0.7773979306221008 0.6466808319091797 0.02188507653772831
0.550093412399292 0.9247323274612427 0.012599118985235691
0.6415035128593445 0.8919985294342041 0.04129898548126221
0.6842854022979736 0.8681446313858032 0.060955021530389786
0.6005639433860779 0.4775468111038208 -0.024096926674246788
0.5832903385162354 0.477263867855072 -0.016033420339226723
0.5717304944992065 0.4784979224205017 -0.008161067962646484
0.7587308883666992 0.45090651512145996 0.0025453404523432255
0.5889712572097778 0.46055683493614197 -0.02047540247440338
0.6092495918273926 0.4530308246612549 -0.030347857624292374
0.628929078578949 0.4523342549800873 -0.035217590630054474
0.6485827565193176 0.45650196075439453 -0.03466801345348358
0.6613667607307434 0.4624581038951874 -0.029458096250891685
0.8332417011260986 0.4261999726295471 0.11780064553022385
0.6522344946861267 0.47621792554855347 -0.024292005226016045
0.5626702308654785 0.6835928559303284 -0.06045987457036972
0.5317857265472412 0.6328076124191284 -0.08653616160154343
0.5070235729217529 0.6765342950820923 -0.0721520259976387
0.6815450191497803 0.8364219665527344 0.03245285525918007
0.6404691934585571 0.8638335466384888 0.01607951894402504
0.5447950959205627 0.9059749841690063 -0.016812259331345558
0.7786259055137634 0.7928440570831299 0.12077530473470688
0.5736219882965088 0.47173869609832764 -0.012179484590888023
0.5129414796829224 0.5329241752624512 -0.07776432484388351
0.5971310138702393 0.912009596824646 0.020359966903924942
0.8164615035057068 0.6607615947723389 0.09358535706996918
0.5296603441238403 0.7451069355010986 -0.04174131900072098
0.5343001484870911 0.754645049571991 -0.04605935886502266
0.5386908054351807 0.7670148611068726 -0.05078123137354851
0.5426806211471558 0.781414270401001 -0.047912370413541794
0.557080090045929 0.806178092956543 -0.03177350386977196
0.5717320442199707 0.737443208694458 -0.03230105713009834
0.5761508345603943 0.7355210781097412 -0.03459608182311058
0.5802878141403198 0.7333490252494812 -0.03659677878022194
0.6174648404121399 0.7162042856216431 -0.03777072951197624
0.7304023504257202 0.6597205996513367 -0.01732296124100685
0.5181353688240051 0.5066813826560974 -0.055708516389131546
0.5423711538314819 0.46136540174484253 -0.015604225918650627
0.5615803003311157 0.4629417657852173 -0.012786274775862694
0.5675398707389832 0.7391457557678223 -0.028615931048989296
0.7427613735198975 0.7246972322463989 0.021484294906258583
0.5127652883529663 0.46325749158859253 -0.042710140347480774
0.5734442472457886 0.8327946662902832 -0.021465463563799858
0.49120670557022095 0.5198602080345154 -0.09022359549999237
0.5318783521652222 0.5731238722801208 -0.08074648678302765
0.5283905863761902 0.8473518490791321 -0.026639679446816444
0.6385616064071655 0.780171811580658 -0.010099401697516441
0.5950988531112671 0.6398137807846069 -0.04428157955408096
0.6093394756317139 0.8104522824287415 -0.01451217569410801
0.65835040807724 0.6364666223526001 -0.04905034229159355
0.6207795143127441 0.6657217741012573 -0.04452434927225113
0.6870923042297363 0.6786153316497803 -0.032871004194021225
0.5375953912734985 0.8793336153030396 -0.028537839651107788
0.5530202984809875 0.5867031812667847 -0.06636805087327957
0.665903627872467 0.8037052154541016 0.007167315576225519
0.6271881461143494 0.8347001671791077 -2.3209826395031996e-05
0.6597582101821899 0.7457619309425354 -0.016383903101086617
0.7736732959747314 0.6925395131111145 0.03505295142531395
0.700303316116333 0.7529477477073669 0.0005209505325183272
0.8009412288665771 0.7152853608131409 0.08749427646398544
0.6462079286575317 0.6978839039802551 -0.03707999736070633
0.5339422821998596 0.5496867895126343 -0.06441768258810043
0.5206395387649536 0.6249174475669861 -0.11780761182308197
0.5434017777442932 0.6304886341094971 -0.09256283193826675
0.5037173628807068 0.6078962087631226 -0.1333247870206833
0.5587860941886902 0.4404188394546509 -0.029151927679777145
0.5966717004776001 0.42661911249160767 -0.04441780596971512
0.6319094896316528 0.4244697391986847 -0.0528731495141983
0.6636744141578674 0.43026959896087646 -0.05146915838122368
0.6887074112892151 0.4421543478965759 -0.04160996153950691
0.7145001888275146 0.48068371415138245 -0.005935116671025753
0.824759304523468 0.5454922914505005 0.08579503744840622
0.6905328035354614 0.512059211730957 -0.019817877560853958
0.6611270904541016 0.5182062387466431 -0.02785087563097477
0.6253231167793274 0.5168382525444031 -0.029518479481339455
0.5941818952560425 0.511549174785614 -0.0249151773750782
0.5708673596382141 0.5058020949363708 -0.019334381446242332
0.5538086295127869 0.49960947036743164 -0.016608648002147675
0.8510450124740601 0.5472410321235657 0.17708401381969452
0.5463912487030029 0.6366822719573975 -0.0796031802892685
0.5077897310256958 0.5565715432167053 -0.09777319431304932
0.4968476891517639 0.6270196437835693 -0.13186264038085938
0.4872642755508423 0.6400527954101562 -0.11766240000724792
0.5005256533622742 0.6315265893936157 -0.11980503052473068
0.5415022373199463 0.6440861821174622 -0.06805568933486938
0.4802539646625519 0.6421669125556946 -0.12325724214315414
0.48196175694465637 0.6474782228469849 -0.09297216683626175
0.5563446879386902 0.47994035482406616 -0.005845452658832073
0.5400217175483704 0.4867665767669678 -0.01610662415623665
0.5271207094192505 0.49279481172561646 -0.03197281062602997
0.6693555116653442 0.4669798016548157 -0.023179739713668823
0.688407838344574 0.45914268493652344 -0.025597181171178818
0.3922663927078247 0.47072651982307434 0.05774291604757309
0.4190455675125122 0.4711528420448303 0.05774291604757309
0.3930107355117798 0.44764089584350586 0.05774291604757309
0.365478515625 0.4703441858291626 0.05774291604757309
0.39131295680999756 0.49379250407218933 0.05774291604757309
0.6349846720695496 0.46500611305236816 -0.02218594029545784
0.6591735482215881 0.46530014276504517 -0.02218594029545784
0.6349307894706726 0.4433380663394928 -0.02218594029545784
0.6111947298049927 0.4645567536354065 -0.02218594029545784
0.6351919770240784 0.4866410493850708 -0.02218594029545784
