ply
format ascii 1.0
element vertex 478
property float x
property float y
property float z
end_header
0.5017439126968384 0.66910320520401 -0.07631874829530716
0.5072307586669922 0.5969134569168091 -0.13319571316242218
0.5053736567497253 0.6218935251235962 -0.07259870320558548
0.48555925488471985 0.5307590365409851 -0.09738337248563766
0.5073941349983215 0.5748865008354187 -0.14063285291194916
0.5067806243896484 0.5482263565063477 -0.12931013107299805
0.504380464553833 0.48529696464538574 -0.05877266824245453
0.33094900846481323 0.4900403618812561 0.0323265865445137
0.5035465955734253 0.43354538083076477 -0.03971932828426361
0.5033634305000305 0.40432220697402954 -0.04309261590242386
0.5012353658676147 0.3047357201576233 -0.00966658815741539
0.5017592310905457 0.675722599029541 -0.07390020787715912
0.5015626549720764 0.681694746017456 -0.06634228676557541
0.5015506148338318 0.6854040026664734 -0.05559733510017395
0.5012811422348022 0.7073459029197693 -0.05039748549461365
0.501388430595398 0.7163946628570557 -0.05461440607905388
0.5013569593429565 0.7276750206947327 -0.059699174016714096
0.5012839436531067 0.7396059036254883 -0.055456940084695816
0.5035322904586792 0.7650434970855713 -0.0314328670501709
0.5066746473312378 0.6090708374977112 -0.1211496964097023
0.4852789342403412 0.6100788712501526 -0.08855464309453964
0.23287326097488403 0.4170224070549011 0.15151076018810272
0.39501097798347473 0.5092823505401611 0.007573443464934826
0.37088558077812195 0.5110196471214294 0.0087409233674407
0.34783291816711426 0.5091325640678406 0.015168090350925922
0.3189941644668579 0.4976688027381897 0.03555232286453247
0.4153030514717102 0.5028584599494934 0.011493774130940437
0.36352890729904175 0.443949431180954 -0.00036504419404082
0.391102135181427 0.44514143466949463 0.0009497047867625952
0.33800584077835083 0.44956472516059875 0.007332044653594494
0.32113397121429443 0.45941436290740967 0.0170206967741251
0.29598766565322876 0.5107619762420654 0.04704504460096359
0.41298580169677734 0.7987239956855774 -0.007813423871994019
0.3229235112667084 0.4843112826347351 0.040766216814517975
0.22178688645362854 0.5096918940544128 0.15633900463581085
0.26755639910697937 0.4972057342529297 0.07250531762838364
0.3805038332939148 0.5902116894721985 -0.020702920854091644
0.4735400378704071 0.6659784913063049 -0.07356097549200058
0.47603023052215576 0.681572437286377 -0.06342687457799911
0.44568660855293274 0.6744292378425598 -0.0600743368268013
0.4264221787452698 0.6822701692581177 -0.042017895728349686
0.4539555311203003 0.6843055486679077 -0.05396371707320213
0.43633008003234863 0.6880190968513489 -0.03702270984649658
0.3922666311264038 0.7230801582336426 -0.004665788728743792
0.4875953495502472 0.5967196822166443 -0.13148817420005798
0.4845481216907501 0.575911819934845 -0.13819889724254608
0.2870001792907715 0.44522684812545776 0.026451721787452698
0.4303683340549469 0.5372853875160217 -0.019642317667603493
0.4307262897491455 0.596306324005127 -0.07289090007543564
0.4283323287963867 0.5860105156898499 -0.06509173661470413
0.30407023429870605 0.5911546945571899 0.0089136166498065
0.4850318133831024 0.5512001514434814 -0.12235870212316513
0.3493000268936157 0.41943156719207764 -0.013709326274693012
0.31342583894729614 0.42871469259262085 0.004656996577978134
0.2573983073234558 0.3750843405723572 0.10591088235378265
0.45499569177627563 0.43323883414268494 -0.03363185375928879
0.4145890772342682 0.4540401101112366 0.00859238300472498
0.37374138832092285 0.701231837272644 0.000260007509496063
0.2468378245830536 0.7150589823722839 0.20845285058021545
0.44930243492126465 0.6077839732170105 -0.06347985565662384
0.46900585293769836 0.6137953996658325 -0.0654526874423027
0.40225374698638916 0.6945763230323792 -0.0016917631728574634
0.4087420403957367 0.6946826577186584 -0.008095071651041508
0.29969677329063416 0.4157298803329468 0.017261316999793053
0.4293636381626129 0.6065288186073303 -0.05978672206401825
0.3960682451725006 0.41900527477264404 -0.027043242007493973
0.3924912214279175 0.40158963203430176 -0.031226247549057007
0.358304500579834 0.31764620542526245 0.016233110800385475
0.27708160877227783 0.3922143280506134 0.055636707693338394
0.3748279809951782 0.3552933633327484 -0.008707564324140549
0.27133452892303467 0.43597036600112915 0.04807343706488609
0.2515418529510498 0.4263513684272766 0.09732168912887573
0.4742200970649719 0.674829363822937 -0.07134345173835754
0.4496479630470276 0.6798516511917114 -0.058240216225385666
0.4311360716819763 0.6853294968605042 -0.04168558865785599
0.45504751801490784 0.6118572354316711 -0.05804295092821121
0.40550917387008667 0.6946337223052979 -0.005049148574471474
0.4164867103099823 0.7021746635437012 -0.01918710768222809
0.412060022354126 0.694766104221344 -0.008693287149071693
0.4612756371498108 0.5985602736473083 -0.09672071039676666
0.4407632350921631 0.6895124316215515 -0.033090729266405106
0.4576971232891083 0.6866795420646667 -0.044497422873973846
0.47816744446754456 0.6851232051849365 -0.053309570997953415
0.47045353055000305 0.7638647556304932 -0.03119152970612049
0.47042128443717957 0.7371382117271423 -0.05445731431245804
0.47187280654907227 0.7253444790840149 -0.057648345828056335
0.4743005037307739 0.7142531871795654 -0.05208316817879677
0.47721052169799805 0.7061070799827576 -0.047872647643089294
0.4401319921016693 0.7013249397277832 -0.028754498809576035
0.4350661039352417 0.7045679092407227 -0.0327807255089283
0.42909544706344604 0.7099310159683228 -0.03662024810910225
0.4244080185890198 0.7164026498794556 -0.03243670240044594
0.401752769947052 0.6636548638343811 -0.0331125445663929
0.21797317266464233 0.6100294589996338 0.2503170073032379
0.5060476660728455 0.6150412559509277 -0.08953520655632019
0.4277080297470093 0.6986700296401978 -0.016535602509975433
0.42214152216911316 0.7000313401222229 -0.019175559282302856
0.4757472276687622 0.6221767067909241 -0.06693311780691147
0.43737420439720154 0.6195414066314697 -0.04192114993929863
0.4726625084877014 0.6180614233016968 -0.06673356890678406
0.40339210629463196 0.5505059957504272 -0.012846866622567177
0.3624168932437897 0.564908504486084 -0.00717473728582263
0.4238929748535156 0.5963106751441956 -0.05167831853032112
0.29696622490882874 0.3409082591533661 0.05748254805803299
0.31590938568115234 0.3674120306968689 0.02109828032553196
0.3411725163459778 0.4027353823184967 -0.008544068783521652
0.4119846224784851 0.7391232252120972 -0.01604890078306198
0.44897907972335815 0.4040759801864624 -0.041929736733436584
0.43469110131263733 0.3526960611343384 -0.02513657882809639
0.4241431951522827 0.306984007358551 -0.006566158030182123
0.32927244901657104 0.5052441954612732 0.025639742612838745
0.26813116669654846 0.5260986089706421 0.05950378254055977
0.4289645552635193 0.49624496698379517 0.015378117561340332
0.2957044243812561 0.4709247350692749 0.03864996135234833
0.44833454489707947 0.52228182554245 -0.027403978630900383
0.44571760296821594 0.5863707065582275 -0.09601312130689621
0.24308738112449646 0.5450319647789001 0.0851324051618576
0.2847852110862732 0.5398135781288147 0.03642536327242851
0.31639349460601807 0.5463361740112305 0.014149828813970089
0.36350125074386597 0.543189287185669 0.0045381267555058
0.3983452618122101 0.5345594882965088 0.00032631095382384956
0.4247185289859772 0.523788571357727 -0.004936532117426395
0.4813194274902344 0.4913630485534668 -0.05031783506274223
0.2464054673910141 0.5891872644424438 0.07570262253284454
0.27519744634628296 0.4687471389770508 0.0503561869263649
0.4951961636543274 0.6084467172622681 -0.12008896470069885
0.43336522579193115 0.556304395198822 -0.031723618507385254
0.2122836410999298 0.5129754543304443 0.23726195096969604
0.4446871280670166 0.5113451480865479 -0.007411189377307892
0.4208507835865021 0.5988402962684631 -0.026803137734532356
0.3102070093154907 0.48543453216552734 0.04533353075385094
0.4440239667892456 0.574065089225769 -0.08615878969430923
0.22722110152244568 0.6618149876594543 0.23604623973369598
0.4300791323184967 0.4884611964225769 0.021766839548945427
0.46423542499542236 0.5602031350135803 -0.10877325385808945
0.30588603019714355 0.7556928992271423 0.08039262890815735
0.30644166469573975 0.7831374406814575 0.12086658179759979
0.22252961993217468 0.6009404063224792 0.1635250300168991
0.2732729911804199 0.7300596833229065 0.11076278239488602
0.23594652116298676 0.46517711877822876 0.13403935730457306
0.4080471992492676 0.8215210437774658 0.004649532493203878
0.4972632825374603 0.6143703460693359 -0.08807583898305893
0.41077637672424316 0.572873592376709 -0.024075336754322052
0.24513359367847443 0.5017870664596558 0.09662971645593643
0.3523317575454712 0.4975660443305969 0.017591211944818497
0.37194085121154785 0.4996795654296875 0.011913140304386616
0.4114277958869934 0.7051135301589966 -0.015415549278259277
0.25106245279312134 0.6331024765968323 0.08096691966056824
0.4519380033016205 0.8513720035552979 0.009611941874027252
0.37782472372055054 0.8253765106201172 0.05717267841100693
0.3451923727989197 0.8079255223274231 0.08499286323785782
0.5021769404411316 0.35316404700279236 -0.028731778264045715
0.50254225730896 0.8547062873840332 0.004282081034034491
0.3918581008911133 0.4983828663825989 0.011511735618114471
0.4105817377567291 0.49444764852523804 0.01562843844294548
0.42319488525390625 0.49141132831573486 0.021242106333374977
0.2561722695827484 0.4647825360298157 0.07528351992368698
0.41060709953308105 0.46918249130249023 0.012134977616369724
0.3904274106025696 0.4619026184082031 0.007480166386812925
0.3695460259914398 0.4612154960632324 0.008081858977675438
0.34891945123672485 0.46622639894485474 0.013745554722845554
0.3360115885734558 0.4734463691711426 0.02152707241475582
0.2188868224620819 0.4603700339794159 0.20014435052871704
0.3395324945449829 0.49391597509384155 0.025408348068594933
0.5050437450408936 0.6399143934249878 -0.06743928790092468
0.4261833727359772 0.6504504084587097 -0.04534361511468887
0.44933030009269714 0.6036424040794373 -0.07203978300094604
0.4723888039588928 0.6415778994560242 -0.06624691188335419
0.5036337375640869 0.46055781841278076 -0.03978865221142769
0.3403213322162628 0.7815492153167725 0.05664605274796486
0.37315285205841064 0.8015099167823792 0.03204023465514183
0.4517197906970978 0.8351939916610718 -0.018499072641134262
0.2749340534210205 0.7553634643554688 0.16610640287399292
0.42400988936424255 0.4806000888347626 0.0178338922560215
0.4660685062408447 0.524379551410675 -0.060664571821689606
0.5037490725517273 0.8381245136260986 -0.023121822625398636
0.41221797466278076 0.8405574560165405 0.028195613995194435
0.23070573806762695 0.6488587260246277 0.15713167190551758
0.4568592607975006 0.703998863697052 -0.03941778093576431
0.4519193768501282 0.7098050713539124 -0.04379536211490631
0.4474748969078064 0.718302309513092 -0.048133961856365204
0.44435399770736694 0.7286890745162964 -0.04474819451570511
0.43755239248275757 0.7535684108734131 -0.0269465409219265
0.4218124747276306 0.6915609836578369 -0.02164282277226448
0.41646018624305725 0.6902353763580322 -0.021686047315597534
0.41211187839508057 0.6885772943496704 -0.021754000335931778
0.38295477628707886 0.6806499361991882 -0.016653256490826607
0.2849166989326477 0.6401119232177734 0.03160431236028671
0.4653112590312958 0.5051305890083313 -0.037078894674777985
0.4494639039039612 0.46912819147109985 0.005846874788403511
0.4337628483772278 0.47241970896720886 0.014410242438316345
0.4269195795059204 0.6923907995223999 -0.019245190545916557
0.283528208732605 0.6947368383407593 0.06597160547971725
0.47187814116477966 0.46653103828430176 -0.02468021772801876
0.4245079755783081 0.7755852937698364 -0.01542782224714756
0.5059318542480469 0.5268298387527466 -0.1048707365989685
0.4832216501235962 0.5120528936386108 -0.0759035274386406
0.5051547884941101 0.5068581700325012 -0.08082929253578186
0.4494313597679138 0.5576719641685486 -0.06301679462194443
0.504061222076416 0.8154398798942566 -0.034783899784088135
0.5038232803344727 0.7885466814041138 -0.03290586173534393
0.4630226790904999 0.7871376276016235 -0.029021382331848145
0.36941951513290405 0.7345433831214905 0.00858981255441904
0.4001481831073761 0.6170654892921448 -0.021656382828950882
0.3944799304008484 0.7581936717033386 -0.0025385695043951273
0.3406655192375183 0.6164504885673523 -0.012936379760503769
0.37613335251808167 0.6389486193656921 -0.018600085750222206
0.32008254528045654 0.6524951457977295 0.00444149412214756
0.4552772641181946 0.813169002532959 -0.02946324273943901
0.4344753623008728 0.5711760520935059 -0.04678654670715332
0.3483603298664093 0.7542452812194824 0.030092226341366768
0.38056087493896484 0.7777010202407837 0.014087948016822338
0.34948277473449707 0.7069882154464722 0.01063795667141676
0.25855112075805664 0.6706254482269287 0.08796267211437225
0.3173445463180542 0.7147111296653748 0.03391847014427185
0.24548481404781342 0.692476749420166 0.1443091481924057
0.35661745071411133 0.6668519377708435 -0.008475130423903465
0.45032984018325806 0.540105938911438 -0.04495720937848091
0.4537658393383026 0.5950475335121155 -0.10141932964324951
0.4386542737483978 0.6025898456573486 -0.07559915632009506
0.4641808569431305 0.5798894166946411 -0.11805867403745651
0.4324744939804077 0.44941049814224243 -0.0015429510967805982
0.3935336768627167 0.4364091157913208 -0.006142819300293922
0.3583299517631531 0.43524637818336487 -0.005149167962372303
0.3286271095275879 0.44152796268463135 0.004229639191180468
0.3071286082267761 0.4534365236759186 0.019096054136753082
0.2916853427886963 0.49102506041526794 0.055055033415555954
0.21879979968070984 0.5548088550567627 0.16097742319107056
0.3092798888683319 0.5192755460739136 0.03416229411959648
0.3337108790874481 0.5248285531997681 0.019818449392914772
0.36611059308052063 0.5255507230758667 0.010375268757343292
0.39702364802360535 0.5208555459976196 0.006468898616731167
0.42103245854377747 0.5128370523452759 0.007005247753113508
0.4378143548965454 0.5046154260635376 0.006066123489290476
0.2139589786529541 0.56157386302948 0.25236067175865173
0.4389297068119049 0.6089397072792053 -0.0636323094367981
0.466783732175827 0.5418419241905212 -0.0813056230545044
0.47107580304145813 0.5945031046867371 -0.12001043558120728
0.48386093974113464 0.6057816743850708 -0.11033482104539871
0.4711299538612366 0.5988398790359497 -0.10831230878829956
0.4452718496322632 0.6156472563743591 -0.05524444580078125
0.4881003201007843 0.6073054075241089 -0.11680825054645538
0.490226686000824 0.6131632328033447 -0.08827671408653259
0.4383740723133087 0.48835963010787964 0.018412809818983078
0.4513086974620819 0.49177807569503784 0.004089560825377703
0.45975184440612793 0.49382567405700684 -0.01297070924192667
0.3288576602935791 0.4790693521499634 0.029855359345674515
0.3103106915950775 0.4712217450141907 0.031042085960507393
0.5259354114532471 0.530350923538208 -0.09578710794448853
0.6718569993972778 0.48556482791900635 0.04438382014632225
0.5259332656860352 0.6098624467849731 -0.08738931268453598
0.7551745176315308 0.41528594493865967 0.17359554767608643
0.6079870462417603 0.5088955163955688 0.01557249017059803
0.6308076977729797 0.5096232891082764 0.018304849043488503
0.6528003811836243 0.5068786144256592 0.026164812967181206
0.6811740398406982 0.4929472804069519 0.0483943335711956
0.5891566276550293 0.5031787157058716 0.01784701831638813
0.6399588584899902 0.43692368268966675 0.009356275200843811
0.6123449802398682 0.43994569778442383 0.008606279268860817
0.6654200553894043 0.4415978789329529 0.018554963171482086
0.6814719438552856 0.45166632533073425 0.029042646288871765
0.7002148032188416 0.5068856477737427 0.06111496314406395
0.5932872295379639 0.7962032556533813 -0.002418109215795994
0.6795138120651245 0.4783481955528259 0.053322575986385345
0.7688369750976562 0.5070040225982666 0.1751304417848587
0.7261042594909668 0.4917166233062744 0.08802103251218796
0.6242892146110535 0.5889967679977417 -0.012763372622430325
0.5303102731704712 0.6659659147262573 -0.07176545262336731
0.5275242328643799 0.6815054416656494 -0.06180383637547493
0.558454692363739 0.6743460893630981 -0.0564085990190506
0.577312707901001 0.6823924779891968 -0.0368816964328289
0.5496325492858887 0.6842901706695557 -0.05083034932613373
0.5671125054359436 0.6881049871444702 -0.032645247876644135
0.6114622354507446 0.7217756509780884 0.0020845134276896715
0.5265079140663147 0.5965111255645752 -0.13044461607933044
0.5297465920448303 0.5755758881568909 -0.13705535233020782
0.7125832438468933 0.4371573328971863 0.040677350014448166
0.5746594071388245 0.5362879037857056 -0.01444080751389265
0.5787825584411621 0.5953841209411621 -0.06835383921861649
0.5803805589675903 0.5849329829216003 -0.06036344915628433
0.6976607441902161 0.5892680883407593 0.022091401740908623
0.5280838012695312 0.5508075952529907 -0.12089046090841293
0.6561553478240967 0.4124598503112793 -0.0037386950571089983
0.6896510720252991 0.420529305934906 0.017063839361071587
0.7334203720092773 0.37375330924987793 0.125465527176857
0.5541561841964722 0.4309461712837219 -0.030187949538230896
0.5893930196762085 0.45148247480392456 0.01480539608746767
0.6295058131217957 0.6999562382698059 0.008645783178508282
0.7396900653839111 0.7099279165267944 0.22890228033065796
0.5598883628845215 0.6073402762413025 -0.06004912406206131
0.5406737327575684 0.6136556267738342 -0.06376614421606064
0.6006888151168823 0.6953152418136597 0.005429284647107124
0.5942744612693787 0.6952371597290039 -0.0018487286288291216
0.7017612457275391 0.40818729996681213 0.030368724837899208
0.5789753794670105 0.6057663559913635 -0.055353280156850815
0.6122548580169678 0.41394490003585815 -0.0201925877481699
0.6157884001731873 0.3970681428909302 -0.02420327253639698
0.639826774597168 0.3174770474433899 0.027391484007239342
0.7197699546813965 0.3890842795372009 0.0701579675078392
0.6274269819259644 0.35381829738616943 -0.0007896072347648442
0.726263165473938 0.4286021888256073 0.06335749477148056
0.7424920797348022 0.42317628860473633 0.11376309394836426
0.52948397397995 0.6748030185699463 -0.06954221427440643
0.5542017221450806 0.6799108386039734 -0.054871816188097
0.5725492835044861 0.6854415535926819 -0.03699424862861633
0.5538893938064575 0.611466109752655 -0.05524325743317604
0.5974268317222595 0.6952992677688599 0.0015519907465204597
0.5859827399253845 0.7023419141769409 -0.013677112758159637
0.5910563468933105 0.6952189207077026 -0.0025760678108781576
0.5497989058494568 0.5982391238212585 -0.09369540959596634
0.5623603463172913 0.6894967555999756 -0.028985561802983284
0.5456228256225586 0.6865774989128113 -0.04153478518128395
0.5254954695701599 0.6850361227989197 -0.05162223055958748
0.5365775227546692 0.7633705735206604 -0.029553702101111412
0.5322973132133484 0.7368600368499756 -0.052679482847452164
0.5308537483215332 0.725098192691803 -0.05583389475941658
0.5286004543304443 0.7140169143676758 -0.050332218408584595
0.5256983637809753 0.7058943510055542 -0.04626486450433731
0.5625163316726685 0.7010641098022461 -0.024700650945305824
0.5676098465919495 0.7043043971061707 -0.028685422614216805
0.5733091831207275 0.7095695734024048 -0.03235314041376114
0.5779502391815186 0.7159397602081299 -0.02780173160135746
0.604127049446106 0.6627636551856995 -0.02718496136367321
0.7661899328231812 0.6065704822540283 0.2736049294471741
0.5748540759086609 0.6987189054489136 -0.011212492361664772
0.5804422497749329 0.7001363039016724 -0.01388420071452856
0.5342739224433899 0.6221603155136108 -0.06529925763607025
0.5703444480895996 0.6191279888153076 -0.03845403715968132
0.537213146686554 0.6180409789085388 -0.06509818136692047
0.6006812453269958 0.5493727326393127 -0.005737341940402985
0.6411466002464294 0.5636383295059204 0.002434066729620099
0.58397376537323 0.5953619480133057 -0.04675768315792084
0.6975955963134766 0.3400498330593109 0.07342781871557236
0.6838247179985046 0.36481741070747375 0.03272005170583725
0.664016842842102 0.39640504121780396 0.001801436417736113
0.5928496718406677 0.7376235723495483 -0.010482407175004482
0.5612277388572693 0.4022015631198883 -0.03829474747180939
0.5688428282737732 0.3522157669067383 -0.021045586094260216
0.5765419006347656 0.30702492594718933 -0.001024313154630363
0.6709924936294556 0.5019109845161438 0.03777389973402023
0.7235643863677979 0.5215200781822205 0.07497203350067139
0.5762313008308411 0.49712294340133667 0.021064557135105133
0.7035679817199707 0.463995099067688 0.05248304829001427
0.5576832890510559 0.521393358707428 -0.023236852139234543
0.5652292966842651 0.5856871604919434 -0.09235786646604538
0.7529078125953674 0.542306661605835 0.1025959700345993
0.7089804410934448 0.5370029211044312 0.051044560968875885
0.6798523664474487 0.5447133183479309 0.02652614191174507
0.6351985335350037 0.5420149564743042 0.014143361710011959
0.6019989848136902 0.5339003205299377 0.00761022511869669
0.577319860458374 0.5238426923751831 0.0004910377319902182
0.5268746018409729 0.4910048842430115 -0.048519909381866455
0.7503215074539185 0.5864647030830383 0.09298063814640045
0.7213319540023804 0.46220898628234863 0.06550657749176025
0.5179092288017273 0.6083579659461975 -0.119268037378788
0.5725924372673035 0.5553495287895203 -0.026715751737356186
0.7722899913787842 0.5105099081993103 0.26136794686317444
0.5590022802352905 0.5119258165359497 -0.00323529657907784
0.5855801105499268 0.5979934334754944 -0.021923914551734924
0.6902366876602173 0.47943419218063354 0.05861571803689003
0.5659197568893433 0.57320636510849 -0.08235420286655426
0.757341742515564 0.657488226890564 0.2583821415901184
0.5753322839736938 0.48901140689849854 0.02785046584904194
0.5474745631217957 0.559513509273529 -0.10602699965238571
0.6919255256652832 0.7507008910179138 0.09280367195606232
0.6879259347915649 0.7771773338317871 0.1361459195613861
0.7682928442955017 0.5972641706466675 0.18224306404590607
0.721265971660614 0.7249670028686523 0.12548094987869263
0.7559856176376343 0.4626045823097229 0.1519060581922531
0.5972175598144531 0.8185099363327026 0.010467957705259323
0.5146613121032715 0.6142557263374329 -0.08757612109184265
0.5943391919136047 0.5718421339988708 -0.01794484443962574
0.7463566064834595 0.4948478937149048 0.11360006034374237
0.6507896184921265 0.49539443850517273 0.028325922787189484
0.6315876245498657 0.4985773265361786 0.021497707813978195
0.5909282565116882 0.7052470445632935 -0.009547064080834389
0.7450339198112488 0.6298516392707825 0.09751567989587784
0.5528580546379089 0.8497470021247864 0.013480552472174168
0.6234005093574524 0.8206851482391357 0.0668342188000679
0.6533489227294922 0.8024035692214966 0.09726820141077042
0.6124294996261597 0.4981282353401184 0.019826948642730713
0.5945298671722412 0.4947958290576935 0.02288653329014778
0.58233243227005 0.49222785234451294 0.02778044156730175
0.7379050254821777 0.45818620920181274 0.09160003066062927
0.5930666327476501 0.46613386273384094 0.019410710781812668
0.6118845343589783 0.45613518357276917 0.015986770391464233
0.6331400275230408 0.4540238380432129 0.017747288569808006
0.6544170379638672 0.4585064649581909 0.0246332548558712
0.6671236753463745 0.46611571311950684 0.03310967609286308
0.767102837562561 0.4585075080394745 0.22373369336128235
0.6634161472320557 0.49063581228256226 0.036970485001802444
0.5813750624656677 0.6499280333518982 -0.04076754301786423
0.5604194402694702 0.6032106280326843 -0.06886988878250122
0.5374130010604858 0.6415291428565979 -0.0643225833773613
0.6602061986923218 0.7770378589630127 0.0666903555393219
0.6296004056930542 0.7974242568016052 0.03981568291783333
0.5555635094642639 0.8337233066558838 -0.015291164629161358
0.7152379751205444 0.7495765089988708 0.18419486284255981
0.5808208584785461 0.4800764322280884 0.024453630670905113
0.5426408052444458 0.5236867666244507 -0.0579400435090065
0.5912494659423828 0.8371921181678772 0.03522992506623268
0.7596853971481323 0.6446323394775391 0.1750178337097168
0.5458539724349976 0.7035549283027649 -0.036407433450222015
0.5506933331489563 0.7093279361724854 -0.040657829493284225
0.5550275444984436 0.7177770137786865 -0.04481125622987747
0.5582329034805298 0.7280471920967102 -0.041311945766210556
0.5683996677398682 0.7522971630096436 -0.022879797965288162
0.5815653800964355 0.6917470097541809 -0.016017558053135872
0.5868214964866638 0.6905562877655029 -0.015526184812188148
0.5912746787071228 0.6890279054641724 -0.015243569388985634
0.6214128732681274 0.6796182990074158 -0.009097088128328323
0.7148486971855164 0.6373842358589172 0.0457642562687397
0.5417261123657227 0.5045353770256042 -0.034064874053001404
0.5569561719894409 0.4694589376449585 0.009532175026834011
0.5714854001998901 0.472341924905777 0.019844813272356987
0.5762861371040344 0.6924787759780884 -0.013873152434825897
0.7139716744422913 0.6907480359077454 0.08023799955844879
0.5347277522087097 0.467206209897995 -0.022566016763448715
0.5817565321922302 0.7735327482223511 -0.010878859087824821
0.5265992879867554 0.511630117893219 -0.07446778565645218
0.558999240398407 0.5569406151771545 -0.059457652270793915
0.5446138978004456 0.7861440777778625 -0.026896942406892776
0.6339437961578369 0.7322176694869995 0.016574228182435036
0.6053735017776489 0.6159195303916931 -0.01547554787248373
0.6102118492126465 0.7557353973388672 0.003775303717702627
0.6630783081054688 0.6146519184112549 -0.0026905187405645847
0.62869793176651 0.6376146078109741 -0.010891057550907135
0.6821072697639465 0.6501510739326477 0.015884701162576675
0.5528626441955566 0.8119391798973083 -0.02651834301650524
0.5725499987602234 0.570217490196228 -0.042350683361291885
0.6538760662078857 0.7506924867630005 0.039548106491565704
0.6235209107398987 0.7743673324584961 0.021256184205412865
0.6533188223838806 0.7049216032028198 0.020540710538625717
0.7369406223297119 0.6668478846549988 0.10383147746324539
0.6831462383270264 0.7112135887145996 0.04570069536566734
0.7459336519241333 0.6877396106719971 0.16108953952789307
0.6471683979034424 0.665378212928772 0.0005585688049905002
0.5568863153457642 0.5393139123916626 -0.04104744642972946
0.5574683547019958 0.5945114493370056 -0.0980985015630722
0.571086049079895 0.6019043922424316 -0.0718618780374527
0.548546552658081 0.5792908072471619 -0.11535695940256119
0.5740182399749756 0.447118878364563 0.0034442017786204815
0.6119066476821899 0.43111300468444824 0.0012823388678953052
0.6467435956001282 0.4282878339290619 0.004641077946871519
0.675330638885498 0.43370601534843445 0.015932034701108932
0.6945556998252869 0.4455733299255371 0.032070092856884
0.7056753039360046 0.48587051033973694 0.06931836158037186
0.7720593214035034 0.5516647100448608 0.18015356361865997
0.6884122490882874 0.5159929990768433 0.04729613661766052
0.6649555563926697 0.522831916809082 0.03138209506869316
0.6340082883834839 0.5242950916290283 0.019861344248056412
0.6046057343482971 0.5202410221099854 0.013976368121802807
0.5823007822036743 0.5128854513168335 0.012671168893575668
0.5666279792785645 0.5051308870315552 0.010600983165204525
0.7701662182807922 0.5586114525794983 0.2761547863483429
0.569904625415802 0.6082987189292908 -0.059895262122154236
0.5434063673019409 0.5411369204521179 -0.07858391106128693
0.5418583154678345 0.5941540598869324 -0.11790695786476135
0.5282090902328491 0.6055835485458374 -0.10908784717321396
0.5408580303192139 0.5986055135726929 -0.10609689354896545
0.5631206631660461 0.6151500940322876 -0.05211643502116203
0.5245988368988037 0.6071293950080872 -0.11579914391040802
0.5212346911430359 0.6129504442214966 -0.08741506934165955
0.5671595335006714 0.4892118573188782 0.023419082164764404
0.5540789365768433 0.49266716837882996 0.007645975332707167
0.5452651381492615 0.4948732852935791 -0.009943035431206226
0.6740264892578125 0.4723822772502899 0.042021818459033966
0.6910421848297119 0.4640192985534668 0.043848779052495956
0.3846433162689209 0.47888803482055664 0.01930084452033043
0.4178299009799957 0.4777827858924866 0.01930084452033043
0.38371363282203674 0.44832444190979004 0.01930084452033043
0.3507053256034851 0.47969359159469604 0.01930084452033043
0.3854984939098358 0.5092517733573914 0.01930084452033043
0.6181268692016602 0.4749634861946106 0.028763003647327423
0.6527999639511108 0.4751310348510742 0.028763003647327423
0.6180220246315002 0.44650018215179443 0.028763003647327423
0.5835103988647461 0.47483447194099426 0.028763003647327423
0.6184371113777161 0.503450334072113 0.028763003647327423
