ply
format ascii 1.0
element vertex 478
property float x
property float y
property float z
end_header
0.4976802468299866 0.6925486922264099 -0.04868103563785553
0.48669254779815674 0.6421983242034912 -0.13047653436660767
0.4900568425655365 0.657108724117279 -0.06397287547588348
0.4707696735858917 0.5579536557197571 -0.10785660147666931
0.48679423332214355 0.6180174946784973 -0.14158929884433746
0.4885464310646057 0.5840121507644653 -0.13660821318626404
0.49436143040657043 0.5006154775619507 -0.08618391305208206
0.345999538898468 0.4850143492221832 0.022732732817530632
0.4966222643852234 0.44607841968536377 -0.0791986882686615
0.4970993995666504 0.41586899757385254 -0.08948805928230286
0.5012307167053223 0.2928149402141571 -0.08569382131099701
0.4975498616695404 0.6993067264556885 -0.043914102017879486
0.49778029322624207 0.7060614824295044 -0.036216672509908676
0.4983055293560028 0.7102242112159729 -0.02444637008011341
0.49825018644332886 0.7609594464302063 -0.009136825799942017
0.4983791410923004 0.7735358476638794 -0.010889745317399502
0.4983527362346649 0.7887006998062134 -0.014895392581820488
0.498546838760376 0.8039073348045349 -0.009636817499995232
0.49111509323120117 0.8134514093399048 0.013120003044605255
0.4876224994659424 0.652744472026825 -0.11663755774497986
0.4632027745246887 0.6477612257003784 -0.08153921365737915
0.27133792638778687 0.39055168628692627 0.12060472369194031
0.40822046995162964 0.5033363103866577 -0.0029031396843492985
0.38485604524612427 0.5048303008079529 0.0004292367084417492
0.3630011975765228 0.5032340884208679 0.007941215299069881
0.3375833034515381 0.49187183380126953 0.028516344726085663
0.42777183651924133 0.49854788184165955 -0.003503544256091118
0.3699021339416504 0.4453151226043701 -0.016706272959709167
0.3970751166343689 0.4470585584640503 -0.018775954842567444
0.34629198908805847 0.44948312640190125 -0.007005234248936176
0.33253180980682373 0.457813024520874 0.004514516796916723
0.31897175312042236 0.5030515193939209 0.04323229193687439
0.4028792381286621 0.8363198041915894 0.058796778321266174
0.33915799856185913 0.47975054383277893 0.030150897800922394
0.2595609426498413 0.49012213945388794 0.15091639757156372
0.2968568503856659 0.4870816171169281 0.06570694595575333
0.37453410029411316 0.5983500480651855 -0.00921535026282072
0.4578513503074646 0.6853301525115967 -0.044003259390592575
0.46150293946266174 0.7023696899414062 -0.029555507004261017
0.4211502969264984 0.6870086789131165 -0.024301985278725624
0.3974756896495819 0.6913880109786987 0.0023792695719748735
0.4316454529762268 0.6998597979545593 -0.014677907340228558
0.409700483083725 0.7000882029533386 0.008630688302218914
0.3760254383087158 0.7372319102287292 0.057137563824653625
0.46620845794677734 0.6405910849571228 -0.12728938460350037
0.4636780619621277 0.6169061660766602 -0.13743196427822113
0.2998403310775757 0.4362797439098358 0.006463763769716024
0.42737722396850586 0.5436850786209106 -0.025762902572751045
0.4097325801849365 0.6193652749061584 -0.06435465067625046
0.4102441966533661 0.6051019430160522 -0.05817234888672829
0.30959492921829224 0.5889191031455994 0.02614414319396019
0.4669587314128876 0.5854671001434326 -0.12720057368278503
0.3449816107749939 0.4151228666305542 -0.04346664994955063
0.31677281856536865 0.4217914342880249 -0.021551894024014473
0.28708815574645996 0.353355348110199 0.06560970842838287
0.4455691874027252 0.43626657128334045 -0.06870706379413605
0.42085444927215576 0.4554131329059601 -0.012276865541934967
0.3568512499332428 0.7081027030944824 0.05787741020321846
0.27889755368232727 0.7035702466964722 0.2530588209629059
0.42654383182525635 0.6340793967247009 -0.05436062812805176
0.4464588761329651 0.6428501009941101 -0.05742841213941574
0.37128353118896484 0.7052031755447388 0.05672525241971016
0.37901514768600464 0.7063432931900024 0.04972333461046219
0.30581966042518616 0.4068066477775574 -0.011591177433729172
0.4080573320388794 0.6257233619689941 -0.049410514533519745
0.38684648275375366 0.4183315634727478 -0.059695445001125336
0.3816547393798828 0.4002075493335724 -0.06830189377069473
0.3684467673301697 0.3042140007019043 -0.04156835004687309
0.2984875440597534 0.3810986876487732 0.022247517481446266
0.3802332580089569 0.352813720703125 -0.05639863386750221
0.28898680210113525 0.4250011742115021 0.025555690750479698
0.28060582280158997 0.4102720618247986 0.07081534713506699
0.4587700366973877 0.6945276856422424 -0.03870662674307823
0.426139235496521 0.6940266489982605 -0.019536256790161133
0.4032424986362457 0.6960755586624146 0.0040104263462126255
0.431728333234787 0.6374627351760864 -0.05005362629890442
0.37518078088760376 0.7058334946632385 0.05280988663434982
0.38773098587989807 0.7275108098983765 0.04076026752591133
0.38248592615127563 0.706895649433136 0.048753369599580765
0.439617395401001 0.633660078048706 -0.09035620093345642
0.41559451818466187 0.7025537490844727 0.012618692591786385
0.43710267543792725 0.7034627795219421 -0.004523381125181913
0.4650319218635559 0.7068897485733032 -0.018101880326867104
0.45472437143325806 0.8088650703430176 0.01779473014175892
0.45689523220062256 0.7985201478004456 -0.004494226537644863
0.459122896194458 0.7836344242095947 -0.008580150082707405
0.46234849095344543 0.7681975960731506 -0.00426764041185379
0.465828537940979 0.756903350353241 -0.0027286438271403313
0.4176400899887085 0.7363202571868896 0.024008676409721375
0.4115614593029022 0.7411045432090759 0.022017793729901314
0.4037594795227051 0.7482852935791016 0.0207851342856884
0.3980560898780823 0.7560935020446777 0.026732763275504112
0.38276249170303345 0.6786632537841797 0.005078192334622145
0.2634508013725281 0.5862928628921509 0.2654084265232086
0.48869025707244873 0.6557796001434326 -0.08309133350849152
0.4019184708595276 0.7241771221160889 0.039838265627622604
0.3946700692176819 0.7253917455673218 0.039113059639930725
0.4548945426940918 0.652155876159668 -0.055282775312662125
0.4156745672225952 0.6370919346809387 -0.029878731817007065
0.450804740190506 0.6477096676826477 -0.057570070028305054
0.40309837460517883 0.5538553595542908 -0.013310231268405914
0.3644901216030121 0.5662542581558228 -0.002207178855314851
0.4057818651199341 0.6126424074172974 -0.042567282915115356
0.31697747111320496 0.32367610931396484 0.009258773177862167
0.3297862410545349 0.3609580993652344 -0.019105499610304832
0.3369092345237732 0.39701664447784424 -0.04168900102376938
0.39556068181991577 0.7650268077850342 0.045281194150447845
0.4365136921405792 0.4077872037887573 -0.08280332386493683
0.43491673469543457 0.3512309491634369 -0.078767329454422
0.4279094934463501 0.294729083776474 -0.07326404750347137
0.3463728427886963 0.4992823302745819 0.01887461729347706
0.297102689743042 0.5161412954330444 0.06097789481282234
0.4401422142982483 0.4938376545906067 -0.002195366658270359
0.31351038813591003 0.46438834071159363 0.026373829692602158
0.4436962306499481 0.5314390063285828 -0.03813788667321205
0.42523518204689026 0.6168211102485657 -0.09073261171579361
0.2693851590156555 0.5330997109413147 0.09250954538583755
0.3082847595214844 0.5317399501800537 0.04202345386147499
0.33336085081100464 0.5406439304351807 0.019859889522194862
0.3752385973930359 0.5390775203704834 0.004799218848347664
0.40736597776412964 0.5313000679016113 -0.00416263472288847
0.43065783381462097 0.5223122835159302 -0.0147911561653018
0.4726301431655884 0.5056472420692444 -0.07379496097564697
0.2670030891895294 0.5786340832710266 0.09486610442399979
0.29705309867858887 0.45945173501968384 0.0371696874499321
0.47460559010505676 0.6513771414756775 -0.1142851784825325
0.42484843730926514 0.5676864981651306 -0.03232457488775253
0.2613254487514496 0.48332539200782776 0.2277219593524933
0.44767171144485474 0.5122512578964233 -0.022455835714936256
0.4048333466053009 0.6109737753868103 -0.017058242112398148
0.32920724153518677 0.4801506996154785 0.03544670715928078
0.42618870735168457 0.5992048382759094 -0.08344245702028275
0.26688724756240845 0.6427484154701233 0.2649022042751312
0.44089463353157043 0.4866725206375122 0.002496111672371626
0.44655999541282654 0.5906520485877991 -0.11019182950258255
0.3121669292449951 0.7659064531326294 0.14336571097373962
0.3192119598388672 0.7930089235305786 0.18551623821258545
0.25523641705513 0.5856103897094727 0.18140704929828644
0.28732389211654663 0.7320366501808167 0.16526226699352264
0.270023912191391 0.4462321996688843 0.1168963834643364
0.39909714460372925 0.8628488183021545 0.07575932145118713
0.47792038321495056 0.6545057892799377 -0.08092653751373291
0.40303707122802734 0.5812768936157227 -0.019262004643678665
0.28163737058639526 0.4889114499092102 0.09140488505363464
0.36544471979141235 0.4918973445892334 0.00826217606663704
0.3845168352127075 0.4935700297355652 0.0013049310073256493
0.3819514214992523 0.729958176612854 0.04551667720079422
0.2668382525444031 0.6258658170700073 0.11200465261936188
0.4404865503311157 0.9013063907623291 0.08134254813194275
0.3752642869949341 0.8574861884117126 0.12935993075370789
0.3490757346153259 0.8295824527740479 0.1550937294960022
0.49905291199684143 0.3519701063632965 -0.08932176977396011
0.49005305767059326 0.9086061716079712 0.07161197811365128
0.4043728709220886 0.4922272264957428 -0.0017153937369585037
0.4233035743236542 0.4892262816429138 -0.00032463244860991836
0.4352896809577942 0.48789042234420776 0.002830649958923459
0.28446048498153687 0.4532489776611328 0.060925353318452835
0.4190658926963806 0.4707707166671753 -0.005909557454288006
0.398086816072464 0.4650459885597229 -0.009831300936639309
0.3774099051952362 0.4645400047302246 -0.0072922310791909695
0.35861629247665405 0.46831002831459045 0.0004838394816033542
0.34829509258270264 0.47329333424568176 0.009791920892894268
0.2634161710739136 0.43125006556510925 0.17858363687992096
0.35359489917755127 0.48862725496292114 0.016099538654088974
0.490766316652298 0.672314465045929 -0.05342349037528038
0.4064335227012634 0.6699343323707581 -0.01828070357441902
0.42696714401245117 0.6323063373565674 -0.06527279317378998
0.45290982723236084 0.6703703999519348 -0.04755214974284172
0.49620550870895386 0.4715685546398163 -0.073714479804039
0.3415692448616028 0.8009947538375854 0.12591177225112915
0.3692835569381714 0.83162921667099 0.10298655927181244
0.43936896324157715 0.8844643831253052 0.051451802253723145
0.2974686622619629 0.7542212009429932 0.2213577926158905
0.433761864900589 0.4800563156604767 -0.0011745679657906294
0.455818772315979 0.5429624915122986 -0.07239849120378494
0.4895555377006531 0.8923572301864624 0.042863648384809494
0.40409010648727417 0.8831372857093811 0.10139689594507217
0.25888878107070923 0.6373932957649231 0.18731893599033356
0.4392898678779602 0.7480083107948303 0.009418116882443428
0.43320155143737793 0.7565474510192871 0.00786668062210083
0.4272209107875824 0.7684218883514404 0.006150506902486086
0.42313480377197266 0.7818566560745239 0.011338159441947937
0.42027151584625244 0.790665864944458 0.030292775481939316
0.39184850454330444 0.70213782787323 0.030198149383068085
0.3858831226825714 0.6998727321624756 0.031203659251332283
0.3807067573070526 0.6969760656356812 0.03071408160030842
0.36478757858276367 0.6906613111495972 0.03223884850740433
0.28986603021621704 0.6392448544502258 0.06395351141691208
0.4587372839450836 0.5173192024230957 -0.05437171459197998
0.4530736207962036 0.47016167640686035 -0.019203508272767067
0.44157806038856506 0.4725944995880127 -0.007901771925389767
0.397546648979187 0.7035916447639465 0.032574355602264404
0.28873586654663086 0.696731686592102 0.11378377676010132
0.46756234765052795 0.4703463315963745 -0.05337037146091461
0.4118364751338959 0.810605525970459 0.04528874531388283
0.4905986785888672 0.5553662776947021 -0.1184273436665535
0.4714396893978119 0.533002495765686 -0.09349916875362396
0.49243369698524475 0.5289880037307739 -0.10139914602041245
0.4365502893924713 0.5774001479148865 -0.0653897300362587
0.48952001333236694 0.8669344782829285 0.026680847629904747
0.4903920888900757 0.8373656272888184 0.02059529349207878
0.44926100969314575 0.831506609916687 0.02873191609978676
0.360706627368927 0.7483474612236023 0.07183509320020676
0.386671245098114 0.6279256939888 -0.005115852225571871
0.38396432995796204 0.7820059061050415 0.061232004314661026
0.33621954917907715 0.6234382390975952 0.009344286285340786
0.3652859926223755 0.6498991250991821 0.00977996177971363
0.3169054388999939 0.657814621925354 0.04102877900004387
0.4422943592071533 0.859498143196106 0.03599260747432709
0.42172133922576904 0.5863954424858093 -0.04439215734601021
0.34522005915641785 0.7706485986709595 0.0961214229464531
0.373870849609375 0.8046690821647644 0.08181598037481308
0.3405863642692566 0.7141861319541931 0.06787186861038208
0.2715645134449005 0.6668534278869629 0.1286662071943283
0.315110981464386 0.7223835587501526 0.09034101665019989
0.2688346803188324 0.6865333914756775 0.18758085370063782
0.3460545241832733 0.6736384034156799 0.03229289874434471
0.4411647617816925 0.5552167892456055 -0.050826020538806915
0.4321148097515106 0.6292121410369873 -0.09553719311952591
0.4164166748523712 0.6287817358970642 -0.0669165626168251
0.4433497488498688 0.6168740391731262 -0.11551153659820557
0.43319427967071533 0.4505012035369873 -0.02728818543255329
0.3934083580970764 0.4371638596057892 -0.03128306195139885
0.3594920039176941 0.4350700378417969 -0.027406757697463036
0.3334824740886688 0.43942922353744507 -0.014530221000313759
0.31802675127983093 0.4489074647426605 0.0029785537626594305
0.31497254967689514 0.4833531975746155 0.04625913128256798
0.2555277943611145 0.5373570919036865 0.16816149652004242
0.3295617997646332 0.5126234292984009 0.032441336661577225
0.35032838582992554 0.5191248059272766 0.017284996807575226
0.38003239035606384 0.5201196670532227 0.005712181329727173
0.40889307856559753 0.5158654451370239 -0.0009553100680932403
0.4310872554779053 0.5094935894012451 -0.006187560502439737
0.4458621144294739 0.5034151077270508 -0.009914823807775974
0.2631828784942627 0.5341947078704834 0.25461676716804504
0.41649875044822693 0.6319052577018738 -0.0541800819337368
0.4531415104866028 0.5661874413490295 -0.0877995565533638
0.4490352272987366 0.6350345015525818 -0.11520923674106598
0.4618307650089264 0.6457118391990662 -0.10445547848939896
0.4491766691207886 0.6372722387313843 -0.10295148938894272
0.42246198654174805 0.637247622013092 -0.04523129761219025
0.4666852653026581 0.6491379737854004 -0.1107850968837738
0.4694479703903198 0.6520031690597534 -0.0811588317155838
0.4477710425853729 0.4876837432384491 -0.0021849493496119976
0.45704132318496704 0.4923848509788513 -0.017086219042539597
0.46039363741874695 0.49653857946395874 -0.034410230815410614
0.3429131507873535 0.476911723613739 0.01865258254110813
0.3255797326564789 0.46699923276901245 0.01993633434176445
0.511475145816803 0.5581666827201843 -0.11168287694454193
0.6693799495697021 0.4833785593509674 -0.004452962428331375
0.5159894824028015 0.6482586860656738 -0.08446824550628662
0.7666723728179932 0.3922188878059387 0.07988318800926208
0.6028702855110168 0.499756395816803 -0.020384613424539566
0.6248465776443481 0.5020578503608704 -0.02060174010694027
0.647168755531311 0.5022284984588623 -0.016475070267915726
0.6797764897346497 0.49050629138946533 -0.00040425508632324636
0.5843152403831482 0.4954604506492615 -0.017235709354281425
0.6388213038444519 0.43910831212997437 -0.0390234999358654
0.6125620007514954 0.44184619188308716 -0.03650088235735893
0.663669764995575 0.4431127905845642 -0.03276146948337555
0.6802408695220947 0.452428936958313 -0.023339463397860527
0.6988492608070374 0.5041506886482239 0.012179993093013763
0.5846540331840515 0.8401243090629578 0.045961249619722366
0.6797934770584106 0.477311372756958 0.0016192113980650902
0.7764662504196167 0.49376198649406433 0.10845572501420975
0.7281683683395386 0.4881668984889984 0.030666621401906013
0.6221631169319153 0.6005575656890869 -0.02725043147802353
0.5371448397636414 0.6859779357910156 -0.049043942242860794
0.5335532426834106 0.7032898664474487 -0.03432189300656319
0.5735999345779419 0.6885319352149963 -0.03467576578259468
0.5968427658081055 0.6943762898445129 -0.0115679781883955
0.5631256699562073 0.7017930746078491 -0.02391466312110424
0.5847447514533997 0.7034758925437927 -0.0033820003736764193
0.6195035576820374 0.7397297620773315 0.039419982582330704
0.5082094669342041 0.6410890221595764 -0.12969869375228882
0.5108070373535156 0.6172919869422913 -0.14036604762077332
0.7119685411453247 0.433371901512146 -0.02688836306333542
0.5698575973510742 0.5444822311401367 -0.037600111216306686
0.5764826536178589 0.6207414269447327 -0.07548723369836807
0.5783014893531799 0.6063668131828308 -0.06971517205238342
0.6954655647277832 0.5926480293273926 -0.003506832057610154
0.5111035704612732 0.5856552720069885 -0.13095250725746155
0.6518439650535583 0.40823793411254883 -0.06625904142856598
0.6868019104003906 0.4163500666618347 -0.05040137097239494
0.7430477142333984 0.35357072949409485 0.02889608033001423
0.5465617179870605 0.43256211280822754 -0.07608620077371597
0.5902255177497864 0.45187824964523315 -0.026653330773115158
0.640661358833313 0.7106344699859619 0.03683702275156975
0.7539396286010742 0.7097542881965637 0.2162589281797409
0.5586557388305664 0.635155439376831 -0.06271086633205414
0.5367457866668701 0.6434399485588074 -0.06157616525888443
0.6224930882453918 0.71208655834198 0.03832389414310455
0.6145652532577515 0.7129800915718079 0.033413808792829514
0.700996994972229 0.4017281234264374 -0.04249173030257225
0.5797261595726013 0.6271724104881287 -0.06028614938259125
0.6055747270584106 0.4123838543891907 -0.07538405060768127
0.6086638569831848 0.394406795501709 -0.08437786996364594
0.644188404083252 0.30326470732688904 -0.062286049127578735
0.7237069010734558 0.38148340582847595 -0.01189118716865778
0.6262038350105286 0.3518451452255249 -0.07501931488513947
0.7282280921936035 0.4232642650604248 -0.010110756382346153
0.7487456798553467 0.41232940554618835 0.03212052956223488
0.5358575582504272 0.6953464150428772 -0.04381386935710907
0.5683387517929077 0.6958945393562317 -0.029409604147076607
0.5909894704818726 0.6991618871688843 -0.008932759054005146
0.5532113909721375 0.6383916735649109 -0.05658644810318947
0.6185128688812256 0.7125787138938904 0.035711877048015594
0.6067315340042114 0.7328518033027649 0.026192953810095787
0.6107755899429321 0.713372528553009 0.032953739166259766
0.5414146184921265 0.6346139311790466 -0.09791065752506256
0.5793969631195068 0.7060121893882751 0.0012685798574239016
0.5581479668617249 0.7053837180137634 -0.013069272972643375
0.5309029817581177 0.7078043222427368 -0.022979529574513435
0.5300158858299255 0.8100784420967102 0.013129635713994503
0.5393466949462891 0.7999876141548157 -0.009580724872648716
0.536946713924408 0.7847954034805298 -0.01395459845662117
0.5336567759513855 0.7691358923912048 -0.009573590941727161
0.5300369262695312 0.7577176690101624 -0.0078056384809315205
0.5778093934059143 0.7398593425750732 0.012683472596108913
0.5840066075325012 0.7446845173835754 0.010677245445549488
0.5917408466339111 0.7522605657577515 0.00916989054530859
0.597568690776825 0.7602633237838745 0.01432018168270588
0.6095072627067566 0.6805763244628906 -0.010682865977287292
0.78061842918396 0.5915232300758362 0.2249337136745453
0.5929750204086304 0.7291832566261292 0.025816503912210464
0.5999096632003784 0.730473518371582 0.02504820004105568
0.5275806188583374 0.6527462005615234 -0.059424832463264465
0.5725355744361877 0.6384720206260681 -0.038463350385427475
0.5319523811340332 0.6483510732650757 -0.06156591325998306
0.5956018567085266 0.5552554130554199 -0.028954321518540382
0.6359670162200928 0.5686625242233276 -0.023401377722620964
0.5843164920806885 0.6141626238822937 -0.054430630058050156
0.7047759890556335 0.3228956460952759 -0.020565789192914963
0.6849402189254761 0.36027199029922485 -0.04646170139312744
0.6600808501243591 0.39082053303718567 -0.06615788489580154
0.5963811278343201 0.7674923539161682 0.03093467839062214
0.5525039434432983 0.4032106399536133 -0.09074410796165466
0.5664200186729431 0.35085487365722656 -0.08833763003349304
0.5785431265830994 0.29419004917144775 -0.08367561548948288
0.6674246191978455 0.4986746311187744 -0.008440469391644001
0.72472083568573 0.518628716468811 0.026307011023163795
0.5721045732498169 0.4913615584373474 -0.014442152343690395
0.7030247449874878 0.46235108375549316 -0.005377024412155151
0.5520171523094177 0.531862199306488 -0.04763730615377426
0.5569289326667786 0.6179953217506409 -0.09970805048942566
0.7530688643455505 0.5374155044555664 0.05334433540701866
0.7050677537918091 0.5345766544342041 0.009438937529921532
0.6724909543991089 0.5429225564002991 -0.00805271603167057
0.6277292370796204 0.5395311117172241 -0.016467344015836716
0.5962927341461182 0.5306496620178223 -0.02029549889266491
0.5730229616165161 0.5215638875961304 -0.02696077711880207
0.5177718997001648 0.5056626796722412 -0.0777054876089096
0.7513439655303955 0.5836004018783569 0.05585639923810959
0.7221699953079224 0.45904338359832764 0.0020846964325755835
0.5012220144271851 0.6517241597175598 -0.11622827500104904
0.5694199204444885 0.5684908032417297 -0.04370059818029404
0.7853962182998657 0.4867994785308838 0.18513056635856628
0.5545570254325867 0.5113580226898193 -0.03191441670060158
0.5876939296722412 0.6125151515007019 -0.028709007427096367
0.6900196671485901 0.4777550995349884 0.005599169060587883
0.5588751435279846 0.600124180316925 -0.09260514378547668
0.7726123929023743 0.6488757133483887 0.2260335385799408
0.574094295501709 0.4844375252723694 -0.010116145946085453
0.5344934463500977 0.5912367701530457 -0.1168268546462059
0.6962953209877014 0.7717125415802002 0.11414536833763123
0.6943182945251465 0.7990648746490479 0.1573336273431778
0.7759157419204712 0.5909572839736938 0.13901570439338684
0.7284173965454102 0.7376765012741089 0.1308308094739914
0.7632554769515991 0.4491063058376312 0.07585301250219345
0.5882817506790161 0.8671481609344482 0.061931807547807693
0.4997732639312744 0.6546741127967834 -0.082143634557724
0.5927259922027588 0.5827007293701172 -0.03328852728009224
0.7516080737113953 0.49047255516052246 0.05276741087436676
0.644688069820404 0.4897632300853729 -0.015527913346886635
0.6252762079238892 0.4900132417678833 -0.019731085747480392
0.6126880049705505 0.735552191734314 0.02989429421722889
0.7499896287918091 0.631109893321991 0.07431624829769135
0.5422136187553406 0.9038393497467041 0.0739109069108963
0.6205628514289856 0.8621155023574829 0.11061864346265793
0.6549886465072632 0.8351514339447021 0.13184475898742676
0.6072641015052795 0.48791077733039856 -0.019590459764003754
0.5902072787284851 0.48541367053985596 -0.015584919601678848
0.5790956020355225 0.4850499927997589 -0.010785965248942375
0.7419230341911316 0.4532126784324646 0.02324412390589714
0.5971804857254028 0.46896761655807495 -0.021780943498015404
0.6172991991043091 0.4620777368545532 -0.028307609260082245
0.6365553736686707 0.4608045220375061 -0.028969865292310715
0.6556801199913025 0.4639700949192047 -0.02421901561319828
0.6674190759658813 0.4692741930484772 -0.016520926728844643
0.7796564102172852 0.433880090713501 0.1363888531923294
0.6587828397750854 0.4871484637260437 -0.009768553078174591
0.5827208757400513 0.6713413000106812 -0.030193621292710304
0.5572541952133179 0.6334888339042664 -0.07312209904193878
0.5306617021560669 0.671185314655304 -0.05261507257819176
0.6599380970001221 0.8068258166313171 0.10218828916549683
0.6253916621208191 0.8368499875068665 0.08422236144542694
0.542515218257904 0.8871491551399231 0.04371695965528488
0.7259010672569275 0.7600032091140747 0.18785430490970612
0.5815792679786682 0.47865572571754456 -0.015235171653330326
0.5331732630729675 0.5432934761047363 -0.07879277318716049
0.5841579437255859 0.886838972568512 0.08751822263002396
0.7688778638839722 0.6432037353515625 0.14669546484947205
0.5566060543060303 0.7499530911445618 0.0008127011824399233
0.5625422596931458 0.7586824893951416 -0.001059899921528995
0.5687478184700012 0.7708665132522583 -0.003215288743376732
0.5731920599937439 0.784562349319458 0.0017401357181370258
0.5677849054336548 0.7925198078155518 0.019750282168388367
0.6021022200584412 0.707237720489502 0.015437043271958828
0.6079726219177246 0.7048424482345581 0.015209956094622612
0.6133525371551514 0.7019892334938049 0.013815442100167274
0.630607008934021 0.6929195523262024 0.012688715942203999
0.7182298302650452 0.6437889337539673 0.03175458684563637
0.5343368649482727 0.5175735950469971 -0.06112731248140335
0.5536941885948181 0.4678690433502197 -0.027741264551877975
0.5704411268234253 0.47017109394073486 -0.019761890172958374
0.5967169404029846 0.7087117433547974 0.01846420392394066
0.7214765548706055 0.7016040682792664 0.08142541348934174
0.5282139182090759 0.46877577900886536 -0.05835695564746857
0.5765447616577148 0.8134711384773254 0.03387780860066414
0.5146715044975281 0.5331173539161682 -0.09693711996078491
0.5520316362380981 0.5782405734062195 -0.0738198459148407
0.534270167350769 0.8332017660140991 0.023242607712745667
0.6362670063972473 0.7522933483123779 0.05178874358534813
0.6073117256164551 0.6298028826713562 -0.019994473084807396
0.6090654134750366 0.7855858206748962 0.045365266501903534
0.6629091501235962 0.6267064213752747 -0.01391382236033678
0.6304308772087097 0.6525395512580872 -0.008896112442016602
0.6850929260253906 0.6619845032691956 0.01440725289285183
0.5396795272827148 0.8618783354759216 0.02875090204179287
0.5699298977851868 0.587280809879303 -0.054958973079919815
0.6539387702941895 0.7757745981216431 0.07352615147829056
0.6196950674057007 0.8092217445373535 0.06439292430877686
0.6586106419563293 0.718183696269989 0.043782539665699005
0.744381844997406 0.6720805168151855 0.09269964694976807
0.6885550022125244 0.7273011207580566 0.06286036968231201
0.7546461820602417 0.6922752261161804 0.14854970574378967
0.6521090269088745 0.6768984794616699 0.009923011064529419
0.5506516695022583 0.5558266639709473 -0.05988886207342148
0.5488353371620178 0.6303179264068604 -0.10370765626430511
0.5685087442398071 0.6301150918006897 -0.07637982070446014
0.5345706939697266 0.6177341341972351 -0.12215103954076767
0.5711762309074402 0.4477171301841736 -0.03901206701993942
0.608642578125 0.4322163760662079 -0.04798344522714615
0.6425400972366333 0.42871642112731934 -0.04920966550707817
0.6713685989379883 0.4335487484931946 -0.04101105034351349
0.6923803091049194 0.4445462226867676 -0.026800189167261124
0.7062901854515076 0.4832713305950165 0.014374255202710629
0.7785404920578003 0.5419209003448486 0.124592624604702
0.6840096712112427 0.5136985778808594 0.002986408770084381
0.6582820415496826 0.5198922157287598 -0.0082893967628479
0.6271528005599976 0.5190638899803162 -0.015263686887919903
0.5992757678031921 0.5138254761695862 -0.01747659035027027
0.5779389142990112 0.5076354742050171 -0.018623003736138344
0.5626949071884155 0.5017198920249939 -0.020102709531784058
0.7838577628135681 0.5383121371269226 0.2122803032398224
0.5695806741714478 0.6331858038902283 -0.06339675188064575
0.5317396521568298 0.5666342973709106 -0.09441079199314117
0.5279904007911682 0.6359832286834717 -0.1203099712729454
0.5162425637245178 0.6465904116630554 -0.10741885751485825
0.5298243165016174 0.6384004950523376 -0.10818249732255936
0.5639380216598511 0.6383526921272278 -0.05295667052268982
0.5100544691085815 0.6497297286987305 -0.11318597942590714
0.5089531540870667 0.6523343920707703 -0.0831993818283081
0.5647807717323303 0.4852824807167053 -0.012697743251919746
0.5505660772323608 0.4904804527759552 -0.025093674659729004
0.540162205696106 0.49536582827568054 -0.04109438508749008
0.6743649840354919 0.47363534569740295 -0.008730144239962101
0.690219521522522 0.46348005533218384 -0.009296768344938755
0.3923531770706177 0.476332426071167 0.005409856326878071
0.4170142114162445 0.47639501094818115 0.005409856326878071
0.39152002334594727 0.45729395747184753 0.005409856326878071
0.3673427999019623 0.4763447046279907 0.005409856326878071
0.3928632140159607 0.4956560730934143 0.005409856326878071
0.6357570290565491 0.47397691011428833 -0.015481404960155487
0.6593948602676392 0.4743933081626892 -0.015481404960155487
0.6354835629463196 0.45416101813316345 -0.015481404960155487
0.6120816469192505 0.47347405552864075 -0.015481404960155487
0.6359891295433044 0.49376559257507324 -0.015481404960155487
