ply
format ascii 1.0
element vertex 478
property float x
property float y
property float z
end_header
0.4914456009864807 0.7056056261062622 -0.08592434972524643
0.4761902689933777 0.6152992844581604 -0.13382846117019653
0.481183797121048 0.647106945514679 -0.07731027156114578
0.461439311504364 0.5292329788208008 -0.08527284115552902
0.4760202467441559 0.5867127776145935 -0.13904505968093872
0.4784284830093384 0.552254319190979 -0.12453805655241013
0.486141562461853 0.47271814942359924 -0.04494445025920868
0.3350399136543274 0.4833632707595825 0.08116505295038223
0.4883645474910736 0.41787582635879517 -0.018994484096765518
0.48848092555999756 0.38381949067115784 -0.01755884662270546
0.4933500289916992 0.26054704189300537 0.033856723457574844
0.4912768006324768 0.7144175171852112 -0.08404647558927536
0.4914403259754181 0.7245329022407532 -0.07694519311189651
0.4920409023761749 0.7320871353149414 -0.06595385074615479
0.4921543598175049 0.7471775412559509 -0.06931383162736893
0.49195677042007446 0.759215772151947 -0.07461495697498322
0.4916304051876068 0.7746764421463013 -0.08308733999729156
0.49168798327445984 0.7909466624259949 -0.0842287614941597
0.48599156737327576 0.8102142810821533 -0.06769473850727081
0.4780394434928894 0.6315181255340576 -0.12292342633008957
0.458015501499176 0.6333321332931519 -0.08742895722389221
0.24657997488975525 0.40087229013442993 0.23189492523670197
0.39685148000717163 0.5001085996627808 0.04420153796672821
0.3734304904937744 0.5037221908569336 0.04874043166637421
0.3512175381183624 0.5036335587501526 0.058487918227910995
0.32380157709121704 0.4930141866207123 0.0843052789568901
0.4173217713832855 0.49261417984962463 0.04369693994522095
0.3618529736995697 0.4327889680862427 0.0457470566034317
0.38839462399482727 0.43297356367111206 0.042779743671417236
0.3376719057559967 0.4393114149570465 0.055965494364500046
0.32215744256973267 0.4505421221256256 0.06738613545894623
0.3016219735145569 0.5092301368713379 0.09642945975065231
0.39546626806259155 0.8628835678100586 -0.03394142910838127
0.3271982669830322 0.4783729612827301 0.09087218344211578
0.23091080784797668 0.5129139423370361 0.22158637642860413
0.2741793096065521 0.4939579665660858 0.1280154287815094
0.36920157074928284 0.6055792570114136 0.0012197743635624647
0.46097177267074585 0.7008572220802307 -0.07803531736135483
0.4654874801635742 0.7238590121269226 -0.06932022422552109
0.4308490753173828 0.7108333110809326 -0.06012799218297005
0.41289567947387695 0.7235319018363953 -0.04030440002679825
0.4436488151550293 0.7270557880401611 -0.055952779948711395
0.4281063377857208 0.7329585552215576 -0.03781585767865181
0.3801653981208801 0.7749884128570557 -0.010482821613550186
0.4560847282409668 0.6152872443199158 -0.1292523294687271
0.4528968334197998 0.5879034399986267 -0.13324102759361267
0.28735071420669556 0.43097466230392456 0.0838286355137825
0.4201996326446533 0.5377724766731262 0.002352131297811866
0.40660884976387024 0.6135827302932739 -0.05913398787379265
0.4063885509967804 0.600014328956604 -0.0495523065328598
0.2985319495201111 0.6077166199684143 0.04409777745604515
0.45700615644454956 0.5558893084526062 -0.11334051936864853
0.34153199195861816 0.39967501163482666 0.03407145291566849
0.3096640706062317 0.4111317992210388 0.0576588399708271
0.26806747913360596 0.34878844022750854 0.18540579080581665
0.44278424978256226 0.4122542142868042 -0.0028733834624290466
0.41185450553894043 0.44117996096611023 0.046626653522253036
0.3610087037086487 0.7528760433197021 0.00434483028948307
0.2536352276802063 0.7772262096405029 0.23754701018333435
0.42585960030555725 0.6292897462844849 -0.05447506159543991
0.4446314573287964 0.6365602016448975 -0.06391824036836624
0.4000062048435211 0.7469502687454224 -0.0002511931234039366
0.40689849853515625 0.7460115551948547 -0.00891775544732809
0.2964123487472534 0.3962949812412262 0.07551397383213043
0.40687039494514465 0.6265724897384644 -0.047571372240781784
0.38455790281295776 0.39757850766181946 0.013841521926224232
0.3796437382698059 0.377734512090683 0.013058586977422237
0.36023128032684326 0.2783052623271942 0.08338747173547745
0.28073015809059143 0.3689940273761749 0.12320268154144287
0.371041476726532 0.32268333435058594 0.04724414274096489
0.2724408805370331 0.4204975962638855 0.11053337901830673
0.25781264901161194 0.4111875593662262 0.16783037781715393
0.4621228873729706 0.7128877639770508 -0.07641465216875076
0.4368886649608612 0.719649612903595 -0.05937553197145462
0.4199845492839813 0.7284679412841797 -0.04148367419838905
0.4316653311252594 0.6341004371643066 -0.05192149430513382
0.40358084440231323 0.7465722560882568 -0.005095428787171841
0.41150790452957153 0.7513905763626099 -0.025827758014202118
0.4103219509124756 0.7454883456230164 -0.010362068191170692
0.4345422387123108 0.6187206506729126 -0.08762545883655548
0.43447789549827576 0.7356306314468384 -0.03450023755431175
0.4495409429073334 0.7318399548530579 -0.04703807830810547
0.4691108167171478 0.7308260798454285 -0.05887916684150696
0.45538827776908875 0.8094265460968018 -0.06254506856203079
0.46025022864341736 0.7880125641822815 -0.07798825949430466
0.4622986912727356 0.771804928779602 -0.07662118971347809
0.4655633270740509 0.7563773393630981 -0.0673031359910965
0.46908828616142273 0.7454397678375244 -0.06207476183772087
0.4345032870769501 0.7441679835319519 -0.03685441240668297
0.4287871718406677 0.749786913394928 -0.042514052242040634
0.4218587875366211 0.7573862075805664 -0.04808787629008293
0.4159278869628906 0.766028642654419 -0.04474238306283951
0.384311705827713 0.7022351026535034 -0.027036696672439575
0.23610389232635498 0.6444921493530273 0.30407994985580444
0.479732871055603 0.6393532752990723 -0.09263987839221954
0.4232456386089325 0.7446169853210449 -0.0217724721878767
0.41766560077667236 0.747681736946106 -0.02555791288614273
0.4513466954231262 0.6466978788375854 -0.06737387180328369
0.4168575406074524 0.6430825591087341 -0.034575916826725006
0.4480993449687958 0.6417418122291565 -0.06617496907711029
0.3949248790740967 0.5548243522644043 0.01179992314428091
0.35538917779922485 0.5735243558883667 0.02126668207347393
0.40344223380088806 0.61324542760849 -0.03691218048334122
0.3043292760848999 0.3067619502544403 0.13184086978435516
0.31688955426216125 0.33834540843963623 0.08419904857873917
0.33254867792129517 0.380636990070343 0.04483878239989281
0.39932239055633545 0.7885379195213318 -0.02991003356873989
0.4342620074748993 0.3794418275356293 -0.006706882268190384
0.42681145668029785 0.3184940814971924 0.02165229432284832
0.42078351974487305 0.2645992040634155 0.049501512199640274
0.3336636424064636 0.5005097985267639 0.07195531576871872
0.2753126621246338 0.5279889702796936 0.11115361005067825
0.43091702461242676 0.48549121618270874 0.04667874798178673
0.29873397946357727 0.46262335777282715 0.09240452200174332
0.4368520975112915 0.518814206123352 -0.006813930347561836
0.4193974435329437 0.601828396320343 -0.08404836803674698
0.2441520094871521 0.5536373853683472 0.1395666003227234
0.29087477922439575 0.5437957048416138 0.08330047875642776
0.32059553265571594 0.5506892800331116 0.054470695555210114
0.3657899498939514 0.5442922711372375 0.037289220839738846
0.39929988980293274 0.532309889793396 0.028736943379044533
0.42427852749824524 0.5190804600715637 0.019868841394782066
0.46458345651626587 0.480019748210907 -0.03211577609181404
0.24473455548286438 0.608616054058075 0.12349618226289749
0.27890121936798096 0.45988571643829346 0.10817597806453705
0.4656802713871002 0.6307070255279541 -0.11962564289569855
0.41929563879966736 0.5622813105583191 -0.0121524129062891
0.2331312894821167 0.521488606929779 0.3089744746685028
0.4428541362285614 0.5045311450958252 0.016260724514722824
0.4037643373012543 0.6168321967124939 -0.011899519711732864
0.31494584679603577 0.47969284653663635 0.09637103229761124
0.4205911159515381 0.5853778123855591 -0.07229963690042496
0.24085676670074463 0.7102261185646057 0.2780459225177765
0.4313080906867981 0.4771004319190979 0.05554715171456337
0.43827024102211 0.5674878358840942 -0.09707742929458618
0.2910967469215393 0.8201609253883362 0.08593256771564484
0.29695627093315125 0.8589925169944763 0.12508277595043182
0.22679811716079712 0.6273815035820007 0.21488572657108307
0.26297396421432495 0.7896192073822021 0.12817873060703278
0.2444927990436554 0.4583147168159485 0.20298852026462555
0.3885752558708191 0.8939406871795654 -0.02397865802049637
0.4700138568878174 0.6384942531585693 -0.08974795788526535
0.39835137128829956 0.5836671590805054 -0.0035688960924744606
0.2539800703525543 0.4998200833797455 0.15647639334201813
0.355274498462677 0.4892066717147827 0.06257189065217972
0.37388208508491516 0.4898298978805542 0.05377119407057762
0.40582728385925293 0.7557958960533142 -0.021349623799324036
0.2475358247756958 0.6648531556129456 0.12002845853567123
0.43488365411758423 0.9328262805938721 -0.02954431064426899
0.36217552423477173 0.9056352972984314 0.03907664492726326
0.33121776580810547 0.8869576454162598 0.07735941559076309
0.4903223514556885 0.3188112676143646 0.007271929644048214
0.48888084292411804 0.9385871887207031 -0.0448276586830616
0.39331912994384766 0.4870799481868744 0.04993559047579765
0.41208142042160034 0.4822767376899719 0.05143499746918678
0.4247487783432007 0.47950229048728943 0.055573537945747375
0.2612817585468292 0.45576101541519165 0.13761429488658905
0.4098109006881714 0.4618241786956787 0.05113713815808296
0.3890896439552307 0.4575596749782562 0.049293454736471176
0.36938756704330444 0.4585491418838501 0.05304442718625069
0.350585401058197 0.4638105034828186 0.061226945370435715
0.33909347653388977 0.4699361324310303 0.07054577767848969
0.23627829551696777 0.4550665616989136 0.27782243490219116
0.3432468771934509 0.486470103263855 0.07255671173334122
0.48194751143455505 0.6696160435676575 -0.07459553331136703
0.40623781085014343 0.6836459636688232 -0.04132774844765663
0.4251382052898407 0.6243056058883667 -0.06263220310211182
0.44943535327911377 0.6713370084762573 -0.06898516416549683
0.4883970022201538 0.4464053511619568 -0.021706577390432358
0.3232317566871643 0.8504349589347839 0.048821352422237396
0.3545815348625183 0.8728612661361694 0.013223845511674881
0.4318541884422302 0.9088865518569946 -0.05821630731225014
0.27284806966781616 0.8264219760894775 0.1827586144208908
0.424548864364624 0.4705195426940918 0.05387776717543602
0.4481208324432373 0.5212864279747009 -0.0438634492456913
0.48627015948295593 0.9131414294242859 -0.07262556999921799
0.39504653215408325 0.9209997653961182 8.261997572844848e-05
0.23203924298286438 0.6884492039680481 0.19816941022872925
0.4497177004814148 0.7441583871841431 -0.04994212090969086
0.4442159831523895 0.7529000639915466 -0.055731602013111115
0.4385206699371338 0.7648209929466248 -0.06258699297904968
0.43444114923477173 0.7787966132164001 -0.06199663504958153
0.42393171787261963 0.8005833625793457 -0.048943012952804565
0.416321337223053 0.739427924156189 -0.02208884060382843
0.4091033935546875 0.7378095388412476 -0.020658107474446297
0.40263012051582336 0.7352976202964783 -0.019063323736190796
0.36791518330574036 0.7259821891784668 -0.009018330834805965
0.2772904634475708 0.6712791919708252 0.06211358308792114
0.45153358578681946 0.49733856320381165 -0.017563853412866592
0.44618865847587585 0.45528849959373474 0.035939112305641174
0.4331333339214325 0.4599221348762512 0.04868015646934509
0.42287561297416687 0.7402353882789612 -0.02039351500570774
0.2734127640724182 0.7425814867019653 0.08757120370864868
0.4648861289024353 0.4522913098335266 7.898142939666286e-05
0.4092428982257843 0.8320522308349609 -0.04062952101230621
0.4812905788421631 0.5244618654251099 -0.09699087589979172
0.4625890851020813 0.5052775144577026 -0.061144255101680756
0.48371031880378723 0.49885642528533936 -0.0697113499045372
0.43071022629737854 0.5641191005706787 -0.04739276319742203
0.4850750267505646 0.8805673718452454 -0.08164805918931961
0.48542875051498413 0.8433350324630737 -0.0746234655380249
0.4460812211036682 0.842246413230896 -0.06421047449111938
0.3542832136154175 0.7904506921768188 0.003995844628661871
0.3845793604850769 0.6401641964912415 -0.00731006171554327
0.3798621892929077 0.8154035806655884 -0.018357237800955772
0.3298288583755493 0.6389636993408203 0.009960063733160496
0.3617270588874817 0.6689807772636414 -0.004857470281422138
0.3084486722946167 0.6865535974502563 0.026370175182819366
0.4359392821788788 0.8778312802314758 -0.06670606136322021
0.4173959791660309 0.5813818573951721 -0.03015313297510147
0.33227288722991943 0.8146266937255859 0.0255915354937315
0.36364495754241943 0.8408780097961426 -0.0027125340420752764
0.33429980278015137 0.7588738799095154 0.01774478703737259
0.2525736391544342 0.7134761214256287 0.11853370070457458
0.3029075562953949 0.7668756246566772 0.04506359249353409
0.24189630150794983 0.7435535192489624 0.17429085075855255
0.3422987461090088 0.7072599530220032 0.004764224868267775
0.43471580743789673 0.5415060520172119 -0.02670610323548317
0.4267265200614929 0.6137526631355286 -0.09111431241035461
0.4140709340572357 0.6222967505455017 -0.06479442119598389
0.4346739649772644 0.5935977101325989 -0.1095951497554779
0.4264054000377655 0.4327702522277832 0.03413303568959236
0.3872085213661194 0.4200870394706726 0.034915488213300705
0.35352665185928345 0.42017102241516113 0.04027406871318817
0.3257668614387512 0.4279583692550659 0.05352448672056198
0.3072032332420349 0.4419873356819153 0.07118704169988632
0.29714059829711914 0.48657459020614624 0.10752259194850922
0.22535279393196106 0.5692989230155945 0.22080625593662262
0.3143348693847656 0.5185645818710327 0.08059987425804138
0.3373536467552185 0.5237516760826111 0.060850273817777634
0.36872297525405884 0.5220994353294373 0.04619106277823448
0.39868587255477905 0.5147875547409058 0.03907005861401558
0.4222327768802643 0.5050579309463501 0.0351514033973217
0.43829551339149475 0.4958997368812561 0.032801348716020584
0.23503488302230835 0.5833783745765686 0.31630244851112366
0.4154866933822632 0.630150556564331 -0.053644731640815735
0.4450843632221222 0.5436696410179138 -0.06681818515062332
0.4407308101654053 0.6131365299224854 -0.11391961574554443
0.455130398273468 0.6277567148208618 -0.10828133672475815
0.4428904354572296 0.6192484498023987 -0.10228483378887177
0.4230182468891144 0.6383758783340454 -0.04818335175514221
0.45868217945098877 0.6294273138046265 -0.11571972072124481
0.4628491997718811 0.6369511485099792 -0.08858322352170944
0.43941783905029297 0.47697019577026367 0.049329765141010284
0.4504956007003784 0.48127901554107666 0.030480550602078438
0.4564356803894043 0.4843159019947052 0.00949728861451149
0.33252614736557007 0.4744311273097992 0.07940555363893509
0.31301894783973694 0.46339088678359985 0.08226105570793152
0.5024515986442566 0.5292751789093018 -0.09225427359342575
0.6672098636627197 0.47937071323394775 0.030160995200276375
0.5044581890106201 0.6334431171417236 -0.09275959432125092
0.7895296812057495 0.39819926023483276 0.15578246116638184
0.6006691455841064 0.4955226480960846 0.011349120177328587
0.6239539384841919 0.49851420521736145 0.009264415130019188
0.6477686166763306 0.49947303533554077 0.013029477559030056
0.6809000372886658 0.49031734466552734 0.030443627387285233
0.5808559656143188 0.4892547130584717 0.0175499077886343
0.6362285614013672 0.4300292730331421 0.004597992170602083
0.6088463664054871 0.4308915138244629 0.010098855942487717
0.6626999378204346 0.43595921993255615 0.008516259491443634
0.6802737712860107 0.4468596577644348 0.01594647392630577
0.7061824798583984 0.5084118843078613 0.03823746740818024
0.5857353806495667 0.8700921535491943 -0.05763781815767288
0.6771184802055359 0.4755452275276184 0.03740798681974411
0.8043901920318604 0.5155491232872009 0.14195354282855988
0.7391231656074524 0.4939699172973633 0.06256406009197235
0.6155914664268494 0.6074568033218384 -0.031774140894412994
0.5226579308509827 0.7024027109146118 -0.086516372859478
0.5180732011795044 0.7252762317657471 -0.07709111273288727
0.5535948276519775 0.7143335938453674 -0.07777421921491623
0.5718745589256287 0.7277905941009521 -0.06460552662611008
0.5407508611679077 0.7298300862312317 -0.07126082479953766
0.5570535063743591 0.7366416454315186 -0.0582423210144043
0.6052830219268799 0.7795892357826233 -0.04180062562227249
0.49781179428100586 0.6154378652572632 -0.1336721032857895
0.5003204345703125 0.5879865884780884 -0.1386852115392685
0.7205011248588562 0.4273771345615387 0.022553754970431328
0.5643994808197021 0.5380347371101379 -0.01899893395602703
0.5637399554252625 0.6147775650024414 -0.07940725982189178
0.5665929317474365 0.6011168360710144 -0.07047127932310104
0.6983768939971924 0.6108454465866089 -0.010938970372080803
0.5012925863265991 0.5559091567993164 -0.12023985385894775
0.6537337899208069 0.39550521969795227 -0.008866028860211372
0.6922082304954529 0.40645959973335266 0.004209418315440416
0.7552242875099182 0.34493309259414673 0.11716442555189133
0.5409001111984253 0.4146479368209839 -0.017315153032541275
0.5853963494300842 0.43965083360671997 0.020022304728627205
0.6262717247009277 0.7574687600135803 -0.03365359827876091
0.800163984298706 0.7892023324966431 0.16636072099208832
0.5449374318122864 0.6302515864372253 -0.06881622225046158
0.5238119959831238 0.6375072002410889 -0.07108784466981888
0.5877072811126709 0.7515763640403748 -0.033037055283784866
0.5807510018348694 0.7505484819412231 -0.03784402459859848
0.7089062333106995 0.3901883363723755 0.01881157048046589
0.5668990612030029 0.6282830834388733 -0.06734292954206467
0.6038447618484497 0.3968185782432556 -0.01557619497179985
0.6084108352661133 0.3754679560661316 -0.01710701361298561
0.6385274529457092 0.27425020933151245 0.04385000839829445
0.7273944616317749 0.36802056431770325 0.060953449457883835
0.6175861358642578 0.3213762938976288 0.012631102465093136
0.7395331263542175 0.41709932684898376 0.04501907154917717
0.7619520425796509 0.4110439419746399 0.09688396006822586
0.5210307240486145 0.7143183350563049 -0.08487672358751297
0.5471535325050354 0.7226580381393433 -0.07596363127231598
0.5648303031921387 0.7322759032249451 -0.0636863112449646
0.53920578956604 0.6352663040161133 -0.0639890730381012
0.5840758085250854 0.7511577606201172 -0.035458628088235855
0.5749840140342712 0.7557671666145325 -0.05144229531288147
0.5771958231925964 0.7498908638954163 -0.03839529678225517
0.5294550657272339 0.6188584566116333 -0.10137128084897995
0.5512865781784058 0.7390497922897339 -0.05388040095567703
0.5354613065719604 0.7342984080314636 -0.0613085962831974
0.515413761138916 0.7321093082427979 -0.06674347072839737
0.5187056064605713 0.8112066388130188 -0.07021830976009369
0.5234193801879883 0.7897411584854126 -0.08624105900526047
0.5210136771202087 0.7732521295547485 -0.08510877192020416
0.5183703303337097 0.7575323581695557 -0.07570460438728333
0.5153746008872986 0.7466405034065247 -0.0700608417391777
0.5510304570198059 0.74753737449646 -0.056178998202085495
0.5569785237312317 0.7532778978347778 -0.06183334439992905
0.5638011693954468 0.7612283229827881 -0.06828632205724716
0.5697363018989563 0.770200252532959 -0.06672399491071701
0.5938196182250977 0.7051360607147217 -0.05534344166517258
0.8249790668487549 0.651442289352417 0.22445383667945862
0.5629526972770691 0.7486000061035156 -0.04633595794439316
0.5687377452850342 0.7518179416656494 -0.050196096301078796
0.5152825117111206 0.6478336453437805 -0.07470733672380447
0.5586674809455872 0.6453933715820312 -0.0503368079662323
0.5193531513214111 0.642822802066803 -0.07309611141681671
0.5918272137641907 0.5555713772773743 -0.016934461891651154
0.6339542269706726 0.5750184655189514 -0.017916910350322723
0.5724880695343018 0.6149441003799438 -0.058381736278533936
0.7069693803787231 0.30223095417022705 0.07614929974079132
0.681024432182312 0.33742597699165344 0.03395236283540726
0.6640682816505432 0.37492451071739197 -0.000507146178279072
0.5826549530029297 0.7929610013961792 -0.05559041351079941
0.5488468408584595 0.3808237612247467 -0.02223880961537361
0.556605339050293 0.31737378239631653 0.003709128824993968
0.5701218843460083 0.2620423138141632 0.029539404436945915
0.6683655977249146 0.49710577726364136 0.021448923274874687
0.7355673313140869 0.5280505418777466 0.04641373082995415
0.5674068331718445 0.4829850196838379 0.023464610800147057
0.7087633609771729 0.4601401090621948 0.03322787210345268
0.5455151796340942 0.5187625288963318 -0.023957476019859314
0.5449504852294922 0.6023460626602173 -0.10030537843704224
0.7741277813911438 0.5569872260093689 0.06620584428310394
0.7146583199501038 0.5438072085380554 0.02258787490427494
0.6786131262779236 0.5498473048210144 0.0027106506749987602
0.6283748745918274 0.542838454246521 -0.002388352295383811
0.5931698083877563 0.5304821729660034 -0.0014029683079570532
0.5668835639953613 0.5174390077590942 -0.0024237839970737696
0.509858250617981 0.4799513816833496 -0.03952302038669586
0.7716939449310303 0.6136782169342041 0.05050592124462128
0.7320749759674072 0.45876777172088623 0.043732576072216034
0.4910959303379059 0.6308799386024475 -0.12315992265939713
0.561263918876648 0.5628799200057983 -0.03274999186396599
0.8223558068275452 0.5234438180923462 0.2269027978181839
0.5469366312026978 0.5029345750808716 -0.0012971543474122882
0.5763851404190063 0.618695855140686 -0.0336434468626976
0.6914952993392944 0.47720348834991455 0.040244996547698975
0.5474578142166138 0.585902214050293 -0.08879681676626205
0.8193380832672119 0.7200333476066589 0.20214752852916718
0.5682206749916077 0.4744943678379059 0.031346697360277176
0.524083137512207 0.567733108997345 -0.10913277417421341
0.7224711179733276 0.8326573371887207 0.03160753846168518
0.7283873558044434 0.8741282224655151 0.0707240104675293
0.8107813596725464 0.6341392397880554 0.13535799086093903
0.7619152069091797 0.8013883829116821 0.06437621265649796
0.7844696640968323 0.4588286280632019 0.12740282714366913
0.5952917337417603 0.9030461311340332 -0.04980245232582092
0.49007758498191833 0.6385252475738525 -0.09190620481967926
0.5849117040634155 0.5849180221557617 -0.02905503660440445
0.7644038796424866 0.5006665587425232 0.08461736142635345
0.6436051726341248 0.48320817947387695 0.017826128751039505
0.6240291595458984 0.48334187269210815 0.014139806851744652
0.5808402299880981 0.7602683305740356 -0.04888591915369034
0.7713446021080017 0.6718005537986755 0.04983749985694885
0.545942485332489 0.9385100603103638 -0.04348612204194069
0.6370105743408203 0.9183930158615112 0.003889166284352541
0.6794540286064148 0.9015727639198303 0.03304504230618477
0.6052626967430115 0.4812520146369934 0.016228264197707176
0.5873312950134277 0.4779168367385864 0.022388355806469917
0.5749041438102722 0.4763756990432739 0.02952544018626213
0.7544580101966858 0.4546046555042267 0.06796056777238846
0.5895640850067139 0.45963194966316223 0.02177152968943119
0.6094518303871155 0.45513617992401123 0.015117182396352291
0.6291697025299072 0.4559924900531769 0.013203196227550507
0.6491460800170898 0.4609413743019104 0.015668654814362526
0.6620327234268188 0.4668353497982025 0.021549716591835022
0.8102991580963135 0.4542166590690613 0.19789084792137146
0.657117486000061 0.48146045207977295 0.02405773662030697
0.5678896903991699 0.6859486699104309 -0.06259885430335999
0.5438418388366699 0.6249864101409912 -0.07683901488780975
0.5171557068824768 0.6722649335861206 -0.07772095501422882
0.6801007390022278 0.8627719283103943 0.005025407765060663
0.6396856307983398 0.8846067786216736 -0.02137746848165989
0.5436169505119324 0.9137862324714661 -0.07227348536252975
0.7675031423568726 0.8400228023529053 0.11926329135894775
0.5749934911727905 0.4683097004890442 0.02742166630923748
0.5249074101448059 0.5212913155555725 -0.055401306599378586
0.5932818651199341 0.9309793710708618 -0.02602129988372326
0.8063092231750488 0.6973769664764404 0.12229934334754944
0.5351204872131348 0.7464878559112549 -0.06420619785785675
0.5405133366584778 0.7553722858428955 -0.07054559141397476
0.5459052920341492 0.7675825357437134 -0.07840582728385925
0.5504381656646729 0.7819284796714783 -0.07874160259962082
0.553701639175415 0.8039340972900391 -0.06736534088850021
0.5699368715286255 0.7435106039047241 -0.047326069325208664
0.5768822431564331 0.7420308589935303 -0.04842083901166916
0.5833970904350281 0.7398164868354797 -0.04876966029405594
0.6149360537528992 0.7295809984207153 -0.044269170612096786
0.7274410724639893 0.6770182847976685 0.0030862290877848864
0.5270496606826782 0.4972990155220032 -0.02958041802048683
0.5475334525108337 0.4539887309074402 0.020713454112410545
0.5645554065704346 0.45798033475875854 0.026205696165561676
0.563676655292511 0.7441686391830444 -0.04485716670751572
0.7389490604400635 0.751022458076477 0.027752604335546494
0.5212219953536987 0.4521923065185547 -0.009264341555535793
0.5707806944847107 0.8376214504241943 -0.06129123270511627
0.5064032673835754 0.5052357912063599 -0.06741996109485626
0.5420804023742676 0.5646271109580994 -0.06250660121440887
0.5274233818054199 0.8452274203300476 -0.07420562952756882
0.6352854371070862 0.7972024083137512 -0.03242950513958931
0.5975807905197144 0.6424598693847656 -0.03420180454850197
0.6058123111724854 0.82210373878479 -0.047058574855327606
0.6591559052467346 0.6421452760696411 -0.03258788585662842
0.6222023367881775 0.6719790697097778 -0.03869938477873802
0.6865453124046326 0.691606879234314 -0.022581735625863075
0.5368919372558594 0.8818482160568237 -0.07987333089113235
0.560062050819397 0.5821205973625183 -0.04926872253417969
0.663972020149231 0.8239490985870361 -0.01592012494802475
0.6257762312889099 0.8499385118484497 -0.03470027074217796
0.6572489738464355 0.765252947807312 -0.02599955163896084
0.768175482749939 0.7218971252441406 0.051816072314977646
0.6985889673233032 0.7753574848175049 -0.005286539904773235
0.7934960126876831 0.7541258335113525 0.10228580236434937
0.6456457376480103 0.7114131450653076 -0.03532040864229202
0.5423295497894287 0.541788637638092 -0.04305080696940422
0.5368103384971619 0.6139948964118958 -0.1059400886297226
0.5552610754966736 0.6233525276184082 -0.08195763826370239
0.5237012505531311 0.593902587890625 -0.12092213332653046
0.5659721493721008 0.43280428647994995 0.013090141117572784
0.6059008836746216 0.4186972379684448 0.003907244652509689
0.6422474384307861 0.41709601879119873 -0.0008210148080252111
0.6737141609191895 0.4241165518760681 0.0038155100774019957
0.6965647339820862 0.4382592439651489 0.015475733205676079
0.7125096321105957 0.48494458198547363 0.047770146280527115
0.8108987808227539 0.573729395866394 0.13916465640068054
0.6898446679115295 0.5174331068992615 0.025724278762936592
0.6622231602668762 0.5218515396118164 0.0131774777546525
0.627896785736084 0.519248366355896 0.006913517136126757
0.5968973636627197 0.511838972568512 0.00797007605433464
0.5731606483459473 0.5027838945388794 0.011662764474749565
0.5564674139022827 0.49378591775894165 0.0134851960465312
0.8246485590934753 0.5874618291854858 0.2345554530620575
0.5562035441398621 0.6315929889678955 -0.07037308812141418
0.5226231217384338 0.543790876865387 -0.07864925265312195
0.5170788764953613 0.6134418845176697 -0.12337626516819
0.5051091313362122 0.6282047033309937 -0.11374346911907196
0.5183075666427612 0.619680643081665 -0.11188369989395142
0.5498616099357605 0.640114426612854 -0.06215167045593262
0.4994867146015167 0.6296967267990112 -0.12017250061035156
0.4984554946422577 0.6371879577636719 -0.09231477975845337
0.558745801448822 0.4746367931365967 0.02912317030131817
0.5435090661048889 0.4792175889015198 0.015261667780578136
0.5322696566581726 0.48274466395378113 -0.0029652677476406097
0.6702179908752441 0.47145137190818787 0.028153426945209503
0.6921123266220093 0.4603118300437927 0.027943473309278488
0.38038700819015503 0.4722450375556946 0.061997462064027786
0.4032489061355591 0.47117316722869873 0.061997462064027786
0.3787837326526642 0.4527081549167633 0.061997462064027786
0.3570815324783325 0.4734105169773102 0.061997462064027786
0.3817650079727173 0.4919467866420746 0.061997462064027786
0.6211580634117126 0.46946462988853455 0.0228729248046875
0.6444363594055176 0.4705994129180908 0.0228729248046875
0.6227649450302124 0.45042040944099426 0.0228729248046875
0.5986558794975281 0.4682900607585907 0.0228729248046875
0.6199051141738892 0.48865315318107605 0.0228729248046875
