ply
format ascii 1.0
element vertex 478
property float x
property float y
property float z
end_header
0.537028431892395 0.7119584083557129 -0.08137916773557663
0.5746418833732605 0.6089258193969727 -0.11584128439426422
0.5520732998847961 0.6461239457130432 -0.06986971199512482
0.536530077457428 0.5304610133171082 -0.08428466320037842
0.5753718614578247 0.5816049575805664 -0.11934956908226013
0.5666987895965576 0.5510119795799255 -0.10546726733446121
0.5390242338180542 0.48073112964630127 -0.033446669578552246
0.331091046333313 0.473499059677124 -0.024070803076028824
0.5309578776359558 0.42189663648605347 -0.0092881228774786
0.531405508518219 0.38662755489349365 -0.00650932127609849
0.5164227485656738 0.26743921637535095 0.041494909673929214
0.5365718007087708 0.720164954662323 -0.08031732589006424
0.5343198776245117 0.7279133796691895 -0.07453664392232895
0.5315971374511719 0.7331808805465698 -0.06544353812932968
0.5314455032348633 0.7331887483596802 -0.06593628972768784
0.5325402021408081 0.741577684879303 -0.07066407054662704
0.5326374173164368 0.7531175017356873 -0.07780201733112335
0.5312685966491699 0.7670868039131165 -0.07919435203075409
0.5385048389434814 0.8100360631942749 -0.06563228368759155
0.5674033164978027 0.6267964243888855 -0.10723993927240372
0.5354903936386108 0.6304885745048523 -0.08789972960948944
0.1767607033252716 0.3849552273750305 0.0588698647916317
0.40752169489860535 0.5005806684494019 -0.022351020947098732
0.3811218738555908 0.5024370551109314 -0.030747579410672188
0.3543305993080139 0.5000187754631042 -0.03364851698279381
0.3164522647857666 0.48111534118652344 -0.026916194707155228
0.4292125999927521 0.4936971664428711 -0.00887792557477951
0.37735944986343384 0.41908779740333557 -0.0353609174489975
0.40569591522216797 0.42382746934890747 -0.021346870809793472
0.34822899103164673 0.4221665859222412 -0.03808869048953056
0.32702040672302246 0.43202200531959534 -0.03540831804275513
0.2916742265224457 0.49838343262672424 -0.0243168193846941
0.44077223539352417 0.8697885870933533 -0.08698560297489166
0.32026419043540955 0.46417951583862305 -0.01956210471689701
0.1743743121623993 0.5065997838973999 0.04322490841150284
0.25758278369903564 0.4778864085674286 -0.009759394451975822
0.40737050771713257 0.6048787236213684 -0.0629989504814148
0.5093886852264404 0.7056727409362793 -0.09119882434606552
0.5085785984992981 0.7257424592971802 -0.08340857923030853
0.47775357961654663 0.7146784663200378 -0.09299398958683014
0.4543049931526184 0.7250645160675049 -0.08793855458498001
0.48286667466163635 0.72784423828125 -0.08586359024047852
0.4613249897956848 0.7322583794593811 -0.07927969098091125
0.40915921330451965 0.7715609669685364 -0.0753241628408432
0.5540930032730103 0.608291745185852 -0.12065327912569046
0.5518092513084412 0.5820454359054565 -0.12470569461584091
0.29061251878738403 0.40741097927093506 -0.03809420391917229
0.4541145861148834 0.5409287810325623 -0.036454133689403534
0.4712950587272644 0.6099696755409241 -0.09165381640195847
0.46551164984703064 0.5975146293640137 -0.08417493849992752
0.3198631703853607 0.6049784421920776 -0.06646525114774704
0.5445395112037659 0.5536543130874634 -0.10930513590574265
0.36760997772216797 0.38252347707748413 -0.04475214704871178
0.3251616358757019 0.3890666365623474 -0.04432649537920952
0.2248220294713974 0.3308684229850769 0.036331985145807266
0.48012182116508484 0.41363754868507385 -0.023362725973129272
0.42854148149490356 0.4362109899520874 -0.006710634101182222
0.3865191638469696 0.7472785711288452 -0.07540290057659149
0.1741093248128891 0.7874067425727844 0.05731554701924324
0.4877251982688904 0.626068115234375 -0.07826192677021027
0.5089065432548523 0.6352011561393738 -0.07173004001379013
0.42579323053359985 0.7429109215736389 -0.06887337565422058
0.43121713399887085 0.7417747378349304 -0.06860726326704025
0.30909016728401184 0.37071284651756287 -0.03522556647658348
0.4633517563343048 0.6240814328193665 -0.08145935088396072
0.4182683229446411 0.3891623318195343 -0.03753628581762314
0.4158240556716919 0.3673359453678131 -0.038951486349105835
0.3669849932193756 0.26640546321868896 0.007138702552765608
0.2696133255958557 0.3522891700267792 -0.004407788161188364
0.39736539125442505 0.31206363439559937 -0.015613188035786152
0.2694215774536133 0.39473116397857666 -0.023227356374263763
0.22425313293933868 0.3970736265182495 0.016636565327644348
0.5091806650161743 0.7169120907783508 -0.0903061181306839
0.4807567000389099 0.7218865752220154 -0.09088678658008575
0.4582292139530182 0.7287892699241638 -0.08555881679058075
0.49155187606811523 0.6322035789489746 -0.07040605694055557
0.4286523461341858 0.742352306842804 -0.06816592812538147
0.44202619791030884 0.7439525127410889 -0.07681235671043396
0.43412649631500244 0.7411475777626038 -0.06803074479103088
0.5120545029640198 0.6131953001022339 -0.10324710607528687
0.4632658064365387 0.7345647215843201 -0.07459009438753128
0.48424410820007324 0.7314397692680359 -0.0765441432595253
0.5077245831489563 0.7310997843742371 -0.07494185119867325
0.5063587427139282 0.8100090026855469 -0.07641708105802536
0.5047947764396667 0.764859676361084 -0.09046738594770432
0.5068356990814209 0.7508184313774109 -0.08954953402280807
0.5077587962150574 0.7394059896469116 -0.08144290745258331
0.5080007314682007 0.7314711213111877 -0.07587792724370956
0.4635370373725891 0.7350970506668091 -0.075132817029953
0.46161261200904846 0.739435613155365 -0.08032771199941635
0.45863935351371765 0.7456973791122437 -0.08686447143554688
0.45515212416648865 0.7536830902099609 -0.08700333535671234
0.4282660186290741 0.6981019973754883 -0.08181266486644745
0.13362425565719604 0.6474553942680359 0.10385367274284363
0.5595446825027466 0.6366102695465088 -0.08242759853601456
0.4472534656524658 0.7382152080535889 -0.07117733359336853
0.4454529881477356 0.7406381964683533 -0.07471465319395065
0.5177105665206909 0.6462043523788452 -0.07570620626211166
0.4671710133552551 0.6421492695808411 -0.06336601078510284
0.5136989951133728 0.640905499458313 -0.07355125993490219
0.4262370467185974 0.5565989017486572 -0.04311874508857727
0.3862617611885071 0.5728396773338318 -0.05482335761189461
0.456226646900177 0.611303985118866 -0.07508555799722672
0.2873278856277466 0.2895962595939636 0.016414420679211617
0.3256281614303589 0.32252469658851624 -0.014331599697470665
0.3588528335094452 0.36111944913864136 -0.03985356539487839
0.4367392063140869 0.7879053354263306 -0.08165791630744934
0.4760063886642456 0.37877726554870605 -0.02761358954012394
0.46076124906539917 0.3155059814453125 -0.0056902640499174595
0.4401888847351074 0.2609885632991791 0.015955055132508278
0.3303704261779785 0.4932897686958313 -0.03166710212826729
0.25972670316696167 0.5164066553115845 -0.02421766147017479
0.4432755708694458 0.4864760637283325 -0.0009088339866138995
0.29477012157440186 0.44427478313446045 -0.02794610895216465
0.47448378801345825 0.5231038331985474 -0.03539484366774559
0.49633097648620605 0.5963518619537354 -0.10470122843980789
0.22558778524398804 0.549621045589447 -0.0167087335139513
0.2820080518722534 0.5361616611480713 -0.04165282100439072
0.32106712460517883 0.5471576452255249 -0.0495980940759182
0.3746429681777954 0.5440638065338135 -0.040954459458589554
0.4126705229282379 0.5339497327804565 -0.030035529285669327
0.44135305285453796 0.5219990015029907 -0.022382715716958046
0.5155214071273804 0.48655039072036743 -0.03693066164851189
0.23226308822631836 0.6066572070121765 -0.03199334442615509
0.2706398367881775 0.44046980142593384 -0.024681396782398224
0.5558654069900513 0.6257933378219604 -0.11140617728233337
0.4612082242965698 0.5636969208717346 -0.049136001616716385
0.13052260875701904 0.5148457288742065 0.10861797630786896
0.4636262059211731 0.5084949135780334 -0.015548267401754856
0.44725853204727173 0.6157331466674805 -0.053909409791231155
0.30718758702278137 0.46374422311782837 -0.01969335414469242
0.489461213350296 0.5818827152252197 -0.09447699040174484
0.14551234245300293 0.7171146273612976 0.08541498333215714
0.4419371485710144 0.47750768065452576 0.004567865282297134
0.518449604511261 0.5646920204162598 -0.10599318891763687
0.2859976589679718 0.8309186697006226 -0.039429325610399246
0.2699410021305084 0.8755679726600647 -0.009954334236681461
0.17300595343112946 0.6287333965301514 0.03328511491417885
0.23801763355731964 0.7985072731971741 -0.019350755959749222
0.1960982233285904 0.44785410165786743 0.036093100905418396
0.43157875537872314 0.9036363363265991 -0.08408009260892868
0.5504279732704163 0.6354333162307739 -0.08416926115751266
0.43658265471458435 0.584303081035614 -0.05225740373134613
0.22722241282463074 0.48123276233673096 0.002046649344265461
0.35967379808425903 0.48529955744743347 -0.02896331623196602
0.38313567638397217 0.4882393777370453 -0.026739366352558136
0.4380359947681427 0.7483642101287842 -0.07669061422348022
0.2323923259973526 0.6655520796775818 -0.032673683017492294
0.4784204363822937 0.9415373802185059 -0.06799442321062088
0.37839508056640625 0.9226363897323608 -0.0491546131670475
0.3293702304363251 0.9049059748649597 -0.03269824758172035
0.5255700945854187 0.32358402013778687 0.016314562410116196
0.5306947231292725 0.9407645463943481 -0.05297217145562172
0.40434351563453674 0.48694828152656555 -0.0189204141497612
0.42340609431266785 0.48267611861228943 -0.008471053093671799
0.43582683801651 0.4797704219818115 0.0009823042200878263
0.24420210719108582 0.43365931510925293 -0.00885837897658348
0.4219825267791748 0.455228328704834 -0.009580853395164013
0.40103989839553833 0.445677250623703 -0.019783981144428253
0.37899351119995117 0.44279491901397705 -0.02724613808095455
0.3551248610019684 0.44590994715690613 -0.030559400096535683
0.3388484716415405 0.4525846540927887 -0.02898644655942917
0.14693525433540344 0.4425826072692871 0.08811895549297333
0.3431885540485382 0.47989410161972046 -0.027369113638997078
0.5493404865264893 0.6689736247062683 -0.06883790343999863
0.4588480293750763 0.6808788180351257 -0.0809083804488182
0.4914226830005646 0.6200459599494934 -0.08311500400304794
0.5150902271270752 0.6700308918952942 -0.08120016753673553
0.5305836200714111 0.4544326663017273 -0.012981903739273548
0.33487024903297424 0.862400233745575 -0.053590305149555206
0.38106799125671387 0.8850882053375244 -0.06812067329883575
0.4863602817058563 0.9135493040084839 -0.09150390326976776
0.21819305419921875 0.8400534391403198 0.02313327044248581
0.4358122944831848 0.4687831997871399 -0.001138831372372806
0.5049149990081787 0.5241755843162537 -0.05676645785570145
0.5395514965057373 0.9124330282211304 -0.07652763277292252
0.4286237061023712 0.9349362850189209 -0.06561118364334106
0.1798885315656662 0.6927937269210815 0.022395702078938484
0.4845902621746063 0.731986939907074 -0.07751337438821793
0.48280107975006104 0.7387021780014038 -0.08377926796674728
0.48092541098594666 0.7479941844940186 -0.09159020334482193
0.47888970375061035 0.7601401805877686 -0.09258875250816345
0.4693678319454193 0.8009669780731201 -0.08479775488376617
0.443655788898468 0.7370877861976624 -0.07410982996225357
0.44028326869010925 0.7359257340431213 -0.07735548913478851
0.43680211901664734 0.7343556880950928 -0.07943658530712128
0.40263691544532776 0.7203987836837769 -0.08007718622684479
0.2859129011631012 0.6709872484207153 -0.062104254961013794
0.49537402391433716 0.5026806592941284 -0.03407909348607063
0.4671730399131775 0.4569995403289795 0.00537066301330924
0.44785964488983154 0.45937293767929077 0.0031356243416666985
0.44725456833839417 0.737973153591156 -0.07098226249217987
0.2684701085090637 0.7464364767074585 -0.04537191987037659
0.49568745493888855 0.4569486379623413 -0.013077802956104279
0.45349177718162537 0.8361552953720093 -0.0841282457113266
0.5568065643310547 0.5267295241355896 -0.0806724801659584
0.5261478424072266 0.5093482136726379 -0.06060666963458061
0.5480521321296692 0.5043091177940369 -0.05583205074071884
0.488391250371933 0.5638870596885681 -0.0690128356218338
0.5424911975860596 0.8799410462379456 -0.08281712979078293
0.5405300855636597 0.8430137634277344 -0.07530290633440018
0.4998767375946045 0.8445561528205872 -0.08544513583183289
0.381092369556427 0.7916120886802673 -0.07397971302270889
0.4244641959667206 0.6389166116714478 -0.06050978600978851
0.4143059253692627 0.8188173174858093 -0.07920549809932709
0.3637404143810272 0.637130856513977 -0.07474221289157867
0.3992595076560974 0.6666703224182129 -0.07190326601266861
0.33151349425315857 0.6858783960342407 -0.07467947900295258
0.4932774603366852 0.8812751770019531 -0.0956965982913971
0.46612417697906494 0.5808316469192505 -0.06283821165561676
0.3531191647052765 0.8212822675704956 -0.06707798689603806
0.39610323309898376 0.8486005067825317 -0.07489561289548874
0.3580237925052643 0.7574753165245056 -0.07549957185983658
0.2346348613500595 0.716524064540863 -0.030583593994379044
0.31486600637435913 0.7705709934234619 -0.06472303718328476
0.1977248191833496 0.7501800656318665 0.006513418164104223
0.37239140272140503 0.7039806842803955 -0.0770653709769249
0.4832704961299896 0.5436766147613525 -0.05231431499123573
0.5056454539299011 0.6077640056610107 -0.1081642284989357
0.4804447293281555 0.6181522607803345 -0.09074921160936356
0.5244689583778381 0.5876190066337585 -0.11683183163404465
0.450346440076828 0.4310297966003418 -0.006712828762829304
0.4115190804004669 0.4113355875015259 -0.02421664074063301
0.37485215067863464 0.4049529731273651 -0.03776492550969124
0.34031450748443604 0.408704549074173 -0.04224466532468796
0.31267663836479187 0.42150747776031494 -0.038219843059778214
0.28587472438812256 0.470497727394104 -0.017015952616930008
0.17036452889442444 0.5670050978660583 0.036949802190065384
0.3085719645023346 0.5106053352355957 -0.0319887213408947
0.3388022184371948 0.520160973072052 -0.035578031092882156
0.37611302733421326 0.5213350057601929 -0.03209928050637245
0.41011419892311096 0.5159484148025513 -0.023025479167699814
0.43578895926475525 0.5071005821228027 -0.010789015330374241
0.4538830518722534 0.49866074323654175 -0.004766532219946384
0.1301504671573639 0.5817192196846008 0.11300763487815857
0.4755963981151581 0.6272984147071838 -0.08087171614170074
0.5133242607116699 0.5440616607666016 -0.07846944779157639
0.5321720242500305 0.6068775057792664 -0.11695247888565063
0.5397356152534485 0.6240701079368591 -0.10534067451953888
0.5268771052360535 0.6142277121543884 -0.10777667909860611
0.4788391590118408 0.6369717717170715 -0.07130298018455505
0.5470991730690002 0.6248735785484314 -0.10975011438131332
0.5419470071792603 0.634278416633606 -0.08608462661504745
0.45262521505355835 0.4781453609466553 0.007185719907283783
0.4686349630355835 0.48441028594970703 0.0013975907349959016
0.4807438254356384 0.48874956369400024 -0.011078382842242718
0.3287695646286011 0.4585081934928894 -0.025477610528469086
0.31111061573028564 0.44592463970184326 -0.028665125370025635
0.5730952024459839 0.5325278639793396 -0.06318273395299911
0.6480114459991455 0.48991549015045166 0.1290702372789383
0.5758296251296997 0.632900059223175 -0.0716085210442543
0.6791574358940125 0.4288256764411926 0.29256829619407654
0.5930284261703491 0.5112010836601257 0.0765964686870575
0.6136552095413208 0.5145578980445862 0.08811290562152863
0.6320174932479858 0.5137171745300293 0.10366280376911163
0.6507781147956848 0.5002439022064209 0.13528767228126526
0.5768395066261292 0.5015304088592529 0.06907502561807632
0.6299521923065186 0.437215119600296 0.0878395289182663
0.6067202687263489 0.4383055865764618 0.07558868825435638
0.6490445137023926 0.44268766045570374 0.10464556515216827
0.6584650874137878 0.4540323317050934 0.11885775625705719
0.661445140838623 0.5198750495910645 0.15057671070098877
0.6080722212791443 0.864255964756012 -0.01369586680084467
0.6525990962982178 0.4835355281829834 0.14060761034488678
0.6864078640937805 0.538762092590332 0.28297585248947144
0.6705332398414612 0.5040349960327148 0.18658976256847382
0.6312688589096069 0.616878092288971 0.0377420075237751
0.560887336730957 0.7095733284950256 -0.06474089622497559
0.554448664188385 0.7291066646575928 -0.05906333029270172
0.5803844332695007 0.7205539345741272 -0.03881160542368889
0.591425895690918 0.7329433560371399 -0.01369504351168871
0.5695952773094177 0.7331659197807312 -0.0385240837931633
0.5807963609695435 0.7389625310897827 -0.016309011727571487
0.616401195526123 0.7776570916175842 0.02004067599773407
0.5900963544845581 0.6107320785522461 -0.10701305419206619
0.5936880707740784 0.5846989154815674 -0.10852111130952835
0.6812857389450073 0.43392258882522583 0.14504221081733704
0.5868010520935059 0.5493848323822021 0.028661761432886124
0.6148495674133301 0.6177951097488403 -0.03009660542011261
0.6119475364685059 0.605331540107727 -0.02065756916999817
0.6811910271644592 0.624173104763031 0.1001632958650589
0.5839962959289551 0.5558212995529175 -0.08849062025547028
0.6549663543701172 0.39921441674232483 0.08208789676427841
0.6739819049835205 0.4116160571575165 0.11477434635162354
0.6750866174697876 0.375045508146286 0.24532374739646912
0.5744576454162598 0.4161171019077301 0.017952410504221916
0.5851702690124512 0.44677427411079407 0.07192841917276382
0.6321432590484619 0.7568150162696838 0.04022638872265816
0.6558257937431335 0.7935386300086975 0.27815482020378113
0.5964580178260803 0.6322284936904907 -0.032366156578063965
0.5808884501457214 0.6388511061668396 -0.048859674483537674
0.5991449952125549 0.7529183030128479 0.03112698905169964
0.5942624807357788 0.7507048845291138 0.01930415630340576
0.6793868541717529 0.3967403769493103 0.13431759178638458
0.6093004941940308 0.6312148571014404 -0.02114369347691536
0.6237616539001465 0.3986817002296448 0.04931103065609932
0.6295315027236938 0.37726107239723206 0.050693776458501816
0.6211398243904114 0.2973124384880066 0.1266046017408371
0.6789628863334656 0.3893376886844635 0.1829039305448532
0.6226279139518738 0.3366539776325226 0.08771403878927231
0.6849756240844727 0.42565828561782837 0.17325004935264587
0.6855901479721069 0.4347313344478607 0.22957506775856018
0.5586220622062683 0.7206542491912842 -0.0640081912279129
0.5753797888755798 0.7278391122817993 -0.039863526821136475
0.5865283608436584 0.7362205982208252 -0.01737036742269993
0.5901304483413696 0.636996865272522 -0.032996948808431625
0.5966769456863403 0.7518625259399414 0.024278992787003517
0.5896790027618408 0.7520760893821716 0.0010897780302911997
0.5917230248451233 0.7495537400245667 0.017266687005758286
0.5970844626426697 0.619367778301239 -0.06140989065170288
0.5750271677970886 0.7404094934463501 -0.014881769195199013
0.5642330646514893 0.7364044785499573 -0.03230239450931549
0.5496500730514526 0.7340882420539856 -0.05019749701023102
0.5639076232910156 0.8098245859146118 -0.05240265652537346
0.552590012550354 0.7677811980247498 -0.06420508772134781
0.5529304146766663 0.7535855174064636 -0.06250372529029846
0.5517355799674988 0.7421658635139465 -0.054634686559438705
0.5491918921470642 0.7341127395629883 -0.05037445202469826
0.5744474530220032 0.7403706908226013 -0.01527092419564724
0.5781145095825195 0.7456715106964111 -0.020502358675003052
0.5815133452415466 0.7524007558822632 -0.024987701326608658
0.5843000411987305 0.7608190178871155 -0.02040477655827999
0.6224474906921387 0.7063490152359009 0.0033564663026481867
0.6595823764801025 0.6686848402023315 0.3495870530605316
0.5824509859085083 0.744475781917572 0.003673652419820428
0.5861147046089172 0.748053789138794 0.0003156827879138291
0.575579822063446 0.6484822034835815 -0.053237754851579666
0.5977110862731934 0.6471948027610779 -0.015218611806631088
0.578167736530304 0.6438585519790649 -0.05146941542625427
0.6060621738433838 0.5676767826080322 0.04443288967013359
0.6383484601974487 0.5879839658737183 0.06405122578144073
0.6103746891021729 0.6190418004989624 -0.009612947702407837
0.6571053862571716 0.3302059471607208 0.18666696548461914
0.6588597297668457 0.35568177700042725 0.1362178474664688
0.6608166694641113 0.3792080581188202 0.09447205811738968
0.6038905382156372 0.7900158166885376 -0.0034444890916347504
0.5859385132789612 0.3816944360733032 0.017716525122523308
0.5792944431304932 0.32904186844825745 0.047969575971364975
0.5762605667114258 0.2784413993358612 0.07603353261947632
0.6444504261016846 0.5097641944885254 0.12112709879875183
0.6741785407066345 0.5402923226356506 0.17023928463459015
0.5669806599617004 0.49168461561203003 0.06840896606445312
0.6683902144432068 0.4675302505493164 0.149154394865036
0.5749437808990479 0.5298028588294983 0.016527308151125908
0.6109566688537598 0.6035532355308533 -0.05497536063194275
0.6994558572769165 0.5770697593688965 0.20386599004268646
0.6722055673599243 0.5571724772453308 0.14142145216464996
0.6571530699729919 0.5647931098937988 0.10598817467689514
0.623825192451477 0.5583691596984863 0.07814708352088928
0.5967143774032593 0.5448687076568604 0.06015602499246597
0.5775315165519714 0.5294089317321777 0.045013826340436935
0.5565064549446106 0.4895387291908264 -0.014857728965580463
0.705794095993042 0.629787266254425 0.18807560205459595
0.6763966083526611 0.4667908549308777 0.16920460760593414
0.5768618583679199 0.6270766258239746 -0.10053442418575287
0.5923924446105957 0.571341872215271 0.013906456530094147
0.6636046171188354 0.5483905673027039 0.3614964187145233
0.5648323893547058 0.5122966170310974 0.03682095557451248
0.6052126884460449 0.6234046816825867 0.011407229118049145
0.6570323705673218 0.48538464307785034 0.14854899048805237
0.605989933013916 0.5885913372039795 -0.04390139505267143
0.6595851182937622 0.7307889461517334 0.32163530588150024
0.564866840839386 0.48195087909698486 0.07702948898077011
0.5960656404495239 0.5690351724624634 -0.06919676810503006
0.6648637056350708 0.828765869140625 0.12559431791305542
0.647071897983551 0.8674139380455017 0.15846367180347443
0.6956363916397095 0.651276707649231 0.2731243968009949
0.6781047582626343 0.8019908666610718 0.17457467317581177
0.6840146780014038 0.48392152786254883 0.2644733488559723
0.6108303070068359 0.894659161567688 -0.004992406349629164
0.5671424865722656 0.6365561485290527 -0.07753462344408035
0.6066853404045105 0.5937607884407043 0.025853823870420456
0.6739728450775146 0.511780858039856 0.21821929514408112
0.6323315501213074 0.49785640835762024 0.1056612879037857
0.6151660084724426 0.49961572885513306 0.09243356436491013
0.5927411317825317 0.7570890188217163 0.0069175781682133675
0.7029010653495789 0.6835107803344727 0.18010735511779785
0.573302149772644 0.9346523284912109 -0.023954471573233604
0.6174696683883667 0.908926784992218 0.06010199710726738
0.6323705315589905 0.8921459913253784 0.1045985147356987
0.5969499945640564 0.4971146285533905 0.08283451199531555
0.580384373664856 0.4908127784729004 0.07893350720405579
0.5701269507408142 0.48588788509368896 0.07937470823526382
0.6788076162338257 0.46500301361083984 0.20020723342895508
0.5830604434013367 0.4685615599155426 0.07950758188962936
0.6009858846664429 0.4642341136932373 0.0836743637919426
0.6198949813842773 0.46285468339920044 0.09323879331350327
0.636831521987915 0.46664777398109436 0.10658830404281616
0.6459329128265381 0.47336554527282715 0.11791530251502991
0.6735445261001587 0.4831600487232208 0.33514508605003357
0.642187237739563 0.4941357970237732 0.11875836551189423
0.6075945496559143 0.6872073411941528 -0.016057439148426056
0.5996309518814087 0.6268981695175171 -0.039801936596632004
0.5770641565322876 0.6731012463569641 -0.0543367937207222
0.6462733745574951 0.8558791279792786 0.08049725741147995
0.6288246512413025 0.8754086494445801 0.037945523858070374
0.5827639102935791 0.9084977507591248 -0.04816798120737076
0.6528116464614868 0.8385604619979858 0.22104299068450928
0.5711765885353088 0.47568389773368835 0.07839661836624146
0.5750761032104492 0.5287330746650696 -0.02189282700419426
0.6000975370407104 0.9229580760002136 0.015390792861580849
0.6916825771331787 0.7091465592384338 0.2528463304042816
0.563730001449585 0.7363771200180054 -0.03248516842722893
0.567285418510437 0.743526816368103 -0.03728296980261803
0.5696423053741455 0.7529745101928711 -0.042755164206027985
0.5710914134979248 0.7654007077217102 -0.04153299331665039
0.5872036218643188 0.8009508848190308 -0.027883127331733704
0.5887567400932312 0.7448065876960754 0.004330842290073633
0.5934883952140808 0.7445446252822876 0.008404741995036602
0.5975794792175293 0.7434259653091431 0.011905234307050705
0.631801426410675 0.7302016615867615 0.026425020769238472
0.6927785873413086 0.6868764162063599 0.11835797131061554
0.5648975372314453 0.5077673196792603 0.002230345271527767
0.558462381362915 0.45909613370895386 0.05117103457450867
0.5656948089599609 0.4644869565963745 0.06941442936658859
0.5826648473739624 0.7445739507675171 0.004054615274071693
0.6855155229568481 0.7557052373886108 0.13776752352714539
0.5514221787452698 0.4560980498790741 0.013812041841447353
0.5970404148101807 0.8330556750297546 -0.020739609375596046
0.5654594898223877 0.5118290185928345 -0.04189836233854294
0.5915151834487915 0.5699120163917542 -0.022664561867713928
0.5721715092658997 0.8423491716384888 -0.05488214269280434
0.6345480680465698 0.7951633334159851 0.03663253039121628
0.6192071437835693 0.6475436687469482 0.021808907389640808
0.6160888671875 0.8179246783256531 0.0082487678155303
0.6625608205795288 0.6513633131980896 0.05516587570309639
0.6383168697357178 0.6771305203437805 0.03117571398615837
0.6759160757064819 0.6990275979042053 0.07384416460990906
0.5816645622253418 0.8779181241989136 -0.05512763187289238
0.5979483127593994 0.5881825685501099 -0.00463112723082304
0.6476411819458008 0.8206077814102173 0.05994371697306633
0.6265401244163513 0.843868613243103 0.02318991720676422
0.6516880393028259 0.7657462358474731 0.05819549784064293
0.6958998441696167 0.7297952175140381 0.1736420840024948
0.6703191995620728 0.7763294577598572 0.0894545391201973
0.6863734722137451 0.7606682181358337 0.2258041799068451
0.6515307426452637 0.7153581976890564 0.04536646977066994
0.5828757286071777 0.5498276948928833 -0.002504376694560051
0.6051287055015564 0.6143306493759155 -0.06291752308607101
0.6091148853302002 0.6255114078521729 -0.03885155916213989
0.6040645837783813 0.5923415422439575 -0.08056977391242981
0.5780552625656128 0.435796320438385 0.05627388507127762
0.6133885383605957 0.4220793843269348 0.06841548532247543
0.6416994333267212 0.4215289354324341 0.08426672220230103
0.6614871025085449 0.42956358194351196 0.106121726334095
0.6703274250030518 0.4447343945503235 0.12785807251930237
0.6627416014671326 0.49448567628860474 0.16280843317508698
0.6939744353294373 0.5950855016708374 0.28255167603492737
0.656437337398529 0.5301457047462463 0.13242588937282562
0.642086923122406 0.5364120602607727 0.10787501931190491
0.6182078719139099 0.5349980592727661 0.08599717170000076
0.5932299494743347 0.5267890095710754 0.0699494257569313
0.5746362805366516 0.5148872137069702 0.05919814109802246
0.5630213022232056 0.5032902359962463 0.05206248164176941
0.6580536365509033 0.6091269254684448 0.36485809087753296
0.603983998298645 0.6337900161743164 -0.02982117421925068
0.583768904209137 0.5482154488563538 -0.04229050502181053
0.5988934636116028 0.6109033823013306 -0.08823680877685547
0.5816609859466553 0.6263583302497864 -0.08867796510457993
0.5927092432975769 0.6186513900756836 -0.07831709086894989
0.5954046249389648 0.6418816447257996 -0.028467930853366852
0.5810880661010742 0.626967191696167 -0.0962422639131546
0.572350263595581 0.6358324289321899 -0.07452064007520676
0.5601469278335571 0.48152485489845276 0.0672433003783226
0.5542151927947998 0.4865686893463135 0.04576582834124565
0.5552856922149658 0.4894605576992035 0.025846147909760475
0.6503371596336365 0.47885042428970337 0.1282559335231781
0.6617588400840759 0.4678056240081787 0.1351252943277359
0.3927813768386841 0.4696551263332367 -0.018207455053925514
0.41655686497688293 0.47089821100234985 -0.018207455053925514
0.3917538821697235 0.44790714979171753 -0.018207455053925514
0.36830511689186096 0.4685102701187134 -0.018207455053925514
0.39393728971481323 0.49162209033966064 -0.018207455053925514
0.5994748473167419 0.47521188855171204 0.09951750934123993
0.6241741180419922 0.47553107142448425 0.09951750934123993
0.6004543900489807 0.45129257440567017 0.09951750934123993
0.5751948356628418 0.47462964057922363 0.09951750934123993
0.5988116264343262 0.4986685812473297 0.09951750934123993
