ply
format ascii 1.0
element vertex 478
property float x
property float y
property float z
end_header
0.43322232365608215 0.6967415809631348 -0.06375466287136078
0.39480048418045044 0.620130181312561 -0.10147398710250854
0.4300159215927124 0.6485779881477356 -0.05746035277843475
0.4050557613372803 0.5401936769485474 -0.05542009323835373
0.39280080795288086 0.5941024422645569 -0.10615628212690353
0.40464532375335693 0.5619684457778931 -0.09591840207576752
0.4428359270095825 0.48498964309692383 -0.037677884101867676
0.36854273080825806 0.4848613739013672 0.1415870487689972
0.4519810676574707 0.4191344380378723 -0.018570084124803543
0.4492051601409912 0.3854232430458069 -0.018840007483959198
0.46324723958969116 0.2782526910305023 0.011775236576795578
0.4350436329841614 0.7035848498344421 -0.06180855631828308
0.4395310878753662 0.7096812725067139 -0.05584346503019333
0.44523072242736816 0.712963342666626 -0.04625540226697922
0.446578711271286 0.7348518967628479 -0.049446117132902145
0.4448830783367157 0.7441747784614563 -0.05182821676135063
0.44519680738449097 0.7559370398521423 -0.05678262561559677
0.4491380453109741 0.7674366235733032 -0.05588797479867935
0.456626832485199 0.7969175577163696 -0.04083891957998276
0.40575623512268066 0.6350671052932739 -0.09287842363119125
0.4037395715713501 0.6372461915016174 -0.05706888809800148
0.3772397041320801 0.41295480728149414 0.29508399963378906
0.4079998731613159 0.507931113243103 0.08225344866514206
0.3922651410102844 0.5104838013648987 0.09747590124607086
0.37885716557502747 0.509102463722229 0.11562050133943558
0.3674631714820862 0.49397212266921997 0.1495523899793625
0.4207114577293396 0.5000576376914978 0.07061239331960678
0.38194185495376587 0.4284079670906067 0.09637049585580826
0.4003393054008484 0.43120241165161133 0.07875367254018784
0.3671715259552002 0.43363749980926514 0.11600715667009354
0.36004501581192017 0.44581711292266846 0.1314503401517868
0.3592533767223358 0.5123693943023682 0.16639460623264313
0.4121883511543274 0.8322268128395081 0.02657884918153286
0.3664821684360504 0.4773584306240082 0.15328025817871094
0.38209813833236694 0.5105165243148804 0.2982941269874573
0.3553221821784973 0.49319183826446533 0.2024555206298828
0.3772405683994293 0.6085537672042847 0.05507343262434006
0.4154861569404602 0.6921342611312866 -0.04379189386963844
0.42650920152664185 0.7082743644714355 -0.037527501583099365
0.40547487139701843 0.6971021294593811 -0.01484932005405426
0.4026920795440674 0.7050110697746277 0.011584470048546791
0.4192071557044983 0.7094229459762573 -0.01517223846167326
0.41553205251693726 0.7124896049499512 0.0073343804106116295
0.4008459448814392 0.7633002996444702 0.05012126266956329
0.3823629915714264 0.620940089225769 -0.09046735614538193
0.37861722707748413 0.5958420038223267 -0.09263072162866592
0.3453647196292877 0.42134732007980347 0.16064870357513428
0.41065534949302673 0.5443680882453918 0.03426094353199005
0.37755176424980164 0.6193273663520813 -0.011950552463531494
0.3821965754032135 0.605819046497345 -0.004211523570120335
0.348969966173172 0.6097033619880676 0.1251865029335022
0.3906407952308655 0.5655871629714966 -0.07585329562425613
0.3609720468521118 0.38786983489990234 0.09162070602178574
0.34846606850624084 0.39897608757019043 0.12852048873901367
0.36576077342033386 0.3679693937301636 0.24491596221923828
0.4191288948059082 0.40361857414245605 0.015685655176639557
0.4169752597808838 0.4419378638267517 0.07117055356502533
0.39005815982818604 0.7433142066001892 0.0709553211927414
0.4305276572704315 0.7320544719696045 0.3068183660507202
0.39253920316696167 0.6335545778274536 -0.01647728867828846
0.40543246269226074 0.639767050743103 -0.03495969623327255
0.409843772649765 0.7199580669403076 0.057906389236450195
0.41441062092781067 0.7195271849632263 0.04419505223631859
0.3462597727775574 0.3839564919471741 0.1463266760110855
0.38533955812454224 0.63043212890625 -0.003400936722755432
0.382517009973526 0.38688337802886963 0.05312042683362961
0.37892305850982666 0.36636385321617126 0.053196992725133896
0.3851335048675537 0.3044605851173401 0.11590375006198883
0.3509703278541565 0.38377755880355835 0.18976107239723206
0.3779090940952301 0.34141746163368225 0.08357955515384674
0.3442908525466919 0.41234439611434937 0.18762049078941345
0.35842716693878174 0.4216470420360565 0.23845824599266052
0.41958004236221313 0.7016265988349915 -0.04235848784446716
0.4115484952926636 0.7043761014938354 -0.015954887494444847
0.4084419906139374 0.7092067003250122 0.007202566135674715
0.3988941013813019 0.6375007629394531 -0.018292946740984917
0.4120176136493683 0.719799816608429 0.04986194521188736
0.412921667098999 0.7270507216453552 0.026529602706432343
0.4164332151412964 0.7193846702575684 0.04175640642642975
0.38463324308395386 0.6249462366104126 -0.04384918510913849
0.4225815236568451 0.7140593528747559 0.008827564306557178
0.4264363646507263 0.7120088934898376 -0.00904909148812294
0.43368345499038696 0.7117738127708435 -0.028142543509602547
0.4358900785446167 0.7958724498748779 -0.024252986535429955
0.43078070878982544 0.7636094093322754 -0.037845879793167114
0.4281426668167114 0.7522647380828857 -0.03817075490951538
0.43023115396499634 0.7411558032035828 -0.03272969648241997
0.43462684750556946 0.7330288290977478 -0.031065374612808228
0.42343515157699585 0.7268692255020142 0.006639963015913963
0.4187782406806946 0.7303506135940552 0.0034318119287490845
0.41445592045783997 0.7355456352233887 0.0008060483378358185
0.41225194931030273 0.7422875165939331 0.007014698814600706
0.3850554823875427 0.6970975995063782 0.027813458815217018
0.4304855763912201 0.6157811880111694 0.36506593227386475
0.4178515076637268 0.642194926738739 -0.06969545781612396
0.42055419087409973 0.7235367894172668 0.026820532977581024
0.4164362847805023 0.7249706983566284 0.024817610159516335
0.4111945629119873 0.6485998034477234 -0.03760802373290062
0.3976161777973175 0.644248902797699 0.0005667181685566902
0.40814533829689026 0.644417405128479 -0.03684581071138382
0.3977895677089691 0.5604145526885986 0.05446108058094978
0.3748224079608917 0.5789535045623779 0.08032087981700897
0.3864355683326721 0.6171545386314392 0.006746216677129269
0.36833053827285767 0.33109259605407715 0.18202939629554749
0.3579029440879822 0.35604408383369446 0.13875193893909454
0.3575049638748169 0.36857080459594727 0.10201678425073624
0.4078686535358429 0.775438666343689 0.027285853400826454
0.41117656230926514 0.36978965997695923 0.014293140731751919
0.40963214635849 0.3365914821624756 0.03625692427158356
0.4155885577201843 0.2886084318161011 0.05683541297912598
0.3706146776676178 0.503935694694519 0.13480724394321442
0.350198358297348 0.5318498611450195 0.18896499276161194
0.42903679609298706 0.49170130491256714 0.06776555627584457
0.35490208864212036 0.4579885005950928 0.16384448111057281
0.4180276393890381 0.5270633697509766 0.01999473012983799
0.37448158860206604 0.6087000966072083 -0.03732195124030113
0.3560284972190857 0.5538139343261719 0.22655071318149567
0.34891363978385925 0.549523115158081 0.16150949895381927
0.35801059007644653 0.557685911655426 0.123658686876297
0.38253211975097656 0.5517560243606567 0.09075522422790527
0.40302518010139465 0.5398060083389282 0.06762923300266266
0.4174377918243408 0.5264511704444885 0.04840393736958504
0.4287669360637665 0.49203670024871826 -0.015882210806012154
0.34902888536453247 0.6034161448478699 0.215759739279747
0.3500826954841614 0.4548768103122711 0.18489162623882294
0.3976339101791382 0.634885311126709 -0.08446643501520157
0.4035896062850952 0.5682394504547119 0.022387856617569923
0.41769087314605713 0.511221706867218 0.36775580048561096
0.4273044764995575 0.5112420320510864 0.036965735256671906
0.39423584938049316 0.6193069815635681 0.024907641112804413
0.36338311433792114 0.47787153720855713 0.16232959926128387
0.3817764222621918 0.5921297073364258 -0.028664646670222282
0.4312025308609009 0.672014594078064 0.34303563833236694
0.43225038051605225 0.4819897413253784 0.07567334175109863
0.3841845691204071 0.5757972002029419 -0.05474091321229935
0.39068976044654846 0.7866568565368652 0.16515731811523438
0.4161086678504944 0.8150208592414856 0.19636154174804688
0.37981390953063965 0.6111210584640503 0.2973133623600006
0.3888048231601715 0.7553218603134155 0.21231071650981903
0.3724686801433563 0.46363866329193115 0.27569401264190674
0.4138885736465454 0.8561857342720032 0.03911437839269638
0.41114217042922974 0.6418235301971436 -0.06384565681219101
0.3949478566646576 0.5878908038139343 0.0377948097884655
0.35436490178108215 0.5005914568901062 0.23509493470191956
0.3783235251903534 0.49455535411834717 0.1165289655327797
0.39092063903808594 0.4967975914478302 0.10123099386692047
0.41044795513153076 0.7301971316337585 0.03363175690174103
0.35571524500846863 0.6510862112045288 0.21061328053474426
0.44347304105758667 0.8904950618743896 0.015976624563336372
0.4208058714866638 0.861314058303833 0.10151231288909912
0.4171731770038605 0.8431049585342407 0.1446916162967682
0.4540467858314514 0.3319801688194275 -0.004660154227167368
0.476884126663208 0.8982213139533997 -0.018854700028896332
0.4051482081413269 0.4949512481689453 0.08846307545900345
0.4186128079891205 0.48975977301597595 0.08146309107542038
0.42750248312950134 0.48561903834342957 0.07944643497467041
0.3499286472797394 0.45279932022094727 0.2153390347957611
0.4186292886734009 0.46530812978744507 0.08118649572134018
0.4042965769767761 0.4590480327606201 0.08829423040151596
0.3889220952987671 0.45718997716903687 0.10079676657915115
0.3760225772857666 0.46066927909851074 0.11665308475494385
0.36977970600128174 0.4670127332210541 0.12926512956619263
0.3952800929546356 0.457659512758255 0.33877891302108765
0.37173226475715637 0.4899977445602417 0.13098296523094177
0.43344762921333313 0.6675535440444946 -0.05514078587293625
0.3919147849082947 0.6807573437690735 0.005771910306066275
0.387769877910614 0.6297054886817932 -0.024406297132372856
0.41114288568496704 0.6706017255783081 -0.03627321496605873
0.4540542960166931 0.45327770709991455 -0.02097782865166664
0.3982822000980377 0.8145739436149597 0.12164638936519623
0.4063393175601959 0.8353792428970337 0.08052375167608261
0.43044108152389526 0.8726279735565186 -0.005567337851971388
0.4237629473209381 0.780390202999115 0.25511300563812256
0.42775702476501465 0.47474205493927 0.07820181548595428
0.41043931245803833 0.5316818356513977 -0.01737149804830551
0.46400606632232666 0.8786669969558716 -0.04008076339960098
0.42698758840560913 0.8773366212844849 0.057748258113861084
0.3851318657398224 0.6628442406654358 0.28129488229751587
0.42745211720466614 0.7300853729248047 -0.011643555015325546
0.42240437865257263 0.735931932926178 -0.013866926543414593
0.4189290404319763 0.7445448637008667 -0.017060041427612305
0.4188646674156189 0.7551229000091553 -0.013894321396946907
0.41900184750556946 0.7870212197303772 0.002469603903591633
0.41445422172546387 0.7161359786987305 0.028819061815738678
0.409031480550766 0.7147654294967651 0.03390795364975929
0.40424078702926636 0.7124133706092834 0.038248635828495026
0.38376182317733765 0.7192091941833496 0.053746432065963745
0.3519871234893799 0.6621562838554382 0.14913006126880646
0.4238387942314148 0.507743775844574 0.0029106589499861
0.43526238203048706 0.45697781443595886 0.04537153244018555
0.4310206174850464 0.46268177032470703 0.066378653049469
0.419522762298584 0.7166147828102112 0.028238534927368164
0.3685568869113922 0.7212167978286743 0.17271862924098969
0.43839919567108154 0.4525168538093567 0.00886752363294363
0.417583167552948 0.8091627359390259 0.014649787917733192
0.41843366622924805 0.5356070399284363 -0.07591485232114792
0.4160071611404419 0.5175307393074036 -0.0393393412232399
0.43039068579673767 0.5113568305969238 -0.05608578771352768
0.3972271680831909 0.5710041522979736 -0.013114284723997116
0.4577912986278534 0.8526910543441772 -0.04797080159187317
0.45754897594451904 0.8228170275688171 -0.0443505197763443
0.4334809482097626 0.820475697517395 -0.01980147697031498
0.39101821184158325 0.7721503973007202 0.07057895511388779
0.38524454832077026 0.6401828527450562 0.039189256727695465
0.4043681025505066 0.7937900424003601 0.043270617723464966
0.35871753096580505 0.6386781334877014 0.07958794385194778
0.37414368987083435 0.6660605669021606 0.053766313940286636
0.3570997714996338 0.679617702960968 0.10344994068145752
0.42768895626068115 0.8484131693840027 -0.0145758967846632
0.3966173529624939 0.5866912603378296 0.00675547169521451
0.3880313038825989 0.7887585759162903 0.0981128066778183
0.4021055996417999 0.8116004467010498 0.0625472292304039
0.378020316362381 0.7448453903198242 0.09190046042203903
0.3652364909648895 0.6922447681427002 0.20689663290977478
0.372275173664093 0.747412383556366 0.12490919232368469
0.38877707719802856 0.7109229564666748 0.25928476452827454
0.37107613682746887 0.7005359530448914 0.0729670524597168
0.4075562357902527 0.5494963526725769 0.0039000508841127157
0.377808153629303 0.6202589273452759 -0.04486168548464775
0.38090139627456665 0.6277276277542114 -0.021104175597429276
0.3738609850406647 0.6009802222251892 -0.06296513229608536
0.41989147663116455 0.42919519543647766 0.053290821611881256
0.3931976556777954 0.41403913497924805 0.07144802808761597
0.37175238132476807 0.41298994421958923 0.09291312843561172
0.35742735862731934 0.4202424883842468 0.11862293630838394
0.3519238829612732 0.43511688709259033 0.1420576423406601
0.35981085896492004 0.48565831780433655 0.17759007215499878
0.3789710998535156 0.5608752369880676 0.3030151426792145
0.3611324727535248 0.5230797529220581 0.14784781634807587
0.37058666348457336 0.5301740169525146 0.12158723175525665
0.3880736231803894 0.5292957425117493 0.09644507616758347
0.4069226384162903 0.5224424600601196 0.075654037296772
0.4211422801017761 0.5124951004981995 0.06071924790740013
0.43021300435066223 0.5026341080665588 0.05077380686998367
0.42884305119514465 0.5631684064865112 0.3747601807117462
0.3878272771835327 0.6341431140899658 -0.013030318543314934
0.39878618717193604 0.5528817772865295 -0.03319269046187401
0.3770192265510559 0.6194478273391724 -0.0707341656088829
0.395102322101593 0.6323309540748596 -0.07282436639070511
0.3853793740272522 0.6251674890518188 -0.06158137694001198
0.3968859314918518 0.6408640146255493 -0.012983866035938263
0.3947015404701233 0.6339807510375977 -0.08007822185754776
0.4066527485847473 0.6405260562896729 -0.06044314056634903
0.43502914905548096 0.4817941188812256 0.0640845000743866
0.43761271238327026 0.4866197109222412 0.04145758971571922
0.43523097038269043 0.4893525242805481 0.023113267496228218
0.36727094650268555 0.4722079336643219 0.14055576920509338
0.35889294743537903 0.45942580699920654 0.14855267107486725
0.4375147521495819 0.5386592149734497 -0.08399681746959686
0.6415528655052185 0.4693164825439453 -0.06704536080360413
0.439991295337677 0.6366593837738037 -0.07877536863088608
0.8022852540016174 0.36648935079574585 -0.02045845426619053
0.5727114677429199 0.49510473012924194 -0.051370710134506226
0.5952240824699402 0.49632352590560913 -0.06350277364253998
0.6194154024124146 0.4940098524093628 -0.07048843801021576
0.656802773475647 0.47692686319351196 -0.07084045559167862
0.5546599626541138 0.4896535277366638 -0.034635670483112335
0.5996422171592712 0.4129614233970642 -0.07127854228019714
0.5742363333702087 0.41700097918510437 -0.053062766790390015
0.626483142375946 0.4170774817466736 -0.07814215123653412
0.6460964679718018 0.4278120994567871 -0.07873077690601349
0.6818447113037109 0.49265724420547485 -0.07048506289720535
0.5521520376205444 0.8416505455970764 -0.07157979160547256
0.6530290842056274 0.46069735288619995 -0.06500700861215591
0.811672568321228 0.48377856612205505 -0.02818937785923481
0.7188453674316406 0.4715212285518646 -0.0642363578081131
0.5698035955429077 0.6005280017852783 -0.07964782416820526
0.45875126123428345 0.6940405368804932 -0.07769093662500381
0.4645187258720398 0.7103071212768555 -0.0684753805398941
0.4935505986213684 0.7042958736419678 -0.08509799093008041
0.5205270051956177 0.713160514831543 -0.08580376207828522
0.491815984249115 0.7141352295875549 -0.07605695724487305
0.5159105062484741 0.7189849615097046 -0.07448830455541611
0.574421763420105 0.761288583278656 -0.07707013934850693
0.4136527180671692 0.6195871829986572 -0.10893631726503372
0.4148738980293274 0.5939252972602844 -0.11475775390863419
0.6838535666465759 0.40406620502471924 -0.08910121023654938
0.5272619724273682 0.5382338762283325 -0.05247003585100174
0.5006794929504395 0.615742564201355 -0.0936310887336731
0.508446991443634 0.6015713214874268 -0.08846795558929443
0.6558466553688049 0.5973840951919556 -0.09912793338298798
0.42542386054992676 0.563949465751648 -0.10413966327905655
0.6062260866165161 0.3747174143791199 -0.0826994925737381
0.6485346555709839 0.38418227434158325 -0.08960052579641342
0.7488945126533508 0.320788711309433 -0.037971045821905136
0.49914735555648804 0.40201684832572937 -0.041501011699438095
0.5544036626815796 0.43015071749687195 -0.03534981235861778
0.5919866561889648 0.7387057542800903 -0.08413810282945633
0.8314968347549438 0.735099196434021 0.011890821158885956
0.48655372858047485 0.6316955089569092 -0.07752630114555359
0.4677501916885376 0.6390670537948608 -0.0652715265750885
0.5594667196273804 0.7285653352737427 -0.07544752210378647
0.5530474781990051 0.728516697883606 -0.07225355505943298
0.6670213937759399 0.36582401394844055 -0.0857662633061409
0.5111535787582397 0.6274406313896179 -0.08333714306354523
0.5565506219863892 0.37804973125457764 -0.06655127555131912
0.5581170320510864 0.3561094403266907 -0.06989750266075134
0.603502631187439 0.27098146080970764 -0.04730015993118286
0.7037945985794067 0.3472497761249542 -0.06616982072591782
0.5748991370201111 0.3170553147792816 -0.05848826840519905
0.7082715034484863 0.391054630279541 -0.07996128499507904
0.752606987953186 0.38522064685821533 -0.051818933337926865
0.4611559510231018 0.7032961249351501 -0.07598760724067688
0.4920104146003723 0.7097092270851135 -0.08195308595895767
0.51775723695755 0.7162102460861206 -0.08154816925525665
0.4840342402458191 0.636552095413208 -0.06825758516788483
0.5559518337249756 0.7286112904548645 -0.07300519198179245
0.5423548221588135 0.7349016070365906 -0.07587207108736038
0.5500677824020386 0.7283137440681458 -0.07113361358642578
0.458511620759964 0.6224491596221924 -0.09980707615613937
0.5151028633117676 0.7201328873634338 -0.06871767342090607
0.4922131896018982 0.71596759557724 -0.06597435474395752
0.4681171774864197 0.7134937644004822 -0.05968977138400078
0.4862973392009735 0.7973605394363403 -0.05548790842294693
0.4774986505508423 0.7661775350570679 -0.07106224447488785
0.4725480079650879 0.7544605731964111 -0.07201062142848969
0.4702024757862091 0.742905855178833 -0.06650945544242859
0.469681978225708 0.7347368001937866 -0.0630268007516861
0.5164811611175537 0.7326290607452393 -0.0710260421037674
0.5198282599449158 0.7358769178390503 -0.07404129207134247
0.5246413350105286 0.7416296601295471 -0.07912254333496094
0.5300195217132568 0.7479994893074036 -0.0801006406545639
0.545456051826477 0.693093478679657 -0.08519764989614487
0.8661694526672363 0.6023684144020081 0.034747738391160965
0.534264326095581 0.7309641242027283 -0.07143604010343552
0.5376833081245422 0.7325562238693237 -0.07371341437101364
0.4602658748626709 0.648634135723114 -0.06728281825780869
0.5099393129348755 0.6431406736373901 -0.06323470920324326
0.4636208117008209 0.6441166996955872 -0.0661434456706047
0.5537051558494568 0.5523055791854858 -0.06234817951917648
0.5909499526023865 0.5680189728736877 -0.07911639660596848
0.51932293176651 0.613374650478363 -0.079978346824646
0.6838757395744324 0.2875078022480011 -0.048798300325870514
0.6463228464126587 0.323530912399292 -0.06765633076429367
0.6160171031951904 0.35311999917030334 -0.08238767832517624
0.5494568943977356 0.7766449451446533 -0.07647277414798737
0.5006528496742249 0.3654477894306183 -0.04872671142220497
0.5136524438858032 0.3228815197944641 -0.03787431865930557
0.5324313640594482 0.2694396674633026 -0.025668522343039513
0.6424869298934937 0.4881244897842407 -0.0723956972360611
0.7144083976745605 0.510657787322998 -0.07451082766056061
0.5423597097396851 0.4841980040073395 -0.02581927180290222
0.6786327362060547 0.43984654545783997 -0.07774253189563751
0.5073859691619873 0.5220992565155029 -0.04937787353992462
0.47326239943504333 0.604906439781189 -0.10360194742679596
0.7548054456710815 0.5333296656608582 -0.07284028828144073
0.6883981227874756 0.5304192304611206 -0.0860067754983902
0.6480810642242432 0.5408798456192017 -0.08581811934709549
0.5977352261543274 0.5381584167480469 -0.06924761831760406
0.5642916560173035 0.528435230255127 -0.05324632301926613
0.53927081823349 0.5172192454338074 -0.04190368577837944
0.4649087190628052 0.48985570669174194 -0.04577818140387535
0.7479946613311768 0.5891350507736206 -0.08272599428892136
0.7044957876205444 0.43511059880256653 -0.07898276299238205
0.41641494631767273 0.6341366171836853 -0.0990774855017662
0.5180066823959351 0.5630976557731628 -0.06128392741084099
0.8624189496040344 0.48049643635749817 0.02787897177040577
0.5184592008590698 0.5042598247528076 -0.03349727764725685
0.5308488607406616 0.6154050827026367 -0.06149797886610031
0.6671016216278076 0.4598550796508789 -0.06703667342662811
0.48271840810775757 0.5882858037948608 -0.0958511158823967
0.8573265075683594 0.6672893166542053 0.026429979130625725
0.5446974635124207 0.47580868005752563 -0.02254418097436428
0.45223289728164673 0.5729014277458191 -0.10424855351448059
0.7077208161354065 0.7972711324691772 -0.058973316103219986
0.7328102588653564 0.8277564644813538 -0.028106067329645157
0.816204309463501 0.5977802276611328 -0.028736943379044533
0.755994975566864 0.7625790238380432 -0.050807155668735504
0.7859036922454834 0.43026959896087646 -0.0353064127266407
0.564134955406189 0.8691021203994751 -0.06732551008462906
0.4263157844543457 0.641051173210144 -0.07274927198886871
0.5428529977798462 0.5814431309700012 -0.06612251698970795
0.751537024974823 0.4749738574028015 -0.05850460007786751
0.6139720678329468 0.4801768362522125 -0.0663633719086647
0.5933150053024292 0.4828203022480011 -0.06059468910098076
0.5477722883224487 0.7377249002456665 -0.07706401497125626
0.7497946619987488 0.643211841583252 -0.07645127177238464
0.523666262626648 0.8992303609848022 -0.04137163609266281
0.6221044063568115 0.8774564266204834 -0.043018076568841934
0.6719537377357483 0.8586612939834595 -0.03793425112962723
0.5756585001945496 0.4818611741065979 -0.049402642995119095
0.5602272152900696 0.47875237464904785 -0.03695305809378624
0.5501939058303833 0.4774073362350464 -0.026813164353370667
0.733263373374939 0.4273688495159149 -0.06852307915687561
0.5619221329689026 0.4523465931415558 -0.03993954882025719
0.5796168446540833 0.4422546625137329 -0.052077747881412506
0.5983752608299255 0.4401533603668213 -0.06286226958036423
0.6195054054260254 0.44354867935180664 -0.06973741948604584
0.6340359449386597 0.4498426616191864 -0.07052122056484222
0.8385632038116455 0.41665273904800415 0.006615286692976952
0.6294081211090088 0.47516974806785583 -0.06777496635913849
0.5174030065536499 0.6780603528022766 -0.07972229272127151
0.4809696078300476 0.6271275877952576 -0.0818249061703682
0.4634985029697418 0.6693302989006042 -0.0713089182972908
0.659392774105072 0.8280988931655884 -0.059722401201725006
0.6140355467796326 0.8503736257553101 -0.062205132097005844
0.5117161870002747 0.8800967931747437 -0.06347472220659256
0.7868432402610779 0.7889441251754761 -0.00852745957672596
0.5498321652412415 0.46714654564857483 -0.0297080148011446
0.4730533957481384 0.5282467603683472 -0.06422515213489532
0.5715784430503845 0.8917040824890137 -0.04921865090727806
0.8118106126785278 0.657264769077301 -0.030893312767148018
0.4935137629508972 0.7337256073951721 -0.06903117150068283
0.4962728023529053 0.7395891547203064 -0.07308614999055862
0.5002424120903015 0.7486435770988464 -0.07914113253355026
0.5051639080047607 0.7589638829231262 -0.07976492494344711
0.5197407007217407 0.7889752388000488 -0.07211818546056747
0.5372746586799622 0.7238922715187073 -0.07440921664237976
0.5404027700424194 0.722561240196228 -0.07933304458856583
0.5439977049827576 0.7207335829734802 -0.08317425101995468
0.5715723633766174 0.7141503691673279 -0.08842143416404724
0.6921541690826416 0.6554581522941589 -0.09408614039421082
0.485831618309021 0.5040644407272339 -0.04573788866400719
0.5185354948043823 0.45125579833984375 -0.016470400616526604
0.5378969311714172 0.4554065465927124 -0.023042943328619003
0.534999668598175 0.7243682742118835 -0.07001232355833054
0.7163101434707642 0.7217225432395935 -0.07472952455282211
0.4870724380016327 0.4503690004348755 -0.027511954307556152
0.5383819341659546 0.8152967095375061 -0.06986487656831741
0.4510651230812073 0.5155669450759888 -0.06465179473161697
0.48768532276153564 0.5674242973327637 -0.07452966272830963
0.49458014965057373 0.8242688179016113 -0.06068901717662811
0.6038811802864075 0.7744516730308533 -0.07788334041833878
0.5526312589645386 0.6350426077842712 -0.07016734778881073
0.575160562992096 0.7991924285888672 -0.07389000058174133
0.610654354095459 0.6305543780326843 -0.09501609206199646
0.5747875571250916 0.6604475975036621 -0.084014892578125
0.6438142657279968 0.6740128993988037 -0.09664236754179001
0.5020304322242737 0.8541631698608398 -0.06902150064706802
0.5110330581665039 0.5822737216949463 -0.07044872641563416
0.635667622089386 0.7962608337402344 -0.07354974746704102
0.5954784154891968 0.8215928077697754 -0.06923719495534897
0.6224886775016785 0.7434791922569275 -0.08775114268064499
0.7506607174873352 0.6895551085472107 -0.06874803453683853
0.6693312525749207 0.7497691512107849 -0.08325795829296112
0.7963221073150635 0.7123351693153381 -0.03719164431095123
0.6008757948875427 0.6953134536743164 -0.09090421348810196
0.4955480098724365 0.5453250408172607 -0.062355365604162216
0.4636831283569336 0.6174876689910889 -0.10530529171228409
0.49129194021224976 0.6247949600219727 -0.09014676511287689
0.4429750442504883 0.5983748435974121 -0.1119326576590538
0.532056987285614 0.4234248101711273 -0.032648541033267975
0.5663107633590698 0.40391966700553894 -0.055821266025304794
0.6003475189208984 0.3992888927459717 -0.0742252990603447
0.632707953453064 0.40436285734176636 -0.0843658372759819
0.6597307324409485 0.41768527030944824 -0.08510284870862961
0.6890040040016174 0.46598368883132935 -0.06698115915060043
0.8167138695716858 0.5400094389915466 -0.031014898791909218
0.6633467078208923 0.5050179362297058 -0.07423948496580124
0.6332941651344299 0.5137486457824707 -0.07229393720626831
0.5987749695777893 0.5149112343788147 -0.06303563714027405
0.5691571831703186 0.5100050568580627 -0.04944513365626335
0.5473170280456543 0.5024679899215698 -0.033542945981025696
0.5308717489242554 0.49464142322540283 -0.025560760870575905
0.867706835269928 0.5412877798080444 0.03658226504921913
0.49833399057388306 0.6318559646606445 -0.08052907139062881
0.4613429009914398 0.5500220060348511 -0.08175864815711975
0.4356940686702728 0.617881178855896 -0.10948843508958817
0.43329817056655884 0.6321420669555664 -0.09516555815935135
0.4434434175491333 0.6239126920700073 -0.10105674713850021
0.49716758728027344 0.639653742313385 -0.06950272619724274
0.42525920271873474 0.6331612467765808 -0.09824740886688232
0.4339882731437683 0.6400725245475769 -0.07577107101678848
0.5341525673866272 0.4759977459907532 -0.016961444169282913
0.517147958278656 0.48012930154800415 -0.018115270882844925
0.5022308826446533 0.4841481149196625 -0.026779405772686005
0.6438971161842346 0.45540785789489746 -0.06890944391489029
0.6619491577148438 0.44163352251052856 -0.07472009211778641
0.40534496307373047 0.47440633177757263 0.1064755916595459
0.42545145750045776 0.47402000427246094 0.1064755916595459
0.4059181213378906 0.45164892077445984 0.1064755916595459
0.38536256551742554 0.47475719451904297 0.1064755916595459
0.40480315685272217 0.4968680441379547 0.1064755916595459
0.6029292345046997 0.4594119191169739 -0.053515881299972534
0.6260378360748291 0.4589903950691223 -0.053515881299972534
0.6028451919555664 0.4370555281639099 -0.053515881299972534
0.580640971660614 0.45986807346343994 -0.053515881299972534
0.6032208204269409 0.48194384574890137 -0.053515881299972534
