ply
format ascii 1.0
element vertex 478
property float x
property float y
property float z
end_header
0.49730902910232544 0.6936818361282349 -0.05672795698046684
0.4856244623661041 0.6283179521560669 -0.13627178966999054
0.491348534822464 0.645797848701477 -0.06894198060035706
0.46993955969810486 0.5508506894111633 -0.10913119465112686
0.48511260747909546 0.6048651337623596 -0.14690862596035004
0.4868585467338562 0.573671817779541 -0.14042599499225616
0.49395686388015747 0.49801087379455566 -0.08390640467405319
0.3435160517692566 0.47896671295166016 0.03215721622109413
0.4963945150375366 0.4464982748031616 -0.07340150326490402
0.4965270757675171 0.41766786575317383 -0.08226332068443298
0.500758171081543 0.2934828996658325 -0.07251006364822388
0.49761083722114563 0.7009995579719543 -0.05248866230249405
0.4987648129463196 0.7082057595252991 -0.04488278925418854
0.5004110932350159 0.7128951549530029 -0.034577030688524246
0.499407023191452 0.7485737800598145 -0.01829204335808754
0.4992465376853943 0.7604752779006958 -0.02206781879067421
0.49939754605293274 0.7750023603439331 -0.026126941666007042
0.5003464221954346 0.7907490730285645 -0.020349133759737015
0.5020447969436646 0.8113524317741394 0.004192183259874582
0.4872952103614807 0.6393328905105591 -0.12235631793737411
0.4660761058330536 0.6357906460762024 -0.08597277104854584
0.2700014114379883 0.39182430505752563 0.13893556594848633
0.4041544198989868 0.4973907470703125 0.004130583256483078
0.3818311095237732 0.49903085827827454 0.007790147792547941
0.36027711629867554 0.49838224053382874 0.015909578651189804
0.3335045576095581 0.4863879680633545 0.03773107752203941
0.42332395911216736 0.49327316880226135 0.003481720807030797
0.3718661367893219 0.44056281447410583 -0.007067990489304066
0.39768579602241516 0.44336622953414917 -0.00964084267616272
0.3488008379936218 0.44385194778442383 0.002970048924908042
0.3341835141181946 0.4516359269618988 0.014578650705516338
0.31303611397743225 0.499581903219223 0.05233294889330864
0.4121035635471344 0.8358960151672363 0.05041524022817612
0.33563876152038574 0.4732236862182617 0.040209509432315826
0.25479358434677124 0.4902968406677246 0.16491898894309998
0.290014386177063 0.48445117473602295 0.07654332369565964
0.37478262186050415 0.5935291051864624 -0.008405627682805061
0.46017903089523315 0.685475766658783 -0.05136771500110626
0.4645202159881592 0.7035866975784302 -0.03769919276237488
0.4273885488510132 0.6857771873474121 -0.03083232417702675
0.40557119250297546 0.6875460743904114 -0.0028119704220443964
0.43709802627563477 0.6992737054824829 -0.021828781813383102
0.416492760181427 0.6967483162879944 0.0028954115696251392
0.38277667760849 0.7318927645683289 0.052740078419446945
0.465966135263443 0.6269456744194031 -0.13277333974838257
0.46316617727279663 0.6042211651802063 -0.14237965643405914
0.3056933283805847 0.4342183470726013 0.01825660653412342
0.4279593229293823 0.5408759117126465 -0.022881437093019485
0.41545912623405457 0.6102896332740784 -0.06689939647912979
0.4152079224586487 0.5975478887557983 -0.05999285727739334
0.30517005920410156 0.5860404372215271 0.02942582778632641
0.4658719301223755 0.5753408670425415 -0.1304539144039154
0.3573121428489685 0.4169325828552246 -0.03290414810180664
0.3267919421195984 0.4212350845336914 -0.010225079022347927
0.28868699073791504 0.35439783334732056 0.083744116127491
0.45348748564720154 0.4425129294395447 -0.06159204617142677
0.4198625981807709 0.4523812532424927 -0.0035740963649004698
0.3627643585205078 0.7004067301750183 0.05403868481516838
0.2796321213245392 0.7037647366523743 0.25878632068634033
0.432881236076355 0.6242640614509583 -0.057327594608068466
0.4521543085575104 0.6327760219573975 -0.06121440231800079
0.37830331921577454 0.6923573613166809 0.05314403027296066
0.3848191499710083 0.6943730115890503 0.045954808592796326
0.3171076774597168 0.4066581726074219 0.0008241708856076002
0.4149935841560364 0.6172522902488708 -0.05201821029186249
0.39881712198257446 0.4233587384223938 -0.050709884613752365
0.39588242769241333 0.4060170650482178 -0.0586349256336689
0.3693811297416687 0.30509111285209656 -0.025551652535796165
0.2998669147491455 0.38148266077041626 0.0375390350818634
0.3819378614425659 0.353828102350235 -0.043090756982564926
0.2944190800189972 0.42323851585388184 0.038635559380054474
0.2788301110267639 0.41018185019493103 0.08689309656620026
0.46132415533065796 0.695419192314148 -0.04652325063943863
0.4319474697113037 0.6930118799209595 -0.026460524648427963
0.4106825888156891 0.692341685295105 -0.0015892398077994585
0.43849584460258484 0.6279010772705078 -0.05308457091450691
0.3815917670726776 0.6933388113975525 0.04920889809727669
0.3956514894962311 0.7145828008651733 0.03623921424150467
0.3880726397037506 0.6955386400222778 0.04495897516608238
0.442611962556839 0.6221514344215393 -0.09401777386665344
0.42190009355545044 0.6998664736747742 0.00613288301974535
0.4423428177833557 0.7034458518028259 -0.012546752579510212
0.46849435567855835 0.7084566354751587 -0.027479400858283043
0.46407759189605713 0.8059713840484619 0.009487345814704895
0.4617995023727417 0.7849425077438354 -0.014166413806378841
0.46240755915641785 0.7694371342658997 -0.018546205013990402
0.4647883474826813 0.7548545598983765 -0.014238610863685608
0.46819084882736206 0.7442479729652405 -0.010992852039635181
0.422309011220932 0.7241256237030029 0.018578147515654564
0.41722869873046875 0.7281007766723633 0.015764929354190826
0.4111020565032959 0.7348496317863464 0.014502816833555698
0.4071439206600189 0.7430058717727661 0.020899105817079544
0.3874024450778961 0.6693553328514099 0.0016414760611951351
0.25843945145606995 0.5875275731086731 0.27777135372161865
0.4891336262226105 0.643141508102417 -0.08815136551856995
0.407726526260376 0.7124740481376648 0.035807691514492035
0.40150225162506104 0.71282958984375 0.0345771349966526
0.45964619517326355 0.6417191624641418 -0.05980299413204193
0.4229491055011749 0.6288472414016724 -0.03275047987699509
0.4560282826423645 0.6374784111976624 -0.061658430844545364
0.40290871262550354 0.5507373809814453 -0.010336166247725487
0.3623500466346741 0.5629464387893677 0.0009964840719476342
0.41148674488067627 0.6054094433784485 -0.04428309202194214
0.3193452060222626 0.3249700963497162 0.026420796290040016
0.33239707350730896 0.3618745505809784 -0.004707452841103077
0.3514522910118103 0.3996696472167969 -0.030216919258236885
0.40278106927871704 0.7612526416778564 0.04006209596991539
0.44775500893592834 0.415511816740036 -0.07476036995649338
0.4352419674396515 0.35166501998901367 -0.06680451333522797
0.42771896719932556 0.2954602539539337 -0.058731094002723694
0.34288790822029114 0.49437329173088074 0.027531608939170837
0.28785136342048645 0.5142420530319214 0.07004339247941971
0.43562304973602295 0.4891633987426758 0.0051103876903653145
0.31366997957229614 0.459749698638916 0.03725835680961609
0.4443972408771515 0.5287657976150513 -0.035217151045799255
0.4284875988960266 0.6066033244132996 -0.0938844084739685
0.2631411850452423 0.531531035900116 0.10181228816509247
0.30019962787628174 0.5298188924789429 0.04944595322012901
0.3267475962638855 0.5386485457420349 0.025731869041919708
0.3700690269470215 0.5360336303710938 0.009757263585925102
0.4026137888431549 0.5277089476585388 0.0004948844434693456
0.4263535439968109 0.5189478397369385 -0.01034743245691061
0.47260376811027527 0.5030335187911987 -0.07085488736629486
0.2603745758533478 0.5764787793159485 0.10165992379188538
0.2966386675834656 0.4567774534225464 0.04896457865834236
0.4751991629600525 0.6380658745765686 -0.11981642246246338
0.42670413851737976 0.5633948445320129 -0.031221304088830948
0.25575023889541626 0.48573243618011475 0.24403005838394165
0.4445788860321045 0.5093675255775452 -0.017701424658298492
0.4101097583770752 0.6048253774642944 -0.017830567434430122
0.3259984850883484 0.47403162717819214 0.04562846198678017
0.42904800176620483 0.5907748341560364 -0.08568613231182098
0.26490896940231323 0.6437337398529053 0.27436646819114685
0.4358478784561157 0.4819669723510742 0.010658672079443932
0.44707104563713074 0.5812889337539673 -0.11294567584991455
0.31858405470848083 0.7638380527496338 0.14066386222839355
0.3275168836116791 0.7915197014808655 0.18377158045768738
0.2489764392375946 0.5841785073280334 0.1910182535648346
0.28938210010528564 0.7299913167953491 0.16520780324935913
0.26621702313423157 0.4465313255786896 0.13240252435207367
0.41141846776008606 0.8622169494628906 0.06648176908493042
0.47924888134002686 0.6419579982757568 -0.08580482751131058
0.4049338102340698 0.5767289400100708 -0.018299877643585205
0.27241650223731995 0.4873652458190918 0.10313579440116882
0.36446529626846313 0.4856412410736084 0.0167560838162899
0.3830696940422058 0.4868015646934509 0.009379107505083084
0.3911389112472534 0.7172428369522095 0.041157323867082596
0.2617412209510803 0.6232302188873291 0.1163337230682373
0.45669442415237427 0.9016545414924622 0.07054008543491364
0.38998156785964966 0.8555111885070801 0.12285465002059937
0.3617152273654938 0.8278800845146179 0.1506369709968567
0.49852198362350464 0.3521691560745239 -0.07842257618904114
0.5066766738891602 0.9108442068099976 0.05953902751207352
0.4016401767730713 0.4854568839073181 0.006156119517982006
0.41955670714378357 0.48308348655700684 0.0075873807072639465
0.4309135675430298 0.4825742244720459 0.010961523279547691
0.2825685143470764 0.45110008120536804 0.07390900701284409
0.414855033159256 0.46519285440444946 0.002805470721796155
0.39501094818115234 0.45824360847473145 -0.000720276846550405
0.3756066560745239 0.4571188688278198 0.00211675139144063
0.3571626543998718 0.46065753698349 0.010076372884213924
0.346189022064209 0.46604010462760925 0.019577547907829285
0.25954964756965637 0.43334484100341797 0.1963115632534027
0.35201841592788696 0.4826885461807251 0.025143399834632874
0.4933294355869293 0.6613128185272217 -0.058908190578222275
0.4116796851158142 0.6601592898368835 -0.022025005891919136
0.4323290288448334 0.6220646500587463 -0.06815614551305771
0.45750564336776733 0.6596310138702393 -0.05262323096394539
0.4962685704231262 0.470156192779541 -0.06912677735090256
0.3514218032360077 0.7991412878036499 0.12099753320217133
0.3808383047580719 0.829842746257782 0.09593352675437927
0.45253151655197144 0.8854376077651978 0.039986465126276016
0.3016204833984375 0.7534227967262268 0.22328504920005798
0.4291061758995056 0.4753505289554596 0.007297029718756676
0.45607873797416687 0.5383768081665039 -0.07137078791856766
0.504273533821106 0.8954735994338989 0.030353054404258728
0.4196785092353821 0.8817461729049683 0.09259647130966187
0.25442758202552795 0.6354462504386902 0.1939607411623001
0.4426611065864563 0.7354639172554016 0.00252859340980649
0.4373837113380432 0.7431979775428772 -0.00027440491248853505
0.4329091012477875 0.7543469667434692 -0.00170808844268322
0.43060868978500366 0.7682440280914307 0.003982896450906992
0.42861154675483704 0.7875589728355408 0.023817939683794975
0.39890921115875244 0.6950730681419373 0.02575262449681759
0.3936099112033844 0.6923803687095642 0.02692541293799877
0.3893175423145294 0.6895383596420288 0.026516862213611603
0.36947470903396606 0.6817387342453003 0.02887628972530365
0.2860899269580841 0.636275589466095 0.06553486734628677
0.45904770493507385 0.5146446228027344 -0.05128784850239754
0.4524039924144745 0.46908479928970337 -0.011692185886204243
0.4387056231498718 0.46948909759521484 0.0004817201988771558
0.4046642482280731 0.6973385810852051 0.02785448543727398
0.28929588198661804 0.6938886642456055 0.11353186517953873
0.4701329171657562 0.47088056802749634 -0.04757709428668022
0.41969019174575806 0.8091805577278137 0.038408663123846054
0.48932045698165894 0.5481190085411072 -0.12029529362916946
0.4710879325866699 0.5283366441726685 -0.09274764358997345
0.4916185736656189 0.5242862701416016 -0.10106781870126724
0.4380202889442444 0.5712522864341736 -0.06590000540018082
0.5028351545333862 0.8698567152023315 0.014762649312615395
0.5023958683013916 0.8383678793907166 0.010088917799293995
0.4585568606853485 0.8310918807983398 0.019231289625167847
0.367917537689209 0.7445249557495117 0.06727035343647003
0.3908799886703491 0.6217725276947021 -0.005811091512441635
0.3916177749633789 0.7798147201538086 0.05573786795139313
0.334860235452652 0.6189041137695312 0.00963356252759695
0.3678619861602783 0.6435776352882385 0.008810522966086864
0.3166440725326538 0.653439462184906 0.04024875536561012
0.45288148522377014 0.8605245351791382 0.025199875235557556
0.42477142810821533 0.5807462930679321 -0.044767387211322784
0.35334497690200806 0.7683596611022949 0.09132268279790878
0.38282787799835205 0.8032718896865845 0.07518592476844788
0.34625697135925293 0.7087910771369934 0.06421520560979843
0.2692359685897827 0.6641409397125244 0.13087689876556396
0.31980645656585693 0.7190378904342651 0.08755778521299362
0.2672247588634491 0.6845477819442749 0.19103965163230896
0.34909412264823914 0.667148232460022 0.03026617504656315
0.4420524537563324 0.5508209466934204 -0.049753494560718536
0.43514227867126465 0.617901623249054 -0.09916239976882935
0.4222639501094818 0.6188519597053528 -0.07002504169940948
0.44443947076797485 0.6052011847496033 -0.11946812272071838
0.4356159567832947 0.4516719579696655 -0.01891561783850193
0.39901888370513916 0.43700113892555237 -0.021880505606532097
0.36629506945610046 0.43273207545280457 -0.017356183379888535
0.3398093283176422 0.43563467264175415 -0.004026239737868309
0.3221403658390045 0.44446152448654175 0.013772768899798393
0.31056639552116394 0.47891944646835327 0.056716807186603546
0.24936378002166748 0.5366690158843994 0.1800534427165985
0.324136883020401 0.5090688467025757 0.04066440463066101
0.3457648754119873 0.5158160328865051 0.024555888026952744
0.37575763463974 0.5158640146255493 0.012055550701916218
0.404313862323761 0.511245608329773 0.004942710045725107
0.42635390162467957 0.5053257346153259 -0.00031679123640060425
0.4415886104106903 0.49979883432388306 -0.004015273880213499
0.25700533390045166 0.5359803438186646 0.2692384421825409
0.4233108162879944 0.6226097345352173 -0.05712190642952919
0.45299482345581055 0.5593869686126709 -0.08862143754959106
0.45030730962753296 0.6222526431083679 -0.11985263228416443
0.4637182652950287 0.6330987215042114 -0.10939639061689377
0.4511867165565491 0.6249642968177795 -0.1072542667388916
0.42968130111694336 0.6282752156257629 -0.0483429953455925
0.46785253286361694 0.6360501646995544 -0.11610949784517288
0.47165700793266296 0.6397310495376587 -0.08579406887292862
0.4433508515357971 0.4836290776729584 0.0054891156032681465
0.45385733246803284 0.4895670711994171 -0.010773718357086182
0.45904916524887085 0.494492769241333 -0.02939542382955551
0.3400757312774658 0.4701429605484009 0.028571510687470436
0.3254431188106537 0.46111956238746643 0.030173994600772858
0.5107134580612183 0.5512580275535583 -0.11367737501859665
0.6731007099151611 0.4819211959838867 -0.0005590790533460677
0.5144853591918945 0.6362727880477905 -0.08940685540437698
0.7793939113616943 0.39633259177207947 0.08973097801208496
0.600570559501648 0.5000235438346863 -0.017059648409485817
0.6260967254638672 0.5019603967666626 -0.01755206473171711
0.6511828899383545 0.5016165971755981 -0.013446551747620106
0.6844190359115601 0.48993849754333496 0.0028977941256016493
0.5790998935699463 0.4951878488063812 -0.013238111510872841
0.6434738636016846 0.4444434642791748 -0.03395051509141922
0.6138020753860474 0.4460451006889343 -0.030903570353984833
0.6697158217430115 0.44859400391578674 -0.028029853478074074
0.685845136642456 0.4566047489643097 -0.018848462030291557
0.7072707414627075 0.504318118095398 0.014932949095964432
0.6022550463676453 0.8433585166931152 0.035616684705019
0.6831226348876953 0.47661834955215454 0.005868901032954454
0.7925480604171753 0.4970000386238098 0.1143137663602829
0.7384661436080933 0.4907070994377136 0.03460162505507469
0.6304810047149658 0.5976344347000122 -0.02984810620546341
0.5364360809326172 0.6874986886978149 -0.05729649215936661
0.5359628200531006 0.7052490711212158 -0.04323391988873482
0.5747952461242676 0.6907220482826233 -0.04293546825647354
0.6015764474868774 0.6933432221412659 -0.019313719123601913
0.5676991939544678 0.7028248906135559 -0.03262137621641159
0.5926993489265442 0.7015742659568787 -0.011265397071838379
0.6340833902359009 0.7377442717552185 0.031989846378564835
0.5065743327140808 0.6275101900100708 -0.13557271659374237
0.5089386701583862 0.6047713756561279 -0.14578314125537872
0.7245737910270691 0.44257938861846924 -0.021381240338087082
0.5740572214126587 0.5426420569419861 -0.03697452321648598
0.5738275051116943 0.6128106713294983 -0.08000053465366364
0.5766043663024902 0.6000372171401978 -0.0735802948474884
0.710684061050415 0.5925126671791077 -0.005999905522912741
0.5095024108886719 0.575771689414978 -0.13485659658908844
0.6628106236457825 0.4217849671840668 -0.05991536006331444
0.6993157863616943 0.4285135865211487 -0.04437164589762688
0.7508658170700073 0.3573836088180542 0.0398576594889164
0.5473737716674805 0.44257545471191406 -0.0703071728348732
0.5875551104545593 0.4542766809463501 -0.020941853523254395
0.6547753810882568 0.7063724994659424 0.0295349583029747
0.776531457901001 0.7172415852546692 0.21400132775306702
0.5559545755386353 0.6261680126190186 -0.06708109378814697
0.5348848104476929 0.6339121460914612 -0.06611033529043198
0.6387330889701843 0.6980429291725159 0.031597841531038284
0.6316999793052673 0.7000973224639893 0.026782816275954247
0.714893639087677 0.4143921732902527 -0.03570941835641861
0.5775628685951233 0.6200385689735413 -0.06488027423620224
0.612592875957489 0.42539530992507935 -0.06914719194173813
0.6184439063072205 0.40776199102401733 -0.07761775702238083
0.6442540884017944 0.30561214685440063 -0.05046609789133072
0.7286586165428162 0.3843572437763214 -0.002713596448302269
0.6249935030937195 0.35390934348106384 -0.06502298265695572
0.7411925792694092 0.43220919370651245 -0.003762953681871295
0.7586985230445862 0.4149506092071533 0.04096289351582527
0.5364819765090942 0.697243869304657 -0.0524556003510952
0.5711195468902588 0.6971743106842041 -0.03799980878829956
0.5972409844398499 0.6974914073944092 -0.016805896535515785
0.5507626533508301 0.6296732425689697 -0.06083635613322258
0.6351883411407471 0.699027419090271 0.029071582481265068
0.6179498434066772 0.7195801138877869 0.018859876319766045
0.6282990574836731 0.7011758089065552 0.026308929547667503
0.5392728447914124 0.6234220862388611 -0.1028861403465271
0.589118480682373 0.7044906616210938 -0.007282412610948086
0.5644475221633911 0.7067437767982483 -0.022713636979460716
0.5350618362426758 0.7101715803146362 -0.033227890729904175
0.542522132396698 0.8081821203231812 0.003984167706221342
0.5411325693130493 0.7871918082237244 -0.020302103832364082
0.5387173891067505 0.771334171295166 -0.025062307715415955
0.536086916923523 0.7564923763275146 -0.02060161903500557
0.5331816077232361 0.7456139922142029 -0.017072711139917374
0.5870744585990906 0.7279235124588013 0.005075759254395962
0.5924022197723389 0.7321566939353943 0.002156204544007778
0.5987679958343506 0.7392675280570984 0.0004989614244550467
0.6034600734710693 0.7478091716766357 0.006054836791008711
0.6176955103874207 0.6735179424285889 -0.016910895705223083
0.8027769327163696 0.5974484086036682 0.22822262346744537
0.605440616607666 0.7171663045883179 0.019187508150935173
0.6116577386856079 0.7176583409309387 0.017848370596766472
0.5272031426429749 0.6428741812705994 -0.06464982777833939
0.5719857215881348 0.6316311359405518 -0.04294111579656601
0.5307431221008301 0.63863205909729 -0.06640098989009857
0.6020733118057251 0.5534412860870361 -0.02907515875995159
0.646501362323761 0.5670645236968994 -0.024368327111005783
0.5833563804626465 0.6083399057388306 -0.05833093449473381
0.7077162861824036 0.32637399435043335 -0.009240767918527126
0.6858765482902527 0.36315399408340454 -0.03691466897726059
0.6729739308357239 0.40441977977752686 -0.05899760127067566
0.6109790802001953 0.7665590643882751 0.022976646199822426
0.557584822177887 0.4147936701774597 -0.0841701552271843
0.5650914311408997 0.3515251874923706 -0.07797487080097198
0.5776554346084595 0.29551517963409424 -0.07126646488904953
0.672046422958374 0.4978039562702179 -0.005381159484386444
0.7353218793869019 0.5191751718521118 0.028472552075982094
0.5652316808700562 0.4904797673225403 -0.009840194135904312
0.7115187644958496 0.46604734659194946 -0.0007723451708443463
0.5549951195716858 0.5299330949783325 -0.046607133001089096
0.5547646284103394 0.6084284782409668 -0.10438387095928192
0.7694274187088013 0.538816511631012 0.05498887598514557
0.7162238359451294 0.5345993041992188 0.010428552515804768
0.6823444366455078 0.5430393815040588 -0.007662731222808361
0.6326697468757629 0.5396620035171509 -0.015812771394848824
0.5961906313896179 0.5307468771934509 -0.019053567200899124
0.5697414875030518 0.5213149785995483 -0.02499295584857464
0.5183788537979126 0.5033249855041504 -0.07561379671096802
0.7692432403564453 0.5850649476051331 0.055005017668008804
0.7333521842956543 0.4642919898033142 0.007095732726156712
0.5004287958145142 0.6384228467941284 -0.12205998599529266
0.5719656348228455 0.565338134765625 -0.04470459744334221
0.8046700954437256 0.49251067638397217 0.1918870210647583
0.5500189065933228 0.5107213854789734 -0.029098866507411003
0.5882989168167114 0.6080042123794556 -0.03179888799786568
0.6947788000106812 0.4781527519226074 0.009642546065151691
0.5573890209197998 0.5926085710525513 -0.09642473608255386
0.7945621013641357 0.6555114984512329 0.22701451182365417
0.5660195350646973 0.48295995593070984 -0.004768721759319305
0.5333540439605713 0.5823931694030762 -0.12076419591903687
0.7157134413719177 0.7773487567901611 0.1067141741514206
0.7154073715209961 0.8072611093521118 0.1502615511417389
0.7953933477401733 0.5937788486480713 0.14043304324150085
0.7492324709892273 0.7431657314300537 0.12496448308229446
0.7767485976219177 0.45209747552871704 0.08353880792856216
0.6060684323310852 0.8712766170501709 0.05056185647845268
0.4994214177131653 0.6421146988868713 -0.08721723407506943
0.5970224738121033 0.5797040462493896 -0.03500165417790413
0.7610580921173096 0.49384379386901855 0.057048946619033813
0.6479489803314209 0.4883423447608948 -0.011923253536224365
0.626464307308197 0.48948436975479126 -0.016027027741074562
0.6231587529182434 0.7224339842796326 0.022613922134041786
0.7690868377685547 0.6331556439399719 0.07137157768011093
0.55939781665802 0.9068030118942261 0.061799101531505585
0.6390511393547058 0.8679588437080383 0.10105356574058533
0.674299955368042 0.8426129817962646 0.12334997951984406
0.6052955389022827 0.48787522315979004 -0.015554661862552166
0.5850269794464111 0.48509615659713745 -0.011050810106098652
0.5719742774963379 0.4841321110725403 -0.005646155681461096
0.7528171539306641 0.45869386196136475 0.028842642903327942
0.592069685459137 0.4679275155067444 -0.016408110037446022
0.6148659586906433 0.4618406891822815 -0.023154476657509804
0.6370288133621216 0.4609866738319397 -0.024067549034953117
0.6580650210380554 0.46434083580970764 -0.019628917798399925
0.6705731749534607 0.46943098306655884 -0.01214705128222704
0.7957999110221863 0.43887537717819214 0.14487752318382263
0.6626622080802917 0.4854227304458618 -0.006095291581004858
0.5875004529953003 0.6633414626121521 -0.03604203835129738
0.5545850396156311 0.6239475607872009 -0.07737743109464645
0.5329232215881348 0.6611239314079285 -0.05860370770096779
0.6781728863716125 0.8120461106300354 0.09352409094572067
0.6438741683959961 0.8419486880302429 0.07429072260856628
0.5588119029998779 0.8901913166046143 0.031238114461302757
0.7480977177619934 0.768193244934082 0.18314796686172485
0.5745685696601868 0.4769609570503235 -0.009910943917930126
0.5339766144752502 0.5392457842826843 -0.07901093363761902
0.601942241191864 0.8909304141998291 0.0764603465795517
0.7893415689468384 0.646658182144165 0.1457579880952835
0.562122642993927 0.7380849719047546 -0.007753690704703331
0.5674506425857544 0.7461045980453491 -0.011009681969881058
0.5724056363105774 0.7577570676803589 -0.01307007297873497
0.5760105848312378 0.7720564603805542 -0.0076474095694720745
0.581519365310669 0.79145747423172 0.01113373227417469
0.6145696640014648 0.7005422711372375 0.008467479608952999
0.6191074252128601 0.6980064511299133 0.008138703182339668
0.6231235265731812 0.6955521106719971 0.006705718580633402
0.6421939134597778 0.6868669390678406 0.00603043707087636
0.735829770565033 0.6449047327041626 0.027367353439331055
0.5360482335090637 0.5154712200164795 -0.059416208416223526
0.5480780005455017 0.46932780742645264 -0.02182537503540516
0.563978374004364 0.4705124795436859 -0.013984075747430325
0.6098528504371643 0.7028377056121826 0.011220019310712814
0.7402259111404419 0.7046412229537964 0.07545903325080872
0.5253939628601074 0.47129738330841064 -0.053486134856939316
0.5931374430656433 0.8152108192443848 0.02492457628250122
0.5144484639167786 0.5286962985992432 -0.09685351699590683
0.5527598261833191 0.5729098320007324 -0.07587318122386932
0.5491786003112793 0.8342732787132263 0.012842055410146713
0.651005744934082 0.7521461844444275 0.043865907937288284
0.6115986108779907 0.6256711483001709 -0.023447178304195404
0.6251837015151978 0.7872207164764404 0.03706366568803787
0.6757383346557617 0.6248407363891602 -0.017826857045292854
0.6395993828773499 0.6485661864280701 -0.013130949810147285
0.6999658942222595 0.6610074639320374 0.008892137557268143
0.5554704070091248 0.8644710779190063 0.01693471521139145
0.570655882358551 0.5827778577804565 -0.05725327879190445
0.6703317165374756 0.7786277532577515 0.06496673077344894
0.6372516751289368 0.8130716681480408 0.05492561683058739
0.6728891730308533 0.7162154316902161 0.03610257804393768
0.7638391852378845 0.6750311255455017 0.08826588839292526
0.7050157189369202 0.7290822863578796 0.055413175374269485
0.7755025625228882 0.6968070268630981 0.14508163928985596
0.6645296216011047 0.6731642484664917 0.004059028346091509
0.5524089932441711 0.552227258682251 -0.06047545373439789
0.5465033054351807 0.619450032711029 -0.10872599482536316
0.5657014846801758 0.6211427450180054 -0.08110535889863968
0.5324189066886902 0.6063746213912964 -0.1272013634443283
0.5688095688819885 0.4524102509021759 -0.032667241990566254
0.612262487411499 0.4394282102584839 -0.04173178970813751
0.6503611207008362 0.4369794428348541 -0.04335713014006615
0.6812157034873962 0.44160765409469604 -0.0356488935649395
0.7018812894821167 0.4509742259979248 -0.021773414686322212
0.7137352228164673 0.48462051153182983 0.018338343128561974
0.7967137098312378 0.5447680950164795 0.12808166444301605
0.6918162703514099 0.5134469866752625 0.005209355615079403
0.6650263071060181 0.5197567343711853 -0.00624667527154088
0.6301813721656799 0.519355297088623 -0.01323836948722601
0.5977224111557007 0.5141946077346802 -0.015084691345691681
0.5730261206626892 0.5075094103813171 -0.01543162576854229
0.5562828779220581 0.5010526180267334 -0.016426144167780876
0.8053566813468933 0.5440446734428406 0.21753130853176117
0.5670455098152161 0.6249672770500183 -0.06800869107246399
0.5318599343299866 0.5603383779525757 -0.09640925377607346
0.5259079337120056 0.6233169436454773 -0.12583498656749725
0.5147709250450134 0.6339718699455261 -0.11281624436378479
0.5279200077056885 0.6261809468269348 -0.11340583860874176
0.5622243881225586 0.6305264830589294 -0.05750521644949913
0.5089717507362366 0.6366192698478699 -0.11892218142747879
0.508068323135376 0.6400829553604126 -0.08819703757762909
0.5569319128990173 0.48428434133529663 -0.007394319865852594
0.5435844659805298 0.49002763628959656 -0.020511221140623093
0.535477340221405 0.49509745836257935 -0.03746573254466057
0.6777459383010864 0.4734094738960266 -0.004464362282305956
0.6959042549133301 0.4660148024559021 -0.004905885551124811
0.3850729465484619 0.47033601999282837 0.014295837841928005
0.4073377549648285 0.47022414207458496 0.014295837841928005
0.38507479429244995 0.45177558064460754 0.014295837841928005
0.3625572919845581 0.47040459513664246 0.014295837841928005
0.384968101978302 0.4889030456542969 0.014295837841928005
0.6325154900550842 0.472445547580719 -0.010971094481647015
0.6597586870193481 0.4734443426132202 -0.010971094481647015
0.634014904499054 0.452774316072464 -0.010971094481647015
0.6054198145866394 0.4711747169494629 -0.010971094481647015
0.6311777830123901 0.49203500151634216 -0.010971094481647015
