ply
format ascii 1.0
element vertex 478
property float x
property float y
property float z
end_header
0.46020209789276123 0.7251891493797302 -0.06219327449798584
0.4327160120010376 0.6355534791946411 -0.06847440451383591
0.478873610496521 0.6668409109115601 -0.04694516584277153
0.45229610800743103 0.5684258937835693 -0.01680738478899002
0.430107980966568 0.6118959784507751 -0.06758774816989899
0.4435037076473236 0.5843743681907654 -0.05562574043869972
0.4897349774837494 0.5179630517959595 -0.0021591600961983204
0.4823179543018341 0.5530365705490112 0.1695963740348816
0.5000296831130981 0.4684961140155792 0.020992809906601906
0.49623802304267883 0.4411008954048157 0.028019340708851814
0.5188559293746948 0.34608909487724304 0.07199857383966446
0.46356695890426636 0.7383285164833069 -0.06274291127920151
0.4710391163825989 0.7506455183029175 -0.06018294766545296
0.4795134663581848 0.7587720155715942 -0.0557003915309906
0.4810374975204468 0.75795578956604 -0.05885625258088112
0.47823846340179443 0.7700308561325073 -0.06249202787876129
0.47806525230407715 0.782952606678009 -0.06734131276607513
0.4833248555660248 0.7969067096710205 -0.06902390718460083
0.5058327317237854 0.8116894960403442 -0.06258285045623779
0.4469909071922302 0.6506368517875671 -0.06496305763721466
0.4580982029438019 0.6557331085205078 -0.03699576109647751
0.5280860662460327 0.4900869131088257 0.31672385334968567
0.5023069977760315 0.5568308234214783 0.10969939827919006
0.49416449666023254 0.5629917979240417 0.12589974701404572
0.4880788326263428 0.5658458471298218 0.14354261755943298
0.492395281791687 0.5606034994125366 0.17521904408931732
0.5077099204063416 0.5477814674377441 0.09483596682548523
0.48210155963897705 0.5225557088851929 0.1350349634885788
0.4911498725414276 0.5178836584091187 0.11549097299575806
0.4776223301887512 0.5281064510345459 0.15307848155498505
0.47808247804641724 0.534599781036377 0.166341170668602
0.4930236339569092 0.5770699381828308 0.18721404671669006
0.4861540198326111 0.8582426309585571 -0.0008208822691813111
0.4849572777748108 0.5507197380065918 0.18009722232818604
0.5206663608551025 0.5773488283157349 0.30041947960853577
0.5010960698127747 0.565346360206604 0.22186064720153809
0.465664803981781 0.6426849365234375 0.07118409126996994
0.4513118267059326 0.726870059967041 -0.03899896517395973
0.46513763070106506 0.7546970248222351 -0.03950998932123184
0.4493657350540161 0.7394660115242004 -0.011003850027918816
0.4536706209182739 0.7533309459686279 0.012354186736047268
0.4646856188774109 0.757973849773407 -0.01653708517551422
0.465709924697876 0.7622575163841248 0.0033375942148268223
0.47773975133895874 0.7881513237953186 0.03669436648488045
0.4266076683998108 0.6389933228492737 -0.056065384298563004
0.42264533042907715 0.6166819334030151 -0.052730340510606766
0.4740722179412842 0.5255155563354492 0.20028769969940186
0.48231080174446106 0.5797145366668701 0.05653276666998863
0.4431360363960266 0.646981954574585 0.012672157026827335
0.44906309247016907 0.6349166631698608 0.020246068015694618
0.462073415517807 0.6531871557235718 0.1399078369140625
0.4355970621109009 0.5906397700309753 -0.035084955394268036
0.46678680181503296 0.5052391886711121 0.1398341804742813
0.46618935465812683 0.5134856700897217 0.17308135330677032
0.5064830183982849 0.4507852792739868 0.2833670377731323
0.4918612241744995 0.4983053207397461 0.05890820175409317
0.5014892816543579 0.5171558260917664 0.10355684161186218
0.47334569692611694 0.7704706192016602 0.061389654874801636
0.5755923390388489 0.7857993841171265 0.2487817257642746
0.45659857988357544 0.6573054194450378 0.0017246799543499947
0.46695005893707275 0.66141676902771 -0.02201784960925579
0.4701941907405853 0.7698009014129639 0.04771469533443451
0.4735787808895111 0.7671752572059631 0.0346304215490818
0.4673047959804535 0.5024793744087219 0.19228053092956543
0.4544195532798767 0.6574952602386475 0.015662597492337227
0.47387173771858215 0.49882450699806213 0.10090713948011398
0.4673662781715393 0.48301148414611816 0.1065303236246109
0.48952537775039673 0.3861517906188965 0.1797173172235489
0.4794349670410156 0.4665060341358185 0.23424001038074493
0.473507285118103 0.41849327087402344 0.144256129860878
0.4773174524307251 0.5164735913276672 0.2257203906774521
0.495170533657074 0.500088632106781 0.2707066833972931
0.4562914967536926 0.7427133321762085 -0.04006272926926613
0.4557797908782959 0.7504057884216309 -0.014605715870857239
0.45875129103660583 0.758275032043457 0.005933457985520363
0.4636063575744629 0.66047602891922 -0.003964652772992849
0.4717237949371338 0.7688503265380859 0.03987639397382736
0.4690951704978943 0.7704728841781616 0.017875073477625847
0.4744586944580078 0.7657220959663391 0.031945761293172836
0.44174546003341675 0.6465814113616943 -0.015107613056898117
0.47197502851486206 0.7630112767219543 0.0023216374684125185
0.47208911180496216 0.7620887756347656 -0.014929408207535744
0.4738582968711853 0.7611470818519592 -0.034777894616127014
0.49271881580352783 0.8136932849884033 -0.0429697260260582
0.4734330177307129 0.7962851524353027 -0.04723292961716652
0.4694629907608032 0.7825092673301697 -0.0450078584253788
0.4712136387825012 0.7704695463180542 -0.039566103368997574
0.47571879625320435 0.7599326372146606 -0.03713017329573631
0.4738233685493469 0.7631114721298218 0.0004572684410959482
0.4704280495643616 0.7685325741767883 -0.0029499472584575415
0.4678891599178314 0.7740676999092102 -0.005006235092878342
0.467246949672699 0.7813328504562378 -0.0002568131603766233
0.46144235134124756 0.7229222059249878 0.03192233666777611
0.5843430757522583 0.6757320165634155 0.3202016353607178
0.4634896516799927 0.6582616567611694 -0.05256715789437294
0.4739581346511841 0.764532208442688 0.018720630556344986
0.4710739552974701 0.767711341381073 0.01639428362250328
0.47070449590682983 0.670475423336029 -0.026287004351615906
0.46786585450172424 0.6698883771896362 0.010556863620877266
0.4688072204589844 0.6662242412567139 -0.024576488882303238
0.4789172410964966 0.5971338748931885 0.0741501897573471
0.4689990282058716 0.6180251240730286 0.09841734915971756
0.456584632396698 0.6457528471946716 0.026024065911769867
0.4940659999847412 0.41532331705093384 0.23499520123004913
0.47485974431037903 0.43898242712020874 0.192903071641922
0.4625219702720642 0.49081090092658997 0.15428684651851654
0.4794977307319641 0.7987782955169678 0.013748389668762684
0.48058032989501953 0.4745878279209137 0.06610771268606186
0.4836657643318176 0.40522587299346924 0.09724916517734528
0.49654823541641235 0.36473897099494934 0.12214747816324234
0.48926636576652527 0.5655446648597717 0.1612958163022995
0.4995361268520355 0.5927748680114746 0.2060079574584961
0.5116919279098511 0.5395786762237549 0.09123492985963821
0.4867713749408722 0.5422914028167725 0.19494621455669403
0.48281893134117126 0.5620731115341187 0.04498966783285141
0.43354734778404236 0.634552001953125 -0.006075525656342506
0.4861381947994232 0.6135018467903137 0.23618543148040771
0.48450472950935364 0.6072230935096741 0.18095393478870392
0.4749816060066223 0.611805260181427 0.14517642557621002
0.4833950996398926 0.601940393447876 0.11109228432178497
0.49523037672042847 0.5869623422622681 0.08813370019197464
0.5003576874732971 0.5724623203277588 0.06982202082872391
0.4823436737060547 0.5273129940032959 0.018751055002212524
0.481182336807251 0.6579140424728394 0.21933531761169434
0.48777323961257935 0.5421720147132874 0.21581816673278809
0.4431249499320984 0.6517241597175598 -0.05538346618413925
0.47420966625213623 0.6006417274475098 0.04380674660205841
0.5703331828117371 0.5775182843208313 0.34833818674087524
0.5034071207046509 0.5578028559684753 0.060064516961574554
0.4683745205402374 0.6483222842216492 0.03778241202235222
0.4908028841018677 0.5509241819381714 0.1882268339395523
0.4420185685157776 0.6203984022140503 0.0022532320581376553
0.5826591849327087 0.7295193672180176 0.2891520857810974
0.5144321322441101 0.5314668416976929 0.09989199787378311
0.4361456036567688 0.602861225605011 -0.017230920493602753
0.5020179748535156 0.8272252082824707 0.12961126863956451
0.5370619893074036 0.8586875200271606 0.14469097554683685
0.5217393636703491 0.6701263189315796 0.27765098214149475
0.5136528015136719 0.8006498217582703 0.17590278387069702
0.5107452273368835 0.5351920127868652 0.2920265793800354
0.4889250099658966 0.8857253789901733 0.0032484722323715687
0.4604048728942871 0.6590092778205872 -0.04617144167423248
0.47346192598342896 0.6210727691650391 0.055707503110170364
0.5155137181282043 0.5681989192962646 0.25016850233078003
0.4827560484409332 0.5536679029464722 0.14619790017604828
0.48860007524490356 0.551429808139801 0.1307683140039444
0.46849048137664795 0.774880588054657 0.023899734020233154
0.48685964941978455 0.7006618976593018 0.20281542837619781
0.5100338459014893 0.9199866056442261 -0.02926001138985157
0.511954128742218 0.8976391553878784 0.05485285446047783
0.5215702056884766 0.882620096206665 0.09598138928413391
0.5040988922119141 0.39234596490859985 0.05132276937365532
0.5328378677368164 0.9229960441589355 -0.06836650520563126
0.4960716664791107 0.5458077192306519 0.1166723296046257
0.5042034387588501 0.5386786460876465 0.10750428587198257
0.5106982588768005 0.5341305136680603 0.10359803587198257
0.498321533203125 0.5376651287078857 0.24256640672683716
0.4990497827529907 0.5256937742233276 0.11190475523471832
0.4882791340351105 0.5272732973098755 0.1217023953795433
0.4798159897327423 0.5312020182609558 0.13523876667022705
0.47601842880249023 0.5377962589263916 0.15040528774261475
0.4771079421043396 0.5440341830253601 0.16147403419017792
0.548667848110199 0.5289546847343445 0.3395303189754486
0.48132216930389404 0.5536936521530151 0.159816175699234
0.4793970584869385 0.6829439401626587 -0.0489976704120636
0.462637722492218 0.704742431640625 0.01246910635381937
0.450031578540802 0.6535188555717468 -0.0027269464917480946
0.4674733281135559 0.6901218891143799 -0.02780873514711857
0.5027148723602295 0.4936968684196472 0.014832879416644573
0.4956532418727875 0.8517352938652039 0.08399927616119385
0.493545264005661 0.8693299293518066 0.04294450953602791
0.49330389499664307 0.896981954574585 -0.04130217805504799
0.5583953261375427 0.8290785551071167 0.19815585017204285
0.507755696773529 0.5282202959060669 0.10519877821207047
0.4660644233226776 0.5639290809631348 0.014857741072773933
0.5142466425895691 0.8980585336685181 -0.0802064761519432
0.5055563449859619 0.9103955030441284 0.013632059097290039
0.5250741839408875 0.7181873321533203 0.2524082660675049
0.4738794267177582 0.7614078521728516 -0.016973013058304787
0.46995192766189575 0.7698718309402466 -0.019415544345974922
0.46773114800453186 0.7787321209907532 -0.02192150242626667
0.4689185619354248 0.7902183532714844 -0.0205683633685112
0.48401424288749695 0.8077595233917236 -0.012039230205118656
0.46938228607177734 0.7650125026702881 0.021807590499520302
0.46517056226730347 0.7646986842155457 0.02818480134010315
0.4613410234451294 0.7623782753944397 0.033998798578977585
0.46460896730422974 0.7463433146476746 0.052963417023420334
0.4723359942436218 0.7042726874351501 0.1495274305343628
0.4830901622772217 0.5430708527565002 0.03224252909421921
0.5125745534896851 0.5184478759765625 0.07353010028600693
0.5121442079544067 0.5224733948707581 0.09431560337543488
0.4732571840286255 0.7635540962219238 0.0199644323438406
0.48713064193725586 0.762728214263916 0.15434978902339935
0.5048261284828186 0.5173094272613525 0.043378137052059174
0.4890361428260803 0.8320536017417908 -0.006458426360040903
0.4600253999233246 0.561701774597168 -0.03729856386780739
0.46620887517929077 0.5489110946655273 -0.0017671518726274371
0.47466421127319336 0.5404675602912903 -0.018797753378748894
0.4578480124473572 0.6010704636573792 0.014790668152272701
0.5068976283073425 0.8690613508224487 -0.08004936575889587
0.5075525641441345 0.8379127979278564 -0.07123690098524094
0.49385935068130493 0.839180588722229 -0.043867163360118866
0.4772612154483795 0.8012492060661316 0.0530429370701313
0.4670347273349762 0.6699019074440002 0.04921426996588707
0.48337000608444214 0.8201865553855896 0.02333112061023712
0.45999762415885925 0.6743602752685547 0.09147460758686066
0.46173521876335144 0.695915162563324 0.061027929186820984
0.4634231925010681 0.7156243324279785 0.10672949999570847
0.4894241690635681 0.8694501519203186 -0.042710959911346436
0.4647197425365448 0.6171646118164062 0.02889157645404339
0.481311559677124 0.8223196268081665 0.07243796437978745
0.48622044920921326 0.8416498303413391 0.03401279076933861
0.4713069498538971 0.7760712504386902 0.08062824606895447
0.49320337176322937 0.7389581799507141 0.1890600025653839
0.4777302145957947 0.7835788130760193 0.10873877257108688
0.5240206718444824 0.7621951699256897 0.22335034608840942
0.46280360221862793 0.7312862873077393 0.07417523860931396
0.4703492522239685 0.5819194316864014 0.030310608446598053
0.43568336963653564 0.6435402035713196 -0.0134838055819273
0.4449741244316101 0.6533568501472473 0.00196313438937068
0.42563092708587646 0.6245166659355164 -0.027430124580860138
0.5027400851249695 0.5105891823768616 0.08829588443040848
0.4868888556957245 0.5108543634414673 0.11121897399425507
0.4761759042739868 0.5155500769615173 0.13437598943710327
0.470863401889801 0.5212225317955017 0.15876103937625885
0.47508567571640015 0.5300046801567078 0.17921757698059082
0.49631887674331665 0.5582208037376404 0.20081663131713867
0.5194993019104004 0.6236701011657715 0.2946223020553589
0.48707127571105957 0.5844085216522217 0.17006269097328186
0.4836692214012146 0.5866040587425232 0.1444496363401413
0.49034368991851807 0.5813629031181335 0.11919200420379639
0.5004925727844238 0.5706413388252258 0.09919023513793945
0.5071905255317688 0.5592731237411499 0.08237172663211823
0.5107742547988892 0.5491282343864441 0.0729966014623642
0.5821164846420288 0.6255847811698914 0.34143877029418945
0.4543904960155487 0.6594181656837463 0.0056479028426110744
0.45227187871932983 0.582694947719574 0.0008991393842734396
0.42797601222991943 0.6400312781333923 -0.03689724951982498
0.4463322162628174 0.6510215401649475 -0.04535830393433571
0.43878623843193054 0.6454879641532898 -0.03141913563013077
0.46447378396987915 0.6651629209518433 0.00090250582434237
0.44331058859825134 0.6518961191177368 -0.05155998840928078
0.45896703004837036 0.6585633754730225 -0.041653163731098175
0.5154837965965271 0.5318567156791687 0.0874895453453064
0.5146002769470215 0.5356773734092712 0.06577958166599274
0.5062602758407593 0.5396152138710022 0.04890616238117218
0.479877233505249 0.548108696937561 0.1704239398241043
0.48392343521118164 0.5416228771209717 0.1794501543045044
0.4741242825984955 0.5616434216499329 -0.050771258771419525
0.625180721282959 0.47959840297698975 -0.07611003518104553
0.4776286780834198 0.6494058966636658 -0.06286545097827911
0.8012535572052002 0.38069814443588257 -0.05515227094292641
0.5895518660545349 0.5110058784484863 -0.04823026433587074
0.6028096675872803 0.5081785321235657 -0.06418266147375107
0.6192305684089661 0.5031998157501221 -0.07566847652196884
0.6453234553337097 0.48298370838165283 -0.0841301828622818
0.5778854489326477 0.509203314781189 -0.0299787949770689
0.5842607021331787 0.4505152702331543 -0.06178594008088112
0.5698855519294739 0.45578402280807495 -0.03986517712473869
0.6033231019973755 0.4481092393398285 -0.07477114349603653
0.6209231019020081 0.45062923431396484 -0.08053084462881088
0.6753880381584167 0.49308425188064575 -0.09146164357662201
0.5916110873222351 0.8464663624763489 -0.11772642284631729
0.6341731548309326 0.4710513949394226 -0.07688800245523453
0.8134018182754517 0.4851725101470947 -0.08631498366594315
0.7077496647834778 0.46904343366622925 -0.09252917766571045
0.58957839012146 0.6065215468406677 -0.089054636657238
0.4784618616104126 0.718098521232605 -0.07973252236843109
0.48839378356933594 0.7482705116271973 -0.07685020565986633
0.5080784559249878 0.7256144285202026 -0.0954301506280899
0.5326002240180969 0.734653890132904 -0.10451537370681763
0.5103464722633362 0.7471954822540283 -0.08972764760255814
0.5303804874420166 0.747635543346405 -0.09476494044065475
0.6035616993904114 0.7616974115371704 -0.11502187699079514
0.44690778851509094 0.6323814392089844 -0.07817913591861725
0.44646546244621277 0.6088271737098694 -0.0791063979268074
0.6498625874519348 0.42606014013290405 -0.09249557554721832
0.5573486685752869 0.5555042028427124 -0.04643396660685539
0.52814120054245 0.6240705251693726 -0.08511848002672195
0.5356143712997437 0.6116034388542175 -0.08038810640573502
0.6616527438163757 0.5951703190803528 -0.12582075595855713
0.4592372179031372 0.5835123062133789 -0.06879328191280365
0.5743958353996277 0.4246935248374939 -0.06441808491945267
0.6105477809906006 0.42119795083999634 -0.0821504145860672
0.7438837289810181 0.34372666478157043 -0.04824654757976532
0.5149706602096558 0.46123868227005005 -0.007776635233312845
0.5622096061706543 0.46511054039001465 -0.022541068494319916
0.6160499453544617 0.7371227145195007 -0.12269245088100433
0.8608238101005554 0.7321630120277405 -0.10433061420917511
0.5197148323059082 0.6406562924385071 -0.0705597996711731
0.5054983496665955 0.651755690574646 -0.05794866383075714
0.5670856237411499 0.7504650354385376 -0.1110035702586174
0.5620417594909668 0.7506248950958252 -0.1039707139134407
0.6251054406166077 0.40054503083229065 -0.07904069870710373
0.5406948924064636 0.6364255547523499 -0.08034059405326843
0.5416704416275024 0.4370853900909424 -0.03883285075426102
0.5371581315994263 0.4188642203807831 -0.0374685563147068
0.613913357257843 0.3168688714504242 -0.010770782828330994
0.6976592540740967 0.3692231774330139 -0.06552440673112869
0.5844628810882568 0.35790568590164185 -0.022679176181554794
0.6744893789291382 0.4086652398109436 -0.08818449825048447
0.7484849691390991 0.3996945023536682 -0.07098258286714554
0.481998085975647 0.7348554134368896 -0.0804271399974823
0.5074154734611511 0.737647533416748 -0.09385504573583603
0.5299696922302246 0.7416070103645325 -0.10055939853191376
0.5196079611778259 0.6469510793685913 -0.0635112002491951
0.5639388561248779 0.7509310841560364 -0.10642243176698685
0.551862895488739 0.7551994323730469 -0.10453778505325317
0.5606630444526672 0.7500757575035095 -0.10242418199777603
0.48906052112579346 0.6316441893577576 -0.0817975401878357
0.5329824686050415 0.7501465678215027 -0.09088800847530365
0.5139376521110535 0.7519358396530151 -0.08375301957130432
0.49552977085113525 0.7550381422042847 -0.07300674170255661
0.5303901433944702 0.8075422644615173 -0.08094970881938934
0.5023548007011414 0.7908502817153931 -0.0879983901977539
0.4965318441390991 0.7768404483795166 -0.08685579895973206
0.4949083924293518 0.7642638683319092 -0.0814284235239029
0.49621227383613586 0.7547760009765625 -0.0763932317495346
0.5337826013565063 0.7514119744300842 -0.09302586317062378
0.5349991917610168 0.7552304863929749 -0.09648419171571732
0.5370242595672607 0.7602858543395996 -0.10198663175106049
0.5408788919448853 0.7669838070869446 -0.10576272755861282
0.5711840391159058 0.6954969763755798 -0.10430195182561874
0.8852487802505493 0.6006708145141602 -0.07425961643457413
0.5493537187576294 0.7510086894035339 -0.09836431592702866
0.5497867465019226 0.7529606819152832 -0.10118681937456131
0.5000545978546143 0.6635289192199707 -0.0616658478975296
0.5431357622146606 0.6532161831855774 -0.06662718206644058
0.502299964427948 0.6581538915634155 -0.0592951737344265
0.5781118273735046 0.5655721426010132 -0.06409303098917007
0.6063997149467468 0.574682354927063 -0.0898606926202774
0.5472095012664795 0.6228325366973877 -0.07806190103292465
0.681300699710846 0.3212060034275055 -0.034668855369091034
0.6438299417495728 0.35472115874290466 -0.0490511916577816
0.5784261226654053 0.4039170742034912 -0.06161382421851158
0.5835802555084229 0.7792178392410278 -0.11086440086364746
0.505351722240448 0.43467891216278076 -0.0076315151527523994
0.5408796668052673 0.37236571311950684 0.010000227019190788
0.5620918273925781 0.3262433707714081 0.025846244767308235
0.6355869174003601 0.4946216940879822 -0.0824512466788292
0.710098922252655 0.5038059949874878 -0.10465589910745621
0.5689233541488647 0.5060446262359619 -0.019940728321671486
0.6563937664031982 0.4526990056037903 -0.08914545923471451
0.5406357645988464 0.5428023934364319 -0.03723764419555664
0.5002816915512085 0.6142590641975403 -0.08512110263109207
0.7537573575973511 0.5306486487388611 -0.11788877099752426
0.6867534518241882 0.5272297263145447 -0.11121071875095367
0.6526408791542053 0.5443621277809143 -0.1020718589425087
0.6141135692596436 0.5477551817893982 -0.07776124775409698
0.5904141664505005 0.5425333380699158 -0.05479114130139351
0.5719120502471924 0.536790668964386 -0.037200357764959335
0.5059705972671509 0.5187134146690369 -0.016404343768954277
0.7490306496620178 0.5826864242553711 -0.13450179994106293
0.6820117235183716 0.4441467225551605 -0.09416662901639938
0.4533839523792267 0.6478010416030884 -0.07295189797878265
0.5479546785354614 0.5785826444625854 -0.055957548320293427
0.873932421207428 0.48394256830215454 -0.05564725026488304
0.5548231601715088 0.5298000574111938 -0.02363312989473343
0.5601389408111572 0.6257704496383667 -0.06698068976402283
0.648815929889679 0.4676150679588318 -0.081771619617939
0.5105044841766357 0.600420355796814 -0.0778166726231575
0.8808806538581848 0.6639912128448486 -0.08800094574689865
0.5703660249710083 0.4985562562942505 -0.016515403985977173
0.4818783402442932 0.5889098644256592 -0.07616657763719559
0.735065758228302 0.7913558483123779 -0.13618849217891693
0.7704025506973267 0.8270752429962158 -0.12332949787378311
0.823458731174469 0.5909149646759033 -0.1094895526766777
0.777734637260437 0.7542508840560913 -0.13678334653377533
0.7850167751312256 0.4380488097667694 -0.07527069002389908
0.6054955720901489 0.8763084411621094 -0.12346942722797394
0.46856313943862915 0.6558811664581299 -0.05681783705949783
0.5690045952796936 0.5931823253631592 -0.06818407028913498
0.7427778840065002 0.4657136797904968 -0.09651300311088562
0.6061257123947144 0.49254417419433594 -0.06941336393356323
0.5945731401443481 0.49812084436416626 -0.06004348397254944
0.5562806129455566 0.7583322525024414 -0.10831189155578613
0.7553356885910034 0.6343140006065369 -0.13830462098121643
0.5737097263336182 0.9173910617828369 -0.09848574548959732
0.6666236519813538 0.8841266632080078 -0.11779206246137619
0.7136693596839905 0.8612824082374573 -0.12151895463466644
0.5861737132072449 0.5002150535583496 -0.045970186591148376
0.5784663558006287 0.4995903968811035 -0.03243013471364975
0.5733369588851929 0.4992692768573761 -0.02191665768623352
0.7125728130340576 0.43118441104888916 -0.09169933944940567
0.5720188021659851 0.47849252820014954 -0.03059135191142559
0.5795096158981323 0.46928900480270386 -0.04338929057121277
0.5901274085044861 0.46578148007392883 -0.056744758039712906
0.6046450138092041 0.46520745754241943 -0.06830132752656937
0.6160303354263306 0.4670327603816986 -0.07326032221317291
0.843289852142334 0.42443370819091797 -0.053552672266960144
0.6160987019538879 0.48627084493637085 -0.07431554049253464
0.5482885241508484 0.6843926310539246 -0.09041192382574081
0.5126150846481323 0.6355993151664734 -0.07130727916955948
0.5016568303108215 0.6809355616569519 -0.06972723454236984
0.6932125091552734 0.8256357908248901 -0.1307234913110733
0.6522588729858398 0.8525240421295166 -0.1265188753604889
0.5568400621414185 0.8927044868469238 -0.11038541048765182
0.8207681775093079 0.7869739532470703 -0.11645866930484772
0.569977343082428 0.4911077916622162 -0.022275004535913467
0.507520318031311 0.5503103733062744 -0.04078008234500885
0.6184189915657043 0.9034963846206665 -0.11477977782487869
0.82347172498703 0.6484766006469727 -0.11871661990880966
0.514525294303894 0.7523052096366882 -0.08678006380796432
0.5153166055679321 0.7589020729064941 -0.09181324392557144
0.5173041224479675 0.7678512930870056 -0.09790628403425217
0.5217255353927612 0.779285728931427 -0.1010216772556305
0.5583274960517883 0.7947116494178772 -0.10227400809526443
0.5490471124649048 0.7484079599380493 -0.10060715675354004
0.5500397682189941 0.7458293437957764 -0.10630261152982712
0.552861750125885 0.7418932914733887 -0.11037881672382355
0.59476637840271 0.7139919996261597 -0.11696749925613403
0.6993815302848816 0.6479189991950989 -0.1385446935892105
0.5226683616638184 0.5290206074714661 -0.025148293003439903
0.5468622446060181 0.485900342464447 0.0002044829016085714
0.560146152973175 0.4839792251586914 -0.012337347492575645
0.5491167306900024 0.7491351962089539 -0.09719787538051605
0.7309979796409607 0.7126381993293762 -0.139397993683815
0.5239286422729492 0.49250853061676025 0.0003710477612912655
0.5781304836273193 0.8200408220291138 -0.10771995782852173
0.48992735147476196 0.5411897301673889 -0.03172408789396286
0.5178688764572144 0.5833280682563782 -0.058485548943281174
0.5389658212661743 0.8338910341262817 -0.09258456528186798
0.6328828930854797 0.7716688513755798 -0.12335512787103653
0.5783239603042603 0.6415322422981262 -0.08235291391611099
0.6100413203239441 0.7998926639556885 -0.11659541726112366
0.622944176197052 0.6291972398757935 -0.11543869972229004
0.5953323245048523 0.6615105271339417 -0.10367976129055023
0.6558679938316345 0.6678941249847412 -0.13036039471626282
0.5458350777626038 0.8639816641807556 -0.10744680464267731
0.5406179428100586 0.5957921743392944 -0.0634169727563858
0.6648687720298767 0.7923157215118408 -0.13089558482170105
0.6305353045463562 0.8222634792327881 -0.12266059219837189
0.645047128200531 0.7382876873016357 -0.1320994645357132
0.7610601782798767 0.6797659993171692 -0.13866397738456726
0.689407467842102 0.742375910282135 -0.1375848799943924
0.8130484819412231 0.7030626535415649 -0.12954434752464294
0.6191738843917847 0.6925742626190186 -0.120510034263134
0.5275941491127014 0.5639259815216064 -0.048642922192811966
0.4925045669078827 0.6260502338409424 -0.08568286150693893
0.5205225944519043 0.6327203512191772 -0.08066640794277191
0.4711788594722748 0.6102640628814697 -0.08506990969181061
0.5451682806015015 0.46600911021232605 -0.012924592941999435
0.5591230392456055 0.45069900155067444 -0.03791677579283714
0.57778000831604 0.4421919286251068 -0.06162802875041962
0.6023699045181274 0.4381808042526245 -0.07951119542121887
0.6293471455574036 0.4410831034183502 -0.08777481317520142
0.6753151416778564 0.4695456027984619 -0.08692910522222519
0.820395290851593 0.5367097854614258 -0.10178162902593613
0.659363865852356 0.5073760151863098 -0.09156279265880585
0.636778712272644 0.519952654838562 -0.08370840549468994
0.6111152172088623 0.5252609252929688 -0.0688946321606636
0.5909081697463989 0.5248361825942993 -0.04892434552311897
0.5762994289398193 0.5215691328048706 -0.02973133698105812
0.5642253756523132 0.5179740786552429 -0.018133796751499176
0.8837811946868896 0.5422723293304443 -0.06198553368449211
0.52956223487854 0.6406593918800354 -0.07534980028867722
0.4939803183078766 0.5696369409561157 -0.05689854919910431
0.4651775360107422 0.6282627582550049 -0.08316509425640106
0.4671376943588257 0.6440655589103699 -0.07206927239894867
0.47373706102371216 0.634174108505249 -0.07841543108224869
0.5312149524688721 0.649898886680603 -0.06700155138969421
0.46006375551223755 0.6458219289779663 -0.0733172744512558
0.473541259765625 0.6537497043609619 -0.05984768271446228
0.5624243021011353 0.5004507899284363 -0.009213220328092575
0.5523684024810791 0.5084823369979858 -0.005593994166702032
0.5401935577392578 0.5162295699119568 -0.009997980669140816
0.6246581673622131 0.4690788984298706 -0.07590404897928238
0.6387683749198914 0.45639076828956604 -0.08289380371570587
0.4734678268432617 0.5558062195777893 0.13565565645694733
0.4806588888168335 0.5533984899520874 0.13565565645694733
0.47291889786720276 0.54117751121521 0.13565565645694733
0.46790504455566406 0.5585105419158936 0.13565565645694733
0.4756224751472473 0.5706385374069214 0.13565565645694733
0.5845273733139038 0.48157352209091187 -0.05275430902838707
0.593884289264679 0.47915926575660706 -0.05275430902838707
0.5817674398422241 0.4651610255241394 -0.05275430902838707
0.577275276184082 0.48421451449394226 -0.05275430902838707
0.5891231298446655 0.49882131814956665 -0.05275430902838707
