ply
format ascii 1.0
element vertex 478
property float x
property float y
property float z
end_header
0.4854584336280823 0.7499091029167175 -0.03429601341485977
0.4650948941707611 0.6719873547554016 -0.11995338648557663
0.4772730767726898 0.687100350856781 -0.051548294723033905
0.45195502042770386 0.575236439704895 -0.10539098083972931
0.46338993310928345 0.6463576555252075 -0.13326290249824524
0.46579375863075256 0.6074973940849304 -0.13211363554000854
0.4769783616065979 0.5059131383895874 -0.09587031602859497
0.3344736099243164 0.46932920813560486 0.029424715787172318
0.47895291447639465 0.43604350090026855 -0.09820825606584549
0.4775879979133606 0.40143537521362305 -0.11318841576576233
0.4807136356830597 0.2571391463279724 -0.12695759534835815
0.4863680601119995 0.7568110227584839 -0.02877875044941902
0.48808127641677856 0.76312255859375 -0.019729336723685265
0.49020659923553467 0.7672481536865234 -0.006052140146493912
0.49082276225090027 0.7965372800827026 0.00660980399698019
0.48992621898651123 0.8105807900428772 0.007997529581189156
0.48969167470932007 0.82746821641922 0.007173742633312941
0.49076467752456665 0.8436676263809204 0.0161688644438982
0.492501825094223 0.8535488247871399 0.0448230616748333
0.46855729818344116 0.6823675632476807 -0.10524764657020569
0.44953465461730957 0.675383985042572 -0.06867118179798126
0.27071887254714966 0.34856733679771423 0.11996162682771683
0.40280789136886597 0.4951280355453491 -0.0017749659018591046
0.3787404000759125 0.49680575728416443 0.004709296859800816
0.3559233546257019 0.49531033635139465 0.014710428193211555
0.32977399230003357 0.4763563871383667 0.037432197481393814
0.42182692885398865 0.4906772971153259 -0.005938033107668161
0.358005166053772 0.42605966329574585 -0.017108242958784103
0.38728559017181396 0.43017444014549255 -0.024026278406381607
0.33409634232521057 0.4292241036891937 -0.0040587810799479485
0.3213358521461487 0.4375843107700348 0.009495534934103489
0.31483936309814453 0.4911082983016968 0.0551237091422081
0.41957947611808777 0.8719637393951416 0.1007852777838707
0.3276049792766571 0.4602697789669037 0.03685364872217178
0.26973873376846313 0.462039053440094 0.16722361743450165
0.29714080691337585 0.4691232740879059 0.07755003124475479
0.37878912687301636 0.6141878962516785 0.00796880666166544
0.4583173990249634 0.741554856300354 -0.026408057659864426
0.4640679955482483 0.7579391598701477 -0.010683346539735794
0.4384332299232483 0.7410478591918945 -0.004079805221408606
0.42610499262809753 0.7417614459991455 0.022567175328731537
0.44693678617477417 0.7537702322006226 0.005103150382637978
0.43515461683273315 0.7514219880104065 0.027982430532574654
0.39930567145347595 0.7711719870567322 0.08326735347509384
0.4470875859260559 0.6691868305206299 -0.11505661904811859
0.4427518844604492 0.6444732546806335 -0.12695066630840302
0.29239553213119507 0.4192940890789032 0.011275679804384708
0.42349883913993835 0.5494725704193115 -0.02195051684975624
0.40906822681427 0.642505943775177 -0.04830428212881088
0.4105750620365143 0.6260742545127869 -0.04359196871519089
0.31959956884384155 0.5996823906898499 0.049454182386398315
0.4464641213417053 0.6082680821418762 -0.12006635963916779
0.33131885528564453 0.40353429317474365 -0.04865054413676262
0.30525749921798706 0.40694326162338257 -0.021775517612695694
0.2821160554885864 0.3104792535305023 0.05722524970769882
0.43103185296058655 0.43077051639556885 -0.08298926055431366
0.4128599762916565 0.44143033027648926 -0.019764002412557602
0.38239455223083496 0.7411800622940063 0.08382619172334671
0.32394519448280334 0.6943474411964417 0.2952713966369629
0.42421990633010864 0.6588355302810669 -0.03958793729543686
0.4401012659072876 0.6704687476158142 -0.043827325105667114
0.41163963079452515 0.7459613680839539 0.07826989144086838
0.4172314405441284 0.7485476732254028 0.06919369846582413
0.29739007353782654 0.3900812864303589 -0.013008813373744488
0.41094499826431274 0.6496469974517822 -0.03274380788207054
0.3716965913772583 0.40940678119659424 -0.06972096115350723
0.36610639095306396 0.3897886872291565 -0.08017004281282425
0.35242706537246704 0.2652842402458191 -0.06584294885396957
0.28923696279525757 0.34678760170936584 0.017587581649422646
0.36183395981788635 0.32427704334259033 -0.07503172010183334
0.2851395905017853 0.4045253396034241 0.029966358095407486
0.2759777903556824 0.37596970796585083 0.07277834415435791
0.4604564607143402 0.7506970167160034 -0.020668255165219307
0.4423348307609558 0.7477926015853882 0.0002575747203081846
0.43014249205589294 0.7466801404953003 0.02361259236931801
0.42912429571151733 0.6632620096206665 -0.03590437397360802
0.4144371747970581 0.747266411781311 0.07298590987920761
0.4220633804798126 0.7648550271987915 0.061048850417137146
0.4198875427246094 0.7498809099197388 0.06792575120925903
0.4296949505805969 0.6588666439056396 -0.07590214908123016
0.44005775451660156 0.7551404237747192 0.032815396785736084
0.4516902565956116 0.7582966089248657 0.016351642087101936
0.4683516323566437 0.7628417015075684 0.0024507392663508654
0.46257519721984863 0.8468411564826965 0.051531728357076645
0.46143659949302673 0.836147665977478 0.02331448160111904
0.46198174357414246 0.8202965259552002 0.015851030126214027
0.4647843539714813 0.8035170435905457 0.016713174059987068
0.46860426664352417 0.7910681366920471 0.015139137394726276
0.4405193328857422 0.7716363668441772 0.042182836681604385
0.4354608356952667 0.776153564453125 0.042300596833229065
0.429910272359848 0.7831239700317383 0.04314210265874863
0.4260830879211426 0.7907789945602417 0.050610437989234924
0.39751192927360535 0.7095335125923157 0.025132732465863228
0.2963716983795166 0.5615679621696472 0.2942297160625458
0.47228312492370605 0.6854788064956665 -0.07157941907644272
0.4321812391281128 0.7620304822921753 0.058031849563121796
0.42692768573760986 0.7629864811897278 0.05865545943379402
0.4484121799468994 0.6817007064819336 -0.03985795006155968
0.41865140199661255 0.6631691455841064 -0.01368734985589981
0.44422677159309387 0.6764533519744873 -0.04332980886101723
0.40337488055229187 0.5608615875244141 -0.004557647742331028
0.3674183487892151 0.5756112933158875 0.012603227980434895
0.4095207452774048 0.6342313289642334 -0.027073046192526817
0.306769996881485 0.28192877769470215 -0.007043632213026285
0.31590789556503296 0.3282290995121002 -0.030459357425570488
0.32460904121398926 0.3836227059364319 -0.04893435537815094
0.4146994948387146 0.8002550601959229 0.0738033801317215
0.42014455795288086 0.39954596757888794 -0.10019350796937943
0.41437646746635437 0.32609906792640686 -0.10442722588777542
0.40844792127609253 0.25786861777305603 -0.10589097440242767
0.3384580612182617 0.48828449845314026 0.027422480285167694
0.29582479596138 0.5062205791473389 0.07702887803316116
0.43330880999565125 0.4861496686935425 -0.006705684587359428
0.30666136741638184 0.445311576128006 0.03343690186738968
0.43606817722320557 0.5363595485687256 -0.037463169544935226
0.4169161319732666 0.6406731605529785 -0.07649137824773788
0.2781417965888977 0.5207875967025757 0.11383321136236191
0.3036110997200012 0.5286239981651306 0.05929455906152725
0.32648909091949463 0.5434286594390869 0.03475911170244217
0.3685423731803894 0.5424604415893555 0.014949798583984375
0.40056759119033813 0.5334482192993164 0.001096878433600068
0.4220759868621826 0.5244043469429016 -0.013865317218005657
0.45773136615753174 0.5101369619369507 -0.08035345375537872
0.2817267179489136 0.5760857462882996 0.12250097095966339
0.29365259408950806 0.44015130400657654 0.04533709958195686
0.45713481307029724 0.6804935932159424 -0.10153098404407501
0.422401487827301 0.5797212719917297 -0.024603255093097687
0.27671465277671814 0.44755178689956665 0.24181117117404938
0.4374130666255951 0.5147053599357605 -0.025225775316357613
0.4107728600502014 0.6314657926559448 -0.002691052621230483
0.32092228531837463 0.46038973331451416 0.04328227415680885
0.41943788528442383 0.6202993988990784 -0.07129134982824326
0.3069099187850952 0.6252967715263367 0.300720751285553
0.43425312638282776 0.47689321637153625 -0.003455991158261895
0.43167075514793396 0.6123684048652649 -0.10035230219364166
0.3460330367088318 0.7821061015129089 0.185615673661232
0.35857048630714417 0.8044971227645874 0.23140692710876465
0.27760574221611023 0.5711135268211365 0.2112676054239273
0.3245379328727722 0.7390033602714539 0.20793509483337402
0.27147364616394043 0.4145762324333191 0.12561306357383728
0.4169241786003113 0.8985538482666016 0.12278974056243896
0.4624348282814026 0.6835744976997375 -0.06859755516052246
0.4054664373397827 0.5949187874794006 -0.007379172835499048
0.28723636269569397 0.4692968726158142 0.10576032847166061
0.35616159439086914 0.4811992943286896 0.013131453655660152
0.3772713243961334 0.48313069343566895 0.004168622195720673
0.4181984066963196 0.7670885324478149 0.06716509163379669
0.2902601659297943 0.6277150511741638 0.14472858607769012
0.4554668664932251 0.9439340829849243 0.1288871169090271
0.4021120071411133 0.8855223655700684 0.17589358985424042
0.38244184851646423 0.8503093719482422 0.20067507028579712
0.4783238172531128 0.32822155952453613 -0.12224507331848145
0.5011371374130249 0.9563194513320923 0.11469916999340057
0.3984069228172302 0.48133528232574463 -0.001673376769758761
0.4178440570831299 0.47834593057632446 -0.0030409854371100664
0.4295607805252075 0.47757676243782043 -0.001939442241564393
0.2855917811393738 0.4307010769844055 0.07010162621736526
0.4126225709915161 0.45655858516693115 -0.010660473257303238
0.3906663656234741 0.4471932649612427 -0.012485460378229618
0.36732006072998047 0.44441503286361694 -0.007281115278601646
0.3466329276561737 0.44710230827331543 0.003302724100649357
0.3357948064804077 0.4525749087333679 0.014393094927072525
0.26823127269744873 0.3918269872665405 0.1848585307598114
0.34287041425704956 0.4759426712989807 0.022233420982956886
0.4805774986743927 0.7045446634292603 -0.03998905047774315
0.4143964350223541 0.7008553147315979 0.001468705479055643
0.42264091968536377 0.6567680239677429 -0.05143468454480171
0.4495019018650055 0.7022098302841187 -0.03059977851808071
0.4801386296749115 0.4675714373588562 -0.08846047520637512
0.3706231713294983 0.8240345120429993 0.16871482133865356
0.39319759607315063 0.8605300784111023 0.14791128039360046
0.4508456289768219 0.9272536039352417 0.09796293079853058
0.34154844284057617 0.7552480697631836 0.2669644355773926
0.42716407775878906 0.4690812826156616 -0.006778449285775423
0.4428381025791168 0.5542907118797302 -0.07183033227920532
0.49693530797958374 0.9405807256698608 0.0846559926867485
0.4245666265487671 0.9189146757125854 0.14945779740810394
0.28886014223098755 0.6283785104751587 0.22285501658916473
0.45210373401641846 0.7820295691490173 0.027786973863840103
0.4469720423221588 0.7908983826637268 0.028830623254179955
0.44239747524261475 0.8031296730041504 0.02978217788040638
0.43988537788391113 0.8170321583747864 0.03724133223295212
0.43474531173706055 0.8271872997283936 0.06171374022960663
0.4260135293006897 0.7499796748161316 0.04948753863573074
0.42131462693214417 0.7466509342193604 0.05094163864850998
0.4175914525985718 0.7433072328567505 0.05101775377988815
0.3861751854419708 0.722833514213562 0.05399979278445244
0.31111377477645874 0.6510608196258545 0.09465586394071579
0.44718241691589355 0.5218968987464905 -0.0576668381690979
0.4443306624889374 0.4633854627609253 -0.03025439754128456
0.4339224398136139 0.4624501168727875 -0.016311001032590866
0.4307514727115631 0.7530351281166077 0.052282579243183136
0.3203188478946686 0.7088004350662231 0.15047167241573334
0.4558994174003601 0.468504935503006 -0.06504956632852554
0.4279617965221405 0.846529483795166 0.08233930170536041
0.4697374403476715 0.5732144117355347 -0.1188308447599411
0.4543890357017517 0.544555127620697 -0.09647299349308014
0.4733209013938904 0.5409893989562988 -0.10696776956319809
0.4290257692337036 0.5939909815788269 -0.05810559540987015
0.4947974681854248 0.9131392240524292 0.06516353040933609
0.4939458966255188 0.880274772644043 0.05599793791770935
0.45893394947052 0.871024489402771 0.06704948842525482
0.3834288418292999 0.7793427109718323 0.10276791453361511
0.39412206411361694 0.6501320600509644 0.012736707925796509
0.4040268659591675 0.8151679039001465 0.09538114815950394
0.34680449962615967 0.6415088772773743 0.033157069236040115
0.3767329454421997 0.6744115352630615 0.03113139048218727
0.33583325147628784 0.6778743863105774 0.06944050639867783
0.4526687264442444 0.9010704159736633 0.07878901809453964
0.420754611492157 0.6030769944190979 -0.03414372727274895
0.3703992962837219 0.7977328896522522 0.13332132995128632
0.39548438787460327 0.8356447219848633 0.12166597694158554
0.3643984794616699 0.7429691553115845 0.09834395349025726
0.3020777106285095 0.6714428663253784 0.16494208574295044
0.3428957760334015 0.7440299391746521 0.12489418685436249
0.30431297421455383 0.683591365814209 0.2282225638628006
0.36506152153015137 0.7016374468803406 0.057229261845350266
0.4332073926925659 0.5665591955184937 -0.046640343964099884
0.4225185215473175 0.6540496945381165 -0.08098901063203812
0.41429269313812256 0.6529198288917542 -0.05117005482316017
0.4278823435306549 0.6421458125114441 -0.1026594340801239
0.4226074814796448 0.44073063135147095 -0.03847059607505798
0.381178617477417 0.4239233136177063 -0.03922932222485542
0.3459514379501343 0.4194134771823883 -0.03047584928572178
0.32070207595825195 0.4221045672893524 -0.01314246654510498
0.3076624870300293 0.4306849241256714 0.007235759869217873
0.3107696771621704 0.46526795625686646 0.05564539507031441
0.2710978090763092 0.5160781145095825 0.19209015369415283
0.3235233724117279 0.5046390295028687 0.044329773634672165
0.34402644634246826 0.5156337022781372 0.027211260050535202
0.3741642236709595 0.5170385837554932 0.012568934820592403
0.40318042039871216 0.5121162533760071 0.0018719605868682265
0.42409220337867737 0.5059010982513428 -0.007504104636609554
0.437583327293396 0.5006469488143921 -0.013915886171162128
0.28822436928749084 0.5032772421836853 0.2757550776004791
0.4169165790081024 0.6567130088806152 -0.03840934485197067
0.43867915868759155 0.5829498171806335 -0.08275960385799408
0.4336280822753906 0.6616798043251038 -0.10184703767299652
0.44704824686050415 0.673138439655304 -0.0915788859128952
0.4361690580844879 0.6633443832397461 -0.08949103951454163
0.42301371693611145 0.6634126901626587 -0.029927946627140045
0.4505804181098938 0.6775507926940918 -0.09780669957399368
0.455194890499115 0.6804909706115723 -0.06859332323074341
0.44019463658332825 0.47991669178009033 -0.009180300869047642
0.4480322003364563 0.48928868770599365 -0.02479610964655876
0.44933173060417175 0.49772173166275024 -0.04120011627674103
0.33056503534317017 0.4569248855113983 0.024363895878195763
0.31633442640304565 0.4469183385372162 0.026459278538823128
0.4909442067146301 0.5764409303665161 -0.11494503170251846
0.659853994846344 0.48458951711654663 -0.04161030799150467
0.4984104037284851 0.6781702041625977 -0.07598316669464111
0.7926955819129944 0.3545994460582733 0.013265334069728851
0.5913110375404358 0.505477249622345 -0.04708326607942581
0.6152010560035706 0.5081921815872192 -0.04979880526661873
0.6396427154541016 0.5079362392425537 -0.048560842871665955
0.6721630096435547 0.49303188920021057 -0.03778567165136337
0.5718712210655212 0.4997824430465698 -0.04173155501484871
0.6326116323471069 0.44098830223083496 -0.07514143735170364
0.6040171384811401 0.4420672059059143 -0.06981252133846283
0.657774806022644 0.4464725852012634 -0.07103685289621353
0.6730059385299683 0.45578059554100037 -0.06288417428731918
0.6973341703414917 0.508574366569519 -0.025567958131432533
0.5906462073326111 0.8860094547271729 0.06815192103385925
0.6701722741127014 0.47717341780662537 -0.03748168796300888
0.8032232522964478 0.4756649434566498 0.056050363928079605
0.731735110282898 0.48967981338500977 -0.013342189602553844
0.6128281950950623 0.6223173141479492 -0.037383489310741425
0.5180851221084595 0.7441657781600952 -0.038211923092603683
0.5189049243927002 0.7605817317962646 -0.02149040624499321
0.5521218776702881 0.7471696138381958 -0.028426872566342354
0.5767829418182373 0.7495594620704651 -0.011073391884565353
0.5469058156013489 0.7585619688034058 -0.016312630847096443
0.569489598274231 0.7575026154518127 -0.0005082339630462229
0.6159981489181519 0.7828027009963989 0.03954543173313141
0.4855690598487854 0.6714586019515991 -0.121180459856987
0.4869512617588043 0.6461707353591919 -0.13433167338371277
0.7101285457611084 0.4421544671058655 -0.07501110434532166
0.5600608587265015 0.5535849928855896 -0.051587898284196854
0.5556243658065796 0.6493303179740906 -0.07595144212245941
0.5587266683578491 0.6318832635879517 -0.07218357920646667
0.6939539313316345 0.6132175326347351 -0.026279358193278313
0.4883231520652771 0.6094565987586975 -0.12945064902305603
0.6468489170074463 0.4237167239189148 -0.10810183733701706
0.6833482980728149 0.428851455450058 -0.09653717279434204
0.7558754682540894 0.3137266933917999 -0.038973335176706314
0.5354472994804382 0.4450637102127075 -0.10253124684095383
0.5791494846343994 0.4513642191886902 -0.05684329569339752
0.6343665719032288 0.7539625763893127 0.031274303793907166
0.7900909185409546 0.7207291126251221 0.1987399160861969
0.5388700366020203 0.6651486158370972 -0.05996151268482208
0.5188340544700623 0.6737461686134338 -0.05405106395483017
0.6114185452461243 0.7550920248031616 0.0325978547334671
0.6050216555595398 0.7568740248680115 0.028967171907424927
0.6988361477851868 0.41204577684402466 -0.09315946698188782
0.559779703617096 0.6563767790794373 -0.05969422310590744
0.5982593894004822 0.4274609088897705 -0.1106526106595993
0.6027146577835083 0.40762996673583984 -0.12227384001016617
0.6321254968643188 0.26518139243125916 -0.12116867303848267
0.7265557050704956 0.35289692878723145 -0.07106785476207733
0.6109222769737244 0.32584062218666077 -0.12374749034643173
0.7291014194488525 0.4276258647441864 -0.06237448751926422
0.7627173662185669 0.3850453495979309 -0.027687422931194305
0.5187081694602966 0.7533416748046875 -0.032388634979724884
0.549525260925293 0.7532455325126648 -0.022736210376024246
0.5732086300849915 0.7535949945449829 -0.007183720823377371
0.5340592861175537 0.6688036918640137 -0.052349332720041275
0.608153223991394 0.7560344934463501 0.030708668753504753
0.5935564637184143 0.7731764912605286 0.025355681777000427
0.6021336913108826 0.7577509880065918 0.028840169310569763
0.5205431580543518 0.6643840670585632 -0.0946023017168045
0.566365122795105 0.7602416276931763 0.0057201264426112175
0.5442887544631958 0.7622642517089844 -0.003648670157417655
0.5187569260597229 0.7650739550590515 -0.008689197711646557
0.5290247201919556 0.8510309457778931 0.04050480201840401
0.5250869393348694 0.8402289152145386 0.011533762328326702
0.5227412581443787 0.8240652680397034 0.003617029869928956
0.5205243825912476 0.8068944811820984 0.0047104209661483765
0.5187069177627563 0.7940399646759033 0.003817436983808875
0.5660492181777954 0.7778265476226807 0.015109910629689693
0.5704982876777649 0.7829787731170654 0.015171118080615997
0.5761347413063049 0.7908933758735657 0.015092077665030956
0.5807663798332214 0.7991975545883179 0.020365769043564796
0.5957615375518799 0.7183394432067871 -0.01358439028263092
0.82178795337677 0.5801741480827332 0.18549413979053497
0.5828580856323242 0.7690791487693787 0.02387922815978527
0.5879770517349243 0.770645797252655 0.024260034784674644
0.5109565258026123 0.6839704513549805 -0.04996137320995331
0.5549074411392212 0.6691698431968689 -0.03493707254528999
0.5146277546882629 0.6791507601737976 -0.05312192440032959
0.5864742994308472 0.5666021108627319 -0.044127948582172394
0.6292486786842346 0.5842666625976562 -0.041243694722652435
0.5655398964881897 0.6403908133506775 -0.05640420317649841
0.7044451236724854 0.28296366333961487 -0.08567677438259125
0.6778371930122375 0.3319423496723175 -0.10174145549535751
0.6563083529472351 0.40332457423210144 -0.11221977323293686
0.5937297940254211 0.8107801079750061 0.03821200132369995
0.5428297519683838 0.4146096706390381 -0.12133443355560303
0.5470929145812988 0.32672318816185 -0.12961380183696747
0.5603886246681213 0.2576020359992981 -0.13375605642795563
0.6602318286895752 0.5031460523605347 -0.04337872937321663
0.727666437625885 0.5249285101890564 -0.012759700417518616
0.5591372847557068 0.49478334188461304 -0.03866717219352722
0.6993253231048584 0.46597224473953247 -0.049214918166399
0.540861189365387 0.539441704750061 -0.06121644005179405
0.5353293418884277 0.6462606191635132 -0.09875170886516571
0.7679955363273621 0.5364933013916016 0.012109930627048016
0.706093430519104 0.5454424023628235 -0.024797629565000534
0.6700647473335266 0.5565750002861023 -0.03667185828089714
0.6201988458633423 0.552420437335968 -0.039215561002492905
0.5854901671409607 0.5413673520088196 -0.03990364074707031
0.5607459545135498 0.5307683944702148 -0.044617339968681335
0.5011963844299316 0.511269748210907 -0.0904460996389389
0.7637569904327393 0.5939351320266724 0.021652795374393463
0.7235449552536011 0.46155428886413574 -0.04535903036594391
0.4815884232521057 0.6819524765014648 -0.10642646253108978
0.5566529035568237 0.5837212204933167 -0.05301662161946297
0.8263883590698242 0.45903822779655457 0.12891621887683868
0.5414263606071472 0.5197060704231262 -0.049219075590372086
0.5713371634483337 0.637426495552063 -0.03170517086982727
0.6823892593383789 0.4788016676902771 -0.03481496497988701
0.5385724902153015 0.6246997117996216 -0.09391196072101593
0.8118699193000793 0.6482282280921936 0.19724300503730774
0.5600886344909668 0.4857737123966217 -0.03681156784296036
0.5131502747535706 0.6151322722434998 -0.11688828468322754
0.7133575677871704 0.8081071972846985 0.11073387414216995
0.7201747894287109 0.8325246572494507 0.15846134722232819
0.8030868172645569 0.590922474861145 0.10084301233291626
0.7487584948539734 0.7650259733200073 0.11983665823936462
0.7850375771522522 0.4252545237541199 0.018788212910294533
0.5981549620628357 0.9150394201278687 0.08747079223394394
0.48268070816993713 0.6844596862792969 -0.07160092145204544
0.5808414220809937 0.6005215048789978 -0.04250086471438408
0.7585334777832031 0.4907825291156769 0.005473391618579626
0.6354864835739136 0.49367815256118774 -0.04896710813045502
0.615088164806366 0.49452078342437744 -0.050665926188230515
0.5985844135284424 0.7759734392166138 0.028651615604758263
0.761721134185791 0.6480503678321838 0.04779908433556557
0.554108202457428 0.9535160064697266 0.11024776846170425
0.6381175518035889 0.9070981740951538 0.1286560595035553
0.6760797500610352 0.8762350082397461 0.1413033902645111
0.5957674384117126 0.4920250177383423 -0.04841269180178642
0.5772374272346497 0.4883175492286682 -0.04314044490456581
0.5654462575912476 0.48717188835144043 -0.03793986514210701
0.7466245293617249 0.45236504077911377 -0.027637267485260963
0.5825483202934265 0.46333378553390503 -0.05199591442942619
0.6040387153625488 0.45479220151901245 -0.06068836897611618
0.6263760924339294 0.45481956005096436 -0.06360197067260742
0.6466307640075684 0.46027687191963196 -0.060824859887361526
0.658336877822876 0.4673163592815399 -0.05416266620159149
0.8149830102920532 0.4000735580921173 0.07368237525224686
0.6494861841201782 0.4896303415298462 -0.04535882920026779
0.5674203634262085 0.7073279619216919 -0.027737244963645935
0.5368977785110474 0.6633764505386353 -0.07083547860383987
0.5164506435394287 0.7053602933883667 -0.04269661754369736
0.6751821041107178 0.8486810922622681 0.10810741037130356
0.6384412050247192 0.8821126222610474 0.10020401328802109
0.5504521131515503 0.936546802520752 0.07865862548351288
0.7573262453079224 0.7828450202941895 0.18052713572978973
0.5671710968017578 0.476997435092926 -0.04365445673465729
0.516937255859375 0.5563409328460693 -0.0878477394580841
0.5983004570007324 0.9351931810379028 0.11461970955133438
0.7951415777206421 0.6513723134994507 0.11768531054258347
0.5439143180847168 0.7869604229927063 0.007726616691797972
0.5479270815849304 0.7964349985122681 0.00803872849792242
0.5522313117980957 0.8094596862792969 0.007785693742334843
0.5557218790054321 0.8237509727478027 0.014291173778474331
0.5652857422828674 0.8349015712738037 0.03587399795651436
0.589454174041748 0.7568755745887756 0.013758435845375061
0.5934579372406006 0.7543147802352905 0.011898268014192581
0.597048819065094 0.7517016530036926 0.00951250921934843
0.6195756196975708 0.7336342334747314 0.005576568655669689
0.7206383943557739 0.6687986254692078 0.01256971899420023
0.5206010937690735 0.5239859819412231 -0.07451436668634415
0.5410419702529907 0.47202420234680176 -0.05203923210501671
0.5579959154129028 0.47125381231307983 -0.04730847105383873
0.5855109691619873 0.7590920925140381 0.018024330958724022
0.7308032512664795 0.7306042909622192 0.06767065078020096
0.5154327750205994 0.4762219488620758 -0.07795717567205429
0.5791532397270203 0.8576446771621704 0.0538935512304306
0.4962438941001892 0.5456359386444092 -0.10509304702281952
0.5355058908462524 0.5974951386451721 -0.07891929894685745
0.5364769697189331 0.8768247365951538 0.053400542587041855
0.639204204082489 0.7955325841903687 0.05256390571594238
0.5946484804153442 0.6573643684387207 -0.02410365641117096
0.6129357218742371 0.8296611309051514 0.05564608424901962
0.6562578082084656 0.6537224054336548 -0.02564181201159954
0.6207199096679688 0.6841307282447815 -0.015536636114120483
0.6824039220809937 0.6935464143753052 0.002008001087233424
0.5444311499595642 0.9088568687438965 0.06068811193108559
0.5541593432426453 0.6073073148727417 -0.06022918224334717
0.6630122661590576 0.8187564611434937 0.07579434663057327
0.6279758214950562 0.8540955781936646 0.07761333137750626
0.6588112115859985 0.759465217590332 0.03770340979099274
0.757309079170227 0.6936349868774414 0.07261677831411362
0.6949078440666199 0.7650922536849976 0.054951537400484085
0.7795398235321045 0.708698570728302 0.1282917857170105
0.6451576352119446 0.7139770984649658 0.0014170559588819742
0.5366823077201843 0.5696901082992554 -0.0691370740532875
0.5272584557533264 0.6601914167404175 -0.10130198299884796
0.5476815700531006 0.6599743366241455 -0.07452891021966934
0.5116219520568848 0.6462085247039795 -0.11905444413423538
0.5602472424507141 0.45266860723495483 -0.06849046051502228
0.6007348299026489 0.4389738440513611 -0.08293943852186203
0.636772632598877 0.4366475045681 -0.0876278355717659
0.6664218306541443 0.4409748315811157 -0.0823746919631958
0.6870408058166504 0.45087555050849915 -0.07037333399057388
0.7039763331413269 0.48505833745002747 -0.02750314772129059
0.8063679933547974 0.5328214764595032 0.07845141738653183
0.6808943748474121 0.5204023718833923 -0.031605128198862076
0.6540064215660095 0.5285066366195679 -0.03877155855298042
0.6192387938499451 0.5279183387756348 -0.04140837490558624
0.5881770849227905 0.5214354395866394 -0.040580037981271744
0.5656439661979675 0.5140669941902161 -0.039486028254032135
0.5494062304496765 0.5074723958969116 -0.040054336190223694
0.825977623462677 0.5176552534103394 0.16344943642616272
0.5494899153709412 0.6633284091949463 -0.0611986368894577
0.5131519436836243 0.5852517485618591 -0.0991469994187355
0.5056540966033936 0.6662397384643555 -0.11465414613485336
0.49716946482658386 0.6767849326133728 -0.0990363210439682
0.5090368986129761 0.6685049533843994 -0.102688267827034
0.5450688004493713 0.6691139340400696 -0.04892612621188164
0.49037420749664307 0.680124819278717 -0.10383062809705734
0.491572767496109 0.6824109554290771 -0.07369453459978104
0.5514606833457947 0.48793986439704895 -0.03693186864256859
0.5368499159812927 0.495606005191803 -0.04541654884815216
0.526477038860321 0.502617597579956 -0.05830357223749161
0.6648470759391785 0.4727025032043457 -0.04712874814867973
0.6826925873756409 0.4661681652069092 -0.04975052922964096
0.3699743151664734 0.4610599875450134 0.006284767761826515
0.3940630555152893 0.46094825863838196 0.006284767761826515
0.36975663900375366 0.43933984637260437 0.006284767761826515
0.34590256214141846 0.46101564168930054 0.006284767761826515
0.370034396648407 0.4827748239040375 0.006284767761826515
0.6198733448982239 0.47203803062438965 -0.0482778362929821
0.6417148113250732 0.4725496768951416 -0.0482778362929821
0.6207222938537598 0.45074498653411865 -0.0482778362929821
0.5987133979797363 0.47124382853507996 -0.0482778362929821
0.6190858483314514 0.4935659170150757 -0.0482778362929821
