ply
format ascii 1.0
element vertex 478
property float x
property float y
property float z
end_header
0.44662705063819885 0.7089848518371582 -0.08498422056436539
0.42434245347976685 0.6098848581314087 -0.12455436587333679
0.448356032371521 0.6436582207679749 -0.07534819841384888
0.4256143271923065 0.5329639315605164 -0.07059469074010849
0.42326265573501587 0.583393394947052 -0.12821869552135468
0.4318183958530426 0.5524620413780212 -0.11385850608348846
0.4602451026439667 0.48065656423568726 -0.03803097829222679
0.35475069284439087 0.4895361065864563 0.12444237619638443
0.470680832862854 0.4323558211326599 -0.011667177081108093
0.47118616104125977 0.4022619128227234 -0.008358110673725605
0.48379969596862793 0.2904258370399475 0.04490187019109726
0.4479677677154541 0.7208514213562012 -0.0834461897611618
0.4522207975387573 0.7337654829025269 -0.07743564248085022
0.45801112055778503 0.7430669665336609 -0.06814006716012955
0.4578648507595062 0.7438393831253052 -0.06608681380748749
0.4557584524154663 0.7534918785095215 -0.07146727293729782
0.45528560876846313 0.7660407423973083 -0.07863163203001022
0.457920104265213 0.7807031273841858 -0.07877889275550842
0.4651169180870056 0.8114948272705078 -0.06360357999801636
0.4319028854370117 0.6265087127685547 -0.11527355015277863
0.4228033125400543 0.6315848231315613 -0.07851676642894745
0.32324278354644775 0.43756967782974243 0.2868933379650116
0.40914520621299744 0.5062370896339417 0.07439889013767242
0.38919684290885925 0.5100101828575134 0.08431176096200943
0.3710007667541504 0.5107588171958923 0.09858822822570801
0.350541353225708 0.49940454959869385 0.1295216977596283
0.4252760708332062 0.4989128112792969 0.06708108633756638
0.37345921993255615 0.43953078985214233 0.0851045474410057
0.3971097469329834 0.4404166340827942 0.07448231428861618
0.3537848889827728 0.44558000564575195 0.09999585896730423
0.3433157205581665 0.4568359851837158 0.11361794173717499
0.3393116593360901 0.5175275802612305 0.14341942965984344
0.3946422040462494 0.856103777885437 -0.010598478838801384
0.34969350695610046 0.48330336809158325 0.1354951560497284
0.31772398948669434 0.5367969870567322 0.2758599817752838
0.32648202776908875 0.5037921071052551 0.1790623515844345
0.36917251348495483 0.6105479598045349 0.03135761618614197
0.4228593707084656 0.7066922187805176 -0.06932525336742401
0.4334535300731659 0.7356762886047363 -0.06250730901956558
0.4057295322418213 0.7200906872749329 -0.04328366741538048
0.3985676169395447 0.7359286546707153 -0.01598713919520378
0.4218461513519287 0.740085244178772 -0.04164411127567291
0.41418907046318054 0.7467079758644104 -0.017506539821624756
0.3813576102256775 0.7758897542953491 0.02219262346625328
0.40811291337013245 0.6116633415222168 -0.11610937118530273
0.40449440479278564 0.5864356756210327 -0.11786206066608429
0.32039251923561096 0.44297176599502563 0.13680331408977509
0.41313987970352173 0.5440788269042969 0.02321278490126133
0.3829997181892395 0.6157131195068359 -0.03792151063680649
0.38593465089797974 0.6027522087097168 -0.02798411436378956
0.3229154646396637 0.6157377362251282 0.09081438183784485
0.41392844915390015 0.5571925640106201 -0.0972817912697792
0.3518720269203186 0.4147360622882843 0.07544619590044022
0.33037152886390686 0.4239976406097412 0.10619287192821503
0.32915475964546204 0.38934242725372314 0.24079081416130066
0.431641548871994 0.4309297204017639 0.015201100148260593
0.4181320369243622 0.4485401511192322 0.07213765382766724
0.366962730884552 0.7521146535873413 0.040657687932252884
0.3604201674461365 0.772754430770874 0.2689971923828125
0.40073519945144653 0.6301056146621704 -0.03851852938532829
0.41688570380210876 0.6366643309593201 -0.055491454899311066
0.4020591676235199 0.7617658376693726 0.03266119211912155
0.4070780277252197 0.759433925151825 0.02134108915925026
0.32400840520858765 0.4103814363479614 0.12625493109226227
0.3874301612377167 0.6283150911331177 -0.02835666574537754
0.3845357894897461 0.4164403975009918 0.044910117983818054
0.37889033555984497 0.39781832695007324 0.046103499829769135
0.38372886180877686 0.317889004945755 0.12565262615680695
0.3263956904411316 0.40452247858047485 0.17706716060638428
0.38383400440216064 0.35572370886802673 0.08515876531600952
0.3148977756500244 0.4346659779548645 0.16570711135864258
0.31802472472190857 0.44434434175491333 0.22382961213588715
0.42632198333740234 0.7223947048187256 -0.06804720312356949
0.41292044520378113 0.7310177087783813 -0.04344598576426506
0.4056170582771301 0.7416045665740967 -0.019044263288378716
0.4069060683250427 0.6347088813781738 -0.03973129764199257
0.4045982360839844 0.7606346011161804 0.02608983777463436
0.4085424542427063 0.7614970207214355 0.003611956490203738
0.409572035074234 0.7582453489303589 0.019236572086811066
0.4010540843009949 0.6188114881515503 -0.06970571726560593
0.42206501960754395 0.7496973276138306 -0.015857186168432236
0.4297197163105011 0.7460705041885376 -0.03480672091245651
0.4411657452583313 0.743979811668396 -0.053398460149765015
0.43685001134872437 0.811790943145752 -0.05048559978604317
0.43535009026527405 0.7803905010223389 -0.06408006697893143
0.4335373640060425 0.765843391418457 -0.06321624666452408
0.43591150641441345 0.7538856267929077 -0.055512335151433945
0.4409065842628479 0.7448078989982605 -0.05095314607024193
0.42189091444015503 0.7500437498092651 -0.01419571228325367
0.41723594069480896 0.7555227279663086 -0.01902925595641136
0.4126203954219818 0.7623384594917297 -0.0228283628821373
0.40953564643859863 0.7712084054946899 -0.017665574327111244
0.37566617131233215 0.7012749314308167 0.00027783081168308854
0.3506314158439636 0.655303955078125 0.34150657057762146
0.44025498628616333 0.6354423761367798 -0.08869954198598862
0.4167242646217346 0.7536303997039795 0.005838512443006039
0.4123896360397339 0.7574572563171387 0.0027412758208811283
0.4229002892971039 0.6459832191467285 -0.05944391340017319
0.3986346125602722 0.6435822248458862 -0.021153829991817474
0.4197932481765747 0.6415255665779114 -0.05811106041073799
0.3945024907588959 0.5610499382019043 0.03814885765314102
0.3634711802005768 0.5807355642318726 0.05593331530690193
0.38702571392059326 0.6155867576599121 -0.01638917252421379
0.34896570444107056 0.348226934671402 0.18324770033359528
0.34818074107170105 0.37406280636787415 0.13179239630699158
0.34580525755882263 0.397002637386322 0.08863794803619385
0.3945820927619934 0.7902834415435791 -0.0006056894781067967
0.42091408371925354 0.40169936418533325 0.014934073202311993
0.4248027801513672 0.3473452627658844 0.04736990109086037
0.42652201652526855 0.3005121350288391 0.07756997644901276
0.3575010299682617 0.5076678991317749 0.11544306576251984
0.3249181807041168 0.5370566844940186 0.16237041354179382
0.43543753027915955 0.4917263984680176 0.06731293350458145
0.33191394805908203 0.4707012474536896 0.14239703118801117
0.4248882830142975 0.5259497761726379 0.011166341602802277
0.38745927810668945 0.603115975856781 -0.06357172131538391
0.3054421842098236 0.5707704424858093 0.19502893090248108
0.33105120062828064 0.5529348850250244 0.13331037759780884
0.3493473529815674 0.5595719814300537 0.09868580847978592
0.38267815113067627 0.5516818761825562 0.07144395262002945
0.4081714451313019 0.5383964776992798 0.05518915876746178
0.4262118935585022 0.5248595476150513 0.040633149445056915
0.4427405595779419 0.48884057998657227 -0.01973329856991768
0.3013294041156769 0.619211733341217 0.17849278450012207
0.32266369462013245 0.47100070118904114 0.16202273964881897
0.4221821427345276 0.6268200278282166 -0.10890616476535797
0.40663835406303406 0.5669474601745605 0.00814115907996893
0.33906033635139465 0.5456445217132568 0.353903591632843
0.43860000371932983 0.5106093883514404 0.03308860585093498
0.39188188314437866 0.618953287601471 0.006141282618045807
0.3436785936355591 0.4858609437942505 0.14267247915267944
0.3923594355583191 0.5874556303024292 -0.052050717175006866
0.35488104820251465 0.7131065130233765 0.312488317489624
0.4377836585044861 0.48298734426498413 0.0770447850227356
0.4020622670650482 0.5693470239639282 -0.07799474149942398
0.3482685089111328 0.810800313949585 0.123651422560215
0.3688051104545593 0.8472499847412109 0.15247158706188202
0.31397679448127747 0.6386843323707581 0.26501545310020447
0.3367556631565094 0.7820963263511658 0.169510617852211
0.31889209151268005 0.48779869079589844 0.2581585943698883
0.39343711733818054 0.8833925724029541 -0.002542312489822507
0.43195822834968567 0.6354000568389893 -0.0840095579624176
0.3923283517360687 0.5880817174911499 0.019932325929403305
0.3188683092594147 0.5105766654014587 0.21056614816188812
0.3709317445755005 0.49620091915130615 0.10189862549304962
0.3877623379230499 0.4964321255683899 0.08950695395469666
0.4054853618144989 0.7668504118919373 0.009569158777594566
0.3065926134586334 0.6693374514579773 0.17116959393024445
0.43066132068634033 0.9204152226448059 -0.02406221069395542
0.3911036252975464 0.8927367329597473 0.0583379864692688
0.38002634048461914 0.8742903470993042 0.10141453891992569
0.4757852554321289 0.3424968719482422 0.017786147072911263
0.4754112958908081 0.9260132908821106 -0.0512944795191288
0.4054482877254486 0.4935905337333679 0.0807957872748375
0.42191946506500244 0.48881059885025024 0.07775217294692993
0.43255800008773804 0.4857117831707001 0.07876569777727127
0.31732359528541565 0.46900928020477295 0.19317834079265594
0.4197828471660614 0.46509769558906555 0.0794011801481247
0.4016624689102173 0.45844781398773193 0.08213015645742416
0.38229161500930786 0.45788317918777466 0.09059806168079376
0.3652607798576355 0.46344566345214844 0.10271845757961273
0.35636746883392334 0.471457839012146 0.11377954483032227
0.3280322551727295 0.48661017417907715 0.32809334993362427
0.36082857847213745 0.49343955516815186 0.11443395167589188
0.45113426446914673 0.6642560362815857 -0.07347693294286728
0.3901180922985077 0.6826230883598328 -0.021040577441453934
0.3978148102760315 0.6252946853637695 -0.04685832932591438
0.42164093255996704 0.6687287092208862 -0.05974521115422249
0.46941933035850525 0.45735591650009155 -0.015492494218051434
0.3630879521369934 0.8404865264892578 0.08104924112558365
0.3782840073108673 0.8615944385528564 0.039661187678575516
0.42087602615356445 0.8992519974708557 -0.04493418335914612
0.36442357301712036 0.817061185836792 0.21194548904895782
0.4318326711654663 0.47557955980300903 0.07824618369340897
0.4242361783981323 0.527479350566864 -0.028048736974596977
0.4661552309989929 0.9029802083969116 -0.07161014527082443
0.4052906036376953 0.9082514047622681 0.014284209348261356
0.3205927312374115 0.6920520663261414 0.24484874308109283
0.42935407161712646 0.7467228770256042 -0.03259957209229469
0.423867791891098 0.7541757822036743 -0.03718889132142067
0.42012453079223633 0.7638542652130127 -0.041655126959085464
0.41904017329216003 0.776752769947052 -0.039533279836177826
0.4118482172489166 0.8029969930648804 -0.025459835305809975
0.410001277923584 0.753305971622467 0.00470054941251874
0.40337857604026794 0.752124547958374 0.008546287193894386
0.3977317214012146 0.7498579025268555 0.011669891886413097
0.3672928810119629 0.7251403331756592 0.025171196088194847
0.31583717465400696 0.6745180487632751 0.11038417369127274
0.4345604181289673 0.5056714415550232 -0.0027385782450437546
0.44401735067367554 0.46377530694007874 0.05139054358005524
0.4362837076187134 0.46651679277420044 0.06930659711360931
0.41707897186279297 0.7535181641578674 0.00475542526692152
0.32591232657432556 0.7400991916656494 0.13244660198688507
0.4518260955810547 0.46236497163772583 0.012341796420514584
0.40470069646835327 0.828762412071228 -0.017300371080636978
0.442003071308136 0.5274152755737305 -0.08764374256134033
0.4334810972213745 0.5116483569145203 -0.048011813312768936
0.4509766101837158 0.504351019859314 -0.06136786937713623
0.4073096513748169 0.5676202774047852 -0.02950165793299675
0.4627233147621155 0.8734755516052246 -0.07803809642791748
0.464070588350296 0.8401100039482117 -0.07089098542928696
0.43011027574539185 0.8396400809288025 -0.050998516380786896
0.3675779104232788 0.7881412506103516 0.03833874315023422
0.37844663858413696 0.6426239609718323 0.016451597213745117
0.38520196080207825 0.8122584819793701 0.01129855029284954
0.34109190106391907 0.6437113881111145 0.0485135056078434
0.3624383807182312 0.6711888313293457 0.026696069166064262
0.330836683511734 0.6890056133270264 0.0691094696521759
0.4211287498474121 0.8717257976531982 -0.05142859369516373
0.4004687964916229 0.5845494270324707 -0.010870199650526047
0.35815173387527466 0.8095465302467346 0.060724787414073944
0.37777864933013916 0.8336949944496155 0.02566455490887165
0.35183483362197876 0.7570798397064209 0.057325299829244614
0.31564319133758545 0.7132549285888672 0.16619983315467834
0.33815762400627136 0.7636069059371948 0.08707208186388016
0.3279711902141571 0.740726113319397 0.218367800116539
0.35165631771087646 0.7080248594284058 0.042046740651130676
0.41626694798469543 0.5470136404037476 -0.00861769076436758
0.39300769567489624 0.6140347123146057 -0.07162844389677048
0.3884255886077881 0.6236814260482788 -0.046412695199251175
0.3938661813735962 0.593368411064148 -0.09025220572948456
0.4261472523212433 0.44390958547592163 0.05625379458069801
0.392180472612381 0.43168073892593384 0.06617513298988342
0.36338305473327637 0.4308898448944092 0.07960990071296692
0.3425448536872864 0.4377189874649048 0.09950575232505798
0.33197784423828125 0.4510113000869751 0.12052397429943085
0.3362356424331665 0.4951157569885254 0.15579770505428314
0.31250089406967163 0.58766108751297 0.2746633291244507
0.34588733315467834 0.526813805103302 0.12572182714939117
0.36211878061294556 0.532002329826355 0.1014169380068779
0.3860395550727844 0.5291732549667358 0.080342136323452
0.40992268919944763 0.5209372639656067 0.06665842235088348
0.4276598393917084 0.5110443830490112 0.05595308914780617
0.4391152560710907 0.5019738674163818 0.049888357520103455
0.3473083972930908 0.6009020805358887 0.35729342699050903
0.3929358124732971 0.6313103437423706 -0.03693815693259239
0.4147392511367798 0.5476282238960266 -0.04961910471320152
0.398879736661911 0.6115028262138367 -0.09734593331813812
0.41675877571105957 0.6256094574928284 -0.09681466221809387
0.4055028557777405 0.618259847164154 -0.08679776638746262
0.40143394470214844 0.6390469074249268 -0.03491847589612007
0.41770654916763306 0.6265120506286621 -0.10459914803504944
0.4264805316925049 0.6345413327217102 -0.08120773732662201
0.4420420825481415 0.4832248389720917 0.06707880645990372
0.4477344751358032 0.4878561496734619 0.044509753584861755
0.4477585554122925 0.4910988211631775 0.022703472524881363
0.35216063261032104 0.4777563214302063 0.12356234341859818
0.33929330110549927 0.4699051082134247 0.12948106229305267
0.4634609520435333 0.530601978302002 -0.0899060070514679
0.6650650501251221 0.4788244366645813 -0.01616394892334938
0.46596577763557434 0.6285065412521362 -0.09333200752735138
0.8043591380119324 0.39243215322494507 0.07523797452449799
0.5884345173835754 0.49308645725250244 -0.016512317582964897
0.6126712560653687 0.49608659744262695 -0.024741193279623985
0.6381732225418091 0.496913343667984 -0.02741151675581932
0.6785488128662109 0.48621565103530884 -0.019402969628572464
0.5684927105903625 0.48800718784332275 -0.004700395744293928
0.6254717707633972 0.42759424448013306 -0.028035886585712433
0.5963326692581177 0.4294327199459076 -0.014989331364631653
0.6539119482040405 0.4331004023551941 -0.03094284050166607
0.6740605235099792 0.44396650791168213 -0.02803439274430275
0.7007929086685181 0.5004153251647949 -0.016975020989775658
0.5728105902671814 0.8575665950775146 -0.07861208915710449
0.6779639720916748 0.4722239077091217 -0.011760421097278595
0.8155006170272827 0.503279447555542 0.05495119094848633
0.7372108697891235 0.48383256793022156 -0.001180559629574418
0.5963449478149414 0.5968877077102661 -0.0613078773021698
0.47878298163414 0.7025697827339172 -0.09338637441396713
0.483669251203537 0.7325584292411804 -0.08464313298463821
0.5215904712677002 0.7155580520629883 -0.09288927167654037
0.5540510416030884 0.7286853194236755 -0.08486635982990265
0.5170534253120422 0.7354334592819214 -0.08512881398200989
0.5462788343429565 0.7402661442756653 -0.07593907415866852
0.6029781103134155 0.7660532593727112 -0.06765870749950409
0.44573742151260376 0.6089892983436584 -0.1285795420408249
0.4482686519622803 0.5833132863044739 -0.1328655630350113
0.7082915306091309 0.42678213119506836 -0.03103906475007534
0.5474919080734253 0.5351864099502563 -0.03617832809686661
0.5330747365951538 0.6058624386787415 -0.09404028207063675
0.5386947989463806 0.5926723480224609 -0.08583391457796097
0.6822317242622375 0.5949720740318298 -0.0624639093875885
0.4550846219062805 0.5545052289962769 -0.11645305156707764
0.6334006190299988 0.3997192084789276 -0.04102793708443642
0.6751199960708618 0.4088062047958374 -0.039818648248910904
0.7582297325134277 0.345171183347702 0.05146976560354233
0.5203789472579956 0.4176895320415497 -0.02297299914062023
0.5727894902229309 0.439395546913147 -0.0005926695303060114
0.6237105131149292 0.7395157814025879 -0.06787155568599701
0.8277404308319092 0.7626620531082153 0.0691227987408638
0.5163079500198364 0.6225020885467529 -0.08071336895227432
0.49422717094421387 0.6315193176269531 -0.07642365992069244
0.5969600677490234 0.7496044039726257 -0.06144244596362114
0.5902019143104553 0.7490003108978271 -0.061295703053474426
0.6916844248771667 0.3946118950843811 -0.029357122257351875
0.5415953397750854 0.6188894510269165 -0.08341506868600845
0.5828903913497925 0.4008094072341919 -0.03522958979010582
0.585345447063446 0.3829994201660156 -0.03649453818798065
0.6254906058311462 0.28878018260002136 0.017218267545104027
0.7197606563568115 0.3699485659599304 0.005048180464655161
0.5988109111785889 0.3345347046852112 -0.009833580814301968
0.73015296459198 0.41661638021469116 -0.014802303165197372
0.7636023163795471 0.40771788358688354 0.02819020487368107
0.48079562187194824 0.718398928642273 -0.09194047003984451
0.518454372882843 0.7258397340774536 -0.09028853476047516
0.5495229363441467 0.7343966364860535 -0.08217763900756836
0.5122154951095581 0.6282914280891418 -0.0738070011138916
0.5932358503341675 0.749355673789978 -0.06094308942556381
0.5744329690933228 0.7520337104797363 -0.06954369693994522
0.5867182016372681 0.7486236691474915 -0.061052337288856506
0.4897381663322449 0.6120455265045166 -0.10791608691215515
0.5450273752212524 0.7437940835952759 -0.0713592991232872
0.5167005658149719 0.7413213849067688 -0.07558325678110123
0.48695802688598633 0.7412109971046448 -0.0760422945022583
0.5024508237838745 0.810211718082428 -0.07326065003871918
0.4911589026451111 0.7777604460716248 -0.08848999440670013
0.4877898097038269 0.7629479169845581 -0.08823540806770325
0.48668384552001953 0.750704824924469 -0.0802207738161087
0.4868559241294861 0.7418513298034668 -0.07429900765419006
0.5449184775352478 0.7440215945243835 -0.06971971690654755
0.5478574633598328 0.7482422590255737 -0.07465226203203201
0.5518028140068054 0.7545487284660339 -0.0802876427769661
0.5561027526855469 0.7627441883087158 -0.07983655482530594
0.5785010457038879 0.6900371313095093 -0.07932690531015396
0.8588564395904541 0.6306821703910828 0.117740698158741
0.5676636695861816 0.7466190457344055 -0.06432512402534485
0.5701193809509277 0.7489346861839294 -0.06767166405916214
0.4853024184703827 0.6421405673027039 -0.07996132224798203
0.5379616022109985 0.6363966464996338 -0.06517356634140015
0.4893878996372223 0.6370621919631958 -0.07832641899585724
0.5750225186347961 0.5493114590644836 -0.04172522947192192
0.6156119108200073 0.5645659565925598 -0.053328126668930054
0.5486905574798584 0.6055862307548523 -0.07612551748752594
0.6997267007827759 0.30907028913497925 0.029234280809760094
0.6663539409637451 0.3450638949871063 -0.006494040135294199
0.6426100134849548 0.3825530409812927 -0.03482649847865105
0.5758607983589172 0.7840754985809326 -0.0742243304848671
0.5249561667442322 0.3883752226829529 -0.027105670422315598
0.53806471824646 0.3351839482784271 -0.0019168660510331392
0.55608069896698 0.2839951515197754 0.022922473028302193
0.6629076600074768 0.49428170919418335 -0.024889612570405006
0.7315689325332642 0.5161734223365784 -0.01637892797589302
0.5550631284713745 0.48317864537239075 0.0033356081694364548
0.7026507258415222 0.4561957120895386 -0.020035862922668457
0.5272269248962402 0.5190520882606506 -0.03628284111618996
0.5062474012374878 0.5948442220687866 -0.10876607894897461
0.7716456651687622 0.5418803691864014 -0.008220434188842773
0.7060277462005615 0.5321763753890991 -0.03473278135061264
0.6652897596359253 0.5393897294998169 -0.04404662549495697
0.6134119033813477 0.5342209935188293 -0.03763790428638458
0.5785466432571411 0.5240552425384521 -0.0273117832839489
0.5527821779251099 0.5138354301452637 -0.021036798134446144
0.48469117283821106 0.48593395948410034 -0.04001371189951897
0.767050564289093 0.5943360924720764 -0.024329466745257378
0.7261483669281006 0.4530761241912842 -0.015762222930788994
0.444408655166626 0.6252740025520325 -0.11886785924434662
0.5411451458930969 0.5582869648933411 -0.04911153391003609
0.8536126613616943 0.5090055465698242 0.12461868673563004
0.5320224761962891 0.5025254487991333 -0.014880574308335781
0.5575709939002991 0.6090123653411865 -0.05320580303668976
0.6904990673065186 0.4727509617805481 -0.011782020330429077
0.5130055546760559 0.5795680284500122 -0.09779295325279236
0.8511703014373779 0.6954967975616455 0.09804172068834305
0.5577059984207153 0.47581321001052856 0.00995313934981823
0.4827256500720978 0.5641015768051147 -0.11152859032154083
0.7222082614898682 0.8103650808334351 -0.028808483853936195
0.7391303777694702 0.8517219424247742 -7.660235132789239e-05
0.8229309320449829 0.6137245893478394 0.04367347061634064
0.7661803364753723 0.7762966752052307 -0.009344846941530704
0.791785717010498 0.45137709379196167 0.04819396883249283
0.5816795825958252 0.8883225917816162 -0.0758204460144043
0.45017021894454956 0.6338766813278198 -0.09008371829986572
0.5666038393974304 0.5771858096122742 -0.05128384009003639
0.7673168182373047 0.48727136850357056 0.011891606263816357
0.6346868872642517 0.4845215678215027 -0.021404363214969635
0.61240553855896 0.48396238684654236 -0.01999526284635067
0.5795322060585022 0.7562545537948608 -0.06930247694253922
0.7686105966567993 0.649479329586029 -0.024572545662522316
0.5317026376724243 0.9246557950973511 -0.06367306411266327
0.6350792050361633 0.9010807275772095 -0.04026888310909271
0.6831780672073364 0.8821110129356384 -0.02298591658473015
0.592940628528595 0.48136746883392334 -0.012856360524892807
0.5750484466552734 0.4781322181224823 -0.002975502284243703
0.5632335543632507 0.47711896896362305 0.006291638128459454
0.7525269389152527 0.4474700093269348 0.0012705795234069228
0.5802881121635437 0.4563692808151245 -0.0027953602839261293
0.6012755632400513 0.44790637493133545 -0.012982653453946114
0.6230278611183167 0.44707244634628296 -0.019952667877078056
0.6459733247756958 0.45225292444229126 -0.02311069704592228
0.6609084010124207 0.4601006507873535 -0.020940793678164482
0.8341432809829712 0.44396334886550903 0.10491155087947845
0.6516656875610352 0.48248064517974854 -0.019551310688257217
0.5475315451622009 0.6738963723182678 -0.08128651231527328
0.5120592713356018 0.6172016859054565 -0.08625315874814987
0.48888301849365234 0.6646246314048767 -0.08445796370506287
0.6767532229423523 0.8432891368865967 -0.042742256075143814
0.6323485374450684 0.8673653602600098 -0.058297980576753616
0.5245082974433899 0.9017807245254517 -0.08506446331739426
0.7870689630508423 0.8149013519287109 0.03295506536960602
0.564617931842804 0.4687461256980896 0.004635344259440899
0.4963729679584503 0.5225828886032104 -0.05979635939002037
0.5840878486633301 0.9154828786849976 -0.058863770216703415
0.8185871839523315 0.6733085513114929 0.033100277185440063
0.5166632533073425 0.7417314052581787 -0.07394666224718094
0.5189423561096191 0.7485582828521729 -0.07993487268686295
0.521463930606842 0.758206844329834 -0.08669297397136688
0.5246231555938721 0.7710568308830261 -0.08695428818464279
0.5422775149345398 0.7990782260894775 -0.07910260558128357
0.5715834498405457 0.744856595993042 -0.0690397173166275
0.5755636692047119 0.742520272731781 -0.07195556908845901
0.5800461769104004 0.7397051453590393 -0.0740741565823555
0.6052944660186768 0.712239682674408 -0.07459847629070282
0.7164695262908936 0.6568110585212708 -0.056481678038835526
0.505461573600769 0.500817060470581 -0.03604868799448013
0.5333334803581238 0.4568948447704315 0.009300104342401028
0.5528047680854797 0.459524542093277 0.008155101910233498
0.5678970217704773 0.7465391159057617 -0.06542938202619553
0.7359402179718018 0.728581964969635 -0.03694247454404831
0.5024434924125671 0.4563194513320923 -0.012173442170023918
0.5596736669540405 0.8281806707382202 -0.0767291933298111
0.4740610122680664 0.5088138580322266 -0.06517964601516724
0.5135322213172913 0.5609517693519592 -0.07130349427461624
0.5102503299713135 0.8395760655403137 -0.07974152266979218
0.6302005648612976 0.7811248302459717 -0.0653710812330246
0.5803881287574768 0.6310539245605469 -0.05930215120315552
0.5991553664207458 0.8092424273490906 -0.07065590471029282
0.639961838722229 0.6276330351829529 -0.07174044102430344
0.6054160594940186 0.6581560969352722 -0.06901636719703674
0.6723667979240417 0.6737276911735535 -0.06882978975772858
0.5176042914390564 0.8725873827934265 -0.08938111364841461
0.5366551280021667 0.5758081674575806 -0.06371109932661057
0.6588289141654968 0.8063461184501648 -0.05754353106021881
0.6175938844680786 0.8344845771789551 -0.06536617130041122
0.6510003209114075 0.7461522817611694 -0.06770346313714981
0.767764151096344 0.6979456543922424 -0.0216685738414526
0.6932652592658997 0.755260705947876 -0.056394126266241074
0.8032166957855225 0.7281218767166138 0.017071997746825218
0.6329131722450256 0.6939986944198608 -0.07241068035364151
0.5185607671737671 0.5403112173080444 -0.05374979227781296
0.496455579996109 0.6066675186157227 -0.1128314882516861
0.5236849784851074 0.6146765947341919 -0.09383826702833176
0.4767111539840698 0.5878750681877136 -0.12368603050708771
0.5508049726486206 0.4349927008152008 -0.0018018150003626943
0.5899555683135986 0.4206388592720032 -0.019304990768432617
0.6268814206123352 0.4183112382888794 -0.0323939211666584
0.6600240468978882 0.4242017865180969 -0.03660149127244949
0.6863241791725159 0.43683671951293945 -0.03180529177188873
0.7099936008453369 0.4786011874675751 -0.008947212249040604
0.8226382732391357 0.5572760105133057 0.04789291322231293
0.6823719143867493 0.5098036527633667 -0.0250247772783041
0.6508447527885437 0.5150402188301086 -0.03021318092942238
0.6148600578308105 0.5132340788841248 -0.027990281581878662
0.583810031414032 0.5070217847824097 -0.018489720299839973
0.5606825351715088 0.49995148181915283 -0.008201666176319122
0.5436815023422241 0.49324342608451843 -0.002135906834155321
0.8588591814041138 0.5700756311416626 0.12825775146484375
0.5287991166114807 0.6228806972503662 -0.08344756066799164
0.4876287281513214 0.5429477691650391 -0.08246417343616486
0.4687363803386688 0.606913685798645 -0.12366357445716858
0.46141302585601807 0.6229745149612427 -0.11200418323278427
0.4742300510406494 0.6136789917945862 -0.1136857196688652
0.5257443189620972 0.6321121454238892 -0.07391335070133209
0.4536430835723877 0.6241313815116882 -0.11695531755685806
0.4590306580066681 0.6323432922363281 -0.09168034791946411
0.5469376444816589 0.47625458240509033 0.011588182300329208
0.5300392508506775 0.4809268116950989 0.003910026978701353
0.5159926414489746 0.485171914100647 -0.01119809877127409
0.6701033711433411 0.46654224395751953 -0.01764538139104843
0.6879093647003174 0.45700955390930176 -0.020756995305418968
0.39699554443359375 0.47465354204177856 0.09691071510314941
0.4197847545146942 0.4721342921257019 0.09691071510314941
0.3952523469924927 0.45243674516677856 0.09691071510314941
0.3743685483932495 0.47717908024787903 0.09691071510314941
0.3985694646835327 0.49663931131362915 0.09691071510314941
0.6301469802856445 0.46328485012054443 -0.011328413151204586
0.6574293375015259 0.4640922248363495 -0.011328413151204586
0.6306441426277161 0.4422697424888611 -0.011328413151204586
0.6032530665397644 0.46228957176208496 -0.011328413151204586
0.6298068761825562 0.4841356873512268 -0.011328413151204586
