ply
format ascii 1.0
element vertex 478
property float x
property float y
property float z
end_header
0.5387749075889587 0.712035596370697 -0.07460830360651016
0.5663291215896606 0.6112154126167297 -0.1200871467590332
0.5479509830474854 0.639114260673523 -0.06681733578443527
0.5301519632339478 0.5334475040435791 -0.09233228117227554
0.5672709345817566 0.5868083238601685 -0.1259479522705078
0.56014084815979 0.5558724403381348 -0.11436767876148224
0.5365396738052368 0.4810834228992462 -0.04688560590147972
0.3394674062728882 0.46719416975975037 -0.02061695232987404
0.5296663045883179 0.41932350397109985 -0.026348106563091278
0.5302749872207642 0.3874572813510895 -0.027238670736551285
0.5220568180084229 0.28391265869140625 0.008939394727349281
0.5381482839584351 0.7214940190315247 -0.07228806614875793
0.535319983959198 0.7309290170669556 -0.06490563601255417
0.5316277742385864 0.7376378178596497 -0.05256916955113411
0.5315547585487366 0.7472269535064697 -0.05381491407752037
0.5331838130950928 0.7597602009773254 -0.05566814914345741
0.533456027507782 0.7750665545463562 -0.061350684612989426
0.5317244529724121 0.7903748750686646 -0.05987788364291191
0.5338753461837769 0.7962527275085449 -0.040889181196689606
0.5604163408279419 0.6249907612800598 -0.10959870368242264
0.5292045474052429 0.6268838047981262 -0.086274154484272
0.2005915641784668 0.37872135639190674 0.06269941478967667
0.4067601263523102 0.49113112688064575 -0.023490767925977707
0.38321956992149353 0.4924336373806 -0.030094502493739128
0.35950422286987305 0.4907494783401489 -0.0312957726418972
0.3251645565032959 0.4776015877723694 -0.022160442546010017
0.42697399854660034 0.4861490726470947 -0.011910331435501575
0.37955641746520996 0.4125458598136902 -0.03812110796570778
0.4063188135623932 0.417483389377594 -0.02683340199291706
0.35207319259643555 0.4163860082626343 -0.03903723508119583
0.3319815993309021 0.42751073837280273 -0.03475804626941681
0.29985570907592773 0.49504899978637695 -0.01712721586227417
0.43157413601875305 0.8373677134513855 -0.048916302621364594
0.3294485807418823 0.4606333374977112 -0.015843279659748077
0.19016990065574646 0.48503732681274414 0.058576710522174835
0.26423320174217224 0.4783468246459961 -0.0013368121581152081
0.40511780977249146 0.5955703258514404 -0.0542888380587101
0.5100791454315186 0.7074827551841736 -0.08204898238182068
0.5085697770118713 0.7305551171302795 -0.07168694585561752
0.4755389094352722 0.7173573970794678 -0.08122288435697556
0.4494154155254364 0.72710120677948 -0.07499323040246964
0.4813804030418396 0.7333216071128845 -0.0731203556060791
0.4579230844974518 0.7369553446769714 -0.06609245389699936
0.4122236967086792 0.7585400938987732 -0.05458161234855652
0.5453286170959473 0.6107909679412842 -0.12362498790025711
0.5425358414649963 0.5873653888702393 -0.12975412607192993
0.2925730347633362 0.40435662865638733 -0.03694576025009155
0.45088711380958557 0.5334124565124512 -0.03817421942949295
0.46728140115737915 0.6082711815834045 -0.08720532059669495
0.4615075886249542 0.5954346656799316 -0.08037661761045456
0.32141512632369995 0.5932645201683044 -0.05222349986433983
0.5368689298629761 0.558243989944458 -0.11584331840276718
0.3659711480140686 0.3718355894088745 -0.05114930495619774
0.3255680501461029 0.38227999210357666 -0.04695965722203255
0.24205340445041656 0.3346225917339325 0.03190809488296509
0.4770280718803406 0.4042205214500427 -0.03602961078286171
0.42808181047439575 0.43100064992904663 -0.013038058765232563
0.3934933841228485 0.7376258969306946 -0.05434952676296234
0.18953807651996613 0.7253785133361816 0.10168997198343277
0.48474690318107605 0.6223803758621216 -0.0737074688076973
0.5057182908058167 0.6300022006034851 -0.0678885206580162
0.4138866662979126 0.7434115409851074 -0.0521414540708065
0.42018434405326843 0.7434112429618835 -0.05401359125971794
0.3076319396495819 0.36732664704322815 -0.03842214122414589
0.46171891689300537 0.6203404068946838 -0.07543100416660309
0.41594016551971436 0.3775164484977722 -0.04766270890831947
0.4132077395915985 0.35731932520866394 -0.051219139248132706
0.3729497194290161 0.28385207056999207 -0.013164234347641468
0.27597782015800476 0.35540536046028137 -0.00802986603230238
0.3956925570964813 0.32491186261177063 -0.03214162588119507
0.2704152464866638 0.3963162899017334 -0.020950593054294586
0.23678013682365417 0.3916641175746918 0.019338073208928108
0.509572446346283 0.7200005054473877 -0.08013617992401123
0.4790413975715637 0.7259186506271362 -0.07873401790857315
0.45397886633872986 0.7322216629981995 -0.07261734455823898
0.48943719267845154 0.6275783777236938 -0.0657569169998169
0.4172520935535431 0.743497371673584 -0.05278598517179489
0.4301227927207947 0.7501275539398193 -0.06178586930036545
0.42328885197639465 0.7433144450187683 -0.05376752093434334
0.5056993961334229 0.61231529712677 -0.10196465998888016
0.4597533345222473 0.7398123741149902 -0.060061778873205185
0.48230019211769104 0.737638533115387 -0.06173357367515564
0.5069436430931091 0.7367399334907532 -0.060388777405023575
0.5009937882423401 0.7952445149421692 -0.050269123166799545
0.498486191034317 0.788524866104126 -0.06972862035036087
0.5015752911567688 0.7731971144676208 -0.07126670330762863
0.5041311383247375 0.7575638294219971 -0.06481954455375671
0.5060551166534424 0.746218204498291 -0.06207289919257164
0.4581054151058197 0.7450165748596191 -0.061382126063108444
0.4530521631240845 0.7503541707992554 -0.0647720992565155
0.44680914282798767 0.7578238248825073 -0.07012798637151718
0.44135427474975586 0.7658693790435791 -0.06913727521896362
0.43172600865364075 0.6907410025596619 -0.0702572911977768
0.15803366899490356 0.5974426865577698 0.13726532459259033
0.5542060732841492 0.6320610046386719 -0.08141638338565826
0.4404900372028351 0.7442733645439148 -0.057638198137283325
0.4357907176017761 0.7469182014465332 -0.06014561653137207
0.514356255531311 0.6396556496620178 -0.07025906443595886
0.46681419014930725 0.6363878846168518 -0.05588114634156227
0.5102888941764832 0.6349655985832214 -0.06909042596817017
0.42391300201416016 0.5478862524032593 -0.04060850664973259
0.3844291567802429 0.5642501711845398 -0.047544945031404495
0.4539913237094879 0.6072691679000854 -0.06945021450519562
0.2975529730319977 0.3017110228538513 0.003750721924006939
0.326626181602478 0.3317653238773346 -0.024165049195289612
0.35632508993148804 0.353168785572052 -0.047861095517873764
0.43593257665634155 0.7732923626899719 -0.0594465397298336
0.47213464975357056 0.37072473764419556 -0.043642040342092514
0.46017271280288696 0.32948148250579834 -0.027659490704536438
0.4453376233577728 0.2795815169811249 -0.011095100082457066
0.3379477560520172 0.48631542921066284 -0.027858227491378784
0.26879972219467163 0.5141432285308838 -0.01374879665672779
0.441027969121933 0.4805086851119995 -0.004741744603961706
0.30069753527641296 0.44168901443481445 -0.02470429055392742
0.4707795977592468 0.5174452662467957 -0.03977436572313309
0.48924940824508667 0.5973144769668579 -0.10364653170108795
0.23173965513706207 0.5313857793807983 -0.0012552401749417186
0.2928030490875244 0.5303007960319519 -0.031481001526117325
0.33192580938339233 0.5380274653434753 -0.04205026850104332
0.382172167301178 0.5335566401481628 -0.036759279668331146
0.41666659712791443 0.5236040353775024 -0.029316168278455734
0.4436987638473511 0.5118399262428284 -0.025072557851672173
0.5120902061462402 0.48603907227516174 -0.04750017076730728
0.23869293928146362 0.5847041606903076 -0.012019815854728222
0.27571946382522583 0.43939799070358276 -0.02020629309117794
0.547827959060669 0.6244447231292725 -0.11274927854537964
0.4580647051334381 0.5576296448707581 -0.04873121902346611
0.15851417183876038 0.485443651676178 0.1288074553012848
0.4653990566730499 0.4981151223182678 -0.020748943090438843
0.4465729594230652 0.6095612645149231 -0.047089945524930954
0.315385639667511 0.461736798286438 -0.015104048885405064
0.48293420672416687 0.5820289850234985 -0.09437348693609238
0.16647706925868988 0.6590884923934937 0.12474296241998672
0.4400249421596527 0.47262316942214966 0.0006156679010018706
0.5104179978370667 0.5671612024307251 -0.10960733890533447
0.28580576181411743 0.7872880697250366 0.00011372465814929456
0.2680054306983948 0.8195365071296692 0.03725204989314079
0.18657243251800537 0.5917774438858032 0.05979722738265991
0.24479691684246063 0.7512746453285217 0.0198163241147995
0.2111566960811615 0.4348434805870056 0.04505479708313942
0.4193350672721863 0.866736650466919 -0.040541525930166245
0.5443837642669678 0.6312240958213806 -0.08257423341274261
0.4342208206653595 0.5763350129127502 -0.04792788252234459
0.23379744589328766 0.4859774112701416 0.013178713619709015
0.36404410004615784 0.47533121705055237 -0.02704443223774433
0.38396018743515015 0.47798433899879456 -0.026311587542295456
0.42433011531829834 0.7537951469421387 -0.060653090476989746
0.2408675104379654 0.6359243988990784 -0.006855566054582596
0.46559303998947144 0.9044401049613953 -0.020198700949549675
0.36535197496414185 0.875022828578949 -0.0008461697725579143
0.3198995590209961 0.8531631231307983 0.014760024845600128
0.5268569588661194 0.3357731103897095 -0.010274340398609638
0.5235976576805115 0.9053728580474854 -0.008963076397776604
0.4031350612640381 0.4777086079120636 -0.019995836541056633
0.4207313060760498 0.47556018829345703 -0.010736864991486073
0.43300044536590576 0.47451186180114746 -0.0021827726159244776
0.2486274242401123 0.4377073049545288 -0.002196140820160508
0.4200488328933716 0.4520690441131592 -0.01371949166059494
0.4010220766067505 0.44285622239112854 -0.023172525689005852
0.38183969259262085 0.4401729702949524 -0.029080988839268684
0.36070969700813293 0.4435350298881531 -0.030647603794932365
0.34659847617149353 0.4498369097709656 -0.027586445212364197
0.17403088510036469 0.426329106092453 0.10007201135158539
0.34999948740005493 0.4714309573173523 -0.024407053366303444
0.5458524227142334 0.6611671447753906 -0.06437568366527557
0.45853790640830994 0.6743535399436951 -0.0710357055068016
0.4873300790786743 0.6174558997154236 -0.08004945516586304
0.512157142162323 0.6635671257972717 -0.07401600480079651
0.5293660163879395 0.4510654807090759 -0.027845855802297592
0.32837164402008057 0.8199828863143921 -0.012828490696847439
0.3708936274051666 0.8448179960250854 -0.025624163448810577
0.473954975605011 0.8805044889450073 -0.04875456169247627
0.22548876702785492 0.7794819474220276 0.06935703754425049
0.4339483976364136 0.4645715057849884 -0.00532017694786191
0.49953943490982056 0.5233650803565979 -0.06368545442819595
0.5309394001960754 0.8821061849594116 -0.03737376630306244
0.4140494167804718 0.8929033875465393 -0.016688669100403786
0.19302314519882202 0.6484032869338989 0.05449094995856285
0.4809620678424835 0.7455457448959351 -0.06346531957387924
0.47629645466804504 0.7544320225715637 -0.0672667846083641
0.4713878035545349 0.7663254141807556 -0.07375382632017136
0.46730494499206543 0.7796049118041992 -0.07315011322498322
0.465465247631073 0.7863322496414185 -0.060840997844934464
0.4368167519569397 0.7403671145439148 -0.0606180876493454
0.4321626126766205 0.7382327914237976 -0.06358153373003006
0.42763757705688477 0.7355092763900757 -0.06531219184398651
0.4095112383365631 0.7128608822822571 -0.06489313393831253
0.29257404804229736 0.6484262943267822 -0.03951507806777954
0.49167361855506897 0.4997626543045044 -0.041710980236530304
0.4652296006679535 0.4508659839630127 -0.003708448726683855
0.4463668167591095 0.45434561371803284 -0.0033391700126230717
0.4406939446926117 0.7418710589408875 -0.05677850916981697
0.27588334679603577 0.7122212052345276 -0.013791230507194996
0.49497950077056885 0.4484964609146118 -0.024381542578339577
0.4468766450881958 0.8108975291252136 -0.05279221013188362
0.5517621636390686 0.5301445722579956 -0.09121128916740417
0.5209746956825256 0.5109339952468872 -0.07084863632917404
0.544237494468689 0.5064505934715271 -0.06812703609466553
0.48281601071357727 0.5615949630737305 -0.07097913324832916
0.533984899520874 0.8533649444580078 -0.04703917354345322
0.5337444543838501 0.8223897814750671 -0.043421246111392975
0.49232813715934753 0.8215914368629456 -0.0514872670173645
0.3796551823616028 0.7692233324050903 -0.047202352434396744
0.42386582493782043 0.6298926472663879 -0.051041096448898315
0.40906795859336853 0.7936394810676575 -0.0503229945898056
0.3648744523525238 0.6252531409263611 -0.059940215200185776
0.40092501044273376 0.655773937702179 -0.059625834226608276
0.3366802930831909 0.6677101254463196 -0.053897466510534286
0.4830560088157654 0.8516762256622314 -0.05667753890156746
0.46256357431411743 0.5764482021331787 -0.061193887144327164
0.3485867977142334 0.7893928289413452 -0.033250272274017334
0.3881574869155884 0.8161333203315735 -0.038149088621139526
0.36068689823150635 0.7388437986373901 -0.0500093437731266
0.24374717473983765 0.6803361177444458 0.0002008525189012289
0.3172498941421509 0.7421062588691711 -0.03513353690505028
0.2088993936777115 0.7014890313148499 0.04350455850362778
0.37842118740081787 0.6914832592010498 -0.05989209562540054
0.47868674993515015 0.539897620677948 -0.05551653355360031
0.49894338846206665 0.6080368161201477 -0.10726644843816757
0.4764806032180786 0.6160425543785095 -0.08661123365163803
0.5155755281448364 0.5911545157432556 -0.11898734420537949
0.44878268241882324 0.4245144724845886 -0.01634606160223484
0.41083478927612305 0.4030849039554596 -0.031983327120542526
0.375698447227478 0.39729028940200806 -0.04239014536142349
0.34325769543647766 0.402781218290329 -0.04427420347929001
0.3172517418861389 0.41727709770202637 -0.03799278289079666
0.293104350566864 0.46957463026046753 -0.010954005643725395
0.18476444482803345 0.5374881029129028 0.05802641808986664
0.317241907119751 0.5046969056129456 -0.02561824582517147
0.34613361954689026 0.5113859176635742 -0.0313035249710083
0.38056331872940063 0.5114572048187256 -0.030186017975211143
0.411346971988678 0.5064145922660828 -0.023729722946882248
0.4356347322463989 0.4986911416053772 -0.014006484299898148
0.4535089433193207 0.4907313585281372 -0.009581749327480793
0.15643462538719177 0.5412145256996155 0.1397923082113266
0.4732872545719147 0.6237154603004456 -0.07556913048028946
0.5067201256752014 0.5446045994758606 -0.08356985449790955
0.5232992172241211 0.6087008118629456 -0.11844494938850403
0.5316429734230042 0.6220316886901855 -0.10585970431566238
0.5189952850341797 0.6135778427124023 -0.10817856341600418
0.47777053713798523 0.6319374442100525 -0.06552465260028839
0.5387911796569824 0.6234723329544067 -0.11070504039525986
0.5356518030166626 0.6302703619003296 -0.08439022302627563
0.4507658779621124 0.47251832485198975 0.0020408383570611477
0.4679640829563141 0.47693169116973877 -0.005706651136279106
0.48160237073898315 0.4789687991142273 -0.01893024705350399
0.3377261161804199 0.45525121688842773 -0.022931793704628944
0.3176388442516327 0.44234827160835266 -0.026036851108074188
0.5691089630126953 0.5344039797782898 -0.07497908920049667
0.6601400971412659 0.4822577238082886 0.10544509440660477
0.5725457072257996 0.6271092891693115 -0.07279498875141144
0.68989098072052 0.40638303756713867 0.25567978620529175
0.6045782566070557 0.5003794431686401 0.05757412686944008
0.6236120462417603 0.5030266642570496 0.06742053478956223
0.6415159702301025 0.5035457611083984 0.08162780106067657
0.6641994118690491 0.49113672971725464 0.11139537394046783
0.5891660451889038 0.4951093792915344 0.05180312320590019
0.6390013694763184 0.432930052280426 0.06358151137828827
0.6152370572090149 0.43580594658851624 0.05314357206225395
0.6596269607543945 0.43739354610443115 0.07900073379278183
0.6713989973068237 0.44779297709465027 0.09274555742740631
0.6737914085388184 0.5077958106994629 0.12639766931533813
0.6038377285003662 0.8296335935592651 0.010049538686871529
0.6661858558654785 0.4760517477989197 0.11610493063926697
0.6986677646636963 0.504008412361145 0.25560712814331055
0.6863305568695068 0.4904204308986664 0.16001573204994202
0.6306746602058411 0.6001836657524109 0.027295159175992012
0.5624699592590332 0.7087757587432861 -0.0603332556784153
0.555243968963623 0.7312464118003845 -0.051816344261169434
0.5819040536880493 0.717817485332489 -0.03669962286949158
0.5929723978042603 0.7282487154006958 -0.014254525303840637
0.5700007677078247 0.7340346574783325 -0.03444964066147804
0.5809643864631653 0.7379598021507263 -0.014650983735918999
0.6130080223083496 0.7558547258377075 0.02279970981180668
0.5827823877334595 0.611389696598053 -0.112371064722538
0.5867757201194763 0.5882208347320557 -0.116403728723526
0.6909458637237549 0.426375150680542 0.11440863460302353
0.5871022343635559 0.5375205278396606 0.0153932711109519
0.611154317855835 0.610126256942749 -0.036578644067049026
0.6088839173316956 0.5975344181060791 -0.028106873854994774
0.6813439130783081 0.6014531850814819 0.08297326415777206
0.578884482383728 0.5590737462043762 -0.0988117977976799
0.6583606004714966 0.39882180094718933 0.05258850008249283
0.6801503896713257 0.4076135754585266 0.08375740051269531
0.6836428046226501 0.36358189582824707 0.2048734724521637
0.577013373374939 0.41916489601135254 -0.0025682298000901937
0.5949298143386841 0.44618457555770874 0.05173690244555473
0.6272794604301453 0.736333429813385 0.038906682282686234
0.6732611656188965 0.7252088785171509 0.2821286916732788
0.5936992764472961 0.62348872423172 -0.035613466054201126
0.5786381959915161 0.6304839849472046 -0.04886189475655556
0.6020801663398743 0.745704710483551 0.02898743934929371
0.5965536832809448 0.745171070098877 0.01752670668065548
0.6861057281494141 0.39238810539245605 0.10139566659927368
0.6064411997795105 0.621643602848053 -0.025840453803539276
0.6257002353668213 0.4012075662612915 0.02360333502292633
0.6300137639045715 0.38075536489486694 0.022486461326479912
0.6317510604858398 0.3050544857978821 0.08536209911108017
0.6850776672363281 0.3812237083911896 0.146950826048851
0.6299083232879639 0.3432046175003052 0.053152743726968765
0.6960375308990479 0.41654521226882935 0.14124611020088196
0.6932668685913086 0.41683530807495117 0.19522517919540405
0.5601356029510498 0.7211006879806519 -0.05868237465620041
0.576697051525116 0.7267908453941345 -0.03696077689528465
0.5877946019172668 0.7333545088768005 -0.016924215480685234
0.5876678824424744 0.6280709505081177 -0.03505326062440872
0.5993382930755615 0.7455912828445435 0.022348199039697647
0.5943607091903687 0.7508600950241089 0.00191842473577708
0.5936815738677979 0.7447391748428345 0.015810659155249596
0.593002438545227 0.6141238808631897 -0.06739223003387451
0.5745496153831482 0.7404956221580505 -0.01122219767421484
0.5639803409576416 0.7383551597595215 -0.025335684418678284
0.5498654842376709 0.7372854351997375 -0.040000200271606445
0.5586926937103271 0.7934410572052002 -0.030851926654577255
0.5589069128036499 0.7872916460037231 -0.0482148714363575
0.5586239099502563 0.7723665833473206 -0.04894215986132622
0.5555505752563477 0.7574434876441956 -0.04266778752207756
0.5508071184158325 0.7463834881782532 -0.04112110659480095
0.5757889747619629 0.7451084852218628 -0.012327251955866814
0.5819224119186401 0.7504129409790039 -0.015531027689576149
0.5880563259124756 0.7572977542877197 -0.019384408369660378
0.5923980474472046 0.7649230360984802 -0.014771874994039536
0.616449773311615 0.691053032875061 -0.0004647532769013196
0.6790065765380859 0.608799934387207 0.33787134289741516
0.5833673477172852 0.7446703910827637 0.0034270077012479305
0.5891289710998535 0.7476627826690674 0.0012320198584347963
0.5728750228881836 0.6397258639335632 -0.05182204395532608
0.5958297252655029 0.6365744471549988 -0.016574205830693245
0.5757710337638855 0.635289192199707 -0.050864849239587784
0.6065061092376709 0.5530178546905518 0.030759109184145927
0.6389960050582886 0.5711434483528137 0.04873316362500191
0.6077276468276978 0.6091132760047913 -0.015642667189240456
0.6670339107513428 0.32916367053985596 0.1446487158536911
0.6656261682510376 0.35615161061286926 0.10024994611740112
0.6637606024742126 0.3795323371887207 0.06266520917415619
0.5997679233551025 0.7696777582168579 0.00426312955096364
0.585816502571106 0.38679587841033936 -0.006874112877994776
0.5844521522521973 0.3391696512699127 0.01664774678647518
0.5854426622390747 0.2915603220462799 0.03852827847003937
0.6561285257339478 0.4997572600841522 0.09817586839199066
0.6869489550590515 0.5250743627548218 0.14579974114894867
0.5793605446815491 0.48923683166503906 0.05197843164205551
0.6821342706680298 0.4589705467224121 0.1213684156537056
0.5748853087425232 0.5209242105484009 0.00291879172436893
0.6064134836196899 0.5995155572891235 -0.06266587972640991
0.7081050872802734 0.5460556149482727 0.17947505414485931
0.6814954280853271 0.5422165989875793 0.11863008141517639
0.6634217500686646 0.5503390431404114 0.08528997004032135
0.629302442073822 0.5448096990585327 0.06026139855384827
0.602941632270813 0.5337276458740234 0.04430006071925163
0.5840559005737305 0.5221320390701294 0.030325213447213173
0.5548174977302551 0.48774266242980957 -0.029590409249067307
0.7119143009185791 0.5956331491470337 0.16788792610168457
0.6901159286499023 0.45648759603500366 0.14013643562793732
0.5707426071166992 0.624590277671814 -0.10373532772064209
0.5909229516983032 0.5608195662498474 0.003108383622020483
0.6814022660255432 0.5051034092903137 0.33582767844200134
0.5709859728813171 0.5088551044464111 0.02214965596795082
0.6036631464958191 0.6113701462745667 0.006112650968134403
0.6722014546394348 0.47693580389022827 0.12324241548776627
0.6024923920631409 0.5841718316078186 -0.05270002409815788
0.6791768074035645 0.6650737524032593 0.3174477219581604
0.5785198211669922 0.4807998239994049 0.05988205224275589
0.5920025110244751 0.5686990022659302 -0.07932043075561523
0.6702139377593994 0.7797078490257263 0.13399319350719452
0.6583995223045349 0.808653712272644 0.1735931634902954
0.7082951068878174 0.6034365892410278 0.2564897835254669
0.6849467158317566 0.7479997873306274 0.17776401340961456
0.6954574584960938 0.4575260579586029 0.23342370986938477
0.6090210676193237 0.856418788433075 0.023255538195371628
0.5628096461296082 0.631421685218811 -0.07707954198122025
0.6059892773628235 0.5801088809967041 0.01585037261247635
0.691941499710083 0.4946538805961609 0.19094111025333405
0.6424658894538879 0.48876023292541504 0.08352875709533691
0.6257936954498291 0.4890017509460449 0.07143551856279373
0.5985699892044067 0.754504382610321 0.007649667095392942
0.7076791524887085 0.6432108879089355 0.16671721637248993
0.5707508325576782 0.8971467018127441 0.015093675814568996
0.6225864291191101 0.8609634637832642 0.08750633895397186
0.6407296061515808 0.8390810489654541 0.12572559714317322
0.6091895699501038 0.48702073097229004 0.06330776959657669
0.5937513709068298 0.484065443277359 0.060669247061014175
0.583562970161438 0.48267120122909546 0.06182142347097397
0.694727897644043 0.4520835876464844 0.17012305557727814
0.5959596633911133 0.4663327932357788 0.05969030410051346
0.6128823757171631 0.45987367630004883 0.06217113509774208
0.6311023831367493 0.4579957127571106 0.0703331008553505
0.6483001112937927 0.4611661434173584 0.08254989981651306
0.6580721735954285 0.4671146869659424 0.09354811161756516
0.688674807548523 0.4508153200149536 0.30308228731155396
0.65318363904953 0.48604533076286316 0.09579462558031082
0.6038948893547058 0.6747986078262329 -0.017748219892382622
0.5965412855148315 0.6190875172615051 -0.044319555163383484
0.5735238790512085 0.6638562679290771 -0.051910437643527985
0.6507241725921631 0.8094778656959534 0.09593844413757324
0.6310247182846069 0.8329192996025085 0.060424771159887314
0.5768991112709045 0.8745175004005432 -0.014118603430688381
0.6666855812072754 0.7735410332679749 0.23098070919513702
0.5843372344970703 0.4749894142150879 0.060014497488737106
0.573070764541626 0.5256739854812622 -0.034874964505434036
0.6013100743293762 0.8808532357215881 0.048395588994026184
0.704502522945404 0.655566394329071 0.2431703805923462
0.5652339458465576 0.7456981539726257 -0.02647923305630684
0.5715458393096924 0.7541264295578003 -0.028967561200261116
0.5767165422439575 0.7650854587554932 -0.03363197669386864
0.5797082781791687 0.7777600884437561 -0.03145342692732811
0.5824668407440186 0.782883882522583 -0.01438893936574459
0.5892040729522705 0.7417021989822388 0.003440424334257841
0.5951911211013794 0.7399057745933533 0.006321726832538843
0.599941611289978 0.7372300624847412 0.009012204594910145
0.6245100498199463 0.7126217484474182 0.021636836230754852
0.6914488077163696 0.6538861989974976 0.1069491058588028
0.5643665790557861 0.502639889717102 -0.011902681551873684
0.5682681202888489 0.4606306552886963 0.03463369607925415
0.5776944160461426 0.46481189131736755 0.05125179514288902
0.5829107761383057 0.7425669431686401 0.004565534647554159
0.6863316297531128 0.7125486135482788 0.13475364446640015
0.5558109879493713 0.4588335156440735 -0.0020675165578722954
0.5924012660980225 0.8051447868347168 -0.0016155493212863803
0.5627512335777283 0.5122637152671814 -0.055485088378190994
0.5889397859573364 0.5639459490776062 -0.03280210494995117
0.565211832523346 0.8181361556053162 -0.027063366025686264
0.633314847946167 0.7651729583740234 0.041981443762779236
0.6185113787651062 0.6318967342376709 0.016101397573947906
0.6145676374435425 0.7877165079116821 0.020397784188389778
0.6595837473869324 0.6302075982093811 0.044702280312776566
0.6346994638442993 0.6579542756080627 0.024078229442238808
0.671436071395874 0.670852541923523 0.06580851227045059
0.5739337205886841 0.847154438495636 -0.02441398985683918
0.595844030380249 0.5789510011672974 -0.013310602866113186
0.648902416229248 0.7824543118476868 0.06931565701961517
0.6265403032302856 0.8074673414230347 0.040977995842695236
0.6489566564559937 0.7372469305992126 0.05770832300186157
0.7001798152923584 0.6840716600418091 0.1664591133594513
0.6698536276817322 0.7393559217453003 0.08961203694343567
0.6971985697746277 0.7038737535476685 0.22299160063266754
0.6450516581535339 0.6928567290306091 0.03924240544438362
0.5814019441604614 0.5427685976028442 -0.014438485726714134
0.6006714105606079 0.6098172068595886 -0.06993792206048965
0.6054713726043701 0.6176584362983704 -0.04382294788956642
0.5986472368240356 0.5924110412597656 -0.08879043906927109
0.5860661864280701 0.4382344186306 0.036304883658885956
0.6193128824234009 0.4230523407459259 0.044516246765851974
0.6481341123580933 0.42045336961746216 0.057658400386571884
0.6694383025169373 0.4260828197002411 0.07771721482276917
0.6812635660171509 0.4385862946510315 0.09889645129442215
0.6780188083648682 0.4835202693939209 0.1368529498577118
0.7060303688049316 0.5532376766204834 0.2596632242202759
0.6671140193939209 0.5178712010383606 0.10941436141729355
0.64986252784729 0.5240733623504639 0.08634337782859802
0.6258205771446228 0.5224202871322632 0.06649454683065414
0.6022955179214478 0.5158718824386597 0.052378978580236435
0.5847033858299255 0.5078440308570862 0.04321832209825516
0.5730232000350952 0.4996612071990967 0.03690425306558609
0.6768658757209778 0.5567346215248108 0.34584715962409973
0.6009501814842224 0.624786376953125 -0.033641185611486435
0.5808441638946533 0.5464369058609009 -0.053734190762043
0.5932340621948242 0.609485387802124 -0.09475108981132507
0.5774717926979065 0.6221177577972412 -0.0921192467212677
0.5882411003112793 0.614690899848938 -0.08383334428071976
0.5928664207458496 0.6322354674339294 -0.030339311808347702
0.5759397149085999 0.6236890554428101 -0.09951245784759521
0.568666398525238 0.6302329301834106 -0.07488244771957397
0.5728038549423218 0.48122459650039673 0.05131296440958977
0.5642043352127075 0.48587584495544434 0.030684133991599083
0.5611321330070496 0.48964837193489075 0.011217189021408558
0.6630972623825073 0.4718672037124634 0.10368429869413376
0.6760525703430176 0.46017223596572876 0.10908836871385574
0.3879729211330414 0.4592728018760681 -0.018686383962631226
0.41030535101890564 0.4595224857330322 -0.018686383962631226
0.38648664951324463 0.4386032223701477 -0.018686383962631226
0.36462923884391785 0.458850234746933 -0.018686383962631226
0.3891761302947998 0.48003825545310974 -0.018686383962631226
0.6203449964523315 0.4735408127307892 0.0781237930059433
0.6429288387298584 0.47395050525665283 0.0781237930059433
0.6209947466850281 0.45344340801239014 0.0781237930059433
0.5976497530937195 0.47320494055747986 0.0781237930059433
0.6198481321334839 0.49359673261642456 0.0781237930059433
