ply
format ascii 1.0
element vertex 478
property float x
property float y
property float z
end_header
0.5210594534873962 0.7320346236228943 -0.03603804484009743
0.5449416637420654 0.6627873778343201 -0.1309759020805359
0.5303084850311279 0.6768552660942078 -0.0574999563395977
0.5162492990493774 0.5717757940292358 -0.12512613832950592
0.5468005537986755 0.6378841400146484 -0.14524492621421814
0.5437467694282532 0.6009559631347656 -0.1438739001750946
0.5305340886116028 0.5074549317359924 -0.10397783666849136
0.33086493611335754 0.48164308071136475 -0.0439261756837368
0.5278587937355042 0.44952893257141113 -0.10563702881336212
0.529229998588562 0.4174034595489502 -0.12150879204273224
0.5251436829566956 0.2711828052997589 -0.13375258445739746
0.5205322504043579 0.739569902420044 -0.029889628291130066
0.518921434879303 0.7466911673545837 -0.020668959245085716
0.5169875621795654 0.751346230506897 -0.006520496681332588
0.5166895985603333 0.752057671546936 0.003871483262628317
0.5180325508117676 0.7644950747489929 0.004086541477590799
0.5183387398719788 0.7788007855415344 0.0014547311002388597
0.5172991752624512 0.7927292585372925 0.008384120650589466
0.5128188133239746 0.8303288817405701 0.03597448021173477
0.5408415794372559 0.672948956489563 -0.11527756601572037
0.5069922804832458 0.6681245565414429 -0.08409638702869415
0.19569575786590576 0.36367321014404297 0.01428490411490202
0.4023827314376831 0.5046011209487915 -0.04905799776315689
0.3770532011985779 0.5062471628189087 -0.05262972041964531
0.3513529300689697 0.5046806931495667 -0.05161753669381142
0.31711459159851074 0.4886263906955719 -0.04009854421019554
0.42384594678878784 0.5002732872962952 -0.04348495230078697
0.3662487268447876 0.4416844844818115 -0.08006127178668976
0.3955024480819702 0.44499850273132324 -0.07362935692071915
0.33925631642341614 0.44483447074890137 -0.07597218453884125
0.3210293650627136 0.4525608420372009 -0.06713377684354782
0.2893603444099426 0.5022869110107422 -0.02715565636754036
0.40643584728240967 0.8676698207855225 0.06188962608575821
0.3203660845756531 0.4740692377090454 -0.039532486349344254
0.18524375557899475 0.4790845513343811 0.06156802549958229
0.25404900312423706 0.4841293692588806 -0.0139923095703125
0.3807351887226105 0.612490177154541 -0.04255542531609535
0.4833420515060425 0.7258557677268982 -0.041436128318309784
0.48356613516807556 0.7438211441040039 -0.02313043363392353
0.4450661838054657 0.7276275157928467 -0.031042061746120453
0.4174492359161377 0.7285297513008118 -0.011177687905728817
0.45160210132598877 0.7402056455612183 -0.01700403168797493
0.4258546531200409 0.7368344664573669 0.0007990683079697192
0.3718819320201874 0.7586487531661987 0.04131459817290306
0.522327184677124 0.6617712378501892 -0.13259804248809814
0.5210041999816895 0.6371048092842102 -0.1466483622789383
0.2832391858100891 0.436046302318573 -0.0810294896364212
0.439579576253891 0.5502611994743347 -0.05608433112502098
0.4418635666370392 0.6375864148139954 -0.08435384184122086
0.43892940878868103 0.6212015151977539 -0.07992316782474518
0.29245907068252563 0.6027154922485352 -0.029890161007642746
0.5193551778793335 0.6025152206420898 -0.14125953614711761
0.3573702871799469 0.4210001230239868 -0.11671564728021622
0.31556236743927 0.42391639947891235 -0.10457834601402283
0.2341926097869873 0.32404935359954834 -0.04114021733403206
0.4733557403087616 0.4508579671382904 -0.11028112471103668
0.42026379704475403 0.45516437292099 -0.05918344482779503
0.34936702251434326 0.7303434610366821 0.0330376997590065
0.18527176976203918 0.7176195979118347 0.20864295959472656
0.45924583077430725 0.653220534324646 -0.06659632921218872
0.48258164525032043 0.6620972156524658 -0.06071256473660469
0.3781183063983917 0.7285789251327515 0.036757808178663254
0.3852640986442566 0.7305718660354614 0.03352196142077446
0.29947811365127563 0.40699225664138794 -0.10025899112224579
0.4359910786151886 0.6435986161231995 -0.0669081062078476
0.410236120223999 0.42944997549057007 -0.11907210201025009
0.4077056050300598 0.410077840089798 -0.13173027336597443
0.36523979902267456 0.27696049213409424 -0.1278427690267563
0.26728174090385437 0.3630562126636505 -0.07550772279500961
0.38952964544296265 0.3371227979660034 -0.13195903599262238
0.2629668712615967 0.4220871329307556 -0.0672684982419014
0.2290480136871338 0.3937874436378479 -0.028762755915522575
0.4830963611602783 0.7357339859008789 -0.034700218588113785
0.44837480783462524 0.7340928316116333 -0.024117890745401382
0.4215613007545471 0.7325881719589233 -0.006551029626280069
0.4642079174518585 0.6566483378410339 -0.05890674889087677
0.3818444013595581 0.7296174764633179 0.035132527351379395
0.3996075391769409 0.7399632930755615 0.027863865718245506
0.38857629895210266 0.7315110564231873 0.03319783881306648
0.4817391335964203 0.6536866426467896 -0.10440784692764282
0.428974449634552 0.740045428276062 0.007353442721068859
0.4545988440513611 0.7445010542869568 -0.0036371159367263317
0.48431894183158875 0.7487984299659729 -0.009741215035319328
0.4722745716571808 0.8274815082550049 0.03160037100315094
0.4793844521045685 0.7892494201660156 0.0034822740126401186
0.48122966289520264 0.7753458619117737 -0.0030756222549825907
0.48313412070274353 0.7612749338150024 4.8677324230084196e-05
0.4847557246685028 0.7496936321258545 0.00040037179132923484
0.4297668933868408 0.7404466867446899 0.015041900798678398
0.4255281388759613 0.7451321482658386 0.01423105038702488
0.4204142391681671 0.7515264749526978 0.013504588976502419
0.4160497486591339 0.7586989402770996 0.019143693149089813
0.39360082149505615 0.7003914713859558 -0.014327195473015308
0.15865164995193481 0.5823296308517456 0.19707079231739044
0.5362300872802734 0.6759195327758789 -0.07900482416152954
0.4098912477493286 0.7362515330314636 0.026394417509436607
0.40502500534057617 0.7379096150398254 0.026604043319821358
0.49203893542289734 0.672142744064331 -0.05642852559685707
0.440940260887146 0.6555081009864807 -0.03996403515338898
0.4876350164413452 0.6673375368118286 -0.059838514775037766
0.410327672958374 0.5615041255950928 -0.04857856035232544
0.3641754984855652 0.5766469836235046 -0.04631045088171959
0.43049362301826477 0.6286215782165527 -0.06301244348287582
0.2889505624771118 0.29420411586761475 -0.09034591168165207
0.31913429498672485 0.3430196940898895 -0.10828425735235214
0.34911835193634033 0.4011569619178772 -0.1205081045627594
0.39865291118621826 0.7866047620773315 0.03709505498409271
0.4691760241985321 0.42134493589401245 -0.13038086891174316
0.4562290608882904 0.3378526270389557 -0.1381825953722
0.4410970211029053 0.27021104097366333 -0.1411113440990448
0.32927340269088745 0.49886825680732727 -0.04629023000597954
0.2560167908668518 0.5173823833465576 -0.013348138891160488
0.4380095303058624 0.4961988627910614 -0.04004168510437012
0.29153233766555786 0.4609376788139343 -0.052301254123449326
0.4610792398452759 0.5376399755477905 -0.06627896428108215
0.4658370912075043 0.6357246041297913 -0.10888239741325378
0.2189258337020874 0.5336065292358398 0.013503814116120338
0.2783353626728058 0.5363984107971191 -0.026673149317502975
0.31624922156333923 0.5478532910346985 -0.03937516361474991
0.36863353848457336 0.5459616184234619 -0.04264950379729271
0.4057537317276001 0.5373108983039856 -0.04291996359825134
0.4329250454902649 0.528476357460022 -0.048023272305727005
0.5043661594390869 0.5122363567352295 -0.09817981719970703
0.2190263867378235 0.5870612859725952 0.022994978353381157
0.26633191108703613 0.4567076563835144 -0.04856402799487114
0.526435375213623 0.6721965074539185 -0.11675975471735
0.4423574209213257 0.5777972936630249 -0.058075882494449615
0.16020172834396362 0.46518057584762573 0.1379576027393341
0.45496436953544617 0.5191552639007568 -0.052617333829402924
0.4236638844013214 0.6258975267410278 -0.03587966784834862
0.3072235584259033 0.47467705607414246 -0.036745358258485794
0.46226170659065247 0.6155686974525452 -0.1033649891614914
0.1654745638370514 0.6477781534194946 0.20844833552837372
0.43716537952423096 0.4883125424385071 -0.03778006508946419
0.49154341220855713 0.6074680685997009 -0.1279015988111496
0.26705655455589294 0.7954074144363403 0.11509121209383011
0.25906383991241455 0.8238821029663086 0.1630985140800476
0.1784883737564087 0.5891815423965454 0.10880225896835327
0.22708763182163239 0.7558338046073914 0.12604697048664093
0.20534145832061768 0.4313226342201233 0.021291688084602356
0.399556428194046 0.8976849317550659 0.08173050731420517
0.5247529745101929 0.6747421026229858 -0.07913285493850708
0.415385901927948 0.5927234292030334 -0.04717220366001129
0.2242608368396759 0.484928697347641 0.006436697673052549
0.35719048976898193 0.4916757345199585 -0.05161236971616745
0.37912094593048096 0.49363911151885986 -0.053274113684892654
0.3945977985858917 0.7424237132072449 0.03147893399000168
0.21645814180374146 0.6397824883460999 0.05018068477511406
0.4498008191585541 0.9355895519256592 0.10346995294094086
0.3549536466598511 0.8936077356338501 0.12720586359500885
0.3105742931365967 0.8648229837417603 0.14305023849010468
0.5277445316314697 0.34032753109931946 -0.13012191653251648
0.5066654682159424 0.938732922077179 0.10891904681921005
0.39949721097946167 0.4920015335083008 -0.05064046010375023
0.41919273138046265 0.4893617033958435 -0.04470089077949524
0.4317269027233124 0.48889338970184326 -0.039107125252485275
0.2408846914768219 0.4477895498275757 -0.029618002474308014
0.41346949338912964 0.467246949672699 -0.05403175577521324
0.3910369873046875 0.45829030871391296 -0.06389160454273224
0.3688909411430359 0.4568478763103485 -0.06733141839504242
0.3473939299583435 0.4603573679924011 -0.06459828466176987
0.3342098593711853 0.465923547744751 -0.05739174038171768
0.1728283166885376 0.407803475856781 0.07879020273685455
0.34191688895225525 0.4871336817741394 -0.047907959669828415
0.526347815990448 0.6933687925338745 -0.044377945363521576
0.42746734619140625 0.6911974549293518 -0.03133925795555115
0.46192866563796997 0.6517916917800903 -0.07857492566108704
0.48607712984085083 0.6922186017036438 -0.04825316369533539
0.526674747467041 0.4749204218387604 -0.0954204797744751
0.31149011850357056 0.8338494300842285 0.10999219864606857
0.353496789932251 0.866426408290863 0.09841430187225342
0.45264187455177307 0.917209267616272 0.07014109939336777
0.2186127007007599 0.7769669890403748 0.18781420588493347
0.4297999441623688 0.4803168773651123 -0.045183215290308
0.4874478876590729 0.553125262260437 -0.09525130689144135
0.5102875232696533 0.9212395548820496 0.07651214301586151
0.4009181559085846 0.9190425872802734 0.10989222675561905
0.18234682083129883 0.647666335105896 0.12567663192749023
0.45550212264060974 0.7452229857444763 0.005543703678995371
0.45178014039993286 0.7537025213241577 0.00468212366104126
0.4482085108757019 0.7643346786499023 0.0034541345667093992
0.44565561413764954 0.7767207026481628 0.009647345170378685
0.4314040541648865 0.8109239339828491 0.030749114230275154
0.4043712019920349 0.7334505319595337 0.01688850298523903
0.39959123730659485 0.7308304905891418 0.014866567216813564
0.39551520347595215 0.7283186912536621 0.012125750072300434
0.3651627004146576 0.7126523852348328 0.006752138491719961
0.2590267062187195 0.6574535965919495 0.011214310303330421
0.4833047091960907 0.5235468745231628 -0.08057202398777008
0.46022742986679077 0.47566577792167664 -0.05421622842550278
0.4409843981266022 0.4746909737586975 -0.04924654960632324
0.4091019928455353 0.736096978187561 0.02130875550210476
0.24593466520309448 0.7189064025878906 0.07004006206989288
0.4876949191093445 0.4800209701061249 -0.08343508839607239
0.41738682985305786 0.8370256423950195 0.04787499085068703
0.5391125679016113 0.5690162181854248 -0.12912358343601227
0.5102778673171997 0.5435426235198975 -0.11400754749774933
0.5348864793777466 0.5393843054771423 -0.11599347740411758
0.46596401929855347 0.5905592441558838 -0.08634252846240997
0.5124589800834656 0.8933486342430115 0.0554426833987236
0.5124328136444092 0.8590763807296753 0.0461181215941906
0.4651651680469513 0.8557617664337158 0.04374593868851662
0.3486333191394806 0.7743853330612183 0.053219202905893326
0.39835846424102783 0.644589364528656 -0.028213711455464363
0.3797012269496918 0.8089375495910645 0.05360395833849907
0.3310403525829315 0.6412284970283508 -0.03066113218665123
0.36832892894744873 0.6691935658454895 -0.018348950892686844
0.2997392416000366 0.6790794134140015 -0.00038039273931644857
0.45799535512924194 0.8890559077262878 0.05100052058696747
0.44423311948776245 0.599219560623169 -0.0663735419511795
0.324398934841156 0.8006198406219482 0.07664110511541367
0.36449292302131653 0.8362383842468262 0.07515984028577805
0.32533761858940125 0.7390300631523132 0.038120023906230927
0.21850764751434326 0.6846498847007751 0.07609209418296814
0.28658708930015564 0.7487066984176636 0.05609333515167236
0.19592148065567017 0.702859103679657 0.136060893535614
0.3387054204940796 0.6957131028175354 -3.281599492765963e-05
0.46509039402008057 0.5651167035102844 -0.07525641471147537
0.4744473099708557 0.6493015885353088 -0.11163729429244995
0.4501497745513916 0.6480246782302856 -0.08281133323907852
0.4931509494781494 0.636702299118042 -0.13073520362377167
0.44330522418022156 0.45749735832214355 -0.07173317670822144
0.4027032256126404 0.4415467083454132 -0.08803685754537582
0.36511385440826416 0.4358898401260376 -0.09382060170173645
0.33202970027923584 0.4378746747970581 -0.08860296756029129
0.30701833963394165 0.4462166428565979 -0.07560702413320541
0.2843151092529297 0.47967100143432617 -0.029019039124250412
0.1788119375705719 0.5334938168525696 0.08549824357032776
0.30646923184394836 0.5139085054397583 -0.0335686020553112
0.3350847065448761 0.5228683352470398 -0.0414152592420578
0.37135374546051025 0.523893415927887 -0.04423263669013977
0.40414169430732727 0.5192511677742004 -0.042525459080934525
0.4290703237056732 0.513261079788208 -0.04173489287495613
0.4469321370124817 0.5080018043518066 -0.042058028280735016
0.1580718457698822 0.5223214030265808 0.17442503571510315
0.4471803605556488 0.6508168578147888 -0.06842278689146042
0.49156877398490906 0.5797225832939148 -0.10803915560245514
0.499497652053833 0.6562435030937195 -0.1257658302783966
0.508751392364502 0.6667970418930054 -0.10888124257326126
0.4950284957885742 0.6581375598907471 -0.11290425807237625
0.45179998874664307 0.6561156511306763 -0.05522587522864342
0.5165457129478455 0.6702045798301697 -0.1140415221452713
0.5145997405052185 0.6724829077720642 -0.0815512165427208
0.4464859366416931 0.49042582511901855 -0.038117606192827225
0.4614207148551941 0.49757474660873413 -0.04776281863451004
0.47231513261795044 0.5039764046669006 -0.06246541813015938
0.32666879892349243 0.47033271193504333 -0.04983753338456154
0.3087068200111389 0.46198827028274536 -0.0528654120862484
0.5579819083213806 0.5713638663291931 -0.11412936449050903
0.6687793731689453 0.4763411283493042 0.03575421869754791
0.5610586404800415 0.6664626002311707 -0.07550186663866043
0.7354450225830078 0.370321124792099 0.1379718780517578
0.5999932289123535 0.5014256238937378 0.0025341755244880915
0.6243236064910889 0.5023696422576904 0.009258895181119442
0.6474053263664246 0.5009784698486328 0.019809583202004433
0.6724730730056763 0.4838031530380249 0.04447599872946739
0.5818270444869995 0.49751558899879456 -0.002805914729833603
0.6497188806533813 0.44060975313186646 -0.014990228228271008
0.6201971173286438 0.4439697265625 -0.022143229842185974
0.6731993556022644 0.44309332966804504 -0.001093906001187861
0.6845430731773376 0.44989094138145447 0.013685578480362892
0.6869370937347412 0.4992355704307556 0.06405524909496307
0.5953302383422852 0.8586138486862183 0.09961224347352982
0.675018846988678 0.4686766266822815 0.043852340430021286
0.739181637763977 0.47916507720947266 0.18557524681091309
0.7041720151901245 0.4803033173084259 0.0882575735449791
0.6364058256149292 0.6100606322288513 0.010268442332744598
0.5531917810440063 0.7243754267692566 -0.02722233347594738
0.5471128225326538 0.74252849817276 -0.009825432673096657
0.5781406760215759 0.7236865758895874 -0.0018607656238600612
0.5938102006912231 0.7236599922180176 0.028863457962870598
0.5685002207756042 0.7375771999359131 0.00876571424305439
0.5839684009552002 0.7334521412849426 0.035136446356773376
0.6181719899177551 0.752391517162323 0.09243828058242798
0.5644911527633667 0.6604568362236023 -0.12559567391872406
0.5687189102172852 0.6362479329109192 -0.1383175402879715
0.7188650369644165 0.4325575530529022 0.015400798991322517
0.5872894525527954 0.54937744140625 -0.02162131853401661
0.6072599291801453 0.6347916722297668 -0.05217185616493225
0.6051367521286011 0.6190400719642639 -0.04675959423184395
0.6995455026626587 0.598536491394043 0.0569949634373188
0.5643289685249329 0.6019667983055115 -0.1305539757013321
0.6834023594856262 0.4201200604438782 -0.04979107901453972
0.7085761427879333 0.4220454692840576 -0.02095404639840126
0.7260626554489136 0.33251017332077026 0.06974713504314423
0.5815914869308472 0.4458048939704895 -0.08798784762620926
0.5938782691955566 0.45331281423568726 -0.017340367659926414
0.6381804943084717 0.7235016226768494 0.09467292577028275
0.6976286172866821 0.7035878300666809 0.3239732086658478
0.5900551080703735 0.6505320072174072 -0.042920853942632675
0.5715616345405579 0.6610973477363586 -0.048683952540159225
0.6161117553710938 0.7237634062767029 0.0905340388417244
0.609546959400177 0.7262479662895203 0.08131223171949387
0.71895432472229 0.40494877099990845 -0.011015154421329498
0.605046272277832 0.6410097479820251 -0.03530339151620865
0.6425435543060303 0.42680999636650085 -0.07307081669569016
0.6504915356636047 0.40729862451553345 -0.08440005034208298
0.6578020453453064 0.2840805649757385 -0.06511064618825912
0.7200993299484253 0.3674243688583374 0.02300061658024788
0.6480059623718262 0.34151262044906616 -0.07786031812429428
0.7272854447364807 0.41927558183670044 0.035846367478370667
0.7321310043334961 0.3968525826931 0.08292119204998016
0.5511041283607483 0.7343658208847046 -0.02053804323077202
0.5737596154212952 0.7309405207633972 0.003389362944290042
0.5894858837127686 0.7283571362495422 0.030304614454507828
0.5842758417129517 0.6543131470680237 -0.03960856795310974
0.6127649545669556 0.7250605225563049 0.08514738082885742
0.602051854133606 0.7362985610961914 0.07035935670137405
0.606202244758606 0.7274981737136841 0.07974295318126678
0.5840574502944946 0.6510899066925049 -0.0825933888554573
0.5790102481842041 0.7374626994132996 0.04002177342772484
0.5631622672080994 0.7426521182060242 0.02070525661110878
0.5427254438400269 0.7478711009025574 0.004004278220236301
0.5462287664413452 0.8252461552619934 0.04479207098484039
0.5494226813316345 0.7880678176879883 0.017909446731209755
0.549105703830719 0.7739347815513611 0.012207051739096642
0.5463293790817261 0.7599131464958191 0.01489802822470665
0.5421757102012634 0.7484848499298096 0.014516045339405537
0.5783295631408691 0.7375704050064087 0.047814466059207916
0.584461510181427 0.7422640323638916 0.04707959294319153
0.5902978777885437 0.7486509680747986 0.04757831245660782
0.5944274663925171 0.7558921575546265 0.05539340898394585
0.6199702620506287 0.6963154077529907 0.031309761106967926
0.7171176671981812 0.577293872833252 0.32507067918777466
0.5904825329780579 0.7329444885253906 0.06732591986656189
0.5965849161148071 0.7344540357589722 0.06764145195484161
0.5622232556343079 0.6717656254768372 -0.04442676529288292
0.5958418846130371 0.65329509973526 -0.014904710464179516
0.5669330954551697 0.6667869091033936 -0.048237621784210205
0.6088330745697021 0.5603764057159424 -0.002493081148713827
0.647264838218689 0.5746927857398987 0.015940025448799133
0.6062432527542114 0.6265078783035278 -0.028742462396621704
0.703191339969635 0.30307745933532715 -0.00013249844778329134
0.6940542459487915 0.34800174832344055 -0.029168326407670975
0.6928446888923645 0.399740993976593 -0.0497293658554554
0.599998414516449 0.7809923887252808 0.0790066197514534
0.5959799289703369 0.416929692029953 -0.10662294179201126
0.5941455960273743 0.34041935205459595 -0.11013129353523254
0.6005886197090149 0.2742728888988495 -0.10957353562116623
0.6640316247940063 0.4945427179336548 0.0334676057100296
0.7034395933151245 0.5149308443069458 0.0878903865814209
0.5709566473960876 0.49357742071151733 -0.0037952035199850798
0.6989599466323853 0.45662835240364075 0.040113020688295364
0.5737605094909668 0.5368656516075134 -0.03870711103081703
0.5980406403541565 0.6333485245704651 -0.08293689042329788
0.7356587648391724 0.5308259725570679 0.12781137228012085
0.6959850788116455 0.5346354246139526 0.0685625746846199
0.6735166311264038 0.5467005372047424 0.04206098988652229
0.6321080327033997 0.5447938442230225 0.01966034807264805
0.6011364459991455 0.5358747839927673 0.004539709072560072
0.580707848072052 0.5270968675613403 -0.012305809184908867
0.5509340763092041 0.5121045112609863 -0.08660747855901718
0.7366989850997925 0.5818896293640137 0.13677550852298737
0.7124837636947632 0.45301613211631775 0.052922170609235764
0.5533133745193481 0.6711621880531311 -0.11110227555036545
0.5897729396820068 0.5767710208892822 -0.02480381354689598
0.7295509576797485 0.46705275774002075 0.2704069912433624
0.5666102170944214 0.517677366733551 -0.024934742599725723
0.6042672395706177 0.6239899396896362 -0.001605994300916791
0.6819141507148743 0.4694480895996094 0.050848864018917084
0.5950815677642822 0.6137937307357788 -0.07689322531223297
0.7108203172683716 0.6378358006477356 0.3308977484703064
0.5697726607322693 0.48507389426231384 -4.719505795947043e-06
0.5806586146354675 0.6061660051345825 -0.108856700360775
0.6778698563575745 0.7796405553817749 0.1999100148677826
0.6645084619522095 0.8057748079299927 0.25029587745666504
0.7388536334037781 0.5827383995056152 0.23266436159610748
0.701025128364563 0.7410644292831421 0.2257682830095291
0.7360407114028931 0.43352654576301575 0.14031469821929932
0.5976285338401794 0.8866598606109619 0.12228832393884659
0.5470792651176453 0.6742588877677917 -0.07563471049070358
0.6079092025756836 0.5912765264511108 -0.006187036633491516
0.7121528387069702 0.4818122982978821 0.11884503066539764
0.6482951641082764 0.48733070492744446 0.018387211486697197
0.6268682479858398 0.4897826611995697 0.008655199781060219
0.6065080165863037 0.7385921478271484 0.07684574276208878
0.7324212193489075 0.6316483616828918 0.1604735255241394
0.5556563138961792 0.9290585517883301 0.12651115655899048
0.6152631044387817 0.8787937164306641 0.18395735323429108
0.6381364464759827 0.8473092913627625 0.2142125517129898
0.6054221987724304 0.48869818449020386 0.00221848557703197
0.5863978862762451 0.4863520562648773 0.0005997722619213164
0.57483971118927 0.48593443632125854 0.001597458147443831
0.7202451229095459 0.4453428089618683 0.07991783320903778
0.5913102626800537 0.46506553888320923 -0.007475366350263357
0.6133588552474976 0.4565116763114929 -0.00960187055170536
0.6374044418334961 0.45426586270332336 -0.004187166690826416
0.6576500535011292 0.45685017108917236 0.007167784031480551
0.6676538586616516 0.4616646468639374 0.01947137713432312
0.7368223667144775 0.4123859107494354 0.20872527360916138
0.661165714263916 0.48223257064819336 0.028082093223929405
0.6003825068473816 0.6885852217674255 0.003442254848778248
0.5918395519256592 0.6489055752754211 -0.05591517686843872
0.5612100958824158 0.6910384893417358 -0.033723775297403336
0.6494728922843933 0.8183004856109619 0.17902685701847076
0.6244146823883057 0.8523050546646118 0.15301930904388428
0.5596920847892761 0.9109795093536377 0.09239017963409424
0.6821669936180115 0.7604920864105225 0.29112744331359863
0.5768308043479919 0.47721609473228455 -0.0035441473592072725
0.5673269033432007 0.5525057911872864 -0.07673371583223343
0.589799165725708 0.9078640937805176 0.151797816157341
0.7313652634620667 0.6377312541007996 0.2445223480463028
0.5624668598175049 0.7431117296218872 0.03030581958591938
0.5684028267860413 0.7515591979026794 0.03023623675107956
0.5728776454925537 0.7622328400611877 0.030386846512556076
0.5754380226135254 0.7750244140625 0.03748301416635513
0.577418863773346 0.8066533207893372 0.06158604100346565
0.5963566303253174 0.7296944856643677 0.059357039630413055
0.601533055305481 0.7264562845230103 0.06112474203109741
0.6057088971138 0.7234251499176025 0.061090510338544846
0.6340826153755188 0.7072916030883789 0.06367690116167068
0.7129873037338257 0.6498854160308838 0.10526449978351593
0.5619074106216431 0.5232645869255066 -0.061150118708610535
0.5627886056900024 0.4724692106246948 -0.02955673821270466
0.5717940330505371 0.4717751145362854 -0.013952535577118397
0.5906455516815186 0.733100414276123 0.062478914856910706
0.7060705423355103 0.7074276208877563 0.16458237171173096
0.5531377196311951 0.47688737511634827 -0.06868608295917511
0.5859320163726807 0.8302240967750549 0.0810752734541893
0.554894745349884 0.5431379675865173 -0.10421457886695862
0.5833808779716492 0.5896002054214478 -0.06197844818234444
0.5515187978744507 0.8521479964256287 0.059487152844667435
0.6345234513282776 0.7654131650924683 0.11163495481014252
0.6208447217941284 0.6418891549110413 0.015196031890809536
0.6114913821220398 0.8004233837127686 0.09959305077791214
0.6728764772415161 0.6365051865577698 0.037489909678697586
0.6407535076141357 0.6651697158813477 0.036258991807699203
0.6875690817832947 0.6719123721122742 0.07759205996990204
0.5583551526069641 0.8840769529342651 0.0716787725687027
0.5928593873977661 0.5980406999588013 -0.035844575613737106
0.6493380069732666 0.7880162596702576 0.1426314115524292
0.6217405796051025 0.8246795535087585 0.1259501427412033
0.6563775539398193 0.7306488156318665 0.10864243656396866
0.7232182025909424 0.6740657091140747 0.18150430917739868
0.6807388067245483 0.7370635867118835 0.1365809440612793
0.7191863059997559 0.6902167797088623 0.24931493401527405
0.6561037302017212 0.6901645660400391 0.06511054188013077
0.577830970287323 0.5643061399459839 -0.04892760515213013
0.5919499397277832 0.6464265584945679 -0.08803413063287735
0.6014406085014343 0.6449928283691406 -0.05563671886920929
0.5852599740028381 0.6346344947814941 -0.1121436357498169
0.5860891938209534 0.4531610906124115 -0.03797776997089386
0.6286972761154175 0.4389873743057251 -0.03889211639761925
0.6643022298812866 0.4348648190498352 -0.02958059497177601
0.6891825199127197 0.4365176558494568 -0.011008724570274353
0.7006499767303467 0.4435211420059204 0.011226655915379524
0.6915628910064697 0.47510579228401184 0.06439387053251266
0.7408740520477295 0.5304621458053589 0.21253585815429688
0.6780849099159241 0.5112306475639343 0.05243619158864021
0.6578718423843384 0.5205038189888 0.03350900113582611
0.6277623772621155 0.5213655233383179 0.017425596714019775
0.5989879965782166 0.5167974233627319 0.006194157525897026
0.5791058540344238 0.5111109018325806 -0.004948643501847982
0.5664816498756409 0.5058642625808716 -0.011967038735747337
0.7210397720336914 0.5213258862495422 0.30651357769966125
0.598318874835968 0.6479883193969727 -0.04172094911336899
0.5722594857215881 0.5788899660110474 -0.08905550092458725
0.5791215896606445 0.6534754633903503 -0.11096656322479248
0.564274251461029 0.6644893884658813 -0.10017416626214981
0.5767409205436707 0.6553142666816711 -0.09760831296443939
0.5914183855056763 0.6537896394729614 -0.032713182270526886
0.5605359077453613 0.6684697270393372 -0.10699369758367538
0.5549023151397705 0.6711883544921875 -0.07550816237926483
0.5641961693763733 0.4876564145088196 -0.006586820352822542
0.5570408701896667 0.49532726407051086 -0.023958902806043625
0.5562819242477417 0.5021426677703857 -0.04279692471027374
0.6722921133041382 0.4654718041419983 0.03028179705142975
0.6882079839706421 0.4577537178993225 0.03239652141928673
0.3678729832172394 0.47135117650032043 -0.05067170038819313
0.3921715319156647 0.4711511731147766 -0.05067170038819313
0.3678286671638489 0.44958198070526123 -0.05067170038819313
0.34292900562286377 0.4715879559516907 -0.05067170038819313
0.36780431866645813 0.49330201745033264 -0.05067170038819313
0.616290807723999 0.46909162402153015 0.010703404434025288
0.6426951885223389 0.4682273864746094 0.010703404434025288
0.6162114143371582 0.44733554124832153 0.010703404434025288
0.5899543762207031 0.46990251541137695 0.010703404434025288
0.6166602969169617 0.49088671803474426 0.010703404434025288
