ply
format ascii 1.0
element vertex 478
property float x
property float y
property float z
end_header
0.47932639718055725 0.7194656729698181 -0.06024391949176788
0.4557321071624756 0.658610999584198 -0.14445661008358002
0.4714418053627014 0.6767615079879761 -0.07507907599210739
0.44748103618621826 0.5611965656280518 -0.11109570413827896
0.45514124631881714 0.630114734172821 -0.1549079567193985
0.4604414403438568 0.5911939740180969 -0.1473117470741272
0.47880110144615173 0.49697718024253845 -0.08659607917070389
0.3363494873046875 0.47515714168548584 0.05806277319788933
0.4839603304862976 0.43519094586372375 -0.07350431382656097
0.4838310182094574 0.4012283682823181 -0.08131077885627747
0.4922075867652893 0.264605313539505 -0.06700830906629562
0.4806094467639923 0.7265319228172302 -0.05581339821219444
0.48351192474365234 0.7325732707977295 -0.04841180518269539
0.4871262013912201 0.7358932495117188 -0.03711904585361481
0.4906127154827118 0.8107837438583374 -0.01728488877415657
0.4891178607940674 0.8232680559158325 -0.020851030945777893
0.4887067675590515 0.8382413983345032 -0.026423919945955276
0.49031972885131836 0.8536916971206665 -0.022056352347135544
0.4868068993091583 0.8628942966461182 -0.00044944818364456296
0.459708571434021 0.6715556979179382 -0.13034269213676453
0.4371529817581177 0.6654359698295593 -0.09045026451349258
0.2822880148887634 0.3785574436187744 0.18414421379566193
0.40099895000457764 0.4995426833629608 0.020551158115267754
0.37777191400527954 0.5003044605255127 0.026891592890024185
0.35599806904792786 0.4983201026916504 0.03774673864245415
0.3301202058792114 0.4819592833518982 0.06456689536571503
0.41997674107551575 0.4958168566226959 0.016544802114367485
0.3631993532180786 0.4306720495223999 0.013542470522224903
0.3902451992034912 0.43498948216438293 0.007253054529428482
0.3399720788002014 0.4337012469768524 0.026411883533000946
0.3262852430343628 0.44250544905662537 0.04021536186337471
0.3147706389427185 0.49563923478126526 0.0812138244509697
0.39748576283454895 0.886125922203064 0.05830894783139229
0.32947173714637756 0.4676336646080017 0.06755656749010086
0.26975035667419434 0.4892923831939697 0.20878861844539642
0.2970418334007263 0.47602683305740356 0.11017738282680511
0.3608229458332062 0.6068524122238159 0.004230184480547905
0.43755078315734863 0.7086398601531982 -0.050785310566425323
0.4465034604072571 0.7252668142318726 -0.03700883314013481
0.4062780439853668 0.7052682638168335 -0.025096174329519272
0.3874775171279907 0.706112265586853 0.008345227688550949
0.41919833421707153 0.7188889384269714 -0.016257785260677338
0.4003183841705322 0.7161259055137634 0.012737976387143135
0.3735124170780182 0.7684063911437988 0.06996390223503113
0.4345950186252594 0.6562417149543762 -0.13887280225753784
0.43224388360977173 0.6284055709838867 -0.1478675901889801
0.29998457431793213 0.420012503862381 0.048188623040914536
0.4171740710735321 0.5456414818763733 -0.014601105824112892
0.38750171661376953 0.6302601099014282 -0.06317444890737534
0.39033710956573486 0.6139366030693054 -0.055294666439294815
0.29746711254119873 0.5950835347175598 0.05339976027607918
0.43884795904159546 0.5924966931343079 -0.13402660191059113
0.3409521281719208 0.3993907570838928 -0.013231099583208561
0.314675509929657 0.40492796897888184 0.014901253394782543
0.293634831905365 0.3346397280693054 0.12458592653274536
0.43654483556747437 0.42698293924331665 -0.05509651079773903
0.41373172402381897 0.44657278060913086 0.010940966196358204
0.3540687561035156 0.7326151132583618 0.07507563382387161
0.297406941652298 0.7357159852981567 0.29312360286712646
0.4043814539909363 0.6479920148849487 -0.05556311458349228
0.42414772510528564 0.6591277122497559 -0.06382857263088226
0.3689916133880615 0.7174858450889587 0.07248607277870178
0.37711724638938904 0.7201783657073975 0.06342524290084839
0.3070245087146759 0.3886837959289551 0.02904043346643448
0.38756585121154785 0.6374461054801941 -0.048003774136304855
0.379938542842865 0.4045085310935974 -0.03725552558898926
0.37570321559906006 0.38496673107147217 -0.0444331057369709
0.3624687194824219 0.2775564193725586 -0.0009638561168685555
0.2971418797969818 0.36245447397232056 0.07147020846605301
0.369597464799881 0.32964026927948 -0.024120081216096878
0.29269009828567505 0.40717488527297974 0.07210708409547806
0.28337913751602173 0.397213876247406 0.12606753408908844
0.44077202677726746 0.7181941270828247 -0.045725055038928986
0.41224002838134766 0.7127494215965271 -0.020652364939451218
0.39327678084373474 0.7112946510314941 0.008829117752611637
0.4099031686782837 0.6519891619682312 -0.05294545739889145
0.372961163520813 0.7188441753387451 0.06727548688650131
0.38390272855758667 0.7495854496955872 0.051502227783203125
0.3807584345340729 0.721491813659668 0.0618487223982811
0.41299259662628174 0.6489049196243286 -0.0944145917892456
0.4073328673839569 0.7192493081092834 0.015729088336229324
0.42632049322128296 0.7228730320930481 -0.006766215432435274
0.4528603255748749 0.729590654373169 -0.025734253227710724
0.4481534957885742 0.8559262752532959 0.009339182637631893
0.4465920329093933 0.8431121110916138 -0.011344661004841328
0.4471929669380188 0.8283176422119141 -0.014346159063279629
0.45070919394493103 0.813369631767273 -0.008511879481375217
0.4558353126049042 0.802250325679779 -0.005678777117282152
0.4107551574707031 0.7690216302871704 0.03047644905745983
0.40461957454681396 0.7724475860595703 0.027483586221933365
0.3972644805908203 0.7782952785491943 0.026017295196652412
0.39266708493232727 0.7852212190628052 0.03281596302986145
0.3710361123085022 0.6979593634605408 0.013905402272939682
0.2862209975719452 0.6028571724891663 0.3208464980125427
0.4646803140640259 0.6756207346916199 -0.09518551081418991
0.39723193645477295 0.7497081756591797 0.05069173127412796
0.39028701186180115 0.7490459084510803 0.049454864114522934
0.4341021776199341 0.6698752641677856 -0.06223339959979057
0.3962973356246948 0.6509159803390503 -0.029939068481326103
0.42895039916038513 0.6648975610733032 -0.06445997953414917
0.3928755819797516 0.5567294359207153 0.0011572735384106636
0.35305896401405334 0.5698710083961487 0.016828181222081184
0.38740628957748413 0.6226524114608765 -0.038912560790777206
0.31741976737976074 0.2999815046787262 0.060404468327760696
0.32390427589416504 0.3386319875717163 0.022486582398414612
0.33495670557022095 0.38009971380233765 -0.00824804324656725
0.3907601237297058 0.8023412823677063 0.052829012274742126
0.42792028188705444 0.39500290155410767 -0.06707241386175156
0.42258286476135254 0.3284933865070343 -0.05568777024745941
0.4185062646865845 0.26696503162384033 -0.044092293828725815
0.3389890789985657 0.49219441413879395 0.05219440907239914
0.2949931025505066 0.5098720192909241 0.10229437798261642
0.4317232370376587 0.4913262724876404 0.017000025138258934
0.31022050976753235 0.45037204027175903 0.06700965762138367
0.43297278881073 0.5319303274154663 -0.029060838744044304
0.39952224493026733 0.6282551288604736 -0.09281854331493378
0.26689743995666504 0.5346271395683289 0.13864225149154663
0.303484708070755 0.5288728475570679 0.07830572128295898
0.3263152837753296 0.5411708354949951 0.04947040230035782
0.3671048879623413 0.5410908460617065 0.027194896712899208
0.39879727363586426 0.5338089466094971 0.013844538480043411
0.4213472008705139 0.5253220200538635 -0.0005249474779702723
0.4580642580986023 0.5025061368942261 -0.06986571848392487
0.26019442081451416 0.5853028893470764 0.13676032423973083
0.29763540625572205 0.4453146457672119 0.08153649419546127
0.44607239961624146 0.6695252060890198 -0.12616290152072906
0.4111019968986511 0.5726041197776794 -0.024283504113554955
0.2826670706272125 0.48610812425613403 0.29223746061325073
0.4377366602420807 0.5151841044425964 -0.010056767612695694
0.3887317180633545 0.6211477518081665 -0.011231939308345318
0.3221815526485443 0.467457115650177 0.07428298890590668
0.40357571840286255 0.607802152633667 -0.08375048637390137
0.2874179482460022 0.6667231917381287 0.3131512999534607
0.4324975609779358 0.48313263058662415 0.02372611314058304
0.42103761434555054 0.5983057618141174 -0.1138065978884697
0.31464552879333496 0.8035659790039062 0.1666906177997589
0.3274676203727722 0.838065505027771 0.20683859288692474
0.2594042122364044 0.5971967577934265 0.2322709709405899
0.2914982736110687 0.7645810842514038 0.1956830769777298
0.2767948806285858 0.4394894242286682 0.1746557652950287
0.39329981803894043 0.9177716970443726 0.07410462200641632
0.45267629623413086 0.6737027764320374 -0.09180126339197159
0.3897552490234375 0.5876595377922058 -0.0090929651632905
0.2859273850917816 0.47710368037223816 0.14087142050266266
0.3572433590888977 0.4847574234008789 0.039069488644599915
0.3771490454673767 0.4870651066303253 0.02910088747739792
0.3789631724357605 0.7507631182670593 0.057288430631160736
0.26031914353370667 0.6392211318016052 0.14966847002506256
0.4356335997581482 0.9648317098617554 0.06974197179079056
0.37415337562561035 0.9130327105522156 0.13504555821418762
0.352456271648407 0.8805788159370422 0.1684473156929016
0.4876585602760315 0.32945987582206726 -0.07536360621452332
0.4882389307022095 0.976803719997406 0.0517006479203701
0.39730924367904663 0.48640474677085876 0.023250287398695946
0.41599583625793457 0.4844270348548889 0.022614965215325356
0.4275089204311371 0.48387640714645386 0.024824827909469604
0.28863656520843506 0.43762916326522827 0.11023157835006714
0.41112056374549866 0.4648914933204651 0.01885600946843624
0.3905712068080902 0.45623669028282166 0.017220156267285347
0.3694499731063843 0.45313549041748047 0.022558458149433136
0.34996163845062256 0.4552499055862427 0.03314875811338425
0.338819682598114 0.46039730310440063 0.04447557404637337
0.2785179615020752 0.42608076333999634 0.24397902190685272
0.34458887577056885 0.480375200510025 0.049450553953647614
0.47648829221725464 0.692352294921875 -0.06416650116443634
0.39116352796554565 0.6879258751869202 -0.015426741912961006
0.4033242464065552 0.6462521553039551 -0.06732124090194702
0.43630242347717285 0.6888583898544312 -0.05350838229060173
0.4840548634529114 0.46450743079185486 -0.07020852714776993
0.3423576354980469 0.8447644710540771 0.14126071333885193
0.36703476309776306 0.8808712959289551 0.10980053246021271
0.4329303801059723 0.9443403482437134 0.04033096134662628
0.3114624321460724 0.793589174747467 0.2519758939743042
0.42545801401138306 0.4760921597480774 0.02160922810435295
0.4388887882232666 0.5446317195892334 -0.06938381493091583
0.4854480028152466 0.9566073417663574 0.02368270233273506
0.3995470106601715 0.9427600502967834 0.09882459789514542
0.26293492317199707 0.6560845971107483 0.2321215271949768
0.42996037006378174 0.7875357866287231 0.011396996676921844
0.42325517535209656 0.7952381372451782 0.008942711167037487
0.4173351526260376 0.8064073920249939 0.00687721511349082
0.4143601655960083 0.8196181058883667 0.012136708945035934
0.4136148989200592 0.8336209058761597 0.03122950904071331
0.3862498700618744 0.7163493633270264 0.03992987051606178
0.38002684712409973 0.7131208181381226 0.04245378077030182
0.37486547231674194 0.709588885307312 0.04296045005321503
0.3574092984199524 0.7117877006530762 0.04731513932347298
0.27981749176979065 0.6534394025802612 0.092642642557621
0.44633394479751587 0.5159757137298584 -0.04766533523797989
0.44478127360343933 0.46598076820373535 -0.003085523610934615
0.43352580070495605 0.4675648808479309 0.012649568729102612
0.39246153831481934 0.7186111211776733 0.041394710540771484
0.28575974702835083 0.7211832404136658 0.14235706627368927
0.4584972560405731 0.46785932779312134 -0.043854787945747375
0.4070948362350464 0.856207013130188 0.04514755308628082
0.4670395255088806 0.5586055517196655 -0.1255262941122055
0.45244812965393066 0.5331052541732788 -0.09362038969993591
0.47293975949287415 0.52879798412323 -0.10486157983541489
0.4183192551136017 0.5834779143333435 -0.06307610124349594
0.48477980494499207 0.9252966642379761 0.008807322941720486
0.4862193465232849 0.8903483152389526 0.004943908657878637
0.4436713755130768 0.8816763162612915 0.019383462145924568
0.35907742381095886 0.7815448045730591 0.08650282770395279
0.3721941113471985 0.6408828496932983 0.0036541882436722517
0.38108891248703003 0.8218134641647339 0.06881234794855118
0.32294800877571106 0.6350820064544678 0.027270689606666565
0.3535598814487457 0.6661882400512695 0.022752322256565094
0.30675753951072693 0.6748096346855164 0.06294921040534973
0.4359486401081085 0.9142764806747437 0.02613339014351368
0.4054292142391205 0.5935218930244446 -0.03964876011013985
0.3439456522464752 0.8081184029579163 0.11201649159193039
0.37122583389282227 0.848362922668457 0.08914416283369064
0.33764100074768066 0.7403742074966431 0.08739455044269562
0.2683801054954529 0.687080979347229 0.1629919856786728
0.31190598011016846 0.7506200671195984 0.11303538084030151
0.2740113437175751 0.7125149965286255 0.2262866050004959
0.3383776545524597 0.693057119846344 0.049536433070898056
0.4261626601219177 0.5586495995521545 -0.045102693140506744
0.40507614612579346 0.643147885799408 -0.0991271436214447
0.3932501971721649 0.6415162682533264 -0.0680219978094101
0.41387951374053955 0.6284382939338684 -0.12145810574293137
0.42496153712272644 0.44213318824768066 -0.0071905325166881084
0.38629060983657837 0.4243355095386505 -0.006354488432407379
0.35319793224334717 0.4197379946708679 0.0023546249140053988
0.328299343585968 0.42333221435546875 0.01979876309633255
0.31397122144699097 0.43332770466804504 0.04085835814476013
0.31159377098083496 0.47169971466064453 0.08719635754823685
0.26238080859184265 0.5427737832069397 0.22386550903320312
0.3235725164413452 0.5073701739311218 0.06717812269926071
0.3439851403236389 0.516791820526123 0.046978313475847244
0.3729392886161804 0.5186962485313416 0.03029594011604786
0.40126240253448486 0.5150934457778931 0.019877374172210693
0.4226717948913574 0.5094331502914429 0.010868111625313759
0.43672841787338257 0.5037291646003723 0.005281592253595591
0.286942720413208 0.5441957712173462 0.31615713238716125
0.39508092403411865 0.6449460983276367 -0.05484163761138916
0.43185508251190186 0.5707461833953857 -0.08783373236656189
0.4186640977859497 0.6500181555747986 -0.12315579503774643
0.43409132957458496 0.6630083322525024 -0.1144907996058464
0.4210411608219147 0.6531931161880493 -0.1100577712059021
0.40167683362960815 0.6513116359710693 -0.04703379422426224
0.4382903575897217 0.6668648719787598 -0.12192929536104202
0.4437708258628845 0.6704727411270142 -0.09106112271547318
0.4390854239463806 0.4848722815513611 0.016179339960217476
0.4477265775203705 0.4918838143348694 -0.003299134783446789
0.45042672753334045 0.49803435802459717 -0.024277202785015106
0.3329758644104004 0.46450769901275635 0.05463850870728493
0.3195399045944214 0.4527495503425598 0.05775495618581772
0.49059832096099854 0.5624144077301025 -0.12169753760099411
0.686599850654602 0.4911773204803467 -0.01959388330578804
0.49709999561309814 0.6688539385795593 -0.09860726445913315
0.8180004954338074 0.3835856020450592 0.06588031351566315
0.6108760237693787 0.5109002590179443 -0.02928243763744831
0.635450005531311 0.5116854906082153 -0.0330805703997612
0.6615018844604492 0.5106330513954163 -0.03174538537859917
0.7012888193130493 0.4988504648208618 -0.017804576084017754
0.5908575654029846 0.5073614716529846 -0.022589901462197304
0.6445174813270569 0.4401431083679199 -0.04940186068415642
0.616091787815094 0.44420820474624634 -0.04228545352816582
0.6737722754478455 0.4437825083732605 -0.04622318223118782
0.6945143938064575 0.4542328119277954 -0.038361843675374985
0.7262113094329834 0.5130282044410706 -0.007312343455851078
0.5976184606552124 0.9015289545059204 0.020596979185938835
0.698851466178894 0.48505544662475586 -0.013792638666927814
0.8335856199264526 0.5033949613571167 0.08757574111223221
0.761411726474762 0.4974820911884308 0.010715298354625702
0.6330224275588989 0.6156488656997681 -0.047363534569740295
0.5285980701446533 0.7139107584953308 -0.06498130410909653
0.5306954383850098 0.7305089235305786 -0.05037238076329231
0.5809537768363953 0.7172492146492004 -0.054170478135347366
0.6193694472312927 0.721790611743927 -0.03189367800951004
0.5740533471107483 0.7288506627082825 -0.04232098162174225
0.6096193790435791 0.7296432256698608 -0.021989963948726654
0.6465408802032471 0.7815332412719727 0.01772378943860531
0.48003190755844116 0.6586660742759705 -0.1456102728843689
0.4826453626155853 0.6302844882011414 -0.15604427456855774
0.7310662865638733 0.4334864914417267 -0.04573535919189453
0.5704857707023621 0.5497199296951294 -0.04757596552371979
0.5699020624160767 0.6380081176757812 -0.09404890239238739
0.5738417506217957 0.6208124756813049 -0.08721386641263962
0.7228469252586365 0.6091546416282654 -0.031861208379268646
0.4858756363391876 0.593826174736023 -0.14446623623371124
0.6534622311592102 0.4079864025115967 -0.07809799164533615
0.6970718502998352 0.4148298501968384 -0.06672213971614838
0.7801894545555115 0.3364794850349426 0.018446391448378563
0.5397673845291138 0.43769633769989014 -0.07609368115663528
0.5929931998252869 0.45622825622558594 -0.029051708057522774
0.6716474294662476 0.7469208240509033 0.012603902257978916
0.8270800113677979 0.7662630081176758 0.1844071000814438
0.5508286356925964 0.6551973223686218 -0.07871989160776138
0.5256590247154236 0.6633985638618469 -0.07542381435632706
0.670412540435791 0.7381196022033691 0.01770949922502041
0.6617931723594666 0.739649772644043 0.014820054173469543
0.7132810354232788 0.3989356756210327 -0.05818624049425125
0.5774658918380737 0.6453973650932312 -0.07830927520990372
0.601793646812439 0.41460347175598145 -0.08162112534046173
0.6038697361946106 0.39455676078796387 -0.09006743878126144
0.6513898372650146 0.2762628495693207 -0.06117355078458786
0.7490615844726562 0.36708319187164307 -0.024689817801117897
0.6272337436676025 0.33012211322784424 -0.07656915485858917
0.7522758841514587 0.42273032665252686 -0.028355872258543968
0.7868984341621399 0.40524527430534363 0.0168642345815897
0.529790997505188 0.7233831882476807 -0.05992361158132553
0.5772599577903748 0.7238356471061707 -0.048318538814783096
0.6143957376480103 0.7259561419487 -0.02837841957807541
0.54585200548172 0.6584950089454651 -0.07148491591215134
0.6660115718841553 0.7388825416564941 0.016286417841911316
0.6466602683067322 0.7689273953437805 0.008317685686051846
0.6579586267471313 0.7403287887573242 0.014612838625907898
0.5245005488395691 0.6548349857330322 -0.11537957191467285
0.6060686111450195 0.7317792177200317 -0.017282884567975998
0.5710811614990234 0.7318633198738098 -0.031280651688575745
0.5312811136245728 0.7342808842658997 -0.0394974984228611
0.5333160758018494 0.860994815826416 -0.0043168626725673676
0.5423281192779541 0.8518929481506348 -0.026102421805262566
0.5391361713409424 0.8364190459251404 -0.02970598265528679
0.5360362529754639 0.8207278847694397 -0.023596249520778656
0.5336244106292725 0.808914303779602 -0.020016921684145927
0.6065276861190796 0.7844128012657166 -0.0026448380667716265
0.6124759912490845 0.788992702960968 -0.005757621489465237
0.6204395890235901 0.7963725924491882 -0.008183890953660011
0.6264615654945374 0.8043894171714783 -0.0038549115415662527
0.6262131929397583 0.7084709405899048 -0.03149314969778061
0.8578625917434692 0.6244334578514099 0.19998106360435486
0.6318156719207764 0.7670104503631592 0.009254485368728638
0.6392223834991455 0.7674400210380554 0.007750881835818291
0.5158102512359619 0.6733151078224182 -0.07380398362874985
0.5729332566261292 0.6583608984947205 -0.05411175638437271
0.5203332901000977 0.6686650514602661 -0.07568927854299545
0.6012558937072754 0.5625104904174805 -0.04316491633653641
0.6489763259887695 0.5785227417945862 -0.04380183294415474
0.5837582349777222 0.6300563812255859 -0.07183460891246796
0.7271957397460938 0.2994675636291504 -0.02599904127418995
0.6980786323547363 0.34097757935523987 -0.05463610589504242
0.6622607707977295 0.3883902132511139 -0.07709158211946487
0.6173929572105408 0.8142358660697937 0.010078397579491138
0.5437754988670349 0.4057336747646332 -0.08980783820152283
0.5599547028541565 0.32844915986061096 -0.0825752466917038
0.5756530165672302 0.2659718990325928 -0.0741734579205513
0.6861631870269775 0.5071283578872681 -0.02551044337451458
0.7593285441398621 0.5296993851661682 0.003689681878313422
0.5778060555458069 0.5030795335769653 -0.017781412228941917
0.7252219915390015 0.4667724370956421 -0.022942140698432922
0.5484696626663208 0.5348531603813171 -0.05544184520840645
0.5423199534416199 0.6344193816184998 -0.11772441864013672
0.7979704141616821 0.5507251620292664 0.02706826850771904
0.7347432971000671 0.5446693897247314 -0.014311741106212139
0.6942501068115234 0.5517996549606323 -0.029705870896577835
0.6403565406799316 0.5486961603164673 -0.033167269080877304
0.6034546494483948 0.5402928590774536 -0.03180701658129692
0.5761715173721313 0.5306850075721741 -0.03472130373120308
0.5052499771118164 0.5033928155899048 -0.08098039776086807
0.798263430595398 0.6045731902122498 0.025420621037483215
0.7491929531097412 0.4638405442237854 -0.017225410789251328
0.475626677274704 0.6712865829467773 -0.13155102729797363
0.5685964822769165 0.5771222114562988 -0.05597258359193802
0.8564075231552124 0.4983084201812744 0.16654661297798157
0.5546788573265076 0.5195135474205017 -0.03655185177922249
0.5911487340927124 0.6284649968147278 -0.043975092470645905
0.7124691009521484 0.48510870337486267 -0.010983875021338463
0.5469500422477722 0.6129873991012573 -0.1090395599603653
0.850506067276001 0.6936328411102295 0.19760939478874207
0.5800395011901855 0.4961618185043335 -0.012394078075885773
0.5151776075363159 0.6015183925628662 -0.13223250210285187
0.7429630756378174 0.8331547379493713 0.08265163004398346
0.7462455630302429 0.870711088180542 0.12409384548664093
0.8410477638244629 0.6196057200431824 0.11113153398036957
0.7853145003318787 0.7948375940322876 0.0974310114979744
0.8115768432617188 0.44965189695358276 0.05826941877603531
0.6024989485740662 0.9360575675964355 0.03392424061894417
0.47739464044570923 0.6748813390731812 -0.09512984752655029
0.5974987149238586 0.5939890742301941 -0.048616401851177216
0.793621301651001 0.5029743313789368 0.031221099197864532
0.6570088863372803 0.4976194500923157 -0.028972061350941658
0.6345170736312866 0.4990178644657135 -0.031002158299088478
0.6530871391296387 0.7710944414138794 0.010985870845615864
0.801428496837616 0.6624053716659546 0.0418817512691021
0.5479199290275574 0.976026713848114 0.04749041795730591
0.6472389698028564 0.9374644160270691 0.08041107654571533
0.6932178139686584 0.9099551439285278 0.10035645961761475
0.6150088310241699 0.49863994121551514 -0.027953552082180977
0.5973393321037292 0.4974901080131531 -0.02114497683942318
0.5858414173126221 0.49720272421836853 -0.014313128776848316
0.7754678726196289 0.45869070291519165 0.003724547801539302
0.6008219718933105 0.47431236505508423 -0.026096533983945847
0.6211803555488586 0.4643375873565674 -0.035124003887176514
0.6426945328712463 0.4619540572166443 -0.038722723722457886
0.6658143401145935 0.46580684185028076 -0.036619026213884354
0.6810668706893921 0.4729683995246887 -0.030183186754584312
0.8418595790863037 0.4340110123157501 0.12046624720096588
0.6734984517097473 0.49487635493278503 -0.024491261690855026
0.5900409817695618 0.6960219740867615 -0.04963254928588867
0.5471498370170593 0.6536012291908264 -0.08902804553508759
0.5238370895385742 0.6929706931114197 -0.06783142685890198
0.6954461336135864 0.8719972372055054 0.07280215620994568
0.6509756445884705 0.904744565486908 0.05563977360725403
0.5460059642791748 0.9547139406204224 0.01821342296898365
0.7891710996627808 0.8255242109298706 0.15394100546836853
0.5865954756736755 0.4880143404006958 -0.01837713085114956
0.5210813283920288 0.5467180013656616 -0.08701383322477341
0.5996761322021484 0.9613845348358154 0.05821980908513069
0.8361435532569885 0.6827698349952698 0.11618886142969131
0.5723395347595215 0.7994352579116821 -0.013474269770085812
0.5781474709510803 0.8083490133285522 -0.016794122755527496
0.5841723084449768 0.8207910060882568 -0.02021867409348488
0.5887661576271057 0.8347563743591309 -0.016061177477240562
0.5805388689041138 0.8426034450531006 -0.0003294841735623777
0.641186535358429 0.7328456044197083 -0.0036416095681488514
0.6458905339241028 0.7306561470031738 -0.004794287960976362
0.6508139371871948 0.7280062437057495 -0.006887637544423342
0.6562657952308655 0.7243479490280151 -0.00997963547706604
0.7580467462539673 0.673504650592804 -0.0003313670167699456
0.5259838700294495 0.5178186297416687 -0.06642249971628189
0.5544465184211731 0.47563064098358154 -0.026465587317943573
0.5739677548408508 0.4784550666809082 -0.020699990913271904
0.6370572447776794 0.7342087626457214 -0.0002982453734148294
0.7698169946670532 0.7464346885681152 0.04883277043700218
0.5237284302711487 0.4745933413505554 -0.05760514736175537
0.5900152921676636 0.8686918020248413 0.011286244727671146
0.4978533983230591 0.5341376066207886 -0.10310884565114975
0.5429409742355347 0.5875614881515503 -0.08619192987680435
0.5374360084533691 0.8884367942810059 0.003246581181883812
0.6645109057426453 0.7989328503608704 0.027054985985159874
0.6169242262840271 0.649479329586029 -0.038709111511707306
0.631065845489502 0.8375867605209351 0.021926140412688255
0.6839702129364014 0.6484036445617676 -0.04017072543501854
0.647720217704773 0.6772682070732117 -0.03129348158836365
0.7160778641700745 0.6923604011535645 -0.014656524173915386
0.5422328114509583 0.9229575395584106 0.005157006438821554
0.5670591592788696 0.5986379981040955 -0.06881377100944519
0.6854618787765503 0.8307116031646729 0.045716628432273865
0.6427842974662781 0.8683654069900513 0.0381583571434021
0.6908304691314697 0.7582369446754456 0.016068514436483383
0.798769474029541 0.7129163146018982 0.05959878861904144
0.7279980182647705 0.7741566896438599 0.03269648551940918
0.819553017616272 0.7417522668838501 0.1154661625623703
0.6790907382965088 0.7068787217140198 -0.015942281112074852
0.5440469980239868 0.5620104670524597 -0.07007891684770584
0.5322821140289307 0.6496573090553284 -0.12179131805896759
0.5602717399597168 0.6493976712226868 -0.09418172389268875
0.5123207569122314 0.6328685879707336 -0.1398647129535675
0.5706334710121155 0.4525268077850342 -0.039398714900016785
0.6092678904533386 0.4339020550251007 -0.053593091666698456
0.6465615630149841 0.42800670862197876 -0.05966201797127724
0.6810756325721741 0.4321393668651581 -0.055432211607694626
0.7085469365119934 0.44527408480644226 -0.04346568137407303
0.7329402565956116 0.4910413920879364 -0.00367686222307384
0.8401885032653809 0.5608530640602112 0.09955005347728729
0.7079219818115234 0.522587239742279 -0.01635889895260334
0.6765081286430359 0.5285115838050842 -0.02575988508760929
0.6398117542266846 0.5286626815795898 -0.02942156232893467
0.6074353456497192 0.524451494216919 -0.02700609154999256
0.5833937525749207 0.5185056328773499 -0.024311942979693413
0.5660004615783691 0.5119494199752808 -0.023327957838773727
0.8586310148239136 0.5603628158569336 0.19058392941951752
0.5643657445907593 0.6526221036911011 -0.08043405413627625
0.5157852172851562 0.5732419490814209 -0.10597822815179825
0.5049420595169067 0.6549666523933411 -0.13740000128746033
0.49495798349380493 0.6672468185424805 -0.12276026606559753
0.5097527503967285 0.6587628126144409 -0.12472452968358994
0.5603659749031067 0.6582834124565125 -0.06855051964521408
0.4864993095397949 0.6698805093765259 -0.12864649295806885
0.4885947108268738 0.6729813814163208 -0.09676353633403778
0.569179356098175 0.49624890089035034 -0.013720628805458546
0.551950991153717 0.49974000453948975 -0.025642529129981995
0.5380366444587708 0.5024346709251404 -0.043082259595394135
0.6906112432479858 0.47928768396377563 -0.023350823670625687
0.709453821182251 0.4681277871131897 -0.025341637432575226
0.3640197217464447 0.47013533115386963 0.03438519686460495
0.3868955969810486 0.4704386591911316 0.03438519686460495
0.3648608326911926 0.4490295350551605 0.03438519686460495
0.3413337469100952 0.4698929190635681 0.03438519686460495
0.3632275462150574 0.49111923575401306 0.03438519686460495
0.6192282438278198 0.48156288266181946 -0.025133198127150536
0.6405800580978394 0.4811735451221466 -0.025133198127150536
0.6190646886825562 0.46248048543930054 -0.025133198127150536
0.5986719727516174 0.4814468324184418 -0.025133198127150536
0.6193220615386963 0.5006474256515503 -0.025133198127150536
