ply
format ascii 1.0
element vertex 478
property float x
property float y
property float z
end_header
0.48357078433036804 0.7217857837677002 -0.0787733644247055
0.4722842574119568 0.6308823227882385 -0.13152441382408142
0.48018336296081543 0.6566606163978577 -0.07417051494121552
0.45979437232017517 0.548198401927948 -0.08825794607400894
0.4719148278236389 0.60487300157547 -0.13768328726291656
0.47504305839538574 0.5718569159507751 -0.1254516988992691
0.48635342717170715 0.4913211464881897 -0.05319984629750252
0.33686232566833496 0.47259384393692017 0.07179513573646545
0.49058422446250916 0.42658931016921997 -0.030961614102125168
0.49087172746658325 0.3936915397644043 -0.031415876001119614
0.49635785818099976 0.2777044177055359 0.006239139474928379
0.4841632544994354 0.7291791439056396 -0.07683590054512024
0.4853787422180176 0.7350414991378784 -0.07010691612958908
0.4870705008506775 0.7377177476882935 -0.060417674481868744
0.48755574226379395 0.7766550779342651 -0.047323666512966156
0.48674166202545166 0.7835288643836975 -0.05181990936398506
0.4861639142036438 0.7928339242935181 -0.056510020047426224
0.4864882528781891 0.8043783903121948 -0.051597919315099716
0.48299741744995117 0.8474460244178772 -0.02942664735019207
0.4748993217945099 0.6446453928947449 -0.12030843645334244
0.45681077241897583 0.6447528004646301 -0.08492270112037659
0.2715066075325012 0.39022254943847656 0.2130729705095291
0.39800554513931274 0.4964240789413452 0.0351346991956234
0.3762061297893524 0.4974610209465027 0.04060366377234459
0.3550773859024048 0.4969084560871124 0.05080706998705864
0.328183650970459 0.4833980202674866 0.07577504962682724
0.4164125621318817 0.4926850199699402 0.03376814350485802
0.36463606357574463 0.42832186818122864 0.0373859666287899
0.3907420039176941 0.43251466751098633 0.032527703791856766
0.3411717116832733 0.43151602149009705 0.0482059121131897
0.326741099357605 0.4408153295516968 0.05927981808781624
0.31029361486434937 0.5022139549255371 0.08808867633342743
0.39520949125289917 0.8682446479797363 0.009746504947543144
0.3292996287345886 0.4667419195175171 0.08128714561462402
0.2553243339061737 0.4976047873497009 0.20735369622707367
0.28887394070625305 0.486600399017334 0.11806582659482956
0.3726315498352051 0.6094211935997009 0.002028882969170809
0.45415031909942627 0.718543529510498 -0.0694243386387825
0.45876753330230713 0.734909176826477 -0.061026789247989655
0.42936834692955017 0.7259308695793152 -0.049189161509275436
0.4132820963859558 0.7344835996627808 -0.025192581117153168
0.43821409344673157 0.7372423410415649 -0.04531680792570114
0.4228397607803345 0.7414224743843079 -0.02370617538690567
0.37993890047073364 0.780583381652832 0.01874219998717308
0.45344817638397217 0.6303643584251404 -0.1264783889055252
0.4496254324913025 0.605549693107605 -0.13136455416679382
0.2977219223976135 0.42495790123939514 0.07418525218963623
0.4234875440597534 0.545901894569397 -0.00251714582554996
0.4091111421585083 0.6237809658050537 -0.0577390193939209
0.4086763262748718 0.6103886961936951 -0.04918054863810539
0.3080739974975586 0.605783998966217 0.04424245283007622
0.45420512557029724 0.5746867060661316 -0.11374884843826294
0.3457711935043335 0.39963555335998535 0.024236643686890602
0.3162778615951538 0.4071592092514038 0.04843629524111748
0.2902752161026001 0.3473280966281891 0.1662832796573639
0.4423653483390808 0.4244481325149536 -0.014749246649444103
0.41312605142593384 0.443841814994812 0.034977518022060394
0.3649652302265167 0.7505910396575928 0.027097029611468315
0.275899201631546 0.7400530576705933 0.24315480887889862
0.42734628915786743 0.638689398765564 -0.052978213876485825
0.4444735646247864 0.6464837193489075 -0.061465609818696976
0.3958519697189331 0.7521564364433289 0.02169792540371418
0.40166616439819336 0.7524242997169495 0.012859011068940163
0.3066868782043457 0.39299312233924866 0.06386411190032959
0.40965718030929565 0.6350471377372742 -0.045965079218149185
0.38680702447891235 0.40375465154647827 0.0028793904930353165
0.38256335258483887 0.3842913508415222 0.0006692982860840857
0.36949628591537476 0.2918184995651245 0.06164684146642685
0.3000762462615967 0.37060466408729553 0.10736113041639328
0.37800946831703186 0.33722519874572754 0.029465703293681145
0.28756654262542725 0.4156810939311981 0.09865303337574005
0.2805233299732208 0.4049811065196991 0.1514023393392563
0.45565152168273926 0.7282320261001587 -0.06760246306657791
0.4333645701408386 0.7322959899902344 -0.04816839098930359
0.41762182116508484 0.7381815910339355 -0.026544738560914993
0.43277373909950256 0.6433957815170288 -0.050370413810014725
0.3987158238887787 0.7522742748260498 0.016720812767744064
0.40790489315986633 0.7658737897872925 0.001624871394596994
0.40458911657333374 0.7526869177818298 0.011717909015715122
0.43485647439956665 0.6310505867004395 -0.08575572818517685
0.42793917655944824 0.7431038618087769 -0.021289383992552757
0.4428636431694031 0.7396286725997925 -0.03754725307226181
0.46248117089271545 0.7379350066184998 -0.05166352540254593
0.44889503717422485 0.8432822227478027 -0.023142974823713303
0.4572187662124634 0.8026938438415527 -0.0438532792031765
0.45780670642852783 0.7910056114196777 -0.047070421278476715
0.45990732312202454 0.7821850776672363 -0.04202942177653313
0.4629043936729431 0.7758216857910156 -0.038293879479169846
0.42845264077186584 0.7686406970024109 -0.011283264495432377
0.4239847660064697 0.7712075710296631 -0.014842895790934563
0.4189426898956299 0.7766088247299194 -0.017686566337943077
0.4155161380767822 0.7838953733444214 -0.012647869065403938
0.3866439759731293 0.7022459506988525 -0.01419940497726202
0.25992339849472046 0.6090396046638489 0.2942039966583252
0.4774937033653259 0.6506893038749695 -0.09018374234437943
0.41764673590660095 0.7626382112503052 0.0034225007984787226
0.41258686780929565 0.7635253071784973 0.0010022709611803293
0.45034414529800415 0.6559048295021057 -0.06325904279947281
0.41792982816696167 0.64997798204422 -0.032542165368795395
0.4474495053291321 0.651370108127594 -0.06306342035531998
0.3996312618255615 0.5598377585411072 0.008089473471045494
0.3610544800758362 0.5760514736175537 0.019211165606975555
0.4060341715812683 0.6218377351760864 -0.03624913468956947
0.32064753770828247 0.31370943784713745 0.11250371485948563
0.33070147037506104 0.34721240401268005 0.06754488497972488
0.33904126286506653 0.38125935196876526 0.032529402524232864
0.39542654156684875 0.8044396638870239 0.0046290187165141106
0.43427467346191406 0.39241868257522583 -0.019790656864643097
0.43043971061706543 0.33530980348587036 0.002873743884265423
0.42578554153442383 0.2811781167984009 0.025152284651994705
0.3376791477203369 0.49215638637542725 0.06413563340902328
0.2882827818393707 0.5211598873138428 0.10362236946821213
0.42851153016090393 0.48781129717826843 0.03595347702503204
0.30723947286605835 0.45339876413345337 0.08313087373971939
0.43897151947021484 0.5300092697143555 -0.01254050899296999
0.4198858141899109 0.6147308349609375 -0.08266276121139526
0.2626652121543884 0.543796718120575 0.132444366812706
0.300076425075531 0.5385481715202332 0.07809922099113464
0.3262263238430023 0.548062801361084 0.05024034529924393
0.3686511218547821 0.5437998175621033 0.03262563422322273
0.4002286493778229 0.5336307287216187 0.022870371118187904
0.4233577251434326 0.5228156447410583 0.013194426894187927
0.4654027819633484 0.49749666452407837 -0.039823006838560104
0.2616543173789978 0.5966843962669373 0.12053380161523819
0.29195913672447205 0.4528784155845642 0.09857846051454544
0.4633393883705139 0.6438179016113281 -0.1166115403175354
0.42160293459892273 0.5710839033126831 -0.015707053244113922
0.25840485095977783 0.4956675171852112 0.2909306585788727
0.44049981236457825 0.5101848244667053 0.008085149340331554
0.40606170892715454 0.6233037710189819 -0.012436275370419025
0.3200661540031433 0.4687831401824951 0.08673389256000519
0.42098042368888855 0.5982491970062256 -0.07226404547691345
0.26361027359962463 0.672013521194458 0.2751906216144562
0.42902690172195435 0.47904497385025024 0.043857090175151825
0.4366588294506073 0.5836702585220337 -0.09706586599349976
0.30902236700057983 0.8036566972732544 0.10952983051538467
0.3135795593261719 0.8341857194900513 0.14733806252479553
0.24830880761146545 0.6045436859130859 0.20780450105667114
0.28463760018348694 0.7680772542953491 0.14291009306907654
0.2674666941165924 0.44757917523384094 0.18722446262836456
0.3901093304157257 0.8945331573486328 0.020766139030456543
0.46815696358680725 0.6498742699623108 -0.087149977684021
0.40136057138442993 0.589358389377594 -0.005668588913977146
0.2736141085624695 0.49248573184013367 0.14547643065452576
0.3572876453399658 0.47960084676742554 0.053709473460912704
0.3756685256958008 0.48160672187805176 0.04485172778367996
0.4042525291442871 0.7692624926567078 0.006216314621269703
0.2648671269416809 0.6490803360939026 0.12188559770584106
0.43243208527565 0.9352811574935913 0.016855450347065926
0.3678920269012451 0.8932436108589172 0.07718397676944733
0.3425433039665222 0.8683807253837585 0.10863520205020905
0.49325764179229736 0.3353019952774048 -0.013519794680178165
0.4848911762237549 0.9442794322967529 0.0009283177205361426
0.39395296573638916 0.4815080761909485 0.04047327861189842
0.41139835119247437 0.4803447127342224 0.04097609221935272
0.42308902740478516 0.4801446795463562 0.044310133904218674
0.2796787619590759 0.4497550129890442 0.12615302205085754
0.4097408354282379 0.46219125390052795 0.040346913039684296
0.39070919156074524 0.4542860686779022 0.03960217535495758
0.3711482882499695 0.45156562328338623 0.04416260868310928
0.3520440459251404 0.45383143424987793 0.05277663469314575
0.34048157930374146 0.458896279335022 0.06174181029200554
0.2611495554447174 0.4372236132621765 0.2584672272205353
0.34516894817352295 0.4762750267982483 0.06352131813764572
0.48151272535324097 0.6759867668151855 -0.06957037001848221
0.4064895808696747 0.6869221329689026 -0.032088153064250946
0.42637336254119873 0.6345852017402649 -0.06162867322564125
0.44808730483055115 0.677443265914917 -0.061423759907484055
0.4900648593902588 0.4595731496810913 -0.03283999115228653
0.3359488844871521 0.8379030823707581 0.08167251199483871
0.36154624819755554 0.865667462348938 0.0525980070233345
0.429795503616333 0.9172414541244507 -0.00912145059555769
0.2933853566646576 0.7952240705490112 0.1961708664894104
0.4228493273258209 0.47241246700286865 0.04258494824171066
0.44833916425704956 0.537321150302887 -0.048754606395959854
0.4822986423969269 0.9260164499282837 -0.023566514253616333
0.3958646059036255 0.9167207479476929 0.04362932965159416
0.25269144773483276 0.6624465584754944 0.19689242541790009
0.4435258209705353 0.7729524374008179 -0.0253385528922081
0.43911224603652954 0.7775951623916626 -0.028729990124702454
0.4354046583175659 0.7855211496353149 -0.0316929891705513
0.4333794414997101 0.7963287830352783 -0.027788927778601646
0.41721469163894653 0.8269491195678711 -0.010650540702044964
0.4110349118709564 0.7466461658477783 -0.0037026212085038424
0.40602630376815796 0.7449246644973755 -0.0017601849976927042
0.40236833691596985 0.7428136467933655 -0.0004929975257255137
0.3725741505622864 0.7237317562103271 0.008162911981344223
0.29204124212265015 0.6626223921775818 0.06816870719194412
0.45275524258613586 0.512065052986145 -0.0244822409003973
0.4449984133243561 0.46214234828948975 0.02338544838130474
0.43193456530570984 0.4640190005302429 0.03656232729554176
0.41618475317955017 0.7474278807640076 -0.002611601958051324
0.2917592227458954 0.7279510498046875 0.10040181875228882
0.4624176025390625 0.4622802436351776 -0.011178608052432537
0.40607303380966187 0.8451072573661804 0.001269675325602293
0.4790216088294983 0.5444203615188599 -0.1004566103219986
0.46214213967323303 0.5241466164588928 -0.06648129969835281
0.48262345790863037 0.5188472270965576 -0.07557313144207001
0.4309740662574768 0.5765483379364014 -0.05002717301249504
0.48145008087158203 0.8991708755493164 -0.0326077938079834
0.48223817348480225 0.870212197303772 -0.029874155297875404
0.4415060877799988 0.8645361661911011 -0.018726186826825142
0.3599483370780945 0.7879442572593689 0.03441927582025528
0.38757267594337463 0.6439083218574524 -0.003601283533498645
0.37980833649635315 0.8194097876548767 0.018982388079166412
0.33764344453811646 0.6402066946029663 0.015509516932070255
0.36763739585876465 0.6701338291168213 0.004323410801589489
0.3218739628791809 0.682167649269104 0.03665358945727348
0.43323802947998047 0.8915912508964539 -0.017920469865202904
0.4191523492336273 0.5907496213912964 -0.03205004706978798
0.34184783697128296 0.8076658248901367 0.05685127526521683
0.36720147728919983 0.8390461206436157 0.03573520854115486
0.3439285159111023 0.7524548768997192 0.040545880794525146
0.271702378988266 0.6947954893112183 0.12534533441066742
0.3169928193092346 0.7574459314346313 0.06580785661935806
0.2639313340187073 0.7174948453903198 0.1803630292415619
0.35263383388519287 0.7034214735031128 0.019018718972802162
0.435806542634964 0.5539556741714478 -0.030980078503489494
0.42715176939964294 0.6263921856880188 -0.08921969681978226
0.4161839485168457 0.6322634816169739 -0.06308440864086151
0.43320950865745544 0.6091017723083496 -0.10732001066207886
0.4268583059310913 0.43944990634918213 0.02179799973964691
0.3894291818141937 0.422092080116272 0.024183735251426697
0.3564048409461975 0.4175418019294739 0.03142349421977997
0.3301352858543396 0.42186349630355835 0.045617617666721344
0.3135721981525421 0.43358397483825684 0.06291133910417557
0.30654242634773254 0.47760605812072754 0.09795132279396057
0.24892833828926086 0.5502012372016907 0.20997478067874908
0.32066911458969116 0.5122499465942383 0.07332530617713928
0.34240302443504333 0.5198395252227783 0.05451429635286331
0.37187349796295166 0.5192313194274902 0.039761077612638474
0.39990541338920593 0.513983428478241 0.03108772076666355
0.42143556475639343 0.5072839856147766 0.026376895606517792
0.436247855424881 0.5002217888832092 0.022976798936724663
0.25995931029319763 0.5518300533294678 0.3016390800476074
0.4178180992603302 0.639051616191864 -0.052040085196495056
0.4442085325717926 0.5598881244659424 -0.06964106857776642
0.4394870698451996 0.6274731755256653 -0.11147989332675934
0.45370420813560486 0.6402716636657715 -0.1056133508682251
0.4422314763069153 0.6322506666183472 -0.10011517256498337
0.424299955368042 0.64665687084198 -0.04636111110448837
0.4568076431751251 0.6423845291137695 -0.11273269355297089
0.461345374584198 0.6483815908432007 -0.08597103506326675
0.4366208016872406 0.4805335998535156 0.03741085156798363
0.4478328227996826 0.48717278242111206 0.019298434257507324
0.45349085330963135 0.4915514886379242 5.478436651173979e-05
0.33402544260025024 0.4631076455116272 0.07029898464679718
0.31844186782836914 0.4526739716529846 0.07343227416276932
0.5005016326904297 0.5481671690940857 -0.0971723198890686
0.6748061776161194 0.47994279861450195 0.008138725534081459
0.5021789073944092 0.6447066068649292 -0.09179925918579102
0.7948010563850403 0.3894818425178528 0.11034711450338364
0.6058622598648071 0.49736154079437256 -0.005832926370203495
0.6282578706741333 0.49891728162765503 -0.00863694865256548
0.652094841003418 0.4999293088912964 -0.006250141188502312
0.6884979009628296 0.49037039279937744 0.008334505371749401
0.587247371673584 0.49415653944015503 0.0014987385366111994
0.6443029046058655 0.43051910400390625 -0.014949715696275234
0.6167987585067749 0.4331352114677429 -0.008864407427608967
0.6707369685173035 0.43543940782546997 -0.01205895934253931
0.6881176233291626 0.4463641047477722 -0.005685396958142519
0.7118662595748901 0.50783371925354 0.01578366756439209
0.5848138332366943 0.8747401237487793 -0.020115936174988747
0.6865514516830444 0.47542327642440796 0.014561764895915985
0.806865930557251 0.5009732246398926 0.1088712066411972
0.7455621361732483 0.49102479219436646 0.03662959113717079
0.6180799007415771 0.6111704707145691 -0.03991495817899704
0.5165961980819702 0.715512216091156 -0.08083055913448334
0.5169618129730225 0.732338011264801 -0.0716332271695137
0.5517722368240356 0.7204347848892212 -0.07251182943582535
0.5774489045143127 0.7272589802742004 -0.056819990277290344
0.5459208488464355 0.7324563264846802 -0.06587891280651093
0.5696931481361389 0.7349067330360413 -0.050655167549848557
0.6108158230781555 0.7843136787414551 -0.02122754417359829
0.4933467209339142 0.6306102275848389 -0.13213405013084412
0.49606913328170776 0.6056230068206787 -0.1382254809141159
0.7261275053024292 0.4280984699726105 -0.0026596514508128166
0.5677676796913147 0.5458173155784607 -0.030037865042686462
0.5610190033912659 0.6242589950561523 -0.08387602865695953
0.5651425123214722 0.6106956005096436 -0.07616817206144333
0.6990420818328857 0.6092460751533508 -0.024296492338180542
0.4980788230895996 0.5746709108352661 -0.12252046167850494
0.6619431972503662 0.40010496973991394 -0.028778569772839546
0.6989270448684692 0.4091436266899109 -0.01814337447285652
0.7608212828636169 0.3439064025878906 0.07383978366851807
0.5499647855758667 0.4206271767616272 -0.03203457221388817
0.5933623313903809 0.44424957036972046 0.0013117743656039238
0.6290061473846436 0.7539852261543274 -0.02082667499780655
0.789340078830719 0.7483479380607605 0.14856678247451782
0.5422475934028625 0.6389882564544678 -0.072419174015522
0.5220335125923157 0.646783709526062 -0.07118340581655502
0.6117243766784668 0.7429808974266052 -0.019970186054706573
0.6057435870170593 0.7435882687568665 -0.023920537903904915
0.7146367430686951 0.39412832260131836 -0.007268511690199375
0.5643794536590576 0.6358600854873657 -0.07151336222887039
0.6138951778411865 0.4013673663139343 -0.0336010716855526
0.6179050207138062 0.3824502229690552 -0.036928191781044006
0.6440874934196472 0.28669965267181396 0.008691300638020039
0.7341992855072021 0.36759838461875916 0.029012484475970268
0.6238764524459839 0.3328827917575836 -0.013945457525551319
0.7452048659324646 0.4174784719944 0.016416532918810844
0.7675899267196655 0.4043710231781006 0.06251548230648041
0.5170295238494873 0.7252650856971741 -0.07900931686162949
0.5486395955085754 0.72715824842453 -0.0702706128358841
0.5734699368476868 0.7312489151954651 -0.055653516203165054
0.5369021892547607 0.6437920928001404 -0.06603921949863434
0.6086574196815491 0.7432388067245483 -0.021919406950473785
0.5934118032455444 0.7591879367828369 -0.031166331842541695
0.6027525663375854 0.744155764579773 -0.023967694491147995
0.5261489748954773 0.6308675408363342 -0.10343774408102036
0.566648542881012 0.7369382381439209 -0.0467492938041687
0.5434020757675171 0.7351747155189514 -0.05675366893410683
0.5168333649635315 0.7356210350990295 -0.06255802512168884
0.5216678977012634 0.8455104827880859 -0.033561158925294876
0.5197839736938477 0.8018471002578735 -0.05531424283981323
0.5185648798942566 0.7899752855300903 -0.05902230739593506
0.5176834464073181 0.7808673977851868 -0.05389190837740898
0.5165969729423523 0.7745872735977173 -0.04955579340457916
0.5659826993942261 0.7641815543174744 -0.036774132400751114
0.5696848630905151 0.7666927576065063 -0.040392305701971054
0.5741381049156189 0.7720690965652466 -0.04402884095907211
0.5776287317276001 0.779424786567688 -0.04078482836484909
0.5960320234298706 0.7045318484306335 -0.05028022453188896
0.8221687078475952 0.6157553195953369 0.1894770860671997
0.5839757919311523 0.7569205164909363 -0.028125759214162827
0.5886362195014954 0.7572228312492371 -0.0306509118527174
0.5144427418708801 0.656469464302063 -0.0728316381573677
0.5580472946166992 0.6512808799743652 -0.052790187299251556
0.5180343389511108 0.6518524289131165 -0.07242194563150406
0.5949360728263855 0.5601835250854492 -0.028307009488344193
0.6368577480316162 0.5776594877243042 -0.02974834479391575
0.5714252591133118 0.6226006150245667 -0.06405257433652878
0.7130240201950073 0.3085196614265442 0.036855872720479965
0.6885438561439514 0.34279492497444153 0.004281866364181042
0.6716574430465698 0.3815799653530121 -0.024053599685430527
0.5883753895759583 0.8085431456565857 -0.0281344186514616
0.5577811002731323 0.38850873708724976 -0.03848983719944954
0.5611356496810913 0.3327934443950653 -0.019641650840640068
0.5743637681007385 0.27794644236564636 -0.0014367122203111649
0.674274742603302 0.49732792377471924 0.0005189728690311313
0.7407264709472656 0.5261093378067017 0.023143410682678223
0.5748146772384644 0.49024927616119385 0.007182151544839144
0.7155517339706421 0.4593554139137268 0.009329213760793209
0.5487565398216248 0.5296520590782166 -0.03458482772111893
0.5422303080558777 0.6148101091384888 -0.1037272959947586
0.7759348154067993 0.5476996898651123 0.04161406680941582
0.7188358306884766 0.5437768697738647 0.0024150877725332975
0.6819563508033752 0.5521019101142883 -0.014273615553975105
0.6312854886054993 0.5463418960571289 -0.016648270189762115
0.5968230366706848 0.5354719758033752 -0.014769397675991058
0.5715510845184326 0.5248599052429199 -0.015250549651682377
0.5107352137565613 0.4970329701900482 -0.04907102510333061
0.7706887125968933 0.6018207669258118 0.03000325709581375
0.7385672330856323 0.45684927701950073 0.017412258312106133
0.48769983649253845 0.6440191268920898 -0.12117381393909454
0.5633804202079773 0.5711641311645508 -0.04239661991596222
0.8257464170455933 0.4992813467979431 0.18206720054149628
0.5521154999732971 0.5125008225440979 -0.014069199562072754
0.5769753456115723 0.6242181658744812 -0.04000525176525116
0.7004058957099915 0.4766680598258972 0.016988549381494522
0.5461441278457642 0.5982913970947266 -0.09373149275779724
0.8122314214706421 0.6798058152198792 0.17472845315933228
0.5762858390808105 0.4821634888648987 0.014000309631228447
0.5222126841545105 0.5838241577148438 -0.11264931410551071
0.710267186164856 0.812335193157196 0.04184766486287117
0.7178178429603577 0.8438035249710083 0.0755300223827362
0.8083336353302002 0.6107994914054871 0.10928986966609955
0.7479169368743896 0.7760082483291626 0.06328896433115005
0.7888349890708923 0.44898897409439087 0.09254328906536102
0.5912759304046631 0.9021819829940796 -0.011606300249695778
0.48753926157951355 0.6498135924339294 -0.08994542807340622
0.5873051881790161 0.590055525302887 -0.03847966343164444
0.7721292972564697 0.4960263967514038 0.055917542427778244
0.6484330296516418 0.4833495318889618 -0.002061340492218733
0.6289306879043579 0.4835970997810364 -0.004465829115360975
0.5976166725158691 0.7624540328979492 -0.029013095423579216
0.7664204835891724 0.6550078988075256 0.03427811712026596
0.5426148772239685 0.940425455570221 -0.0021800005342811346
0.632851243019104 0.9027708768844604 0.030043043196201324
0.6724083423614502 0.8784396052360535 0.049817781895399094
0.6109314560890198 0.48285868763923645 -0.0014817583141848445
0.5940274000167847 0.48210835456848145 0.005165500100702047
0.5823934078216553 0.48270493745803833 0.012252122163772583
0.7615339756011963 0.45195192098617554 0.038927797228097916
0.5975049138069153 0.46347129344940186 0.0029973334167152643
0.6173646450042725 0.455122709274292 -0.0038588419556617737
0.6379567384719849 0.4536847174167633 -0.006587175652384758
0.6588841080665588 0.45796048641204834 -0.00492864940315485
0.6721802353858948 0.4648436903953552 0.00016128833522088826
0.8152294754981995 0.4386470317840576 0.15126192569732666
0.6629926562309265 0.48199793696403503 0.002933250041678548
0.5699477195739746 0.6885020732879639 -0.059580110013484955
0.5409807562828064 0.6346945762634277 -0.08003854751586914
0.5180396437644958 0.6782112121582031 -0.07303817570209503
0.6717090010643005 0.8472836017608643 0.02678348682820797
0.6333785057067871 0.874596357345581 0.00906998198479414
0.5405751466751099 0.9220036864280701 -0.026976807042956352
0.7553894519805908 0.8036056756973267 0.11121518164873123
0.5830217003822327 0.47522860765457153 0.009445883333683014
0.5254635214805603 0.5370582342147827 -0.06368175148963928
0.5903350114822388 0.9246375560760498 0.008582697249948978
0.7999123334884644 0.6697783470153809 0.10245220363140106
0.5427151918411255 0.7700054049491882 -0.0447002537548542
0.5457876920700073 0.774561882019043 -0.048767320811748505
0.5484585762023926 0.782649040222168 -0.0527743399143219
0.5505609512329102 0.7938095927238464 -0.04964683577418327
0.5593003034591675 0.8303769826889038 -0.034677013754844666
0.5905633568763733 0.7386854887008667 -0.03684760257601738
0.5944503545761108 0.7366842031478882 -0.03787911683320999
0.5979253053665161 0.7343940734863281 -0.038809482008218765
0.6163039207458496 0.7264920473098755 -0.03644828498363495
0.7218917608261108 0.6675130724906921 -0.006156264804303646
0.5293238759040833 0.5115954875946045 -0.03999427333474159
0.5548884272575378 0.463077187538147 0.0034538814797997475
0.5726356506347656 0.4657897353172302 0.008500966243445873
0.5867881178855896 0.7401732802391052 -0.03426818177103996
0.7289350032806396 0.7341734766960144 0.025394391268491745
0.5267868041992188 0.4627666473388672 -0.022981923073530197
0.5732564926147461 0.8500291109085083 -0.02505970001220703
0.5057044625282288 0.5238966941833496 -0.07443004846572876
0.5429039001464844 0.5768020153045654 -0.06974433362483978
0.5283926129341125 0.8675599098205566 -0.03139539808034897
0.6353476643562317 0.7936276793479919 -0.011439166031777859
0.5988944172859192 0.6456689238548279 -0.038305141031742096
0.6085241436958313 0.8252338767051697 -0.017316291108727455
0.6578776240348816 0.6433843374252319 -0.03823881968855858
0.6219170689582825 0.6728828549385071 -0.038861919194459915
0.6805046796798706 0.6866025924682617 -0.02472776174545288
0.5357361435890198 0.8956849575042725 -0.03470967710018158
0.5609247088432312 0.5908422470092773 -0.0567779541015625
0.6596415638923645 0.8154935240745544 0.004700725432485342
0.6235576272010803 0.8464357256889343 -0.004471504595130682
0.6544607877731323 0.7574541568756104 -0.0145899448543787
0.7596477270126343 0.7012608647346497 0.041635334491729736
0.690997302532196 0.7639042735099792 0.002473980188369751
0.7823255062103271 0.7251929640769958 0.09009799361228943
0.6421709656715393 0.7069456577301025 -0.03212141990661621
0.5441584587097168 0.5539053678512573 -0.05214904621243477
0.5333222150802612 0.6263580322265625 -0.10840002447366714
0.5520937442779541 0.6326713562011719 -0.08522075414657593
0.5200057625770569 0.6093013882637024 -0.12262025475502014
0.5749749541282654 0.43863528966903687 -0.005446172785013914
0.6149463057518005 0.4220728278160095 -0.014946581795811653
0.6508296132087708 0.4193476438522339 -0.01954212225973606
0.6813756227493286 0.42529764771461487 -0.01626736856997013
0.7035128474235535 0.43868231773376465 -0.006451142951846123
0.7196444869041443 0.4836481213569641 0.023589080199599266
0.8112895488739014 0.555155336856842 0.10889923572540283
0.6952142715454102 0.5175321698188782 0.004947486333549023
0.6662642955780029 0.5232521891593933 -0.005026312544941902
0.6315564513206482 0.5210961699485779 -0.009240897372364998
0.6012943983078003 0.5151219964027405 -0.00774662010371685
0.5788439512252808 0.5088469982147217 -0.0029816727619618177
0.5627207159996033 0.5021539330482483 -0.0010329694487154484
0.8256490230560303 0.5568596720695496 0.1933353990316391
0.553350567817688 0.6396358013153076 -0.07371809333562851
0.5220130085945129 0.5599108338356018 -0.08500657230615616
0.5129495859146118 0.6278622150421143 -0.12354148179292679
0.5020990371704102 0.6407473087310791 -0.11260540783405304
0.5149203538894653 0.6325553059577942 -0.11247337609529495
0.5480775237083435 0.6474910974502563 -0.06449510902166367
0.49611660838127136 0.6427319049835205 -0.11842628568410873
0.4960166811943054 0.6484005451202393 -0.09079822152853012
0.5667207837104797 0.48322492837905884 0.01247076503932476
0.550063967704773 0.4891117811203003 0.00035989045863971114
0.5375288724899292 0.4937857687473297 -0.015632497146725655
0.6802734136581421 0.4706026315689087 0.006169470492750406
0.6998695135116577 0.4598146975040436 0.005133603233844042
0.3677205443382263 0.46692970395088196 0.05226846784353256
0.3905556797981262 0.46667271852493286 0.05226846784353256
0.36710673570632935 0.4459182024002075 0.05226846784353256
0.3449746072292328 0.46715015172958374 0.05226846784353256
0.36830782890319824 0.4879031479358673 0.05226846784353256
0.6238080859184265 0.4680691957473755 0.003277628216892481
0.6465433835983276 0.46845415234565735 0.003277628216892481
0.6256502270698547 0.44872117042541504 0.003277628216892481
0.6019366979598999 0.4674640893936157 0.003277628216892481
0.6221697926521301 0.4877176284790039 0.003277628216892481
