ply
format ascii 1.0
element vertex 478
property float x
property float y
property float z
end_header
0.5135927796363831 0.7597758769989014 -0.04152143746614456
0.5237926244735718 0.6885489821434021 -0.1322868913412094
0.5130400061607361 0.702427327632904 -0.06285962462425232
0.4998365640640259 0.5835354328155518 -0.11829698085784912
0.5254724025726318 0.6595475673675537 -0.14472316205501556
0.5239300727844238 0.6172914505004883 -0.14087916910648346
0.516443133354187 0.5107683539390564 -0.09355518966913223
0.33401960134506226 0.4753192067146301 -0.019238922744989395
0.5145189166069031 0.4415214955806732 -0.08730421215295792
0.515331506729126 0.4046306312084198 -0.09863385558128357
0.5131440162658691 0.2492361068725586 -0.09834526479244232
0.5131345987319946 0.7667518854141235 -0.0360342413187027
0.5115959048271179 0.7732458114624023 -0.0281990859657526
0.5095975399017334 0.7769463062286377 -0.016685975715517998
0.5079064965248108 0.8107616901397705 -0.003121712477877736
0.5089110732078552 0.8209718465805054 -0.005309910513460636
0.5087890625 0.8333075046539307 -0.010222665965557098
0.507502019405365 0.8461023569107056 -0.006667610257863998
0.4972898066043854 0.8673430681228638 0.013874167576432228
0.5206581354141235 0.700358510017395 -0.11764398217201233
0.488727867603302 0.6938483715057373 -0.0859496220946312
0.2043514847755432 0.3534138798713684 0.05664278566837311
0.3989187777042389 0.49811267852783203 -0.03142860159277916
0.37636512517929077 0.4991545081138611 -0.03275943547487259
0.3523072600364685 0.49866360425949097 -0.029741326346993446
0.31838521361351013 0.4846665859222412 -0.015347476117312908
0.41752856969833374 0.49436360597610474 -0.026842769235372543
0.36674410104751587 0.43986082077026367 -0.05342026427388191
0.39263206720352173 0.44204235076904297 -0.04907204583287239
0.34209972620010376 0.44321107864379883 -0.048138003796339035
0.32474881410598755 0.4505016803741455 -0.03912179544568062
0.2905985116958618 0.5014035105705261 -0.002684988547116518
0.3979869484901428 0.9050336480140686 0.045115843415260315
0.32307589054107666 0.47014766931533813 -0.013761388137936592
0.1903456449508667 0.4797801971435547 0.0917430967092514
0.2556913197040558 0.48484835028648376 0.014094190672039986
0.37108442187309265 0.6253411173820496 -0.03547743335366249
0.47196248173713684 0.7510107755661011 -0.04452105239033699
0.47114935517311096 0.7670471668243408 -0.02819133922457695
0.4310270845890045 0.7477461099624634 -0.03187604621052742
0.4016115963459015 0.7446244359016418 -0.009731190279126167
0.4361768364906311 0.7596791982650757 -0.019182270392775536
0.40868648886680603 0.753638505935669 0.00033102830639109015
0.3594709038734436 0.7830876111984253 0.039908796548843384
0.5018229484558105 0.6869488954544067 -0.13253818452358246
0.5009178519248962 0.6579260230064392 -0.14460869133472443
0.2883707284927368 0.4374617338180542 -0.046892136335372925
0.4328050911426544 0.5594176650047302 -0.045300763100385666
0.42909175157546997 0.6571354866027832 -0.08037520200014114
0.42721372842788696 0.638565182685852 -0.07504625618457794
0.2862858474254608 0.6105854511260986 -0.015548115596175194
0.5008460283279419 0.6186131238937378 -0.13669277727603912
0.36038485169410706 0.4192603826522827 -0.08444937318563461
0.32052314281463623 0.4244174361228943 -0.07002554088830948
0.24096225202083588 0.3096924126148224 0.005036839749664068
0.46649158000946045 0.44281208515167236 -0.08756303787231445
0.4143761098384857 0.45040059089660645 -0.03740372508764267
0.3365296721458435 0.7498689889907837 0.0355740562081337
0.1985483467578888 0.746965229511261 0.20632237195968628
0.44536247849464417 0.6756120920181274 -0.06584157794713974
0.4664205312728882 0.685610830783844 -0.06267710030078888
0.3586743474006653 0.7409965991973877 0.039312489330768585
0.3654148578643799 0.7443676590919495 0.03527754545211792
0.30519676208496094 0.4080359935760498 -0.06313535571098328
0.4229390025138855 0.6632673740386963 -0.06435626745223999
0.4090704917907715 0.42371904850006104 -0.09036833047866821
0.40633803606033325 0.4031067490577698 -0.10047101229429245
0.36274197697639465 0.2560501992702484 -0.08276985585689545
0.27088963985443115 0.3512422740459442 -0.03398355841636658
0.38469403982162476 0.3200155794620514 -0.09381887316703796
0.26847827434539795 0.42345139384269714 -0.030996033921837807
0.23449350893497467 0.38529402017593384 0.010790402069687843
0.4712081849575043 0.7597255706787109 -0.038368064910173416
0.4336839020252228 0.7539347410202026 -0.02537405490875244
0.4051286280155182 0.7491196990013123 -0.005949983838945627
0.44956710934638977 0.6792002320289612 -0.05900268629193306
0.3621523082256317 0.7426650524139404 0.03731846064329147
0.38135015964508057 0.7662575244903564 0.02806251496076584
0.36841723322868347 0.7461397051811218 0.03485136106610298
0.4655393958091736 0.6778534650802612 -0.10215474665164948
0.41162651777267456 0.7568218111991882 0.004864141345024109
0.4388500154018402 0.7635999321937561 -0.008359160274267197
0.4716346561908722 0.771345853805542 -0.01710742898285389
0.4572686553001404 0.8634805679321289 0.012442359700798988
0.46610715985298157 0.8398350477218628 -0.008138895966112614
0.46796494722366333 0.8270534873008728 -0.011455638334155083
0.47005248069763184 0.814871072769165 -0.0060612838715314865
0.4716607630252838 0.8055711984634399 -0.0036360740195959806
0.41239994764328003 0.7801797986030579 0.01500934362411499
0.4087999165058136 0.7833133935928345 0.012401406653225422
0.40362146496772766 0.788957953453064 0.010343714617192745
0.39966607093811035 0.79582279920578 0.015139386989176273
0.37663698196411133 0.7214870452880859 -0.011230460368096828
0.1710393726825714 0.5972764492034912 0.20961099863052368
0.5173303484916687 0.7028859257698059 -0.08294574916362762
0.3918505907058716 0.7657665014266968 0.02775947004556656
0.38682782649993896 0.7653743624687195 0.026827126741409302
0.47483766078948975 0.6961708068847656 -0.059882327914237976
0.4267556965351105 0.6758669018745422 -0.04073787480592728
0.4709073603153229 0.6911674737930298 -0.062412165105342865
0.40377238392829895 0.5705833435058594 -0.03755869343876839
0.3573371171951294 0.5843155980110168 -0.033812884241342545
0.41857439279556274 0.6464514136314392 -0.059170037508010864
0.2919151186943054 0.27602478861808777 -0.04328510910272598
0.31918495893478394 0.3283730447292328 -0.0675491914153099
0.35218703746795654 0.39883512258529663 -0.08544529974460602
0.3849838376045227 0.8157586455345154 0.030781803652644157
0.4626557528972626 0.41052091121673584 -0.10362012684345245
0.44721123576164246 0.32043877243995667 -0.10409628599882126
0.4335188865661621 0.24810218811035156 -0.10045916587114334
0.3309985399246216 0.49364346265792847 -0.022596729919314384
0.25651001930236816 0.5188880562782288 0.011236502788960934
0.42962342500686646 0.4899941384792328 -0.023511458188295364
0.2941725254058838 0.46004173159599304 -0.022813813760876656
0.45328712463378906 0.5455403923988342 -0.055219102650880814
0.451121985912323 0.6561527252197266 -0.10497608035802841
0.22146914899349213 0.5375603437423706 0.03806580603122711
0.27929598093032837 0.5381461381912231 -0.004659533500671387
0.31630587577819824 0.5499021410942078 -0.02069198712706566
0.3671390116214752 0.5475339889526367 -0.026972537860274315
0.4027380645275116 0.5381543636322021 -0.02937602996826172
0.4285491406917572 0.5282591581344604 -0.03501955792307854
0.49195846915245056 0.5160462856292725 -0.08611166477203369
0.21969175338745117 0.5949932932853699 0.04262005537748337
0.2694108188152313 0.45698079466819763 -0.01664438471198082
0.5062954425811768 0.6990362405776978 -0.118016816675663
0.4335969090461731 0.5902100205421448 -0.050434429198503494
0.17012906074523926 0.4660318195819855 0.1654169261455536
0.4489443004131317 0.517319917678833 -0.03948356211185455
0.41243624687194824 0.6431196928024292 -0.03308654576539993
0.3090369403362274 0.4716861844062805 -0.010297765024006367
0.44926902651786804 0.6330720782279968 -0.09838506579399109
0.17869988083839417 0.6703280806541443 0.2131156176328659
0.4277270436286926 0.4811129868030548 -0.019865041598677635
0.4757211208343506 0.6239352226257324 -0.12294453382492065
0.27039095759391785 0.8255234956741333 0.110417440533638
0.2688176929950714 0.8589493036270142 0.15094363689422607
0.18423283100128174 0.6012471318244934 0.12708768248558044
0.23177534341812134 0.7843567728996277 0.12534530460834503
0.21043777465820312 0.4269908368587494 0.05674334242939949
0.39272093772888184 0.9366991519927979 0.06198296695947647
0.505813479423523 0.7014143466949463 -0.08250583708286285
0.406250536441803 0.6054901480674744 -0.04010900482535362
0.22575007379055023 0.4874679446220398 0.03569571673870087
0.35931596159935 0.4816780686378479 -0.02911742404103279
0.3786548972129822 0.4833157956600189 -0.03230748698115349
0.37670764327049255 0.7679435014724731 0.03154952451586723
0.21618050336837769 0.6542165279388428 0.06347904354333878
0.4403496980667114 0.9787613153457642 0.07230108231306076
0.3564469814300537 0.932935893535614 0.10669883340597153
0.31670933961868286 0.902032732963562 0.12702830135822296
0.5150836110115051 0.3236656188964844 -0.10132382810115814
0.49292421340942383 0.984243631362915 0.07342478632926941
0.3959980309009552 0.48276013135910034 -0.031111937016248703
0.4124285578727722 0.4813462495803833 -0.026121169328689575
0.42285630106925964 0.48137038946151733 -0.02085203118622303
0.24450035393238068 0.44863516092300415 0.0038275462575256824
0.40969282388687134 0.4630189836025238 -0.0329398512840271
0.39109641313552856 0.45599165558815 -0.04047524183988571
0.37185707688331604 0.4550568461418152 -0.04234783723950386
0.35184594988822937 0.45833253860473633 -0.0386919341981411
0.3385099768638611 0.4631407558917999 -0.03150958567857742
0.18181610107421875 0.4022246301174164 0.11465097218751907
0.34516003727912903 0.47872745990753174 -0.024110855534672737
0.5098601579666138 0.7196576595306396 -0.05043164640665054
0.41067346930503845 0.7135171890258789 -0.031073231250047684
0.4479704201221466 0.674532949924469 -0.07680445164442062
0.4687674641609192 0.7171491980552673 -0.051790788769721985
0.5139917731285095 0.4729803800582886 -0.08128570020198822
0.31306713819503784 0.8671832084655762 0.10051120817661285
0.3519667983055115 0.9020538926124573 0.08368641138076782
0.4410107135772705 0.9591732025146484 0.045196712017059326
0.2308041900396347 0.8104737401008606 0.18010589480400085
0.4220297336578369 0.4740229845046997 -0.02560715563595295
0.4755549728870392 0.5626293420791626 -0.0861026793718338
0.4942625164985657 0.9646209478378296 0.04699446260929108
0.39639636874198914 0.9604164361953735 0.08439718186855316
0.18842151761054993 0.6667667031288147 0.13699908554553986
0.4400572180747986 0.7944075465202332 0.0038491718005388975
0.43647393584251404 0.8009191155433655 0.0012482530437409878
0.43281951546669006 0.8105856776237488 -0.0018604721408337355
0.4305422306060791 0.8222211599349976 0.0023144909646362066
0.4166794419288635 0.844327449798584 0.019012603908777237
0.38421693444252014 0.7484526634216309 0.01819748431444168
0.3804248571395874 0.7451635599136353 0.017294051125645638
0.37712085247039795 0.7420165538787842 0.015275358222424984
0.34928563237190247 0.7323350310325623 0.011607879772782326
0.2531140446662903 0.6721956133842468 0.021612435579299927
0.4734947383403778 0.5293875932693481 -0.06898375600576401
0.4521227180957794 0.468984991312027 -0.03613845631480217
0.4329211115837097 0.4682212471961975 -0.02938327006995678
0.38806283473968506 0.7513474822044373 0.020929759368300438
0.244050532579422 0.74144446849823 0.07407376915216446
0.4793333411216736 0.47406983375549316 -0.0674009770154953
0.4067580997943878 0.8722251653671265 0.03253217041492462
0.5213472247123718 0.5809018015861511 -0.12383785843849182
0.49609053134918213 0.5515661239624023 -0.10461912304162979
0.5189588069915771 0.5472365021705627 -0.10804572701454163
0.45469143986701965 0.6048412322998047 -0.07997225224971771
0.4960183799266815 0.9346699714660645 0.029209356755018234
0.4966970682144165 0.898273229598999 0.022258400917053223
0.45190420746803284 0.8940823078155518 0.023030748590826988
0.3420308232307434 0.8003089427947998 0.05067919194698334
0.3867042362689972 0.6621648669242859 -0.024869855493307114
0.3716777265071869 0.8397811651229858 0.04427489638328552
0.32095572352409363 0.6549479961395264 -0.02356673777103424
0.3561229109764099 0.6874323487281799 -0.013984940946102142
0.29092442989349365 0.6956772804260254 0.005799096077680588
0.4454071521759033 0.9296011924743652 0.02901054546236992
0.4344220459461212 0.6143522262573242 -0.06065730005502701
0.3224676251411438 0.8294761180877686 0.0714658573269844
0.36006033420562744 0.8688468933105469 0.06331553310155869
0.3176475167274475 0.7599889039993286 0.04039369150996208
0.21889203786849976 0.7048571705818176 0.08381400257349014
0.2829766273498535 0.7719326019287109 0.057750239968299866
0.2024853527545929 0.7279654145240784 0.14103072881698608
0.32675468921661377 0.7133795022964478 0.0051915207877755165
0.4552857577800751 0.5763627290725708 -0.06678899377584457
0.45872607827186584 0.6724538803100586 -0.1085062325000763
0.4367246627807617 0.6694605350494385 -0.08038732409477234
0.47558289766311646 0.6576512455940247 -0.12705351412296295
0.436441570520401 0.450533390045166 -0.049457985907793045
0.3997483253479004 0.43695563077926636 -0.06155123561620712
0.36583900451660156 0.43292200565338135 -0.06509815901517868
0.3348391652107239 0.43598341941833496 -0.058233048766851425
0.3106498122215271 0.4449704885482788 -0.04473214969038963
0.2858434021472931 0.4787490963935852 -0.0018108696676790714
0.18450137972831726 0.5397297143936157 0.11021508276462555
0.30753907561302185 0.5126008987426758 -0.011028564535081387
0.3351763188838959 0.5213323831558228 -0.02104918099939823
0.370110422372818 0.5216221809387207 -0.026369217783212662
0.400812029838562 0.5167223215103149 -0.027291439473628998
0.42363637685775757 0.5104014277458191 -0.026997903361916542
0.4401089549064636 0.5044621229171753 -0.027892164885997772
0.16967934370040894 0.5299428701400757 0.1946810632944107
0.43360716104507446 0.6719897389411926 -0.06686058640480042
0.4775933623313904 0.5925799608230591 -0.10109881311655045
0.4806039035320282 0.6806858777999878 -0.12424713373184204
0.4896344840526581 0.6925997138023376 -0.1096283346414566
0.47704407572746277 0.6830576062202454 -0.11178496479988098
0.4373861849308014 0.677531361579895 -0.05547280237078667
0.4967399835586548 0.6965621709823608 -0.11514993011951447
0.4960348904132843 0.6987772583961487 -0.08412521332502365
0.4372955560684204 0.48381078243255615 -0.021340107545256615
0.45349571108818054 0.49272555112838745 -0.03287747502326965
0.4649641215801239 0.5000606775283813 -0.04879966378211975
0.33016490936279297 0.4669766128063202 -0.024011660367250443
0.31159621477127075 0.45972785353660583 -0.025504352524876595
0.5404173135757446 0.5837951302528381 -0.111287921667099
0.6645829677581787 0.4701557457447052 0.029773853719234467
0.5436968803405762 0.6932817697525024 -0.08059008419513702
0.7511535286903381 0.36442044377326965 0.13323375582695007
0.5986449718475342 0.49059441685676575 0.000427462364314124
0.6207631826400757 0.49194252490997314 0.005366842728108168
0.6434766054153442 0.4931034445762634 0.014245826750993729
0.6749035716056824 0.48069992661476135 0.036541640758514404
0.5806881785392761 0.4879035949707031 -0.0016837574075907469
0.6386070251464844 0.4298642873764038 -0.013218600302934647
0.6116411685943604 0.4319252073764801 -0.017213284969329834
0.6625833511352539 0.4345579147338867 -0.0019829701632261276
0.6772070527076721 0.44394928216934204 0.010508171282708645
0.6948491334915161 0.4988662004470825 0.053140051662921906
0.5827604532241821 0.9025142192840576 0.06892812997102737
0.6748098731040955 0.46546339988708496 0.03755728155374527
0.7615664005279541 0.48619726300239563 0.16675037145614624
0.721178412437439 0.48173579573631287 0.07640531659126282
0.6322680711746216 0.6277854442596436 -0.002052403287962079
0.5502969622612 0.7528537511825562 -0.03553827852010727
0.5451700091362 0.7690228819847107 -0.019791672006249428
0.5789819955825806 0.7503058910369873 -0.01343429833650589
0.597758412361145 0.748489260673523 0.015863213688135147
0.570345401763916 0.7630917429924011 -0.002827361226081848
0.5885425209999084 0.7583837509155273 0.02240493707358837
0.6144081354141235 0.7833772897720337 0.07283604890108109
0.5439153909683228 0.6867567300796509 -0.1281176507472992
0.5476757287979126 0.6581102609634399 -0.1393057405948639
0.7123658061027527 0.42978155612945557 0.011904215440154076
0.5783699750900269 0.5605155229568481 -0.023815808817744255
0.5938019752502441 0.657706618309021 -0.060376014560461044
0.5930302739143372 0.639603853225708 -0.054525718092918396
0.7034127712249756 0.6139028668403625 0.03852241113781929
0.5446454286575317 0.6188306212425232 -0.12987273931503296
0.6584697961807251 0.40624988079071045 -0.04297687113285065
0.6910578608512878 0.4142038822174072 -0.018573952838778496
0.7316335439682007 0.3206880986690521 0.07391858845949173
0.5550214648246765 0.42996928095817566 -0.07354810833930969
0.5881420373916626 0.44147059321403503 -0.01158259715884924
0.6373831033706665 0.7507830858230591 0.07543687522411346
0.7221078276634216 0.7480393648147583 0.2787131369113922
0.5765236616134644 0.6754987239837646 -0.05117853358387947
0.557412326335907 0.6860154271125793 -0.055177584290504456
0.6232046484947205 0.748067319393158 0.07412534207105637
0.6165198087692261 0.7513051629066467 0.06628240644931793
0.7033352851867676 0.39784157276153564 -0.00854125339537859
0.5938445329666138 0.6641858220100403 -0.04466629400849342
0.6136171817779541 0.4090057611465454 -0.06183542683720589
0.6189671754837036 0.38835084438323975 -0.07127867639064789
0.647633969783783 0.263531893491745 -0.043514151126146317
0.7186684012413025 0.3580738306045532 0.025766950100660324
0.6348139047622681 0.3245520293712616 -0.06079719215631485
0.7255038022994995 0.41667109727859497 0.031555935740470886
0.739850640296936 0.39253824949264526 0.07825133949518204
0.5486441850662231 0.7617567181587219 -0.029423363506793976
0.5750182271003723 0.7571198344230652 -0.007983663119375706
0.5936816334724426 0.7533339858055115 0.017609737813472748
0.5712709426879883 0.6791688203811646 -0.0468924455344677
0.619784951210022 0.7496588826179504 0.06971481442451477
0.6062767505645752 0.7723346948623657 0.05541837960481644
0.6132495403289795 0.7529666423797607 0.06514596939086914
0.5668992400169373 0.6775298714637756 -0.08848216384649277
0.5836148858070374 0.7619319558143616 0.025900913402438164
0.565311074256897 0.7672285437583923 0.007134898100048304
0.540851354598999 0.7733435034751892 -0.008365631103515625
0.5335686206817627 0.8631433248519897 0.021000059321522713
0.5430794954299927 0.8415204882621765 0.0010161782847717404
0.5433962345123291 0.8284912109375 -0.0018198291072621942
0.5414833426475525 0.8162874579429626 0.003318055998533964
0.5380652546882629 0.8070750832557678 0.0053014508448541164
0.58094722032547 0.7850501537322998 0.03616305813193321
0.5859202146530151 0.7882059812545776 0.0335686132311821
0.5913971066474915 0.7939662337303162 0.0322752445936203
0.5946438312530518 0.8009719848632812 0.038540516048669815
0.6169999837875366 0.722963273525238 0.017928922548890114
0.7478758096694946 0.6035401225090027 0.28947657346725464
0.5947082042694092 0.7715332508087158 0.054306358098983765
0.600823163986206 0.7712737321853638 0.05339231714606285
0.5482627153396606 0.696792483329773 -0.052327584475278854
0.5861020088195801 0.6767236590385437 -0.025011597201228142
0.5528203248977661 0.691796600818634 -0.0550934262573719
0.6022507548332214 0.5724519491195679 -0.00886277575045824
0.6439366340637207 0.5871897339820862 0.005007229279726744
0.5963051319122314 0.6477704048156738 -0.037861958146095276
0.699551522731781 0.28600457310676575 0.012971552088856697
0.6853683590888977 0.33438563346862793 -0.01940198987722397
0.6669681668281555 0.38600072264671326 -0.04187186062335968
0.5940259099006653 0.8155121207237244 0.05786346271634102
0.5640479922294617 0.39642587304115295 -0.08884555101394653
0.5802720785140991 0.3230639398097992 -0.08684386312961578
0.5883134603500366 0.252514511346817 -0.08052610605955124
0.662860631942749 0.48881787061691284 0.026313701644539833
0.7193621397018433 0.5166628956794739 0.07304369658231735
0.569438636302948 0.4841170310974121 -0.0011719460599124432
0.6998447775840759 0.4545505940914154 0.03361812233924866
0.5632417798042297 0.5460759997367859 -0.03816070780158043
0.5813192129135132 0.6565817594528198 -0.08877168595790863
0.7489544749259949 0.5424333810806274 0.10774659365415573
0.7045212984085083 0.536351203918457 0.05370144546031952
0.6754066348075867 0.5486569404602051 0.02942420169711113
0.6303619742393494 0.5466145873069763 0.01152969803661108
0.5978091955184937 0.5368245244026184 1.366460037388606e-05
0.5752396583557129 0.5272423028945923 -0.012874395586550236
0.5373545289039612 0.5162400007247925 -0.0788586214184761
0.7508105039596558 0.5991733074188232 0.1122925654053688
0.7182618379592896 0.4523734450340271 0.04506072402000427
0.5337937474250793 0.6986660957336426 -0.11452896893024445
0.5805255174636841 0.5914550423622131 -0.029677439481019974
0.7588260769844055 0.47503209114074707 0.24802841246128082
0.5581985712051392 0.5157840251922607 -0.02236831560730934
0.5968042612075806 0.6446755528450012 -0.011601402424275875
0.6849406957626343 0.4672553539276123 0.043338336050510406
0.5798410773277283 0.6337659358978271 -0.08188611268997192
0.7394216060638428 0.6739698648452759 0.2896873652935028
0.5705143213272095 0.47444963455200195 0.003437533276155591
0.56257563829422 0.6242888569831848 -0.11093426495790482
0.6831181049346924 0.8230071663856506 0.16293027997016907
0.6718960404396057 0.8555393218994141 0.20655794441699982
0.7630116939544678 0.6052770614624023 0.2022971659898758
0.7149910926818848 0.7832621932029724 0.18668924272060394
0.7517958879470825 0.43430137634277344 0.12858296930789948
0.5848128795623779 0.9331352114677429 0.08724554628133774
0.528563380241394 0.7013049721717834 -0.08027716726064682
0.601394772529602 0.6073852181434631 -0.014431606978178024
0.7378131151199341 0.4853079915046692 0.10396449267864227
0.6403318047523499 0.4741476774215698 0.013982122763991356
0.6208508014678955 0.4744911193847656 0.00583278015255928
0.6104176044464111 0.7742013335227966 0.06084953993558884
0.7483837604522705 0.6569147109985352 0.13132594525814056
0.5416598916053772 0.9764245748519897 0.0873967781662941
0.6076793074607849 0.9281835556030273 0.1432051807641983
0.6366258263587952 0.897159218788147 0.17278707027435303
0.6026928424835205 0.47372740507125854 0.001491256640292704
0.5858154296875 0.4732787311077118 0.0017926230793818831
0.5751752853393555 0.4743475019931793 0.004227200523018837
0.7330124378204346 0.44494426250457764 0.07022325694561005
0.5912827849388123 0.45677733421325684 -0.004139117896556854
0.6113774180412292 0.4490707218647003 -0.006865269038826227
0.6319338083267212 0.44753843545913696 -0.003353229258209467
0.6515310406684875 0.45135200023651123 0.005636168643832207
0.6632853746414185 0.4575694799423218 0.015867872163653374
0.7603537440299988 0.4124614894390106 0.19527770578861237
0.6541388630867004 0.4725480079650879 0.02266857773065567
0.5936108231544495 0.7148951888084412 -0.008869122713804245
0.5769296288490295 0.6744022369384766 -0.06273749470710754
0.5481107234954834 0.7175843715667725 -0.042518265545368195
0.6467640995979309 0.8636297583580017 0.14347055554389954
0.6160759925842285 0.8980846405029297 0.11761834472417831
0.5438083410263062 0.9572092294692993 0.05896931141614914
0.6988052129745483 0.8091210722923279 0.2453039586544037
0.5774174332618713 0.46767646074295044 8.128093759296462e-05
0.5531998872756958 0.5631527900695801 -0.07458451390266418
0.5782885551452637 0.9563656449317932 0.11152367293834686
0.755090057849884 0.6690891981124878 0.20930872857570648
0.5620062947273254 0.7977556586265564 0.019677381962537766
0.5669090151786804 0.8042730093002319 0.017497023567557335
0.5707622766494751 0.8139626383781433 0.015259870328009129
0.5723959803581238 0.826015830039978 0.020202888175845146
0.5682917237281799 0.8437709808349609 0.03903023526072502
0.6039599776268005 0.7544207572937012 0.045665740966796875
0.6087650656700134 0.7508680820465088 0.047172363847494125
0.6127675771713257 0.7475165724754333 0.04687854275107384
0.6336356401443481 0.7337175607681274 0.04827322065830231
0.7233371734619141 0.6743467450141907 0.08038812130689621
0.5496895909309387 0.5298537015914917 -0.05694941058754921
0.5539378523826599 0.46139997243881226 -0.02095450833439827
0.5678975582122803 0.4610019624233246 -0.007572822272777557
0.5986071228981018 0.7575128078460693 0.04757410287857056
0.7172054052352905 0.7417395114898682 0.13301792740821838
0.5356417894363403 0.46745631098747253 -0.058125533163547516
0.5752911567687988 0.8706799745559692 0.05387936159968376
0.5391556024551392 0.5517683029174805 -0.09840525686740875
0.5698234438896179 0.6057963967323303 -0.06481847912073135
0.5373464822769165 0.893135130405426 0.033093392848968506
0.6294766664505005 0.7999774813652039 0.08829773217439651
0.615654706954956 0.6640785932540894 0.002628750866279006
0.6035429239273071 0.838435709476471 0.07388231158256531
0.6734822988510132 0.6572300791740417 0.019799061119556427
0.6384994983673096 0.6894710063934326 0.02105928398668766
0.6915001273155212 0.6973659992218018 0.05550399795174599
0.5426356792449951 0.9282424449920654 0.0419573150575161
0.5822572112083435 0.615653932094574 -0.041692595928907394
0.6446037292480469 0.8274468183517456 0.11326421052217484
0.6129997372627258 0.8662236928939819 0.09543292969465256
0.6550108194351196 0.7608535289764404 0.0857037603855133
0.7390977144241333 0.7061740159988403 0.1489741951227188
0.6836848855018616 0.7714595198631287 0.10865254700183868
0.7397171854972839 0.7287386655807495 0.21027721464633942
0.6565430760383606 0.7153968811035156 0.047152403742074966
0.5658658742904663 0.5772226452827454 -0.05041663721203804
0.5745592713356018 0.6722090840339661 -0.09378878772258759
0.5871554613113403 0.6696701049804688 -0.06350642442703247
0.5660653114318848 0.6576741933822632 -0.11536220461130142
0.572481632232666 0.43982574343681335 -0.028634727001190186
0.6114135980606079 0.4245651066303253 -0.0312326792627573
0.6464323997497559 0.4219752550125122 -0.02538914978504181
0.6746675968170166 0.42734605073928833 -0.01041650865226984
0.6924045085906982 0.438226580619812 0.00845853891223669
0.7003615498542786 0.474687784910202 0.05528421327471733
0.7646476030349731 0.545073390007019 0.18735863268375397
0.6817336082458496 0.5100442171096802 0.04165535047650337
0.6575800180435181 0.5183908343315125 0.025070209056138992
0.626052975654602 0.5177595019340515 0.011737024411559105
0.5974364280700684 0.5122751593589783 0.0028954739682376385
0.5764890909194946 0.506640613079071 -0.0041597699746489525
0.5621799826622009 0.5008158087730408 -0.00931102130562067
0.7521085739135742 0.5378842353820801 0.2772524058818817
0.5857996344566345 0.6722838282585144 -0.0502728708088398
0.5561151504516602 0.593059241771698 -0.08919443935155869
0.5599731206893921 0.680020809173584 -0.11492089927196503
0.5463114380836487 0.6917616128921509 -0.10422095656394958
0.5587689280509949 0.6823551058769226 -0.10219356417655945
0.5799025893211365 0.6779155135154724 -0.041350144892930984
0.541696310043335 0.6959308385848999 -0.11071916669607162
0.5371344685554504 0.6982730627059937 -0.08035816997289658
0.5623928308486938 0.47753870487213135 -0.001927903387695551
0.5509330034255981 0.4879975914955139 -0.018192512914538383
0.5449753999710083 0.4970630407333374 -0.03668545186519623
0.6700384020805359 0.46236610412597656 0.025328099727630615
0.6862728595733643 0.45437610149383545 0.02687370963394642
0.3777032196521759 0.46971791982650757 -0.028254345059394836
0.3982633054256439 0.46985089778900146 -0.028254345059394836
0.37829551100730896 0.44873732328414917 -0.028254345059394836
0.35606372356414795 0.46927589178085327 -0.028254345059394836
0.3765964210033417 0.4909743666648865 -0.028254345059394836
0.6106013655662537 0.4630626440048218 0.009582440368831158
0.6392563581466675 0.4625064730644226 0.009582440368831158
0.6111136078834534 0.43812212347984314 0.009582440368831158
0.582416832447052 0.4634280204772949 0.009582440368831158
0.6104603409767151 0.48799341917037964 0.009582440368831158
