ply
format ascii 1.0
element vertex 478
property float x
property float y
property float z
end_header
0.4645395874977112 0.6956934928894043 -0.07925087958574295
0.4420066475868225 0.6165149211883545 -0.13940700888633728
0.4580756425857544 0.6450890302658081 -0.08045462518930435
0.44015032052993774 0.5358765721321106 -0.09082598239183426
0.4422396123409271 0.5893734097480774 -0.1457168310880661
0.44979244470596313 0.5572749972343445 -0.13315248489379883
0.47401443123817444 0.48258644342422485 -0.05889729782938957
0.3459011912345886 0.4815884530544281 0.10123811662197113
0.4822707176208496 0.42194175720214844 -0.03525806963443756
0.48284199833869934 0.3878093957901001 -0.03560004383325577
0.49765947461128235 0.2663986086845398 0.0011144255986437201
0.4651494026184082 0.7024354934692383 -0.0771348848938942
0.4674883186817169 0.7078814506530762 -0.07110999524593353
0.4707874357700348 0.7103505730628967 -0.06228698045015335
0.46886494755744934 0.7766289710998535 -0.04531246796250343
0.46630096435546875 0.7854765057563782 -0.051237091422080994
0.46441519260406494 0.7973324656486511 -0.05779121816158295
0.4645792245864868 0.8106281757354736 -0.055224426090717316
0.46540260314941406 0.8338005542755127 -0.036890968680381775
0.4467686414718628 0.6320312023162842 -0.1280183345079422
0.43179264664649963 0.6326881051063538 -0.08883307874202728
0.30159494280815125 0.40265172719955444 0.25943121314048767
0.4007735252380371 0.5011476874351501 0.053960468620061874
0.3800520896911621 0.5023846626281738 0.06318764388561249
0.36084964871406555 0.5011730790138245 0.07696567475795746
0.33760952949523926 0.49051433801651 0.1074805036187172
0.41890859603881836 0.49642473459243774 0.048308420926332474
0.36980751156806946 0.4352520704269409 0.0586397610604763
0.39392945170402527 0.4383770823478699 0.04947671666741371
0.3479185104370117 0.4391060471534729 0.0737093985080719
0.33453354239463806 0.4487515687942505 0.0879792645573616
0.3208272159099579 0.5048752427101135 0.1232418641448021
0.38152775168418884 0.8629077672958374 0.018826015293598175
0.3397255837917328 0.47722840309143066 0.11258972436189651
0.283033549785614 0.5079424381256104 0.25889649987220764
0.30257272720336914 0.4888345003128052 0.1579679399728775
0.3586280941963196 0.5992329716682434 0.0192803256213665
0.429745614528656 0.691362738609314 -0.06528972834348679
0.43735191226005554 0.7063833475112915 -0.05664200708270073
0.40211963653564453 0.697223961353302 -0.038036271929740906
0.386025071144104 0.706168532371521 -0.005864627193659544
0.4151155352592468 0.708352267742157 -0.034103747457265854
0.39969077706336975 0.7130786180496216 -0.005836811847984791
0.3649531602859497 0.7577385902404785 0.04532895237207413
0.4238895773887634 0.6159732937812805 -0.13183361291885376
0.42152291536331177 0.5899423956871033 -0.13635137677192688
0.30578842759132385 0.4243834614753723 0.10832430422306061
0.41451355814933777 0.5399084687232971 0.008169444277882576
0.3869345784187317 0.6094509959220886 -0.052340734750032425
0.38905441761016846 0.5964959263801575 -0.04287644103169441
0.2966587245464325 0.5965192914009094 0.07739505171775818
0.43018728494644165 0.5602055191993713 -0.11745473742485046
0.3474382162094116 0.39942502975463867 0.045851971954107285
0.3214488923549652 0.40649643540382385 0.07696203142404556
0.313831090927124 0.35434669256210327 0.20580555498600006
0.4367591142654419 0.42334115505218506 -0.011031773872673512
0.41508054733276367 0.44866305589675903 0.04893713444471359
0.34840667247772217 0.7251225113868713 0.05753738805651665
0.3062063455581665 0.7527778148651123 0.2927388846874237
0.4044800400733948 0.6251503825187683 -0.05023135989904404
0.4220752716064453 0.633582592010498 -0.06335702538490295
0.37377220392227173 0.72884202003479 0.05214961990714073
0.3814765512943268 0.7291826605796814 0.04182954132556915
0.31278830766677856 0.3909543752670288 0.09520488977432251
0.3885694742202759 0.6198095679283142 -0.040309689939022064
0.3847696781158447 0.40363115072250366 0.01577054150402546
0.3808653950691223 0.38407984375953674 0.013732463121414185
0.3781965374946594 0.28657057881355286 0.0802236944437027
0.31427258253097534 0.374028742313385 0.1438780128955841
0.38078486919403076 0.3305181860923767 0.046493273228406906
0.29757294058799744 0.41422733664512634 0.13584569096565247
0.30025315284729004 0.41342395544052124 0.194184347987175
0.4321952164173126 0.7001906633377075 -0.0628330260515213
0.4079439640045166 0.7037316560745239 -0.036470405757427216
0.3921121060848236 0.709967851638794 -0.00783216580748558
0.4100087583065033 0.6295685172080994 -0.04913252219557762
0.37745922803878784 0.7290024161338806 0.04627937451004982
0.3831441402435303 0.749212384223938 0.027421489357948303
0.38481658697128296 0.7294219732284546 0.04012930765748024
0.4090086817741394 0.6184593439102173 -0.08488842099905014
0.40676912665367126 0.7139199376106262 -0.0046496014110744
0.42198675870895386 0.7101243138313293 -0.0272873193025589
0.4430882930755615 0.7091583013534546 -0.047779377549886703
0.430370032787323 0.8285659551620483 -0.024654503911733627
0.42922723293304443 0.806392252445221 -0.04111064225435257
0.43084704875946045 0.7932458519935608 -0.042213208973407745
0.43528634309768677 0.7816750407218933 -0.035304199904203415
0.44122451543807983 0.7738851308822632 -0.03033713437616825
0.4063214063644409 0.7587103843688965 0.008123572915792465
0.399490624666214 0.7611814141273499 0.003515776479616761
0.3917694091796875 0.766486644744873 0.0005472098710015416
0.38640326261520386 0.7736510038375854 0.006510173436254263
0.36554238200187683 0.6826594471931458 0.006511353421956301
0.29758480191230774 0.6263158917427063 0.3495273292064667
0.4521723687648773 0.6391311883926392 -0.09725572913885117
0.3965171277523041 0.7476761341094971 0.028610873967409134
0.38945168256759644 0.7476714849472046 0.02605762705206871
0.42837148904800415 0.6429954171180725 -0.06498794257640839
0.3976324498653412 0.634056031703949 -0.028119437396526337
0.425245463848114 0.638552188873291 -0.06518778949975967
0.3896346688270569 0.5532636046409607 0.023614557459950447
0.35021501779556274 0.5677804946899414 0.04116853326559067
0.3872671127319336 0.6075109839439392 -0.028953341767191887
0.3370637595653534 0.3148159682750702 0.14302591979503632
0.3395534157752991 0.3454706370830536 0.0953846350312233
0.3412180542945862 0.38039904832839966 0.05588658154010773
0.3795783519744873 0.7849446535110474 0.024656448513269424
0.4289795458316803 0.39216694235801697 -0.015485547482967377
0.42878463864326477 0.32571423053741455 0.009639663621783257
0.4296531677246094 0.2717978060245514 0.03132126107811928
0.3457525074481964 0.4974190592765808 0.09353113919496536
0.3006647229194641 0.5212756991386414 0.14330193400382996
0.4309011399745941 0.4909038245677948 0.048416752368211746
0.3169758915901184 0.45846542716026306 0.11804591864347458
0.43022868037223816 0.5238853096961975 -0.0049665248952806
0.39553189277648926 0.6007763147354126 -0.08034142851829529
0.27362287044525146 0.5456886291503906 0.17849647998809814
0.3099839985370636 0.5362709760665894 0.11500447988510132
0.33241841197013855 0.5442295670509338 0.08145927637815475
0.3708767890930176 0.5410277247428894 0.05585648491978645
0.4007108807563782 0.5322527289390564 0.040073201060295105
0.4228367805480957 0.5216971635818481 0.025268400087952614
0.454584002494812 0.48936063051223755 -0.04066700488328934
0.2642223834991455 0.594890832901001 0.16679847240447998
0.30353960394859314 0.4549219310283661 0.13639399409294128
0.4354322552680969 0.6309382915496826 -0.1223166361451149
0.40835535526275635 0.5624045133590698 -0.006572779733687639
0.2981880307197571 0.512771487236023 0.34614717960357666
0.43868300318717957 0.5090051293373108 0.01677410863339901
0.38924023509025574 0.6096397638320923 -0.0033581650350242853
0.3299390971660614 0.4776178002357483 0.12019223719835281
0.39977341890335083 0.5847213268280029 -0.06920821219682693
0.29882192611694336 0.6873626112937927 0.32800713181495667
0.4327582120895386 0.4828794598579407 0.05692143738269806
0.41432666778564453 0.569841742515564 -0.0973854809999466
0.3133634030818939 0.8015213012695312 0.14521075785160065
0.3283065855503082 0.8386896848678589 0.18361711502075195
0.2680216133594513 0.6126931309700012 0.2601218521595001
0.29303666949272156 0.7698009014129639 0.1848427653312683
0.2924960255622864 0.4579915702342987 0.23479263484477997
0.37940406799316406 0.8920366764068604 0.029770389199256897
0.44282686710357666 0.6381450295448303 -0.0929155945777893
0.38794344663619995 0.5798397064208984 0.006663423031568527
0.29045820236206055 0.4935033917427063 0.18999820947647095
0.3632045388221741 0.4868681728839874 0.07905960828065872
0.3799130916595459 0.48868921399116516 0.06705938279628754
0.37824440002441406 0.7518235445022583 0.032953932881355286
0.26432332396507263 0.6473491787910461 0.1669485718011856
0.4190269410610199 0.9340620040893555 0.016672475263476372
0.3676303029060364 0.894751787185669 0.09571977704763412
0.3496173024177551 0.8708148002624512 0.1362324059009552
0.48895418643951416 0.32512256503105164 -0.017258992418646812
0.4666321575641632 0.9444963335990906 -0.008474049158394337
0.3976183831691742 0.48811212182044983 0.05917350575327873
0.4149280786514282 0.485959529876709 0.0570230633020401
0.4266783595085144 0.48461097478866577 0.05866936221718788
0.2939254343509674 0.4505625069141388 0.16742368042469025
0.41397690773010254 0.46856194734573364 0.05606190115213394
0.39562350511550903 0.46310752630233765 0.05744010582566261
0.3771994709968567 0.46189481019973755 0.06509106606245041
0.3597698211669922 0.46513158082962036 0.07745133340358734
0.3493153750896454 0.4701073169708252 0.0890732929110527
0.2967036962509155 0.45247745513916016 0.3101455569267273
0.3526465892791748 0.48427924513816833 0.09127732366323471
0.4613339900970459 0.6631726622581482 -0.07401572912931442
0.38592851161956787 0.6691074371337891 -0.020118294283747673
0.40255701541900635 0.6214702129364014 -0.05970634147524834
0.4265701472759247 0.6629493832588196 -0.06047049164772034
0.4815943241119385 0.45328009128570557 -0.03770698979496956
0.3374190926551819 0.8348811864852905 0.1094779521226883
0.3580102026462555 0.8629974126815796 0.07094709575176239
0.4131016433238983 0.9134880304336548 -0.010276569053530693
0.315721720457077 0.8038358688354492 0.23988966643810272
0.42668330669403076 0.4768190085887909 0.056836050003767014
0.43419942259788513 0.5278756022453308 -0.04651300981640816
0.46130096912384033 0.9232883453369141 -0.033637795597314835
0.38839179277420044 0.9166327714920044 0.053096357733011246
0.27041876316070557 0.6698618531227112 0.2467770278453827
0.42087382078170776 0.7677085995674133 -0.01148111280053854
0.4134224057197571 0.7730318307876587 -0.0158049538731575
0.4069187343120575 0.782234787940979 -0.019192559644579887
0.40299510955810547 0.7940340042114258 -0.015504143200814724
0.3995438814163208 0.8099507689476013 0.0004371122922748327
0.3885388970375061 0.7199719548225403 0.0206624623388052
0.38176098465919495 0.7182633280754089 0.024366769939661026
0.37649005651474 0.7158929705619812 0.026416264474391937
0.35162991285324097 0.7006630897521973 0.036410894244909286
0.27988725900650024 0.6555529832839966 0.10512787103652954
0.4433554410934448 0.50498366355896 -0.0211190115660429
0.443469762802124 0.46368342638015747 0.030490579083561897
0.433491587638855 0.4674093723297119 0.048148252069950104
0.3944535255432129 0.7199183702468872 0.02073151245713234
0.2871077358722687 0.723738968372345 0.1395442932844162
0.45703819394111633 0.4612411558628082 -0.010079486295580864
0.3909153342247009 0.8345719575881958 0.010147511959075928
0.4583801031112671 0.5319750905036926 -0.10735144466161728
0.44692063331604004 0.514048159122467 -0.0686483159661293
0.46605145931243896 0.5085178017616272 -0.08164498955011368
0.413743793964386 0.5653719902038574 -0.04601519554853439
0.4602015018463135 0.8943430185317993 -0.042478304356336594
0.46286776661872864 0.8615601658821106 -0.03949211165308952
0.42277711629867554 0.8550311326980591 -0.021160928532481194
0.35074537992477417 0.7720182538032532 0.06171797588467598
0.3720826208591461 0.6301792860031128 0.010223698802292347
0.36925625801086426 0.8066877722740173 0.0378589890897274
0.32083824276924133 0.6287331581115723 0.03955009579658508
0.3505435585975647 0.6554399132728577 0.02546422742307186
0.3050380349159241 0.6705213785171509 0.0670761913061142
0.41436219215393066 0.8859025835990906 -0.019161269068717957
0.40291517972946167 0.5796486735343933 -0.025198135524988174
0.3375914394855499 0.7984840869903564 0.08509394526481628
0.3601059913635254 0.831983208656311 0.05408221483230591
0.33226585388183594 0.73447585105896 0.07233545929193497
0.2721881866455078 0.6940031051635742 0.16890551149845123
0.30982112884521484 0.7472907304763794 0.10038141906261444
0.2790667414665222 0.7235215902328491 0.22774314880371094
0.3342972993850708 0.6853404641151428 0.04650208353996277
0.422532320022583 0.5451696515083313 -0.02488383650779724
0.40128594636917114 0.6131088137626648 -0.08795454353094101
0.3927316963672638 0.6183645129203796 -0.059782713651657104
0.4068705439567566 0.5945528149604797 -0.10829795897006989
0.4254859685897827 0.4410647749900818 0.03250623494386673
0.3902681767940521 0.4247031807899475 0.040502775460481644
0.35970520973205566 0.42121464014053345 0.053365521132946014
0.3359726071357727 0.4261913299560547 0.07319039106369019
0.32123562693595886 0.43821436166763306 0.09484315663576126
0.3178623914718628 0.48293471336364746 0.13413450121879578
0.27248743176460266 0.5596249103546143 0.2634370028972626
0.32956400513648987 0.5141705870628357 0.10617005079984665
0.3486264944076538 0.5201987028121948 0.08299706876277924
0.3753752112388611 0.5203300714492798 0.06298135221004486
0.4017179608345032 0.5157383680343628 0.049230773001909256
0.4225614666938782 0.5086182951927185 0.039515815675258636
0.4364442825317383 0.5009579062461853 0.033121682703495026
0.29998067021369934 0.5695798397064209 0.35790371894836426
0.3955191373825073 0.6243689060211182 -0.04847390577197075
0.4259629249572754 0.5482315421104431 -0.0684577152132988
0.4114491939544678 0.6137535572052002 -0.11374837160110474
0.42723798751831055 0.6277631521224976 -0.1099308654665947
0.4152848720550537 0.6194735169410706 -0.10186941176652908
0.4023147523403168 0.6315839290618896 -0.043901313096284866
0.42942875623703003 0.6295827627182007 -0.1178375855088234
0.4362525939941406 0.6364460587501526 -0.09077702462673187
0.4386410117149353 0.4834367036819458 0.04777833819389343
0.4469287395477295 0.48791980743408203 0.026178039610385895
0.45027828216552734 0.49076348543167114 0.004543288145214319
0.3436795771121979 0.47397100925445557 0.09957718104124069
0.3273434042930603 0.46075624227523804 0.10509189963340759
0.48016422986984253 0.5362086892127991 -0.1074848622083664
0.6801570057868958 0.48681509494781494 -0.01994074508547783
0.4798763394355774 0.6342388391494751 -0.1017032265663147
0.826285719871521 0.396862268447876 0.07116299867630005
0.6059670448303223 0.5021114349365234 -0.024079816415905952
0.6307903528213501 0.5052334070205688 -0.030680198222398758
0.656177818775177 0.5055627822875977 -0.03162529319524765
0.694648265838623 0.4953067898750305 -0.02092163637280464
0.5845574736595154 0.49605420231819153 -0.013103713281452656
0.6418968439102173 0.43648114800453186 -0.039471887052059174
0.6131288409233093 0.4384749233722687 -0.027824407443404198
0.670503556728363 0.4413204789161682 -0.03951747342944145
0.6905404329299927 0.45167362689971924 -0.03438350185751915
0.7192205786705017 0.5099693536758423 -0.014964365400373936
0.5714443325996399 0.8760968446731567 -0.03896113857626915
0.6919909119606018 0.4818032383918762 -0.014167217537760735
0.835413932800293 0.5124787092208862 0.0700712651014328
0.7559619545936584 0.49433255195617676 0.0027230523992329836
0.6166408658027649 0.6033316254615784 -0.06092450022697449
0.5067004561424255 0.6923114061355591 -0.08683717995882034
0.5082827210426331 0.7074750661849976 -0.07679697871208191
0.5536178350448608 0.7009097933769226 -0.08208169043064117
0.5883296132087708 0.7109118700027466 -0.06608465313911438
0.5467037558555603 0.7109951972961426 -0.07314948737621307
0.5786008238792419 0.7171604633331299 -0.05744476988911629
0.6184520721435547 0.7663543820381165 -0.03139687329530716
0.46427154541015625 0.617070198059082 -0.14250944554805756
0.46725448966026306 0.5905020236968994 -0.14918403327465057
0.7296587228775024 0.4311298131942749 -0.03692951053380966
0.5620021224021912 0.5408180356025696 -0.043613504618406296
0.5487192869186401 0.6124648451805115 -0.10120090842247009
0.5544697046279907 0.5989283919334412 -0.09334159642457962
0.7089260816574097 0.6032568216323853 -0.05479374900460243
0.4733890891075134 0.560568630695343 -0.13392221927642822
0.6533545255661011 0.4013074040412903 -0.0543929859995842
0.6962114572525024 0.4113999605178833 -0.048971738666296005
0.7819475531578064 0.3451535105705261 0.03752283379435539
0.5360041260719299 0.4214918613433838 -0.043590374290943146
0.5891475677490234 0.44794797897338867 -0.01364743523299694
0.6430045962333679 0.733652651309967 -0.0349712111055851
0.8260456323623657 0.7734888792037964 0.11669494956731796
0.5299108028411865 0.628074049949646 -0.08649329096078873
0.5063565969467163 0.6356847286224365 -0.08144107460975647
0.6339269280433655 0.7351723909378052 -0.02806686982512474
0.6256223917007446 0.7354558110237122 -0.02910904958844185
0.7147521376609802 0.3955767750740051 -0.039032772183418274
0.5557389855384827 0.6233617663383484 -0.08816326409578323
0.6004598140716553 0.40327978134155273 -0.05283516272902489
0.6041503548622131 0.382762610912323 -0.056918371468782425
0.6481276750564575 0.2773009240627289 -0.015783367678523064
0.7434203624725342 0.3687257766723633 -0.004261951427906752
0.619166374206543 0.32457563281059265 -0.03491083160042763
0.7523424625396729 0.4207206964492798 -0.01984455995261669
0.7860254645347595 0.4109233021736145 0.025567535310983658
0.5074736475944519 0.7010036706924438 -0.08438026160001755
0.5495830178260803 0.7066722512245178 -0.0782889798283577
0.5832546949386597 0.7142683863639832 -0.063491590321064
0.524978756904602 0.6324958205223083 -0.07859423011541367
0.6295393109321594 0.7353228330612183 -0.028222521767020226
0.6090352535247803 0.7549059987068176 -0.03570490702986717
0.6218778491020203 0.7355918884277344 -0.02870580554008484
0.506538987159729 0.6204386353492737 -0.11804264038801193
0.5755504369735718 0.7181015610694885 -0.05345999076962471
0.5443705320358276 0.7126342058181763 -0.06380634754896164
0.509344220161438 0.7101528644561768 -0.06835528463125229
0.5084183812141418 0.8327433466911316 -0.04447784274816513
0.5098180174827576 0.8079943060874939 -0.06300774961709976
0.5079549551010132 0.7947587370872498 -0.06488307565450668
0.5071709156036377 0.7829838991165161 -0.05779024586081505
0.5066216588020325 0.7750948667526245 -0.051814865320920944
0.5727993845939636 0.7629390358924866 -0.0408209003508091
0.5772455334663391 0.7653149366378784 -0.04535619169473648
0.5831909775733948 0.7706816792488098 -0.04995744302868843
0.5878115296363831 0.7775439023971558 -0.04754270985722542
0.5997340679168701 0.6887683272361755 -0.06198178976774216
0.8668897151947021 0.6401764750480652 0.15397918224334717
0.5972572565078735 0.7533911466598511 -0.03210319206118584
0.6030161380767822 0.7533614039421082 -0.03484078496694565
0.4973154664039612 0.645197868347168 -0.08285946398973465
0.5513647794723511 0.6381975412368774 -0.06627175956964493
0.501457691192627 0.6406906247138977 -0.08261467516422272
0.5923109650611877 0.5551517605781555 -0.04587617889046669
0.6374547481536865 0.571303129196167 -0.053206171840429306
0.5637321472167969 0.6106521487236023 -0.0809832215309143
0.7242552042007446 0.3040766716003418 0.006016395520418882
0.6896506547927856 0.3392859399318695 -0.023567551746964455
0.6640297174453735 0.3816751539707184 -0.05054253339767456
0.5889795422554016 0.7936893701553345 -0.03827732428908348
0.5422441363334656 0.3886837661266327 -0.050876133143901825
0.5554625391960144 0.3222689628601074 -0.032423533499240875
0.5757995843887329 0.26624372601509094 -0.01682271808385849
0.6797897219657898 0.5027738809585571 -0.02742236666381359
0.750255286693573 0.5273091197013855 -0.010403253138065338
0.5699901580810547 0.4902091920375824 -0.00609205849468708
0.7212124466896057 0.4638020992279053 -0.021970517933368683
0.5407006144523621 0.5242169499397278 -0.04623002931475639
0.5236133337020874 0.6028295755386353 -0.11971789598464966
0.7934296131134033 0.5524742603302002 0.004533270373940468
0.7256312966346741 0.5421732664108276 -0.029630513861775398
0.6856458187103271 0.5484727621078491 -0.0419028177857399
0.6326857209205627 0.5433602929115295 -0.03863587602972984
0.595852255821228 0.5330231189727783 -0.03168513998389244
0.5680834650993347 0.5215868949890137 -0.028308510780334473
0.49883371591567993 0.4891447126865387 -0.05810568109154701
0.7912672162055969 0.6048152446746826 -0.006960966158658266
0.7458602786064148 0.4609389901161194 -0.017202511429786682
0.4602121114730835 0.6318525075912476 -0.13085679709911346
0.5564695596694946 0.5637585520744324 -0.05673768371343613
0.8694740533828735 0.5170083045959473 0.1438957303762436
0.5463119745254517 0.5084133744239807 -0.024821924045681953
0.5728487968444824 0.6129578948020935 -0.05540207028388977
0.7064648866653442 0.48192262649536133 -0.012693429365754128
0.5302392244338989 0.5864329934120178 -0.10933198779821396
0.8547719717025757 0.7054597735404968 0.1406179815530777
0.5718795657157898 0.482675701379776 0.0001308584032813087
0.5006102323532104 0.5710076093673706 -0.12652431428432465
0.7227804064750671 0.8225929737091064 0.015075146220624447
0.7319905757904053 0.8638403415679932 0.04997219517827034
0.8405718803405762 0.6252140402793884 0.07089897990226746
0.7714614868164062 0.7900309562683105 0.03173249587416649
0.813624382019043 0.4580133855342865 0.05420969799160957
0.5754659175872803 0.9077597856521606 -0.032481931149959564
0.4627423882484436 0.6386343836784363 -0.09818246215581894
0.5834912061691284 0.5823932886123657 -0.05553557723760605
0.7858332991600037 0.4998348355293274 0.019162513315677643
0.6522772312164307 0.49186426401138306 -0.02730865590274334
0.6307087540626526 0.4917936325073242 -0.027001459151506424
0.6147445440292358 0.7576549053192139 -0.034610066562891006
0.7915692925453186 0.6607644557952881 -0.0013527278788387775
0.5230585932731628 0.9442824125289917 -0.018880806863307953
0.6244302988052368 0.9160234928131104 0.008483425714075565
0.6732898354530334 0.895049512386322 0.027050966396927834
0.6107106804847717 0.489286869764328 -0.020917443558573723
0.5915859341621399 0.48574477434158325 -0.011600577272474766
0.5784712433815002 0.48429861664772034 -0.0027144516352564096
0.7724751830101013 0.45593559741973877 0.0018645639065653086
0.5969296097755432 0.46955978870391846 -0.014287928119301796
0.6186606884002686 0.4646508991718292 -0.024421095848083496
0.638810932636261 0.4645090103149414 -0.03027159534394741
0.660056471824646 0.4681272506713867 -0.031208543106913567
0.6745338439941406 0.47347790002822876 -0.027361605316400528
0.8541300892829895 0.45084285736083984 0.11201661825180054
0.6679747104644775 0.4897102117538452 -0.02422664314508438
0.5653473138809204 0.6736529469490051 -0.07210831344127655
0.5268266797065735 0.6242591738700867 -0.09403643757104874
0.5031468868255615 0.6651885509490967 -0.08216314017772675
0.672282338142395 0.855911135673523 0.003900645300745964
0.6256322860717773 0.8825267553329468 -0.012641463428735733
0.5190606713294983 0.9226787090301514 -0.044601473957300186
0.7819479703903198 0.8266327977180481 0.08195842057466507
0.5797158479690552 0.47749456763267517 -0.0058486806228756905
0.5114321708679199 0.5281915068626404 -0.07422198355197906
0.5745166540145874 0.9333938360214233 -0.011816010810434818
0.8332919478416443 0.6860929727554321 0.06522200256586075
0.541254997253418 0.7701451778411865 -0.04862217977643013
0.544838547706604 0.7754985094070435 -0.05404510349035263
0.54838627576828 0.7846715450286865 -0.05955662205815315
0.5512704849243164 0.7961123585700989 -0.05742480233311653
0.552758514881134 0.8171614408493042 -0.0456482470035553
0.6070489883422852 0.7253843545913696 -0.04309716820716858
0.6118294596672058 0.7238849997520447 -0.04499330744147301
0.6166443824768066 0.7218405604362488 -0.047077078372240067
0.6281487941741943 0.7079023718833923 -0.048956599086523056
0.7416880130767822 0.6671171188354492 -0.03822343051433563
0.5191750526428223 0.5049957036972046 -0.050083186477422714
0.5480759739875793 0.46194565296173096 -0.005948803387582302
0.5671738982200623 0.4663773477077484 -0.00421528285369277
0.6033064126968384 0.7256089448928833 -0.04027858376502991
0.7513427138328552 0.7397382259368896 -0.00518679479137063
0.5168129801750183 0.4595935344696045 -0.03162873908877373
0.5638214349746704 0.8448795080184937 -0.040499985218048096
0.4893329441547394 0.5140846967697144 -0.08350250869989395
0.5299267172813416 0.5667737126350403 -0.08289478719234467
0.512296199798584 0.8610369563102722 -0.045754797756671906
0.6382415890693665 0.7841169834136963 -0.026771482080221176
0.5970000624656677 0.6347724795341492 -0.055625297129154205
0.6045857667922974 0.8187384605407715 -0.03204387426376343
0.6642723679542542 0.635831356048584 -0.06390751898288727
0.6255776286125183 0.6618157625198364 -0.056821297854185104
0.6942063570022583 0.680912971496582 -0.0513744130730629
0.5159217119216919 0.8937591314315796 -0.0515005961060524
0.5525848865509033 0.5812528133392334 -0.07157636433839798
0.6604267954826355 0.8151645660400391 -0.015443571843206882
0.6168662905693054 0.8477670550346375 -0.023495430126786232
0.6641302108764648 0.745856523513794 -0.03446235507726669
0.7861928939819336 0.7098371982574463 0.00767658744007349
0.70357346534729 0.7627489566802979 -0.021922729909420013
0.8129802942276001 0.7420178651809692 0.05463691055774689
0.6539905071258545 0.6934900879859924 -0.05160105228424072
0.5334217548370361 0.5459751486778259 -0.06447484344244003
0.5137883424758911 0.615292489528656 -0.1238153949379921
0.538845956325531 0.6214703917503357 -0.10101847350597382
0.4954206347465515 0.5961745977401733 -0.13687074184417725
0.5666797161102295 0.4409378170967102 -0.01758470945060253
0.6069691777229309 0.4260765314102173 -0.03303258493542671
0.6444661021232605 0.42320793867111206 -0.04329642653465271
0.6784878373146057 0.4294124245643616 -0.04410841688513756
0.7053326964378357 0.44267648458480835 -0.03648307919502258
0.7274333238601685 0.4877772033214569 -0.007764505222439766
0.8411728143692017 0.5681584477424622 0.06976001709699631
0.7008404731750488 0.5191754102706909 -0.02416134439408779
0.6699516177177429 0.5241712331771851 -0.030613107606768608
0.6335166096687317 0.5227822661399841 -0.03047230653464794
0.6011484265327454 0.5164369344711304 -0.024448247626423836
0.5760504007339478 0.508226752281189 -0.01594044454395771
0.5580962896347046 0.49998509883880615 -0.011967168189585209
0.8703755140304565 0.5784236192703247 0.15629851818084717
0.5427159667015076 0.627727210521698 -0.0889134481549263
0.5043496489524841 0.5489305257797241 -0.09713900834321976
0.4874327480792999 0.6159024238586426 -0.13635088503360748
0.47785836458206177 0.6301072835922241 -0.12302729487419128
0.4922936260700226 0.6219226717948914 -0.1250920444726944
0.538880467414856 0.6350940465927124 -0.07782243937253952
0.47004571557044983 0.6311513781547546 -0.12843412160873413
0.47252172231674194 0.6376614570617676 -0.09985359758138657
0.5609978437423706 0.4823138117790222 0.0006974843563511968
0.5440765023231506 0.4862987995147705 -0.009011510759592056
0.5302025675773621 0.48950254917144775 -0.02477828972041607
0.6838151812553406 0.4777895510196686 -0.02216464839875698
0.7048354148864746 0.4649796485900879 -0.02428182028234005
0.39314574003219604 0.4757671356201172 0.07403390109539032
0.41820523142814636 0.4750109910964966 0.07403390109539032
0.3922700881958008 0.45417720079421997 0.07403390109539032
0.3679572343826294 0.4765673279762268 0.07403390109539032
0.39384862780570984 0.4968670904636383 0.07403390109539032
0.6456302404403687 0.4775218367576599 -0.018956901505589485
0.6723548769950867 0.47973719239234924 -0.018956901505589485
0.6475793123245239 0.45621412992477417 -0.018956901505589485
0.6195037961006165 0.47528257966041565 -0.018956901505589485
0.6438359618186951 0.49869054555892944 -0.018956901505589485
