ply
format ascii 1.0
element vertex 478
property float x
property float y
property float z
end_header
0.5055380463600159 0.712645411491394 -0.023242752999067307
0.513340413570404 0.6656218767166138 -0.1117018312215805
0.5101618766784668 0.6742693185806274 -0.04279516637325287
0.4904586374759674 0.5829896926879883 -0.11029256880283356
0.5136971473693848 0.6453472375869751 -0.12649764120578766
0.5126751661300659 0.611699104309082 -0.12778697907924652
0.50806725025177 0.5205978155136108 -0.0984182357788086
0.3323478698730469 0.47829771041870117 -0.02573920600116253
0.5056133270263672 0.4536283314228058 -0.10413765162229538
0.5053755044937134 0.42372268438339233 -0.12183115631341934
0.503352165222168 0.2999838590621948 -0.14557361602783203
0.5053398013114929 0.720001220703125 -0.01638535037636757
0.5049042105674744 0.7275295257568359 -0.0062967450357973576
0.5045768618583679 0.7327156066894531 0.008886445313692093
0.5049465894699097 0.733343780040741 0.010565357282757759
0.5049635767936707 0.7463191747665405 0.013625608757138252
0.5045611262321472 0.7613536715507507 0.013208004646003246
0.503878116607666 0.7758146524429321 0.02129507251083851
0.5068708062171936 0.7828699946403503 0.04990220442414284
0.5123974084854126 0.6722595691680908 -0.09638641774654388
0.48657742142677307 0.6667848825454712 -0.06530455499887466
0.23680812120437622 0.3692640960216522 0.030780378729104996
0.40898510813713074 0.5050535202026367 -0.03872768208384514
0.38420480489730835 0.5072137713432312 -0.03799181804060936
0.35887131094932556 0.5059528350830078 -0.0336548313498497
0.3246503472328186 0.48314958810806274 -0.019702594727277756
0.42871689796447754 0.5013645887374878 -0.03600519895553589
0.36062806844711304 0.4377262592315674 -0.06475134938955307
0.3905178904533386 0.442974716424942 -0.06393934041261673
0.335249662399292 0.43949633836746216 -0.05742912366986275
0.3202616572380066 0.4465484917163849 -0.04766181483864784
0.3062211573123932 0.4976801872253418 -0.0047221798449754715
0.42188066244125366 0.8025076389312744 0.08954290300607681
0.3223562240600586 0.46653759479522705 -0.020946083590388298
0.23121234774589539 0.46539306640625 0.08258654177188873
0.27735626697540283 0.47393685579299927 0.009014255367219448
0.38667190074920654 0.6098278760910034 -0.021071771159768105
0.4777183532714844 0.7069123983383179 -0.023855160921812057
0.4798958897590637 0.7253859043121338 -0.005104825831949711
0.45184051990509033 0.71089768409729 -0.010786125436425209
0.4347049593925476 0.7146848440170288 0.007095080800354481
0.4590800404548645 0.7236261367797852 0.0019024518551304936
0.44321170449256897 0.7227118015289307 0.017268318682909012
0.4007287323474884 0.7318305969238281 0.058281928300857544
0.4937388300895691 0.6641943454742432 -0.11112097650766373
0.49051621556282043 0.6443172693252563 -0.1252259463071823
0.28617340326309204 0.4264034032821655 -0.054784443229436874
0.43336549401283264 0.5541348457336426 -0.04422437772154808
0.43399548530578613 0.6401816606521606 -0.06117020174860954
0.4319424033164978 0.625221312046051 -0.05834177881479263
0.31550389528274536 0.596914529800415 0.0003788547473959625
0.490415096282959 0.6125771999359131 -0.12216967344284058
0.3389451503753662 0.4190470576286316 -0.09543289244174957
0.3066328167915344 0.41769087314605713 -0.0785021260380745
0.25898560881614685 0.33969879150390625 -0.026096323505043983
0.4486507475376129 0.45580974221229553 -0.10200903564691544
0.4167545437812805 0.4553734362125397 -0.05399257689714432
0.3833172917366028 0.7126080393791199 0.053183142095804214
0.2668100595474243 0.6459392309188843 0.2371663600206375
0.4510860741138458 0.6533029675483704 -0.04733223840594292
0.4700273275375366 0.6616060137748718 -0.04282434284687042
0.41269317269325256 0.719446063041687 0.05124416947364807
0.418089359998703 0.7206124663352966 0.045384932309389114
0.2943689227104187 0.39933276176452637 -0.0757373571395874
0.4325229227542877 0.6448705792427063 -0.044939007610082626
0.3847997486591339 0.43092846870422363 -0.10429827123880386
0.3798527717590332 0.41199278831481934 -0.11719236522912979
0.3576436936855316 0.3054654896259308 -0.12176501750946045
0.27782732248306274 0.37262704968452454 -0.05610060691833496
0.3739291727542877 0.3577994108200073 -0.12277013808488846
0.2723759114742279 0.40996798872947693 -0.042052868753671646
0.25439488887786865 0.3950783610343933 -0.009256438352167606
0.4783354103565216 0.7170512676239014 -0.016896303743124008
0.4554028809070587 0.717681884765625 -0.0047850534319877625
0.4387626349925995 0.7187633514404297 0.010841005481779575
0.45601144433021545 0.6563945412635803 -0.04023418948054314
0.4155222773551941 0.7200826406478882 0.04809385910630226
0.42556795477867126 0.7284462451934814 0.039433617144823074
0.4210341274738312 0.7211543321609497 0.04488913342356682
0.4644710123538971 0.6545162200927734 -0.08187220245599747
0.4466955065727234 0.7257586121559143 0.02409309148788452
0.46239399909973145 0.7278866767883301 0.01517177652567625
0.48182547092437744 0.7306490540504456 0.009156963787972927
0.4759489893913269 0.7802131175994873 0.04932721331715584
0.4750196039676666 0.7731739282608032 0.020301416516304016
0.47700855135917664 0.7585805654525757 0.012750929221510887
0.4796408712863922 0.7434132695198059 0.013381242752075195
0.48247942328453064 0.7313922643661499 0.010757285170257092
0.44703418016433716 0.7257561683654785 0.025431931018829346
0.442301481962204 0.7311663627624512 0.026405179873108864
0.436953604221344 0.7382420897483826 0.02665301226079464
0.4326581656932831 0.7458124160766602 0.03295678272843361
0.4103951156139374 0.6900919079780579 0.004379570949822664
0.23313963413238525 0.5371755361557007 0.21777033805847168
0.5113922953605652 0.6735485792160034 -0.06238114833831787
0.4352171719074249 0.7234961986541748 0.03650557994842529
0.43044063448905945 0.7257988452911377 0.03761623799800873
0.47868621349334717 0.670278012752533 -0.03852511942386627
0.43901580572128296 0.6547498106956482 -0.022015735507011414
0.4744817614555359 0.6662177443504333 -0.04169362783432007
0.4100587069988251 0.5635653734207153 -0.03227511793375015
0.37118035554885864 0.5771239995956421 -0.022770579904317856
0.4278990626335144 0.6308030486106873 -0.042248666286468506
0.29685914516448975 0.31768155097961426 -0.07871383428573608
0.3153952360153198 0.35857218503952026 -0.09277854114770889
0.33034488558769226 0.3989250063896179 -0.10092675685882568
0.42095547914505005 0.7508849501609802 0.054130520671606064
0.43951600790023804 0.4275173544883728 -0.12263265252113342
0.4352225065231323 0.3612644374370575 -0.13683034479618073
0.4246023893356323 0.3002338111400604 -0.14333269000053406
0.3367946445941925 0.4974803924560547 -0.02625199779868126
0.2803245782852173 0.512069821357727 0.011396347545087337
0.44027650356292725 0.4983011782169342 -0.034471385180950165
0.2995074987411499 0.4521171748638153 -0.030577560886740685
0.44977879524230957 0.5437595248222351 -0.05597880855202675
0.44908419251441956 0.6396872997283936 -0.08572474867105484
0.25369977951049805 0.5227169394493103 0.04120442643761635
0.2985233962535858 0.5357767343521118 -0.0010600509122014046
0.33073094487190247 0.5516024231910706 -0.016419390216469765
0.3784969449043274 0.5500956773757935 -0.02389121614396572
0.4121796190738678 0.5410287976264954 -0.029827769845724106
0.4346770644187927 0.5335785150527954 -0.038408566266298294
0.4843008816242218 0.5239545702934265 -0.08980073779821396
0.260580837726593 0.5702543258666992 0.05415702611207962
0.2802808880805969 0.4460119605064392 -0.024679945781826973
0.5000611543655396 0.6714553236961365 -0.09605852514505386
0.43668651580810547 0.5813387632369995 -0.044161830097436905
0.22232791781425476 0.4456392526626587 0.1535889059305191
0.4519954323768616 0.5267561674118042 -0.045604292303323746
0.4248092770576477 0.6267791986465454 -0.019422193989157677
0.3139042854309082 0.46616828441619873 -0.01684792898595333
0.4470285177230835 0.6211783289909363 -0.08223019540309906
0.2463196963071823 0.5893278121948242 0.2328280657529831
0.43813157081604004 0.49000945687294006 -0.033137887716293335
0.46813252568244934 0.6152059435844421 -0.10720404237508774
0.32336151599884033 0.7292375564575195 0.14438262581825256
0.3239290416240692 0.7396686673164368 0.19392505288124084
0.2382897436618805 0.5553529858589172 0.13539941608905792
0.2934066951274872 0.6919312477111816 0.15759748220443726
0.24157960712909698 0.42655059695243835 0.04084770008921623
0.4177790880203247 0.8201169967651367 0.11308211088180542
0.5013431310653687 0.672545850276947 -0.06155158579349518
0.41578447818756104 0.5938168168067932 -0.030392896384000778
0.2578080892562866 0.4719217121601105 0.03016289323568344
0.3601277470588684 0.4934767782688141 -0.035365890711545944
0.3831728398799896 0.4953368604183197 -0.03919506445527077
0.4212694764137268 0.7313328981399536 0.04428344592452049
0.2685618996620178 0.6105930805206299 0.08265817910432816
0.45764288306236267 0.849587082862854 0.13336855173110962
0.3897362947463989 0.8059134483337402 0.15810993313789368
0.36018240451812744 0.7780094146728516 0.17328190803527832
0.5042935013771057 0.3629617691040039 -0.13773968815803528
0.5044108629226685 0.8544086813926697 0.1318722814321518
0.4040546715259552 0.49280574917793274 -0.03946508467197418
0.423481822013855 0.489818811416626 -0.036429330706596375
0.43471622467041016 0.4897553622722626 -0.032876916229724884
0.26381540298461914 0.4342794418334961 -0.005719590932130814
0.41359126567840576 0.46608811616897583 -0.04700617119669914
0.3900003135204315 0.45472151041030884 -0.0529991090297699
0.3662884533405304 0.45198458433151245 -0.053231142461299896
0.3448560833930969 0.4545808434486389 -0.0478273369371891
0.3330233693122864 0.45967432856559753 -0.03994669392704964
0.2255767285823822 0.40285947918891907 0.0945051908493042
0.343781977891922 0.4870151877403259 -0.03019430860877037
0.5097605586051941 0.6869101524353027 -0.0313982255756855
0.4328453540802002 0.6841883659362793 -0.011531488038599491
0.4516964852809906 0.6522384285926819 -0.058510635048151016
0.4768196940422058 0.686279833316803 -0.030616125091910362
0.5061494708061218 0.48339512944221497 -0.09352660179138184
0.35523757338523865 0.7631993293762207 0.13829120993614197
0.3852947950363159 0.7912756204605103 0.12803202867507935
0.45764973759651184 0.8404841423034668 0.1004798635840416
0.29373276233673096 0.6970344185829163 0.21912728250026703
0.43031221628189087 0.48136207461357117 -0.03943426162004471
0.46901074051856995 0.5622919201850891 -0.08368988335132599
0.505970299243927 0.846441388130188 0.10004478693008423
0.4213218688964844 0.8318854570388794 0.14174285531044006
0.25006935000419617 0.6010043025016785 0.15478011965751648
0.46307629346847534 0.7284781336784363 0.016646118834614754
0.4584837555885315 0.7377715110778809 0.018079670146107674
0.4541439414024353 0.7492752075195312 0.018132809549570084
0.4509013891220093 0.7622878551483154 0.025017572566866875
0.44550439715385437 0.7682003378868103 0.048942167311906815
0.430635929107666 0.7216684222221375 0.03129781410098076
0.4261310398578644 0.719497561454773 0.03009185753762722
0.42233631014823914 0.717215895652771 0.0281657874584198
0.39309465885162354 0.6998554468154907 0.02545791305601597
0.3002415597438812 0.634769082069397 0.04412573575973511
0.4670584797859192 0.5327329635620117 -0.07157445698976517
0.4535706639289856 0.48022714257240295 -0.053149543702602386
0.43890538811683655 0.47729775309562683 -0.045510318130254745
0.43524986505508423 0.7238515019416809 0.0355951152741909
0.3013056814670563 0.6754621863365173 0.101483054459095
0.47385457158088684 0.48825570940971375 -0.07961712032556534
0.43230557441711426 0.783704936504364 0.07056444138288498
0.5112096667289734 0.5812137722969055 -0.11708590388298035
0.4872174561023712 0.5554454326629639 -0.10325556248426437
0.5097243189811707 0.5524905920028687 -0.10789554566144943
0.45230573415756226 0.5962232947349548 -0.07070104032754898
0.5066052675247192 0.8287261724472046 0.07775893062353134
0.5066602230072021 0.804293692111969 0.06528986245393753
0.4686768651008606 0.8001673817634583 0.06689874082803726
0.37906086444854736 0.7373818755149841 0.07463272660970688
0.40444570779800415 0.6406124830245972 -0.009140498004853725
0.4030519723892212 0.7622262835502625 0.07496557384729385
0.3499675393104553 0.6319727897644043 -0.0034742034040391445
0.3836371898651123 0.6594644784927368 0.002663800958544016
0.33201301097869873 0.6594775319099426 0.027830298990011215
0.46131613850593567 0.8230026364326477 0.0792064294219017
0.43788036704063416 0.6028873324394226 -0.04989967122673988
0.36055096983909607 0.748410165309906 0.10245133936405182
0.3908417224884033 0.7762398719787598 0.1013098955154419
0.36012083292007446 0.7114518880844116 0.06299015134572983
0.2781059741973877 0.6435006856918335 0.10850752890110016
0.3313426375389099 0.7075338959693909 0.08395715802907944
0.2664705514907837 0.645328164100647 0.1677042543888092
0.367175430059433 0.6811432242393494 0.02358139306306839
0.45262250304222107 0.5712704062461853 -0.06267445534467697
0.45724430680274963 0.6512249112129211 -0.08827266097068787
0.4415099322795868 0.6491259336471558 -0.06041137874126434
0.4686623811721802 0.642106831073761 -0.10708247125148773
0.431530237197876 0.4595887064933777 -0.06822945922613144
0.38923031091690063 0.4408114552497864 -0.07731735706329346
0.35243237018585205 0.43356579542160034 -0.07655739784240723
0.32415807247161865 0.43369367718696594 -0.06731992959976196
0.3066650927066803 0.43964463472366333 -0.053052131086587906
0.2985391616821289 0.4706217050552368 -0.00754560437053442
0.23117581009864807 0.5102139115333557 0.10970164835453033
0.32059240341186523 0.5121726989746094 -0.012026511132717133
0.34703946113586426 0.5245869159698486 -0.021799858659505844
0.3810526430606842 0.5257853865623474 -0.02821200154721737
0.4113791584968567 0.5205769538879395 -0.032333265990018845
0.43292978405952454 0.5155514478683472 -0.034271661192178726
0.44739291071891785 0.5122218132019043 -0.03717266768217087
0.2260672152042389 0.4895699620246887 0.19177985191345215
0.44140613079071045 0.6513265371322632 -0.04733837768435478
0.47048646211624146 0.5883101224899292 -0.0924047976732254
0.47559037804603577 0.6583201885223389 -0.10317546874284744
0.4862503111362457 0.6658449172973633 -0.08835701644420624
0.47427570819854736 0.658555269241333 -0.09122334420681
0.44683003425598145 0.6558301448822021 -0.03619297593832016
0.49206066131591797 0.6693993806838989 -0.09325512498617172
0.4929620623588562 0.6704954504966736 -0.0633426383137703
0.4461267590522766 0.4935767352581024 -0.034772150218486786
0.45836591720581055 0.5033161640167236 -0.04484060779213905
0.4653373062610626 0.5130615830421448 -0.05688560754060745
0.32666993141174316 0.46361392736434937 -0.03156266734004021
0.31228914856910706 0.4543219208717346 -0.0332205593585968
0.5307470560073853 0.5824893116950989 -0.10696682333946228
0.6690950989723206 0.48001474142074585 -0.0028461110778152943
0.534878671169281 0.6655194759368896 -0.06261508911848068
0.7247737646102905 0.36822664737701416 0.06736630946397781
0.6000956296920776 0.5058338046073914 -0.023874405771493912
0.6225733160972595 0.5069696307182312 -0.02017749845981598
0.6448151469230652 0.5054401755332947 -0.012973692268133163
0.6750720143318176 0.48483899235725403 0.004695639479905367
0.5821551084518433 0.5026760101318359 -0.024408496916294098
0.638196587562561 0.4405885934829712 -0.04606085270643234
0.6107121109962463 0.4463067054748535 -0.049153950065374374
0.6618108749389648 0.4416608512401581 -0.03572745993733406
0.6762067675590515 0.4482925832271576 -0.02426864206790924
0.6883960366249084 0.49882006645202637 0.02143849991261959
0.5832927227020264 0.7971824407577515 0.09985190629959106
0.677358865737915 0.46866729855537415 0.003005281090736389
0.7365396022796631 0.46272745728492737 0.11822137981653214
0.7083117961883545 0.47837522625923157 0.03870882838964462
0.6177675724029541 0.60633385181427 -0.005935194902122021
0.5333226919174194 0.7059409618377686 -0.019613906741142273
0.5297341346740723 0.7245216369628906 -0.001133321551606059
0.5582981109619141 0.7087194919586182 -0.001939080306328833
0.5742542743682861 0.7115731239318848 0.018842162564396858
0.5501734018325806 0.7218973636627197 0.009459826163947582
0.5655750036239624 0.720103919506073 0.027198251336812973
0.6038059592247009 0.7275117635726929 0.07223280519247055
0.5320342183113098 0.663305938243866 -0.10901195555925369
0.5359976887702942 0.6435067057609558 -0.12273871898651123
0.699004590511322 0.432664692401886 -0.026715479791164398
0.5723628401756287 0.5523636937141418 -0.033853672444820404
0.5812754034996033 0.6378494501113892 -0.05118170008063316
0.5813928246498108 0.6229444146156311 -0.048105061054229736
0.6801325678825378 0.591718316078186 0.02499215677380562
0.5338765978813171 0.6119050979614258 -0.11898704618215561
0.6527224779129028 0.42565760016441345 -0.07688478380441666
0.6813957095146179 0.424122154712677 -0.054835859686136246
0.7107782363891602 0.3400935232639313 0.006819679401814938
0.5584908127784729 0.45948857069015503 -0.0961531400680542
0.5875774025917053 0.4585897624492645 -0.04193198308348656
0.6206042766571045 0.7079817056655884 0.06997261196374893
0.7014851570129395 0.6382964849472046 0.2713603377342224
0.5649139285087585 0.6514281034469604 -0.039914075285196304
0.5477545857429504 0.6603137254714966 -0.03901991248130798
0.5959027409553528 0.7150839567184448 0.06586574018001556
0.5907089710235596 0.7165528535842896 0.05850111320614815
0.6889422535896301 0.4086422920227051 -0.05021405965089798
0.5806305408477783 0.6426005959510803 -0.03516809269785881
0.6133545637130737 0.4366714060306549 -0.09163732081651688
0.6163630485534668 0.4198950529098511 -0.10390245914459229
0.6373037099838257 0.30667737126350403 -0.10348115116357803
0.7013729214668274 0.3742356300354004 -0.027550360187888145
0.6258566379547119 0.3600715398788452 -0.10723616927862167
0.7079066038131714 0.4195183515548706 -0.012086243368685246
0.7178949117660522 0.39526331424713135 0.023368610069155693
0.5321061611175537 0.7161424160003662 -0.012652305886149406
0.5543467998504639 0.7157743573188782 0.003422337817028165
0.5701470971107483 0.7158251404762268 0.02155725285410881
0.5598852634429932 0.6546514630317688 -0.034329891204833984
0.5931582450866699 0.7158795595169067 0.06173829734325409
0.5829981565475464 0.7248317003250122 0.05124618485569954
0.5877925157546997 0.7172924280166626 0.05769440904259682
0.5558407306671143 0.6527650356292725 -0.07503760606050491
0.5619291663169861 0.7233971357345581 0.033511508256196976
0.5463817715644836 0.726311981678009 0.02238287776708603
0.5273184776306152 0.7298603057861328 0.013269895687699318
0.5353493094444275 0.7788617014884949 0.05282078683376312
0.5325583219528198 0.7720598578453064 0.024364406242966652
0.5316107273101807 0.7575116753578186 0.017253048717975616
0.5296524167060852 0.7424815893173218 0.017748067155480385
0.5271567702293396 0.7306416034698486 0.01492359023541212
0.5616819858551025 0.7233748435974121 0.03480266034603119
0.5665414929389954 0.7285075783729553 0.0358295664191246
0.5716317296028137 0.7352559566497803 0.03634127601981163
0.5754871368408203 0.7426487803459167 0.04301135614514351
0.5984722971916199 0.6867045164108276 0.017703289166092873
0.7267168760299683 0.5322827696800232 0.25488102436065674
0.5733696222305298 0.7205477952957153 0.047913871705532074
0.5782756209373474 0.7225233316421509 0.049046196043491364
0.5395551919937134 0.6695215702056885 -0.034813228994607925
0.5734342336654663 0.6526840925216675 -0.014344476163387299
0.5435606241226196 0.6652577519416809 -0.03805527091026306
0.5932410359382629 0.5612114667892456 -0.018919896334409714
0.6299005746841431 0.5735953450202942 -0.0053230756893754005
0.5836153626441956 0.6284670829772949 -0.031697675585746765
0.6849970817565918 0.3189730644226074 -0.051957663148641586
0.6730003952980042 0.3615695834159851 -0.06994107365608215
0.6581845283508301 0.40804895758628845 -0.08101557940244675
0.5855158567428589 0.7469828128814697 0.0655403658747673
0.5654394626617432 0.43383944034576416 -0.11639350652694702
0.5710155367851257 0.36199861764907837 -0.12876655161380768
0.5787511467933655 0.300740122795105 -0.13411478698253632
0.6643836498260498 0.4980827569961548 -0.0031229970045387745
0.7087206840515137 0.5122238397598267 0.04065558314323425
0.5709710121154785 0.4995838701725006 -0.024068793281912804
0.6921985745429993 0.4557020366191864 -0.0038848433177918196
0.5582745671272278 0.5424063205718994 -0.04769140109419823
0.5701342821121216 0.6377531290054321 -0.0776035487651825
0.7263743281364441 0.5182844996452332 0.07410228252410889
0.6972204446792603 0.5328494310379028 0.026500344276428223
0.6711986660957336 0.5462185740470886 0.007046189159154892
0.6290426850318909 0.5454779267311096 -0.006245684809982777
0.5981637239456177 0.5379272699356079 -0.016205748543143272
0.5769359469413757 0.5311789512634277 -0.02786843851208687
0.5298641324043274 0.5235919952392578 -0.0865132287144661
0.723173975944519 0.5647637844085693 0.08686909824609756
0.7050725817680359 0.45217829942703247 0.005077112466096878
0.5242022275924683 0.6707465052604675 -0.09431023895740509
0.5715319514274597 0.5795588493347168 -0.03401113301515579
0.734424352645874 0.44272953271865845 0.19196045398712158
0.5607479214668274 0.5241685509681702 -0.03746602311730385
0.5839782357215881 0.6243715286254883 -0.009022602811455727
0.6835082769393921 0.4685974419116974 0.008244231343269348
0.5698269605636597 0.619296133518219 -0.07392276078462601
0.7176134586334229 0.5829545855522156 0.26877114176750183
0.5719632506370544 0.4916611611843109 -0.02245236374437809
0.5529178977012634 0.6138849854469299 -0.10137779265642166
0.6647164821624756 0.7213484048843384 0.16841067373752594
0.6577007174491882 0.7306780815124512 0.21978424489498138
0.7339231967926025 0.5502016544342041 0.17108522355556488
0.6889702081680298 0.6847252249717712 0.186235710978508
0.7282362580299377 0.4250679016113281 0.07546591758728027
0.5857140421867371 0.8140577077865601 0.12444182485342026
0.5212988257408142 0.6720678210258484 -0.06042739376425743
0.5900171399116516 0.5914159417152405 -0.018236929550766945
0.7222766280174255 0.47788047790527344 0.06278365105390549
0.6444288492202759 0.4936707019805908 -0.01527553889900446
0.6236417293548584 0.4956057071685791 -0.02149776555597782
0.587146520614624 0.7275242209434509 0.056784916669130325
0.7159425020217896 0.6046720743179321 0.11445415765047073
0.5476980805397034 0.8457149863243103 0.13985903561115265
0.6045120358467102 0.7972701787948608 0.17475806176662445
0.6284359693527222 0.768680989742279 0.194222554564476
0.6044085025787354 0.49415284395217896 -0.024445217102766037
0.5866155028343201 0.4921642243862152 -0.023699164390563965
0.575965166091919 0.4921457767486572 -0.021450713276863098
0.7156798243522644 0.44336721301078796 0.026254843920469284
0.5922458171844482 0.4685335159301758 -0.03365825489163399
0.6125069856643677 0.4564064145088196 -0.03741839900612831
0.6346336603164673 0.45205700397491455 -0.03495285287499428
0.6555359363555908 0.4539535939693451 -0.027074532583355904
0.6672252416610718 0.45973923802375793 -0.017784055322408676
0.7328484654426575 0.400552898645401 0.13252809643745422
0.6590703725814819 0.48793813586235046 -0.0082975123077631
0.5793567299842834 0.6817036867141724 -0.0011935064103454351
0.5654700398445129 0.6503155827522278 -0.05136420950293541
0.5412444472312927 0.685314416885376 -0.026261651888489723
0.6373956799507141 0.755097508430481 0.15781155228614807
0.6124106645584106 0.783784806728363 0.14352425932884216
0.5506377220153809 0.8371678590774536 0.10653147101402283
0.6808856725692749 0.6886745691299438 0.2501206398010254
0.5783673524856567 0.48339611291885376 -0.027532612904906273
0.5458818078041077 0.5612832903862 -0.0780336782336235
0.5791036486625671 0.8250399827957153 0.15378490090370178
0.7244293689727783 0.5951236486434937 0.18935297429561615
0.546082615852356 0.7269028425216675 0.023915844038128853
0.5505836606025696 0.735933780670166 0.025622958317399025
0.5544633269309998 0.7471710443496704 0.02593952603638172
0.55705326795578 0.7600111961364746 0.03273238241672516
0.5632609724998474 0.7652769088745117 0.05719330906867981
0.578286349773407 0.7182249426841736 0.04318751022219658
0.582514226436615 0.7157965302467346 0.04309048503637314
0.5862878561019897 0.7133471965789795 0.04184478893876076
0.6130123734474182 0.6957188844680786 0.041539933532476425
0.6920851469039917 0.628798246383667 0.07063549757003784
0.5440400242805481 0.5319972634315491 -0.06585115194320679
0.5562955141067505 0.4820399284362793 -0.045573461800813675
0.5693418383598328 0.4792746305465698 -0.03515276312828064
0.5737362504005432 0.7207573652267456 0.047140952199697495
0.6874021887779236 0.6687381267547607 0.12809887528419495
0.5381749272346497 0.48833730816841125 -0.07527478039264679
0.5740910768508911 0.7794447541236877 0.07953361421823502
0.5308258533477783 0.5548725724220276 -0.1002979427576065
0.5615836977958679 0.5948077440261841 -0.0631040558218956
0.5415868163108826 0.7979909777641296 0.07107941806316376
0.6216379404067993 0.7314597368240356 0.09052792191505432
0.6021945476531982 0.6372570395469666 0.0037202027160674334
0.5999510288238525 0.7566750049591064 0.08739609271287918
0.6515794992446899 0.6271037459373474 0.015532894060015678
0.6213950514793396 0.6551874279975891 0.018401972949504852
0.6661609411239624 0.6536378860473633 0.04940728098154068
0.5483571290969849 0.8202590942382812 0.08470723778009415
0.5724962949752808 0.6010187268257141 -0.0404311902821064
0.6362441182136536 0.7409368753433228 0.12068638205528259
0.6100959181785583 0.7694296836853027 0.11543228477239609
0.6400707960128784 0.7057391405105591 0.08229351043701172
0.7063262462615967 0.6371414661407471 0.13868215680122375
0.6631799340248108 0.7004562616348267 0.10625450313091278
0.7105881571769714 0.638765275478363 0.2007385939359665
0.635683000087738 0.6762017011642456 0.041877709329128265
0.5586715936660767 0.5699020028114319 -0.054534975439310074
0.563123881816864 0.6493138074874878 -0.08091621100902557
0.5748108625411987 0.6469541788101196 -0.05194364860653877
0.5545321702957153 0.6405567526817322 -0.10127962380647659
0.5742384791374207 0.4628070592880249 -0.05819733068346977
0.6112053990364075 0.44482025504112244 -0.0634741485118866
0.6442109942436218 0.4372054934501648 -0.05865948274731636
0.6698848009109497 0.4367472529411316 -0.04528673365712166
0.6860714554786682 0.4426695704460144 -0.02806990034878254
0.6930557489395142 0.4738856852054596 0.01933719590306282
0.7379616498947144 0.5062025785446167 0.14627061784267426
0.6781675815582275 0.5115441679954529 0.012806668877601624
0.6552913188934326 0.5224401950836182 -0.00031313556246459484
0.6255485415458679 0.523932695388794 -0.010586514137685299
0.5979927778244019 0.5199644565582275 -0.0182912927120924
0.5781491994857788 0.5155589580535889 -0.023568077012896538
0.5645954012870789 0.511925995349884 -0.028303178027272224
0.730770468711853 0.48572415113449097 0.23003309965133667
0.5733058452606201 0.6491879820823669 -0.039035819470882416
0.5475755929946899 0.5872325897216797 -0.0865340456366539
0.547926127910614 0.6566620469093323 -0.09862902015447617
0.5361612439155579 0.6644315719604492 -0.08564193546772003
0.5475580096244812 0.6569252014160156 -0.08645763993263245
0.5675520300865173 0.6538951992988586 -0.029174741357564926
0.5315186977386475 0.6682872772216797 -0.0910453274846077
0.5289562344551086 0.6695238947868347 -0.06148606911301613
0.5644615888595581 0.49465519189834595 -0.025552306324243546
0.5536826252937317 0.5031992197036743 -0.03773132339119911
0.5477461814880371 0.5111334323883057 -0.05125114321708679
0.6733507513999939 0.4646351933479309 -0.008599136024713516
0.6837737560272217 0.456709623336792 -0.008584550581872463
0.37290334701538086 0.4685612916946411 -0.03783482313156128
0.3999575674533844 0.4685915410518646 -0.03783482313156128
0.3732476532459259 0.4431033134460449 -0.03783482313156128
0.34564822912216187 0.4685114622116089 -0.03783482313156128
0.372554212808609 0.49425920844078064 -0.03783482313156128
0.6318588852882385 0.4698566198348999 -0.020248685032129288
0.6574497222900391 0.46902188658714294 -0.020248685032129288
0.6304093599319458 0.4462645649909973 -0.020248685032129288
0.6060987710952759 0.4704183340072632 -0.020248685032129288
0.633253276348114 0.4936218857765198 -0.020248685032129288
