ply
format ascii 1.0
element vertex 478
property float x
property float y
property float z
end_header
0.4842670261859894 0.6843234896659851 -0.050248220562934875
0.48730170726776123 0.6290094256401062 -0.12830223143100739
0.4908505082130432 0.6429387331008911 -0.06326305866241455
0.46939462423324585 0.5507610440254211 -0.10527040809392929
0.48671406507492065 0.6062275171279907 -0.1390770971775055
0.48740047216415405 0.574462354183197 -0.13375765085220337
0.49058297276496887 0.49592044949531555 -0.08272423595190048
0.3357539772987366 0.48363184928894043 0.024279270321130753
0.4916229546070099 0.44298693537712097 -0.07518035173416138
0.4912748634815216 0.4133349061012268 -0.08471225947141647
0.4928175210952759 0.2944219410419464 -0.07926889508962631
0.48503434658050537 0.6907207369804382 -0.04591459408402443
0.4866984188556671 0.696657657623291 -0.03829776495695114
0.48870179057121277 0.7001241445541382 -0.02729780226945877
0.4898396134376526 0.7426507472991943 -0.012924840673804283
0.48949959874153137 0.7501228451728821 -0.015293949283659458
0.4897235035896301 0.7594408988952637 -0.018825877457857132
0.49099600315093994 0.7703092694282532 -0.01316495705395937
0.4968092441558838 0.7865257859230042 0.010337622836232185
0.4885270595550537 0.6388866305351257 -0.11478956788778305
0.46617957949638367 0.6350082755088806 -0.08041480928659439
0.252748042345047 0.3980022072792053 0.12536267936229706
0.40032759308815 0.4963732063770294 -0.0017706333892419934
0.37877529859542847 0.499206006526947 0.001881450996734202
0.3570360541343689 0.4998958110809326 0.009628931991755962
0.32655808329582214 0.4905696213245392 0.03025152161717415
0.41790032386779785 0.4915524125099182 -0.0019519716734066606
0.3601989448070526 0.4499751925468445 -0.014900192618370056
0.3854179382324219 0.45037639141082764 -0.01704472117125988
0.337388277053833 0.4541415572166443 -0.004918250255286694
0.3231305778026581 0.46155568957328796 0.006571350619196892
0.3098386824131012 0.5029994249343872 0.04498212784528732
0.41320380568504333 0.8121064901351929 0.0531947948038578
0.32657670974731445 0.4799320697784424 0.03193869814276695
0.24731990694999695 0.49424606561660767 0.15256524085998535
0.2831704616546631 0.48988810181617737 0.06764639914035797
0.37491777539253235 0.5937418341636658 -0.008641738444566727
0.4502541422843933 0.6797000169754028 -0.04559113830327988
0.4553227126598358 0.6944617033004761 -0.032032258808612823
0.42221733927726746 0.6824476718902588 -0.026584720239043236
0.40444615483283997 0.6861915588378906 -0.0009733067126944661
0.43146759271621704 0.6927815079689026 -0.01774168387055397
0.4141308069229126 0.6929236650466919 0.004848636221140623
0.3837343156337738 0.7215062975883484 0.052022501826286316
0.46778354048728943 0.6282302737236023 -0.125146746635437
0.4646689295768738 0.6060574054718018 -0.13495831191539764
0.290913462638855 0.4475196599960327 0.009758397936820984
0.42583268880844116 0.5405727624893188 -0.024064801633358
0.4149209260940552 0.6114968657493591 -0.06337154656648636
0.41460251808166504 0.5982651114463806 -0.05723748728632927
0.30766355991363525 0.5867822766304016 0.026774035766720772
0.4668481647968292 0.5765687227249146 -0.12458395212888718
0.34118375182151794 0.4274851679801941 -0.03907773271203041
0.3107956647872925 0.4346904754638672 -0.017281334847211838
0.2708171606063843 0.36056947708129883 0.07077590376138687
0.4407077729701996 0.43741315603256226 -0.06492935121059418
0.40763992071151733 0.456149160861969 -0.010851219296455383
0.3639504313468933 0.6948314309120178 0.05308694764971733
0.2841249704360962 0.6984132528305054 0.2518436908721924
0.43190330266952515 0.6245517134666443 -0.05394197627902031
0.4506426751613617 0.6316326260566711 -0.05655897036194801
0.38407498598098755 0.6958724856376648 0.051596589386463165
0.3900567889213562 0.6970877647399902 0.044563017785549164
0.298161119222641 0.4219473898410797 -0.0074597494676709175
0.41356346011161804 0.6176030039787292 -0.04873906821012497
0.3834145665168762 0.4263213276863098 -0.05559709668159485
0.3777151107788086 0.4100077748298645 -0.06365322321653366
0.3580860495567322 0.30903878808021545 -0.03567137196660042
0.2856608033180237 0.38706040382385254 0.025996975600719452
0.3716667890548706 0.3554662764072418 -0.05150330066680908
0.277322381734848 0.436950147151947 0.028773296624422073
0.26597660779953003 0.4167340397834778 0.0738300159573555
0.45187172293663025 0.6879863739013672 -0.040840256959199905
0.4265602231025696 0.6880829930305481 -0.022349931299686432
0.40892091393470764 0.6897143125534058 0.0003576823801267892
0.4368675947189331 0.6274450421333313 -0.04920550808310509
0.38707268238067627 0.696448802947998 0.04774661362171173
0.3988504409790039 0.7148953080177307 0.03560585528612137
0.3928682804107666 0.6978143453598022 0.043704867362976074
0.44384145736694336 0.6234878301620483 -0.08889151364564896
0.41924792528152466 0.6950178742408752 0.008429117500782013
0.4364627003669739 0.6958013772964478 -0.008195694535970688
0.4595324993133545 0.6981637477874756 -0.02134806476533413
0.4615543782711029 0.7838691473007202 0.014699635095894337
0.45726966857910156 0.7670602798461914 -0.008195385336875916
0.45705559849739075 0.7561897039413452 -0.01269956398755312
0.45861804485321045 0.7469652891159058 -0.008859815075993538
0.4614126682281494 0.7400950789451599 -0.0067807529121637344
0.42151495814323425 0.7239999771118164 0.019442839547991753
0.41726434230804443 0.7263936996459961 0.017123090103268623
0.41240543127059937 0.7310020923614502 0.015856677666306496
0.40953329205513 0.737006425857544 0.021829409524798393
0.387331485748291 0.6674178838729858 0.0028643645346164703
0.25909292697906494 0.5883384943008423 0.2673616409301758
0.48963168263435364 0.6415632367134094 -0.08202695846557617
0.4090921878814697 0.7137259244918823 0.035084474831819534
0.40351349115371704 0.7136826515197754 0.034042488783597946
0.45835766196250916 0.6397737264633179 -0.054715100675821304
0.42095738649368286 0.6279394030570984 -0.0295571181923151
0.4546801447868347 0.6358715295791626 -0.0567471981048584
0.40143272280693054 0.551184356212616 -0.011856979690492153
0.362209677696228 0.563800573348999 -0.0006719048833474517
0.4103527367115021 0.6057112812995911 -0.041931383311748505
0.303813099861145 0.3299955427646637 0.014609531499445438
0.31905537843704224 0.36556461453437805 -0.014902330935001373
0.3319731056690216 0.4116925895214081 -0.037389326840639114
0.403093159198761 0.7463976740837097 0.04050800949335098
0.4311540722846985 0.4110855460166931 -0.07814395427703857
0.4271257221698761 0.3524274230003357 -0.07363247126340866
0.41890740394592285 0.2981165945529938 -0.067116379737854
0.33822548389434814 0.49686846137046814 0.020673450082540512
0.2879602313041687 0.5165640711784363 0.06229464337229729
0.4287024438381195 0.4868522882461548 -0.000727753562387079
0.3023480772972107 0.46921640634536743 0.028717409819364548
0.44171208143234253 0.5279964208602905 -0.03615321218967438
0.429324746131897 0.6082119941711426 -0.08918225765228271
0.26301828026771545 0.534961462020874 0.09352943301200867
0.30417561531066895 0.5307295918464661 0.043205585330724716
0.33263322710990906 0.5388891100883484 0.020955491811037064
0.37493085861206055 0.5354616045951843 0.006414599251002073
0.4056381285190582 0.5266485810279846 -0.0026248979847878218
0.427479088306427 0.5175355672836304 -0.012959779240190983
0.4693455100059509 0.5014119744300842 -0.07064621150493622
0.26415830850601196 0.5786362886428833 0.09525462985038757
0.28511250019073486 0.4661790132522583 0.03959181532263756
0.47623997926712036 0.638066291809082 -0.11249729245901108
0.42521214485168457 0.5630998611450195 -0.031155463308095932
0.2463371455669403 0.4885581135749817 0.23109844326972961
0.44349950551986694 0.5074805021286011 -0.02037213183939457
0.40896672010421753 0.604410707950592 -0.016746828332543373
0.3162845969200134 0.4806239902973175 0.037369295954704285
0.42963460087776184 0.5917734503746033 -0.08193104714155197
0.26805752515792847 0.6423167586326599 0.2655273377895355
0.4267929792404175 0.4800381660461426 0.0037744094152003527
0.4479549825191498 0.5825017094612122 -0.10796311497688293
0.32270655035972595 0.7511688470840454 0.13778600096702576
0.33198922872543335 0.7765583992004395 0.1813129186630249
0.25214311480522156 0.5864112377166748 0.18139642477035522
0.29472899436950684 0.7219549417495728 0.16087111830711365
0.2557222843170166 0.4517584443092346 0.1193290501832962
0.4118245244026184 0.8352742195129395 0.06972382217645645
0.47964659333229065 0.6406668424606323 -0.07989811897277832
0.4037974774837494 0.5767533779144287 -0.018436437472701073
0.26574909687042236 0.49247047305107117 0.09313174337148666
0.3584522008895874 0.48741793632507324 0.009531499817967415
0.3774246871471405 0.4872513711452484 0.002553409431129694
0.3954448997974396 0.7170760631561279 0.04033530503511429
0.26722830533981323 0.6236602067947388 0.11094871163368225
0.4531618058681488 0.8683334589004517 0.07547861337661743
0.3907356858253479 0.8312894105911255 0.12352548539638519
0.3641480803489685 0.8076652884483337 0.14975517988204956
0.49145710468292236 0.35191163420677185 -0.08395843952894211
0.49993234872817993 0.873641848564148 0.06563588976860046
0.3952122926712036 0.48498615622520447 -0.00047114992048591375
0.4116438627243042 0.48196688294410706 0.0009351615444757044
0.42206287384033203 0.48072871565818787 0.004148201085627079
0.26968497037887573 0.46000736951828003 0.06335566937923431
0.40626195073127747 0.4710960388183594 -0.004741278942674398
0.3868315815925598 0.46867644786834717 -0.008396639488637447
0.3680989146232605 0.4691805839538574 -0.005834829527884722
0.34987109899520874 0.47201287746429443 0.0020643193274736404
0.3383464217185974 0.4755661189556122 0.011373287066817284
0.24517253041267395 0.4380233883857727 0.1828261911869049
0.34538111090660095 0.48578688502311707 0.01754080131649971
0.49182745814323425 0.6574247479438782 -0.05316698178648949
0.4110015332698822 0.6585261225700378 -0.019050007686018944
0.4321000277996063 0.6229619979858398 -0.06432518362998962
0.4560658037662506 0.6569640040397644 -0.0475689060986042
0.491797536611557 0.4681066870689392 -0.07014299929141998
0.3540313243865967 0.7818909287452698 0.11963265389204025
0.3826802372932434 0.8079099059104919 0.09673649817705154
0.45032358169555664 0.8541288375854492 0.045599181205034256
0.3066321611404419 0.7434124946594238 0.21873408555984497
0.420007586479187 0.47619837522506714 0.00010894716979237273
0.4543309509754181 0.5376378893852234 -0.07014359533786774
0.49864959716796875 0.8593425154685974 0.03701668977737427
0.4186224043369293 0.853056788444519 0.0955105647444725
0.2598988711833954 0.6355922818183899 0.18593484163284302
0.4389750063419342 0.7333195209503174 0.005167849827557802
0.43461480736732483 0.7382557392120361 0.003102425718680024
0.431387722492218 0.7457753419876099 0.0014885184355080128
0.43011558055877686 0.7556787729263306 0.006908510811626911
0.42792853713035583 0.7686617374420166 0.026320399716496468
0.4001292884349823 0.6943568587303162 0.025868326425552368
0.39557406306266785 0.6925155520439148 0.026851650327444077
0.3919876515865326 0.6904338598251343 0.02642800472676754
0.37000131607055664 0.678778350353241 0.028549974784255028
0.29095327854156494 0.635214626789093 0.06280199438333511
0.4561083912849426 0.5134195685386658 -0.0519074946641922
0.4426088333129883 0.4667864441871643 -0.017380118370056152
0.4285087287425995 0.46905773878097534 -0.006205086130648851
0.40497076511383057 0.6956957578659058 0.027971746399998665
0.2940800189971924 0.6888644695281982 0.11035261303186417
0.46230942010879517 0.4678417146205902 -0.05072648450732231
0.4205988049507141 0.788223147392273 0.040736351162195206
0.4885059893131256 0.5476500391960144 -0.11555986106395721
0.46920114755630493 0.5272597670555115 -0.0906507819890976
0.4894767105579376 0.5227712392807007 -0.09835907071828842
0.4376654028892517 0.5712879300117493 -0.06385423243045807
0.4975126087665558 0.8368440866470337 0.021300677210092545
0.49706730246543884 0.8094685077667236 0.016202155500650406
0.45698586106300354 0.8059317469596863 0.024172278121113777
0.3693234324455261 0.7330648899078369 0.06656649708747864
0.39048513770103455 0.6210516691207886 -0.0050394171848893166
0.3931066393852234 0.7632041573524475 0.05617433786392212
0.33679571747779846 0.6184476613998413 0.009197024628520012
0.3682485818862915 0.6422473788261414 0.008967637084424496
0.319424569606781 0.6513805389404297 0.03892122209072113
0.451306015253067 0.8322998881340027 0.030593153089284897
0.4241085350513458 0.5806240439414978 -0.04341265931725502
0.3554968237876892 0.7541247606277466 0.09039105474948883
0.38490015268325806 0.7837352752685547 0.07589997351169586
0.3478970527648926 0.7021130323410034 0.06322437524795532
0.2747015953063965 0.6620619893074036 0.12624728679656982
0.3228660821914673 0.7108684778213501 0.08572694659233093
0.2729624807834625 0.6811811327934265 0.1846076101064682
0.349916011095047 0.6645740270614624 0.029863448813557625
0.4406929910182953 0.5503597855567932 -0.04915505647659302
0.4364405870437622 0.6195730566978455 -0.09393829107284546
0.4218268096446991 0.6200321316719055 -0.06599816679954529
0.4459126591682434 0.6069934964179993 -0.1132330447435379
0.4227674901485443 0.45095187425613403 -0.02532804384827614
0.3850749731063843 0.44178152084350586 -0.028556792065501213
0.35260844230651855 0.4415220618247986 -0.024336379021406174
0.3262649178504944 0.4465048909187317 -0.011356417089700699
0.3092220425605774 0.45555442571640015 0.006012653466314077
0.30204522609710693 0.48549413681030273 0.048278942704200745
0.247554749250412 0.5399601459503174 0.168971985578537
0.3227675259113312 0.5113220810890198 0.03394925594329834
0.3463028073310852 0.5169997215270996 0.01902206428349018
0.37617766857147217 0.5159216523170471 0.007496309466660023
0.4034914970397949 0.5102977156639099 0.0004166870203334838
0.4239431917667389 0.5036587715148926 -0.004303330089896917
0.43767035007476807 0.49765145778656006 -0.008169466629624367
0.25300803780555725 0.5378286242485046 0.2572934031486511
0.4220661520957947 0.6229546666145325 -0.053453538566827774
0.45285290479660034 0.5595260858535767 -0.08571580797433853
0.45192205905914307 0.6238489747047424 -0.11322839558124542
0.464579701423645 0.6332743763923645 -0.1028093546628952
0.45258086919784546 0.6262000799179077 -0.10123465210199356
0.4277937710285187 0.6277153491973877 -0.04468507692217827
0.4688875675201416 0.6362156271934509 -0.10904458910226822
0.4718809425830841 0.6387178897857666 -0.08010722696781158
0.4350135624408722 0.48110443353652954 -0.0006944841588847339
0.4476665258407593 0.48697254061698914 -0.015195964835584164
0.4548485279083252 0.49224358797073364 -0.03197032958269119
0.331551194190979 0.47817936539649963 0.020362969487905502
0.31461936235427856 0.46980786323547363 0.021875115111470222
0.5084609389305115 0.5499318242073059 -0.10889703035354614
0.6572616100311279 0.4749642014503479 -0.002563715213909745
0.514545738697052 0.6340934038162231 -0.08322824537754059
0.7645179629325867 0.38571697473526 0.08396174758672714
0.5918689966201782 0.489619642496109 -0.01901521533727646
0.613211452960968 0.49099868535995483 -0.018870379775762558
0.6356670260429382 0.4913902282714844 -0.014394843950867653
0.6694151163101196 0.48169419169425964 0.0017268098890781403
0.5743799805641174 0.48638972640037537 -0.015600323677062988
0.6263522505760193 0.4397081732749939 -0.03679995238780975
0.6019997596740723 0.44165048003196716 -0.03438301384449005
0.6496788263320923 0.4427224397659302 -0.03006841614842415
0.6652929186820984 0.44992101192474365 -0.020665571093559265
0.6904385089874268 0.4943445324897766 0.014334091916680336
0.5877805948257446 0.8109146356582642 0.04076496511697769
0.6677142381668091 0.47114354372024536 0.0037651415914297104
0.7716017961502075 0.4840697646141052 0.11088160425424576
0.7201318740844727 0.4797382652759552 0.033209871500730515
0.6176725625991821 0.5891832113265991 -0.026116330176591873
0.5219857096672058 0.6779807806015015 -0.05025281012058258
0.5233297944068909 0.6930257678031921 -0.03638920560479164
0.5608612895011902 0.6800371408462524 -0.03612741827964783
0.588099479675293 0.6828796863555908 -0.013946335762739182
0.5551959276199341 0.690351128578186 -0.02626175433397293
0.5805056691169739 0.6895049810409546 -0.006276275496929884
0.6175797581672668 0.717512845993042 0.035391125828027725
0.5076922178268433 0.6275288462638855 -0.1274699568748474
0.509292483329773 0.605151355266571 -0.1377875953912735
0.6981581449508667 0.43210554122924805 -0.022852640599012375
0.5646501779556274 0.5376409888267517 -0.03547903522849083
0.5695749521255493 0.6082005500793457 -0.07403623312711716
0.5708789825439453 0.594822108745575 -0.06827360391616821
0.691541850566864 0.5798277854919434 -0.0023630214855074883
0.5088200569152832 0.575618326663971 -0.12820282578468323
0.6386388540267944 0.41273725032806396 -0.061728157103061676
0.6724498271942139 0.41892915964126587 -0.045667316764593124
0.7386285066604614 0.34869056940078735 0.03362903371453285
0.5388255715370178 0.4341481328010559 -0.07240290194749832
0.5810278654098511 0.4493100345134735 -0.02484690397977829
0.6372986435890198 0.6898085474967957 0.03324294462800026
0.7532817721366882 0.6920325756072998 0.2135782390832901
0.5530136227607727 0.6220667958259583 -0.06175771355628967
0.5332505702972412 0.6298757791519165 -0.06045695021748543
0.6235576868057251 0.6905495524406433 0.03447062894701958
0.6171305775642395 0.6919976472854614 0.029445944353938103
0.6861377954483032 0.40404212474823 -0.03765600174665451
0.5729591846466064 0.6142570376396179 -0.05913440138101578
0.5946177840232849 0.41616201400756836 -0.07104533910751343
0.5978329181671143 0.3985098898410797 -0.0794694721698761
0.6352094411849976 0.3015080988407135 -0.05688811093568802
0.7162985801696777 0.37739741802215576 -0.007195166312158108
0.616510808467865 0.3498106002807617 -0.06965817511081696
0.7146632075309753 0.4207703471183777 -0.006019284948706627
0.7431387901306152 0.40652257204055786 0.03615308925509453
0.5229682922363281 0.6863170266151428 -0.04553772136569023
0.5579516291618347 0.6856189370155334 -0.031458694487810135
0.5842848420143127 0.6863273978233337 -0.011655503883957863
0.5481359958648682 0.6251615285873413 -0.0555412694811821
0.6202722191810608 0.6912289261817932 0.03183673322200775
0.6045815944671631 0.7104893326759338 0.02204759605228901
0.6142274141311646 0.6927727460861206 0.029056010767817497
0.5374582409858704 0.6216154098510742 -0.09613566100597382
0.5775504112243652 0.6914712190628052 -0.0020924017298966646
0.5525742769241333 0.693270742893219 -0.016087660565972328
0.5231401324272156 0.6967792510986328 -0.02576465532183647
0.533578634262085 0.7830080389976501 0.010310612618923187
0.5286580324172974 0.7660729289054871 -0.01302327960729599
0.5265161395072937 0.7551299333572388 -0.01770623028278351
0.524642825126648 0.7458308339118958 -0.013782129622995853
0.5227019190788269 0.7390763163566589 -0.011469070799648762
0.5758950710296631 0.7210872173309326 0.008960810489952564
0.5800504684448242 0.7231916189193726 0.00658590579405427
0.5852041244506836 0.7276130318641663 0.004911378957331181
0.5890220403671265 0.7335660457611084 0.01012817770242691
0.606101930141449 0.663017213344574 -0.011903887614607811
0.7772305011749268 0.5797450542449951 0.22509697079658508
0.5941320657730103 0.7099640369415283 0.02209230326116085
0.5993947982788086 0.7095615863800049 0.02096591889858246
0.5252062082290649 0.6385732889175415 -0.058607086539268494
0.5670245289802551 0.6250523328781128 -0.03781672567129135
0.5290434956550598 0.6344698667526245 -0.060533370822668076
0.590644359588623 0.547347366809845 -0.02713126502931118
0.6317304372787476 0.5587102174758911 -0.02149205096065998
0.5770930051803589 0.6021530032157898 -0.053265031427145004
0.6976531147956848 0.3196117579936981 -0.015627199783921242
0.6758808493614197 0.35757991671562195 -0.041511695832014084
0.6466318964958191 0.3952424228191376 -0.06141297146677971
0.5964576601982117 0.7433851361274719 0.02690432406961918
0.5447428226470947 0.406033992767334 -0.08617112785577774
0.5574023127555847 0.3493794798851013 -0.08289046585559845
0.5694488286972046 0.2939113676548004 -0.07773838937282562
0.656489908695221 0.48852235078811646 -0.006130816414952278
0.7179208993911743 0.5079618096351624 0.02827783301472664
0.5636017322540283 0.48291268944740295 -0.01284511387348175
0.6908945441246033 0.45731228590011597 -0.0025268716271966696
0.5468887686729431 0.5257182121276855 -0.045349955558776855
0.5515297055244446 0.6057236790657043 -0.09778532385826111
0.7474028468132019 0.5263088345527649 0.055071838200092316
0.6980324387550354 0.5232163667678833 0.011305776424705982
0.6655274033546448 0.532302737236023 -0.006369216367602348
0.6202425956726074 0.530107855796814 -0.014575631357729435
0.588209867477417 0.5222131609916687 -0.018552279099822044
0.5651174187660217 0.5142244100570679 -0.024816026911139488
0.5133194327354431 0.5003969669342041 -0.07452651858329773
0.7463776469230652 0.5704486966133118 0.056930579245090485
0.7110254764556885 0.4534270167350769 0.005403062794357538
0.5012056231498718 0.6376755833625793 -0.11433801800012589
0.5635218620300293 0.560122549533844 -0.04203404113650322
0.7835198640823364 0.4775142967700958 0.18733207881450653
0.5473266839981079 0.5050090551376343 -0.029682006686925888
0.5809339284896851 0.6008458733558655 -0.028121938928961754
0.6789143085479736 0.47059696912765503 0.0077493153512477875
0.5527037978172302 0.58916175365448 -0.09067803621292114
0.7700671553611755 0.6349432468414307 0.22502969205379486
0.5663679242134094 0.47642651200294495 -0.008776338770985603
0.5304791331291199 0.5808034539222717 -0.11434469372034073
0.6949833631515503 0.7472597360610962 0.10954601317644119
0.6940596103668213 0.7735422849655151 0.1523326337337494
0.7706750631332397 0.577877402305603 0.13962112367153168
0.7275494933128357 0.7162629961967468 0.12747721374034882
0.7585767507553101 0.4413672685623169 0.07923201471567154
0.5916111469268799 0.8344549536705017 0.05632215365767479
0.49989745020866394 0.6402787566184998 -0.08104883879423141
0.5870559811592102 0.5730059146881104 -0.03197569400072098
0.7452107667922974 0.4822377562522888 0.055276598781347275
0.631897509098053 0.4781198501586914 -0.013973898254334927
0.6126403212547302 0.47818565368652344 -0.01824309676885605
0.6090155839920044 0.712511420249939 0.02575174905359745
0.7464369535446167 0.615888774394989 0.07399104535579681
0.5485644340515137 0.86800217628479 0.06781181693077087
0.6216624975204468 0.8299529552459717 0.10446124523878098
0.654822051525116 0.8058711290359497 0.12602382898330688
0.5956428647041321 0.4771496653556824 -0.018164148554205894
0.579911470413208 0.47592902183532715 -0.01422035787254572
0.5704061985015869 0.476205438375473 -0.009366986341774464
0.7312551736831665 0.44657716155052185 0.026507826521992683
0.5861799716949463 0.46738922595977783 -0.020316781476140022
0.6044971346855164 0.46426212787628174 -0.026538698002696037
0.6225842237472534 0.4639909863471985 -0.026988856494426727
0.6410574913024902 0.4656204581260681 -0.022093089297413826
0.6535672545433044 0.46812307834625244 -0.014564880169928074
0.7783312797546387 0.425930380821228 0.13967910408973694
0.6460326910018921 0.4769153594970703 -0.00803440809249878
0.5791015028953552 0.6550689935684204 -0.030194340273737907
0.5517417192459106 0.6205628514289856 -0.07184287905693054
0.5290881991386414 0.6555857062339783 -0.05230948328971863
0.6592516899108887 0.7795281410217285 0.09681139886379242
0.626132607460022 0.8065804243087769 0.07864457368850708
0.5488048195838928 0.8537805676460266 0.038132667541503906
0.725975751876831 0.7383937239646912 0.18437178432941437
0.5729638338088989 0.47278326749801636 -0.01375020295381546
0.5286803841590881 0.5360553860664368 -0.07626454532146454
0.5875197649002075 0.8521000742912292 0.08126562088727951
0.7653259038925171 0.6278916001319885 0.14611485600471497
0.5511955618858337 0.7313264608383179 -0.00283252215012908
0.5552629232406616 0.7360211610794067 -0.005198340862989426
0.5588912963867188 0.7434679269790649 -0.0073294732719659805
0.5616797804832458 0.7533073425292969 -0.0022509852424263954
0.5693183541297913 0.7665683031082153 0.016343900933861732
0.6023645997047424 0.6897927522659302 0.012278548441827297
0.606049656867981 0.6879587173461914 0.012034814804792404
0.6095225811004639 0.6859388947486877 0.010721073485910892
0.6273692846298218 0.673664927482605 0.010262828320264816
0.7150588035583496 0.6280819773674011 0.03144575282931328
0.5295113921165466 0.5119054317474365 -0.05846500024199486
0.5461483597755432 0.46341556310653687 -0.02545127272605896
0.5621412396430969 0.46458595991134644 -0.017820067703723907
0.5987713932991028 0.6911539435386658 0.014932184480130672
0.7195662260055542 0.6823033094406128 0.07895226031541824
0.5221182703971863 0.4662173390388489 -0.05555155873298645
0.5788171887397766 0.7866630554199219 0.029757210984826088
0.5108802318572998 0.5263373255729675 -0.0939541757106781
0.54662024974823 0.5691334009170532 -0.07191454619169235
0.5389664173126221 0.8052376508712769 0.018863976001739502
0.634393036365509 0.7295244932174683 0.047520995140075684
0.6018101572990417 0.6169074773788452 -0.01928894594311714
0.6090809106826782 0.7607081532478333 0.0410287119448185
0.6593875885009766 0.6126821637153625 -0.013319595716893673
0.6267440915107727 0.6375265121459961 -0.008779231458902359
0.68206787109375 0.6453490257263184 0.013226506300270557
0.5455398559570312 0.8317866921424866 0.023539049550890923
0.5632805824279785 0.5775597095489502 -0.053513411432504654
0.652499794960022 0.7509883642196655 0.06874828040599823
0.6200937032699585 0.7817725539207458 0.05915605649352074
0.6556190252304077 0.6974596977233887 0.0403304286301136
0.7421737909317017 0.6547243595123291 0.09111427515745163
0.6859877109527588 0.7058780789375305 0.05940576270222664
0.753007709980011 0.6742359399795532 0.14662280678749084
0.6492683291435242 0.6592297554016113 0.008744343183934689
0.5454212427139282 0.5481600761413574 -0.05781747028231621
0.5443868637084961 0.6174240708351135 -0.1017928272485733
0.5622864961624146 0.6171107292175293 -0.07501205056905746
0.5312186479568481 0.6053492426872253 -0.11942699551582336
0.5626920461654663 0.445708304643631 -0.036428842693567276
0.5981802940368652 0.43259382247924805 -0.04491468518972397
0.630224883556366 0.4295727610588074 -0.04596012458205223
0.6580767035484314 0.433498740196228 -0.03750607743859291
0.6786543130874634 0.442385733127594 -0.023304486647248268
0.6965378522872925 0.47535598278045654 0.016764575615525246
0.7731055617332458 0.5306332111358643 0.1261824667453766
0.6752217411994934 0.5034074187278748 0.004991280380636454
0.6494637727737427 0.5095590949058533 -0.006165837403386831
0.6178491115570068 0.5091660022735596 -0.013202342204749584
0.589816689491272 0.5047962665557861 -0.01594218611717224
0.568949282169342 0.4995276927947998 -0.01662742719054222
0.5544729828834534 0.4944028854370117 -0.01824861578643322
0.7809324860572815 0.527923047542572 0.21362023055553436
0.5633795261383057 0.6200305223464966 -0.06229132413864136
0.5278066396713257 0.5579519271850586 -0.09200296550989151
0.5257276296615601 0.6225380301475525 -0.11815383285284042
0.5148776173591614 0.6326113343238831 -0.1056654080748558
0.5272927284240723 0.6250435709953308 -0.10626795887947083
0.558525562286377 0.6250097751617432 -0.052052393555641174
0.509364664554596 0.6356176137924194 -0.11133291572332382
0.5082855224609375 0.6380228996276855 -0.08205600827932358
0.5571157336235046 0.47761785984039307 -0.011088578030467033
0.543055534362793 0.48428958654403687 -0.023122582584619522
0.533464789390564 0.49027174711227417 -0.03859134018421173
0.6615109443664551 0.47003212571144104 -0.0067392373457551
0.6768497228622437 0.45874112844467163 -0.006840287242084742
0.3737679719924927 0.47542431950569153 0.006822942290455103
0.3977028727531433 0.47468358278274536 0.006822942290455103
0.3728564381599426 0.4572838842868805 0.006822942290455103
0.34972697496414185 0.476135790348053 0.006822942290455103
0.37449222803115845 0.49352407455444336 0.006822942290455103
0.6213212609291077 0.4720984101295471 -0.013785596936941147
0.6435530185699463 0.4718559980392456 -0.013785596936941147
0.6210470199584961 0.4543207883834839 -0.013785596936941147
0.598912239074707 0.4723578691482544 -0.013785596936941147
0.6214649677276611 0.48960545659065247 -0.013785596936941147
