ply
format ascii 1.0
element vertex 478
property float x
property float y
property float z
end_header
0.48791801929473877 0.713659405708313 -0.05756615102291107
0.47312766313552856 0.6512640714645386 -0.1362650841474533
0.4816132187843323 0.670056939125061 -0.06970209628343582
0.45715805888175964 0.5629763603210449 -0.10622341185808182
0.472078412771225 0.6248953938484192 -0.14669901132583618
0.47373664379119873 0.5893387794494629 -0.13971573114395142
0.4810819923877716 0.5013953447341919 -0.08136411011219025
0.3289271891117096 0.47507259249687195 0.04701002687215805
0.4822551906108856 0.43740856647491455 -0.06891878694295883
0.4811996817588806 0.40409713983535767 -0.0766410380601883
0.4835929274559021 0.2693123519420624 -0.06611193716526031
0.4882323145866394 0.720698893070221 -0.053427018225193024
0.4894844591617584 0.7268596887588501 -0.04607969522476196
0.4911671578884125 0.7304931282997131 -0.036409642547369
0.49214762449264526 0.7814639210700989 -0.01943117566406727
0.4911838471889496 0.7915704846382141 -0.02384316921234131
0.49064067006111145 0.8041990995407104 -0.028059804812073708
0.49117788672447205 0.8183103799819946 -0.02282274328172207
0.49331557750701904 0.8397529721260071 0.0002882462868001312
0.4757707118988037 0.6633954644203186 -0.12250306457281113
0.45543697476387024 0.6598976850509644 -0.08502078801393509
0.25533077120780945 0.3802946209907532 0.1655101478099823
0.3951020836830139 0.4983201026916504 0.013630034402012825
0.3710750341415405 0.5002276301383972 0.01926511339843273
0.3481527268886566 0.4994155168533325 0.029125722125172615
0.3201386630535126 0.4828307032585144 0.05316458269953728
0.41563937067985535 0.4941257834434509 0.011619305238127708
0.35688602924346924 0.4316270351409912 0.006930219940841198
0.3849267363548279 0.43538355827331543 0.0018220231868326664
0.33276045322418213 0.43481868505477905 0.018567383289337158
0.31813180446624756 0.4433783292770386 0.030727604404091835
0.30023136734962463 0.498526394367218 0.06882138550281525
0.4054800868034363 0.8646792769432068 0.05281288921833038
0.320639967918396 0.46739041805267334 0.055803075432777405
0.24043524265289307 0.4917704463005066 0.18776115775108337
0.2780911922454834 0.4783208668231964 0.09540033340454102
0.3636348247528076 0.6117154359817505 -0.000553960504475981
0.4517638385295868 0.7083215713500977 -0.04965035617351532
0.4558764398097992 0.7235931158065796 -0.03643512353301048
0.42104530334472656 0.7102530598640442 -0.02636893279850483
0.40089085698127747 0.7136247158050537 0.004128939472138882
0.4299894869327545 0.7214368581771851 -0.018027951940894127
0.4111093282699585 0.7212314605712891 0.008649693801999092
0.37534376978874207 0.7612195611000061 0.061852458864450455
0.4537411034107208 0.6500748991966248 -0.13152210414409637
0.44975197315216064 0.6245474815368652 -0.14062994718551636
0.28851446509361267 0.42206406593322754 0.03773726150393486
0.41814810037612915 0.5509324669837952 -0.016505591571331024
0.40499788522720337 0.6329578757286072 -0.061716947704553604
0.4044398367404938 0.6181043386459351 -0.054675523191690445
0.29285871982574463 0.6024614572525024 0.04306226596236229
0.45295262336730957 0.5915820002555847 -0.1279596984386444
0.33620232343673706 0.40362730622291565 -0.016697661951184273
0.30696138739585876 0.40806272625923157 0.00857555866241455
0.2739209532737732 0.338596910238266 0.10887305438518524
0.43688079714775085 0.43173715472221375 -0.05333871766924858
0.4095783829689026 0.4463499188423157 0.005772309843450785
0.3547705113887787 0.7281854152679443 0.06510700285434723
0.27232807874679565 0.7322753071784973 0.27722907066345215
0.423082172870636 0.6486884355545044 -0.054188404232263565
0.4414331018924713 0.6573066115379333 -0.05977897718548775
0.379060298204422 0.7231945991516113 0.06309693306684494
0.3859905004501343 0.7249101400375366 0.054859891533851624
0.2976696491241455 0.3913680911064148 0.020318184047937393
0.4042311906814575 0.6410071849822998 -0.047109756618738174
0.37789320945739746 0.4095904231071472 -0.038009606301784515
0.3738597631454468 0.3906635046005249 -0.04527561739087105
0.35332000255584717 0.2841363549232483 -0.007597958669066429
0.28544437885284424 0.3682015836238861 0.05831526964902878
0.3654201328754425 0.3370169401168823 -0.028087424114346504
0.27832984924316406 0.4084320068359375 0.059178028255701065
0.26495760679244995 0.4008626937866211 0.10902640968561172
0.45287638902664185 0.7168540954589844 -0.04490888863801956
0.4252110719680786 0.716293215751648 -0.0222175195813179
0.4056536853313446 0.7175806760787964 0.004770286846905947
0.42801353335380554 0.6525931358337402 -0.0502481646835804
0.3824748694896698 0.7240045070648193 0.058550480753183365
0.3935561180114746 0.7467219829559326 0.04401278495788574
0.3892449736595154 0.7259266376495361 0.0536327101290226
0.43262967467308044 0.6460740566253662 -0.09053601324558258
0.41624122858047485 0.7236995100975037 0.01109233032912016
0.4349067211151123 0.7247228026390076 -0.009624798782169819
0.4598243832588196 0.7275400161743164 -0.02675953507423401
0.4556523859500885 0.8358919620513916 0.008374213241040707
0.45368459820747375 0.8132332563400269 -0.0136785339564085
0.45462825894355774 0.7991684675216675 -0.017594145610928535
0.45743611454963684 0.786656379699707 -0.013145886361598969
0.46142372488975525 0.7776106595993042 -0.009479247964918613
0.4188482165336609 0.7579364776611328 0.02426406368613243
0.4132947325706482 0.761122465133667 0.021003561094403267
0.40677106380462646 0.7671264410018921 0.019867783412337303
0.4023935794830322 0.7748704552650452 0.02674243412911892
0.37737321853637695 0.6960929036140442 0.009830072522163391
0.24868738651275635 0.6007096767425537 0.3007812798023224
0.47835561633110046 0.6672937870025635 -0.0887427106499672
0.4058820307254791 0.7452044486999512 0.04352886229753494
0.39944905042648315 0.7451626062393188 0.04203195869922638
0.44906502962112427 0.6666265726089478 -0.058555323630571365
0.4116210341453552 0.653651773929596 -0.02931695431470871
0.4453251361846924 0.662205159664154 -0.0603579618036747
0.3930591344833374 0.5624379515647888 -0.0025592604652047157
0.3513999581336975 0.5762263536453247 0.011089587584137917
0.40073162317276 0.6270829439163208 -0.03899914771318436
0.30431362986564636 0.3058846890926361 0.04872652143239975
0.3172298073768616 0.34586864709854126 0.01367371715605259
0.3296739161014557 0.38438647985458374 -0.013383028097450733
0.3950635492801666 0.7911514043807983 0.04675425589084625
0.4287627041339874 0.4010678827762604 -0.06512796133756638
0.4183463454246521 0.33483415842056274 -0.05581699684262276
0.41087645292282104 0.27303674817085266 -0.04638368636369705
0.32992804050445557 0.4933784008026123 0.04208912327885628
0.27603402733802795 0.514683723449707 0.08779914677143097
0.428594708442688 0.4897090792655945 0.01255483366549015
0.2986590564250946 0.4513809084892273 0.054757025092840195
0.43385571241378784 0.5368611216545105 -0.029658854007720947
0.4172857701778412 0.6282297372817993 -0.08960065245628357
0.24939590692520142 0.5397921204566956 0.12156800925731659
0.2870955467224121 0.5350393056869507 0.06562380492687225
0.3134618401527405 0.5478130578994751 0.039280787110328674
0.3582795560359955 0.5458081364631653 0.02073388360440731
0.3923090100288391 0.5366859436035156 0.009118395857512951
0.4165170192718506 0.5275803804397583 -0.003351618302986026
0.4600696563720703 0.5072109699249268 -0.06649520993232727
0.24657541513442993 0.5913810729980469 0.12034592777490616
0.28226155042648315 0.44678986072540283 0.06818841397762299
0.4636518955230713 0.6621345281600952 -0.1189427301287651
0.4163253903388977 0.5772535800933838 -0.025693662464618683
0.24279573559761047 0.4850345849990845 0.270178884267807
0.43472206592559814 0.5174482464790344 -0.011623160913586617
0.3996594548225403 0.6261591911315918 -0.012904459610581398
0.31178534030914307 0.4676133990287781 0.061895936727523804
0.41784027218818665 0.6098520755767822 -0.08125560730695724
0.2562348246574402 0.6647136807441711 0.29503586888313293
0.42888402938842773 0.48093241453170776 0.018506037071347237
0.4347231388092041 0.5984913110733032 -0.10934672504663467
0.31309205293655396 0.7953408360481262 0.15151505172252655
0.32364749908447266 0.8252642154693604 0.19544865190982819
0.23544034361839294 0.599340558052063 0.21164372563362122
0.28087711334228516 0.761176347732544 0.178595170378685
0.2520940899848938 0.442333459854126 0.1552029699087143
0.4055193066596985 0.8893795013427734 0.06829321384429932
0.4684678018093109 0.6661924123764038 -0.08578361570835114
0.3945779800415039 0.592803418636322 -0.011920740827918053
0.262654572725296 0.4798445403575897 0.12365923076868057
0.35128578543663025 0.48436346650123596 0.029870009049773216
0.37149447202682495 0.4859916567802429 0.021193381398916245
0.3888680636882782 0.7493271231651306 0.049534451216459274
0.24882817268371582 0.6440655589103699 0.13350191712379456
0.44984912872314453 0.9261595606803894 0.069000743329525
0.3868354558944702 0.8852856159210205 0.12883499264717102
0.35936427116394043 0.8598400354385376 0.1596485823392868
0.48206329345703125 0.3345576822757721 -0.07242658734321594
0.4979575276374817 0.9342039227485657 0.05339745804667473
0.39184635877609253 0.4843410849571228 0.016481634229421616
0.4115615487098694 0.4817325472831726 0.01667635142803192
0.42385998368263245 0.48135504126548767 0.019349604845046997
0.26954585313796997 0.438717782497406 0.09470979869365692
0.40606123208999634 0.46318405866622925 0.012674741446971893
0.3841332197189331 0.4555920958518982 0.011063645593822002
0.36248689889907837 0.45383256673812866 0.015389887616038322
0.34255385398864746 0.4564954936504364 0.024655107408761978
0.33105164766311646 0.4612621068954468 0.03462572395801544
0.24517586827278137 0.42667150497436523 0.22303201258182526
0.3380759060382843 0.48025503754615784 0.039279572665691376
0.4844777286052704 0.6864992380142212 -0.05961890518665314
0.40122175216674805 0.6869263648986816 -0.016300562769174576
0.42280513048171997 0.6463183760643005 -0.06476879119873047
0.44778260588645935 0.6855427026748657 -0.050795797258615494
0.4832177460193634 0.4680063724517822 -0.06587642431259155
0.34771454334259033 0.8300285339355469 0.1290750652551651
0.37644118070602417 0.8590152263641357 0.10082274675369263
0.44482600688934326 0.9117693305015564 0.03811465948820114
0.29582127928733826 0.7866358160972595 0.23846767842769623
0.4216298758983612 0.4741678833961487 0.016048675402998924
0.4442794919013977 0.5483299493789673 -0.0672282800078392
0.49494850635528564 0.9191521406173706 0.02402343973517418
0.4148978590965271 0.9087134599685669 0.09529417008161545
0.2415790855884552 0.6574498414993286 0.21239343285560608
0.43752288818359375 0.7693905234336853 0.006252503953874111
0.43156126141548157 0.7758481502532959 0.0031025821808725595
0.4267241954803467 0.7858114838600159 0.0017149271443486214
0.4239019751548767 0.798556387424469 0.007551206741482019
0.42047953605651855 0.8176277279853821 0.02739221416413784
0.39674288034439087 0.7223069071769714 0.033681780099868774
0.39153414964675903 0.719962477684021 0.035688769072294235
0.3873867392539978 0.717496395111084 0.035701654851436615
0.3603212833404541 0.7088810205459595 0.039403486996889114
0.27403539419174194 0.6585920453071594 0.07996083050966263
0.44764000177383423 0.5206522345542908 -0.046412501484155655
0.4430646300315857 0.4669066369533539 -0.0053183576092123985
0.43061888217926025 0.4669404625892639 0.008653542958199978
0.4019147753715515 0.724109947681427 0.035078972578048706
0.28021562099456787 0.7216227054595947 0.12722110748291016
0.4587402939796448 0.4711032211780548 -0.04239457845687866
0.41263318061828613 0.839115560054779 0.04115329682826996
0.47633859515190125 0.559684693813324 -0.11911322921514511
0.45837289094924927 0.5367598533630371 -0.08936689049005508
0.4786791205406189 0.5319517254829407 -0.09921708703041077
0.4271840453147888 0.5866211652755737 -0.061660267412662506
0.49344611167907715 0.8950380086898804 0.009062246419489384
0.49340173602104187 0.8650231957435608 0.005242994520813227
0.4501936733722687 0.8601717352867126 0.017667971551418304
0.36174410581588745 0.7741270661354065 0.0769553855061531
0.3803466856479645 0.6448004245758057 0.0008396035409532487
0.3854513168334961 0.8098281621932983 0.06204211339354515
0.3234146237373352 0.6397470235824585 0.019696202129125595
0.35770297050476074 0.6680763363838196 0.01783403754234314
0.3064597249031067 0.6776764988899231 0.051963936537504196
0.44462981820106506 0.8887615203857422 0.02387661673128605
0.4145353436470032 0.5977656245231628 -0.03985830023884773
0.34861159324645996 0.798004686832428 0.1006060391664505
0.377490758895874 0.8321027159690857 0.08060809969902039
0.33883774280548096 0.7369920015335083 0.07599999010562897
0.2581149935722351 0.6894900798797607 0.1465647965669632
0.31249064207077026 0.7475289702415466 0.09956976771354675
0.25598257780075073 0.7122144103050232 0.20748895406723022
0.3399830460548401 0.6931443810462952 0.0414845235645771
0.43133771419525146 0.5627723336219788 -0.04489084333181381
0.4248661398887634 0.6413223147392273 -0.09526552259922028
0.4122651219367981 0.64274001121521 -0.06577075272798538
0.43207812309265137 0.6260920166969299 -0.11597388237714767
0.42291975021362305 0.44392627477645874 -0.01054715272039175
0.3826914131641388 0.4267613887786865 -0.010141347534954548
0.3481108844280243 0.4222300946712494 -0.0027232107240706682
0.3213874399662018 0.4254199266433716 0.012673657387495041
0.3052399754524231 0.434776246547699 0.0312577523291111
0.29740673303604126 0.4730263352394104 0.07406580448150635
0.23513808846473694 0.5449579358100891 0.20244833827018738
0.3109510540962219 0.5106717944145203 0.0557965412735939
0.3331355154514313 0.5204006433486938 0.03801398351788521
0.364703893661499 0.5208607912063599 0.023505905643105507
0.3949536085128784 0.5157073140144348 0.013863110914826393
0.41802653670310974 0.5095304250717163 0.007220331579446793
0.4334598779678345 0.5040645599365234 0.002360323676839471
0.24601280689239502 0.5418221950531006 0.29425859451293945
0.4129908084869385 0.6469545364379883 -0.05305206775665283
0.4412132203578949 0.5728784203529358 -0.08485077321529388
0.43866395950317383 0.6454313397407532 -0.11728844046592712
0.4527265429496765 0.6569703817367554 -0.10809779167175293
0.4405726194381714 0.6486497521400452 -0.10477042198181152
0.418576180934906 0.6531374454498291 -0.045216161757707596
0.4565046429634094 0.6600521802902222 -0.11502895504236221
0.4608965814113617 0.664034366607666 -0.08531005680561066
0.4362644553184509 0.48347315192222595 0.01238223910331726
0.44559967517852783 0.4924772381782532 -0.005009601823985577
0.4490429759025574 0.5003459453582764 -0.024055495858192444
0.3246661424636841 0.46486085653305054 0.0439407117664814
0.3102070689201355 0.4532264769077301 0.04630546644330025
0.49763813614845276 0.562665581703186 -0.11466288566589355
0.6685054302215576 0.48330068588256836 -0.013985262252390385
0.5041486024856567 0.6602233648300171 -0.0915137529373169
0.78463214635849 0.37586158514022827 0.06839966773986816
0.6023851633071899 0.5043670535087585 -0.025563158094882965
0.626166582107544 0.5046430230140686 -0.02785925194621086
0.6501646041870117 0.503380537033081 -0.025387778878211975
0.6832691431045532 0.49214595556259155 -0.011365910060703754
0.5813978314399719 0.5016084909439087 -0.01930086873471737
0.6315246820449829 0.43670153617858887 -0.043289151042699814
0.6033539772033691 0.44039303064346313 -0.03801857307553291
0.6587635278701782 0.44049280881881714 -0.03913892060518265
0.6776555180549622 0.45018118619918823 -0.03150621056556702
0.7093688249588013 0.5056031942367554 -0.00029956159414723516
0.5952536463737488 0.8700661659240723 0.02389262057840824
0.6787592768669128 0.47864973545074463 -0.00798035878688097
0.8028057813644409 0.4909588694572449 0.09371711313724518
0.7399008274078369 0.4877833127975464 0.017767006531357765
0.6243677139282227 0.6119974255561829 -0.04106678068637848
0.5285889506340027 0.7101264595985413 -0.06075865775346756
0.5290635824203491 0.7253838181495667 -0.046885307878255844
0.5706871747970581 0.7146663665771484 -0.04886455088853836
0.6005358695983887 0.7194831371307373 -0.02680806629359722
0.5638290047645569 0.7252366542816162 -0.038167305290699005
0.5917717218399048 0.7264111042022705 -0.01793622225522995
0.6332094073295593 0.7635712027549744 0.022284889593720436
0.4943806231021881 0.650400698184967 -0.13681098818778992
0.49584662914276123 0.6243475079536438 -0.14708435535430908
0.7109806537628174 0.429673433303833 -0.03591253608465195
0.5646687746047974 0.5504480004310608 -0.04271804168820381
0.5646264553070068 0.6330377459526062 -0.08634582161903381
0.5677797794342041 0.6177377104759216 -0.08013102412223816
0.7097064852714539 0.6034502387046814 -0.02291683666408062
0.4965665340423584 0.5912393927574158 -0.1362120807170868
0.6412206888198853 0.4064776301383972 -0.06777697801589966
0.6804748773574829 0.41307997703552246 -0.055410344153642654
0.7489588856697083 0.3321610391139984 0.021579448133707047
0.5320873856544495 0.4352882504463196 -0.0702962651848793
0.5803250074386597 0.45215117931365967 -0.02665068954229355
0.6548135280609131 0.7302544713020325 0.01775551214814186
0.7967758178710938 0.7393468618392944 0.18786294758319855
0.5469192266464233 0.6490998268127441 -0.0721510574221611
0.5259888172149658 0.6573299169540405 -0.06880494207143784
0.640629768371582 0.7314170002937317 0.02176431007683277
0.6334471702575684 0.7326558232307434 0.018120521679520607
0.6936549544334412 0.3964480459690094 -0.04801947996020317
0.5700973868370056 0.641191303730011 -0.07126223295927048
0.5924438238143921 0.41211187839508057 -0.07320695370435715
0.5938593745231628 0.3918107748031616 -0.08140864968299866
0.6305915713310242 0.27768078446388245 -0.057950615882873535
0.7223321199417114 0.36312466859817505 -0.016814934089779854
0.6099645495414734 0.3319189250469208 -0.06971195340156555
0.7277799844741821 0.4172501564025879 -0.01950165070593357
0.758317232131958 0.3977048695087433 0.02383783645927906
0.5290960073471069 0.7185750007629395 -0.05598999187350273
0.5671417117118835 0.7203793525695801 -0.043681997805833817
0.5963323712348938 0.7230355739593506 -0.023805491626262665
0.54215407371521 0.6529677510261536 -0.0649518072605133
0.6369588971138 0.7319894433021545 0.0200357623398304
0.619347870349884 0.7534815669059753 0.011343590915203094
0.63017737865448 0.7333120703697205 0.017988529056310654
0.5280779004096985 0.6465609669685364 -0.10709815472364426
0.5881258249282837 0.7285910844802856 -0.014126427471637726
0.5606081485748291 0.7281919717788696 -0.028524678200483322
0.5285979509353638 0.7291683554649353 -0.03748515620827675
0.5353721380233765 0.8374790549278259 -0.002160401316359639
0.533602774143219 0.8151167035102844 -0.025104403495788574
0.531790018081665 0.8010890483856201 -0.02947629988193512
0.5300552845001221 0.7886313199996948 -0.024840567260980606
0.5279882550239563 0.7797176241874695 -0.020626062527298927
0.5867648124694824 0.7632496356964111 -0.0010442992206662893
0.5916042327880859 0.7663390040397644 -0.004303925670683384
0.597732424736023 0.7722779512405396 -0.006389128975570202
0.6021778583526611 0.7797391414642334 -0.0013546777190640569
0.6145768761634827 0.6971381902694702 -0.025230772793293
0.8233298659324646 0.6038063168525696 0.20221327245235443
0.6069925427436829 0.7516880035400391 0.012136081233620644
0.6132740378379822 0.7518526911735535 0.010482018813490868
0.5184487700462341 0.6667570471763611 -0.06761018931865692
0.5655832290649414 0.6541484594345093 -0.04857155680656433
0.5219396352767944 0.6622691750526428 -0.06906601786613464
0.5938599109649658 0.5620449185371399 -0.037474729120731354
0.6400431394577026 0.5762521028518677 -0.03598685562610626
0.5759336352348328 0.6270034909248352 -0.06527736037969589
0.6995470523834229 0.298416405916214 -0.02279958873987198
0.6745905876159668 0.34011146426200867 -0.04704246297478676
0.6479286551475525 0.38641873002052307 -0.06779109686613083
0.6079016327857971 0.7938960194587708 0.014161955565214157
0.5353545546531677 0.40204304456710815 -0.08323047310113907
0.548598051071167 0.33187928795814514 -0.07741992920637131
0.5614056587219238 0.2691205143928528 -0.07179298996925354
0.6710586547851562 0.49944087862968445 -0.01867177151143551
0.74030601978302 0.5206107497215271 0.011014404706656933
0.567044198513031 0.4979747533798218 -0.015048678033053875
0.7058632373809814 0.46060317754745483 -0.015859466046094894
0.5443775057792664 0.5363602042198181 -0.050590984523296356
0.5434629321098328 0.628291130065918 -0.10933426022529602
0.7758473753929138 0.5402226448059082 0.03494083508849144
0.7225672006607056 0.5379494428634644 -0.00663726357743144
0.6882031559944153 0.5477389097213745 -0.022527966648340225
0.6372728943824768 0.5468088388442993 -0.026599636301398277
0.6000645756721497 0.5395880937576294 -0.026985615491867065
0.5720739364624023 0.5309228897094727 -0.030415887013077736
0.5054103136062622 0.5067317485809326 -0.07538828998804092
0.7776809930801392 0.5932097434997559 0.03391575813293457
0.7279484868049622 0.4563329815864563 -0.009212050586938858
0.48896366357803345 0.6624605059623718 -0.12323709577322006
0.5629788637161255 0.5767368078231812 -0.05112803354859352
0.820864200592041 0.48411697149276733 0.1672903597354889
0.5501642823219299 0.5199201703071594 -0.03275342658162117
0.5825426578521729 0.6260949969291687 -0.03936982899904251
0.6925513744354248 0.4787899851799011 -0.0049183000810444355
0.5466347336769104 0.6094725131988525 -0.10139086842536926
0.816158652305603 0.6700207591056824 0.2005816102027893
0.5668836832046509 0.4898914694786072 -0.0101991668343544
0.5210580825805664 0.5981908440589905 -0.12396353483200073
0.7206696271896362 0.8036202192306519 0.08652127534151077
0.7230677008628845 0.8352036476135254 0.1276090294122696
0.8117451667785645 0.6020057201385498 0.11783887445926666
0.7611834406852722 0.7684698700904846 0.10246250033378601
0.7819425463676453 0.4401232600212097 0.06470605731010437
0.5981075167655945 0.8959662914276123 0.03730384260416031
0.4887675642967224 0.6662080883979797 -0.08842679113149643
0.5897142887115479 0.5925209522247314 -0.04342636838555336
0.7655900716781616 0.4904760420322418 0.038274578750133514
0.6440413594245911 0.4884014129638672 -0.023546382784843445
0.6243472099304199 0.48996418714523315 -0.026012524962425232
0.6245036125183105 0.7561652660369873 0.0144987553358078
0.7795087099075317 0.6474823355674744 0.04966098442673683
0.5503204464912415 0.9303975105285645 0.05089667811989784
0.6344187259674072 0.8940809369087219 0.08432456105947495
0.6743313670158386 0.8699512481689453 0.10404054820537567
0.6051071286201477 0.48998385667800903 -0.02365768887102604
0.5861648321151733 0.48962920904159546 -0.01764785125851631
0.5733046531677246 0.49048125743865967 -0.011417082510888577
0.74928879737854 0.44924116134643555 0.011391066946089268
0.5884110927581787 0.47044944763183594 -0.023093331605196
0.6086609959602356 0.4617893099784851 -0.030588708817958832
0.6291395425796509 0.4599612355232239 -0.033224672079086304
0.6500540971755981 0.46352654695510864 -0.030574632808566093
0.6636976599693298 0.46967101097106934 -0.02443069778382778
0.8070386648178101 0.42373111844062805 0.12174168229103088
0.6579473614692688 0.48599833250045776 -0.018782278522849083
0.5823132991790771 0.6875196695327759 -0.04283948987722397
0.544644832611084 0.6467957496643066 -0.08203771710395813
0.5248693823814392 0.6860957145690918 -0.061947744339704514
0.6774798035621643 0.8387260437011719 0.07632044702768326
0.6387364268302917 0.8672000765800476 0.05909014865756035
0.5496139526367188 0.9156295657157898 0.0209331214427948
0.7631978988647461 0.7948979139328003 0.15835489332675934
0.5735965967178345 0.4825078248977661 -0.015762053430080414
0.5218492150306702 0.547805666923523 -0.08137039095163345
0.5941697955131531 0.915636420249939 0.062157269567251205
0.8072639107704163 0.6620666980743408 0.12249148637056351
0.5593109726905823 0.773221492767334 -0.01285784225910902
0.5639902949333191 0.7794362902641296 -0.01663760282099247
0.5681218504905701 0.7892360091209412 -0.01923150010406971
0.5711283683776855 0.8015943765640259 -0.014244315214455128
0.5761527419090271 0.8198742866516113 0.0033029112964868546
0.616263210773468 0.728696882724762 0.0008907645824365318
0.6206337213516235 0.7267304062843323 1.2247185622982215e-05
0.6245114803314209 0.7246363162994385 -0.0019570086151361465
0.6411648988723755 0.7102912068367004 -0.004232848063111305
0.7401618957519531 0.6615238785743713 0.008255289867520332
0.5241755247116089 0.5201788544654846 -0.06118552014231682
0.5438244938850403 0.4723748564720154 -0.0243831779807806
0.5614582300186157 0.4738333225250244 -0.018480949103832245
0.6121537685394287 0.7301502823829651 0.003516824683174491
0.7476755380630493 0.7267051935195923 0.054938338696956635
0.5171419382095337 0.47385406494140625 -0.053942278027534485
0.58696448802948 0.8430054783821106 0.015184745192527771
0.5014964938163757 0.536310613155365 -0.09691936522722244
0.5421410799026489 0.5862756371498108 -0.0802888572216034
0.5412526726722717 0.8624537587165833 0.005218405742198229
0.6498349905014038 0.7782492637634277 0.031738344579935074
0.6071296334266663 0.6451076865196228 -0.03261176124215126
0.621587336063385 0.8142212629318237 0.026175929233431816
0.6721878051757812 0.641170084476471 -0.03246033936738968
0.636223554611206 0.6691938638687134 -0.024080442264676094
0.7000035047531128 0.6804242134094238 -0.007914381101727486
0.5469565987586975 0.8919906616210938 0.007562047336250544
0.5620051622390747 0.5971355438232422 -0.06326496601104736
0.6691583395004272 0.8045411109924316 0.0499139241874218
0.6326403021812439 0.8384602665901184 0.041520923376083374
0.6729851961135864 0.7404176592826843 0.02174345962703228
0.7753159999847412 0.6941830515861511 0.06635993719100952
0.7073604464530945 0.7528746128082275 0.037946660071611404
0.7926768064498901 0.7181802988052368 0.12139930576086044
0.6635254621505737 0.6948887705802917 -0.00850353017449379
0.5418015718460083 0.5623222589492798 -0.06499767303466797
0.535171389579773 0.6417277455329895 -0.11321624368429184
0.5561342835426331 0.6431304812431335 -0.08656375110149384
0.5201157331466675 0.6262098550796509 -0.13006332516670227
0.5598410367965698 0.44944775104522705 -0.03660924732685089
0.5982639789581299 0.4311921000480652 -0.04784640669822693
0.6347199082374573 0.4261607527732849 -0.051817651838064194
0.6666324138641357 0.4301578402519226 -0.04672601446509361
0.6910668015480042 0.44153892993927 -0.035236895084381104
0.7128649353981018 0.4831681251525879 0.0030364079866558313
0.8104692697525024 0.5458327531814575 0.10607177764177322
0.6947588920593262 0.5158686637878418 -0.009633399546146393
0.6675522327423096 0.5229322910308838 -0.01901128888130188
0.6328664422035217 0.5241716504096985 -0.023469451814889908
0.6008335947990417 0.5208373069763184 -0.023371316492557526
0.5758969783782959 0.5157207250595093 -0.020848099142313004
0.5579944252967834 0.5096585154533386 -0.020661698654294014
0.8239562511444092 0.5425816774368286 0.19205935299396515
0.558749794960022 0.6472897529602051 -0.07348150759935379
0.5197427272796631 0.5724787712097168 -0.09937288612127304
0.5140493512153625 0.6461262702941895 -0.12855494022369385
0.5038601160049438 0.6579767465591431 -0.11465969681739807
0.5167522430419922 0.6496714353561401 -0.11635442823171616
0.5546542406082153 0.6535075306892395 -0.0623270682990551
0.49761641025543213 0.660641610622406 -0.12035685777664185
0.4976848363876343 0.664242148399353 -0.08987357467412949
0.5574520230293274 0.49122190475463867 -0.011651439592242241
0.5430893898010254 0.4974355697631836 -0.023203924298286438
0.5325773358345032 0.5024595856666565 -0.039062317460775375
0.6720516085624695 0.4745835065841675 -0.01750611886382103
0.6906371116638184 0.46253687143325806 -0.019019855186343193
0.36663365364074707 0.46834880113601685 0.026410512626171112
0.3932657241821289 0.4682338833808899 0.026410512626171112
0.3673127293586731 0.44561582803726196 0.026410512626171112
0.3402969241142273 0.46849676966667175 0.026410512626171112
0.3659825325012207 0.49099868535995483 0.026410512626171112
0.6219807267189026 0.4732838571071625 -0.020525550469756126
0.6482735276222229 0.472028911113739 -0.020525550469756126
0.6207553148269653 0.45111772418022156 -0.020525550469756126
0.5961131453514099 0.47432035207748413 -0.020525550469756126
0.6234146952629089 0.49549853801727295 -0.020525550469756126
