ply
format ascii 1.0
element vertex 478
property float x
property float y
property float z
end_header
0.5284751057624817 0.7168044447898865 -0.07267223298549652
0.5769532918930054 0.6313132047653198 -0.13714490830898285
0.5545172095298767 0.6590628027915955 -0.07894710451364517
0.5375068187713623 0.5448020100593567 -0.10839007794857025
0.57792067527771 0.6034809350967407 -0.14383234083652496
0.5699695348739624 0.5692088603973389 -0.1326180100440979
0.543472170829773 0.48720985651016235 -0.06317215412855148
0.3320230543613434 0.47922593355178833 -0.02349800057709217
0.5351975560188293 0.4288364052772522 -0.040765706449747086
0.5351437330245972 0.395418256521225 -0.041512977331876755
0.5217592120170593 0.2669888138771057 -0.00992174819111824
0.5278231501579285 0.724054753780365 -0.06971395760774612
0.5256762504577637 0.7302341461181641 -0.06389131397008896
0.5228660106658936 0.7329846024513245 -0.054832786321640015
0.5145528316497803 0.8292436003684998 -0.037890125066041946
0.5150002241134644 0.8402644991874695 -0.04330933839082718
0.5142930746078491 0.8518508076667786 -0.05088284984230995
0.5122416615486145 0.862337589263916 -0.05063105747103691
0.5338757634162903 0.8443887233734131 -0.03644422069191933
0.5705583095550537 0.64697265625 -0.12576156854629517
0.5320233702659607 0.6478515863418579 -0.10005216300487518
0.18059879541397095 0.3801767826080322 0.06010366976261139
0.4065207839012146 0.49834930896759033 -0.026818569749593735
0.3803582191467285 0.5000405311584473 -0.033455006778240204
0.35392487049102783 0.49918562173843384 -0.03473586589097977
0.3161258101463318 0.4884408712387085 -0.024656787514686584
0.42910635471343994 0.49381059408187866 -0.016385238617658615
0.37313133478164673 0.4318280816078186 -0.042022958397865295
0.4027266204357147 0.4351363182067871 -0.030455734580755234
0.34355396032333374 0.4357621967792511 -0.04266151040792465
0.3223789930343628 0.4453505873680115 -0.03771907836198807
0.2882538437843323 0.503294050693512 -0.018605001270771027
0.42257457971572876 0.8846756815910339 -0.03448934108018875
0.32057592272758484 0.47435468435287476 -0.018326200544834137
0.1735031008720398 0.49928173422813416 0.06191670149564743
0.2515668570995331 0.48874521255493164 -0.0022516699973493814
0.39098402857780457 0.6051017045974731 -0.06008748337626457
0.4781818091869354 0.7102099657058716 -0.08108505606651306
0.47892382740974426 0.7268232703208923 -0.06952960044145584
0.42755022644996643 0.7142878174781799 -0.07575200498104095
0.39164283871650696 0.719588041305542 -0.05843419209122658
0.4375191628932953 0.7260369062423706 -0.06520336866378784
0.4039589762687683 0.7276753783226013 -0.048819366842508316
0.3706149458885193 0.7714647650718689 -0.023037781938910484
0.5531367659568787 0.6310684084892273 -0.1403377503156662
0.5505095720291138 0.6036911010742188 -0.14733801782131195
0.2812812328338623 0.42514294385910034 -0.04400971531867981
0.44969767332077026 0.542388916015625 -0.0451953262090683
0.4570246636867523 0.620186448097229 -0.09987524896860123
0.4515089690685272 0.6052345037460327 -0.09218873828649521
0.30019456148147583 0.5990908741950989 -0.05383802577853203
0.5449283123016357 0.5717154741287231 -0.13345862925052643
0.36127588152885437 0.39915305376052856 -0.061345797032117844
0.3164769411087036 0.40679121017456055 -0.0566127747297287
0.22592782974243164 0.3312588930130005 0.02709038369357586
0.4815029799938202 0.4274068772792816 -0.049000103026628494
0.42723411321640015 0.4456765055656433 -0.016350744292140007
0.34531742334365845 0.737937331199646 -0.026620786637067795
0.17457279562950134 0.7682665586471558 0.11277953535318375
0.4750305414199829 0.6374346613883972 -0.08539342880249023
0.5000863671302795 0.6465559601783752 -0.0804794654250145
0.34581294655799866 0.7365428805351257 -0.01877100206911564
0.3550947606563568 0.7389093637466431 -0.019488411024212837
0.2987472414970398 0.39081424474716187 -0.04731735587120056
0.4474211633205414 0.6304686069488525 -0.08689381927251816
0.4163207411766052 0.40512800216674805 -0.05889364331960678
0.41338080167770386 0.384613960981369 -0.06361882388591766
0.3661612570285797 0.27143409848213196 -0.024002691730856895
0.26726508140563965 0.35932841897010803 -0.013394184410572052
0.39601096510887146 0.3218952715396881 -0.04232564941048622
0.2596382200717926 0.4147878885269165 -0.027835102751851082
0.22306382656097412 0.3989790678024292 0.016305480152368546
0.47812551259994507 0.7196268439292908 -0.07751904428005219
0.4322238862514496 0.720525324344635 -0.0707017183303833
0.39767545461654663 0.7238544821739197 -0.0551195926964283
0.4792722761631012 0.6422939300537109 -0.07774635404348373
0.3503931164741516 0.7378767728805542 -0.018764711916446686
0.3625568747520447 0.7669814825057983 -0.026462692767381668
0.35920649766921997 0.7399427890777588 -0.019323056563735008
0.5041995644569397 0.631626546382904 -0.116585873067379
0.4095398485660553 0.7300045490264893 -0.04496728256344795
0.44221046566963196 0.729056715965271 -0.05587714537978172
0.4802264869213104 0.7302613854408264 -0.06081272289156914
0.4887046217918396 0.8424816727638245 -0.04361527040600777
0.4541849195957184 0.8554320335388184 -0.058500491082668304
0.45787614583969116 0.8455274105072021 -0.05872216820716858
0.4623834490776062 0.8335185050964355 -0.0503937229514122
0.4663768410682678 0.8228207230567932 -0.04465559497475624
0.3987901210784912 0.7867822647094727 -0.032743342220783234
0.3917950689792633 0.7898598313331604 -0.03755653649568558
0.3818407356739044 0.7946567535400391 -0.04211868345737457
0.37435516715049744 0.7993867993354797 -0.039850637316703796
0.3964858651161194 0.6971589922904968 -0.056271813809871674
0.13639062643051147 0.6275056600570679 0.14388224482536316
0.5630888342857361 0.654028594493866 -0.09540888667106628
0.3791012465953827 0.766627848148346 -0.023258553817868233
0.37103602290153503 0.7667475938796997 -0.02590550109744072
0.5097697973251343 0.6567322611808777 -0.08163842558860779
0.4504423439502716 0.6456645131111145 -0.06544526666402817
0.5053988099098206 0.6517803072929382 -0.0816534012556076
0.4189106225967407 0.5553016662597656 -0.04682130739092827
0.3736451268196106 0.5697975158691406 -0.05399246886372566
0.4404800832271576 0.6162316799163818 -0.07989543676376343
0.28664112091064453 0.2938867509365082 -0.0028727068565785885
0.3232831358909607 0.33272263407707214 -0.03173112869262695
0.35182419419288635 0.3794979751110077 -0.057659946382045746
0.4027613699436188 0.8005435466766357 -0.03158387914299965
0.4763592779636383 0.3948926329612732 -0.05694050341844559
0.46154680848121643 0.3224295675754547 -0.03930327296257019
0.4414790868759155 0.26385629177093506 -0.02577161230146885
0.3302561342716217 0.49574893712997437 -0.03101174719631672
0.25471946597099304 0.5207224488258362 -0.013357851654291153
0.4446278512477875 0.48905789852142334 -0.00964182149618864
0.28975942730903625 0.4572547674179077 -0.02687143348157406
0.472170889377594 0.5268970131874084 -0.048425544053316116
0.48639118671417236 0.6122231483459473 -0.11842532455921173
0.21717363595962524 0.5431114435195923 0.0012433218071237206
0.27843016386032104 0.5356324911117554 -0.0312948152422905
0.3188237249851227 0.5428918600082397 -0.04268329218029976
0.37395671010017395 0.5394930243492126 -0.0402219220995903
0.4130752384662628 0.5305508971214294 -0.03345680981874466
0.442519873380661 0.5200405120849609 -0.030768295750021935
0.5171958804130554 0.49324822425842285 -0.062021125108003616
0.2184981405735016 0.5964806079864502 -0.00812648143619299
0.26399216055870056 0.4549655318260193 -0.022912265732884407
0.555628776550293 0.6464377641677856 -0.12867169082164764
0.45314767956733704 0.5671725869178772 -0.05690087378025055
0.13641968369483948 0.5002009868621826 0.1314651370048523
0.46569985151290894 0.5077024698257446 -0.027705630287528038
0.4312157928943634 0.6171995997428894 -0.05437060818076134
0.3051967918872833 0.47491616010665894 -0.01711983047425747
0.4799145460128784 0.5941828489303589 -0.10847997665405273
0.14734002947807312 0.6957387924194336 0.13320787250995636
0.44376784563064575 0.4817226529121399 -0.003506748005747795
0.5141142010688782 0.5806888341903687 -0.1258910745382309
0.2730141282081604 0.8252615928649902 0.019595354795455933
0.2641903758049011 0.868045449256897 0.05329623818397522
0.16718092560768127 0.6152986288070679 0.06581435352563858
0.22734561562538147 0.7891263961791992 0.0341513492166996
0.1953957974910736 0.4447932839393616 0.04514852166175842
0.4175909757614136 0.9174302220344543 -0.028450362384319305
0.5512088537216187 0.6531535983085632 -0.09637868404388428
0.4247124195098877 0.5847592949867249 -0.05513283982872963
0.22170962393283844 0.49442875385284424 0.013497664593160152
0.35960468649864197 0.4846402108669281 -0.03023218736052513
0.3819173276424408 0.4858148694038391 -0.029825041070580482
0.3553125560283661 0.7670462131500244 -0.025234190747141838
0.21554253995418549 0.654465913772583 -0.0006759660900570452
0.4719580411911011 0.9568659663200378 -0.013570149429142475
0.36935269832611084 0.9269037842750549 0.01374297495931387
0.3213088810443878 0.9033334255218506 0.03221092373132706
0.5300425887107849 0.3275561034679413 -0.024671168997883797
0.5293424725532532 0.9568263292312622 -0.003200837643817067
0.4031633734703064 0.4847564101219177 -0.02408929541707039
0.42319804430007935 0.4828800559043884 -0.015053320676088333
0.4368489980697632 0.4826009273529053 -0.006554191932082176
0.2375968098640442 0.45069754123687744 -0.005024004727602005
0.4193842113018036 0.4648510217666626 -0.01703963615000248
0.3971165716648102 0.4578660726547241 -0.026995619758963585
0.37597987055778503 0.45657679438591003 -0.03291565552353859
0.35346534848213196 0.4600725769996643 -0.03411572426557541
0.33833038806915283 0.46560221910476685 -0.030465643852949142
0.1524055302143097 0.43311333656311035 0.09986574202775955
0.34377288818359375 0.48221564292907715 -0.02759968861937523
0.54971843957901 0.6793453693389893 -0.07189319282770157
0.43450498580932617 0.6839166283607483 -0.06907773017883301
0.4795677065849304 0.6339364051818848 -0.09287307411432266
0.5030255913734436 0.679594874382019 -0.08016850799322128
0.5354342460632324 0.4580754041671753 -0.04283682256937027
0.32165804505348206 0.8617416024208069 0.008732520043849945
0.36695170402526855 0.8910194635391235 -0.008291615173220634
0.47513923048973083 0.932944655418396 -0.04077015817165375
0.21627460420131683 0.8264808654785156 0.08119314163923264
0.43623507022857666 0.47507935762405396 -0.009231671690940857
0.503420889377594 0.5339150428771973 -0.07591694593429565
0.5338799953460693 0.9334425926208496 -0.029939817264676094
0.41960468888282776 0.9456959962844849 -0.006192417349666357
0.17234650254249573 0.6786144971847534 0.06206364557147026
0.42867082357406616 0.807563066482544 -0.0412151925265789
0.42109256982803345 0.8146439790725708 -0.04666505753993988
0.41291338205337524 0.823578953742981 -0.05258443206548691
0.4071071743965149 0.8326984643936157 -0.05123317614197731
0.4411346912384033 0.8257125616073608 -0.04170893877744675
0.37528353929519653 0.7318076491355896 -0.03405265882611275
0.36890631914138794 0.7291828393936157 -0.03592327609658241
0.36363792419433594 0.7264399528503418 -0.03813207149505615
0.36407893896102905 0.7141649127006531 -0.04113110154867172
0.2634642720222473 0.6635478734970093 -0.035603441298007965
0.49538809061050415 0.5085413455963135 -0.053206611424684525
0.4680684804916382 0.46318382024765015 -0.009572920389473438
0.44870424270629883 0.4655371308326721 -0.007689057383686304
0.38116371631622314 0.7335382699966431 -0.031435806304216385
0.24814768135547638 0.7382647395133972 -0.0015974261332303286
0.49767005443573 0.4625786244869232 -0.03590827435255051
0.43033891916275024 0.8532204627990723 -0.03696169704198837
0.5605744123458862 0.5412230491638184 -0.10838297009468079
0.5275461673736572 0.5204113721847534 -0.08596109598875046
0.5521113872528076 0.5153807997703552 -0.08428548276424408
0.48163101077079773 0.5729487538337708 -0.08291549980640411
0.536164402961731 0.9039655923843384 -0.0391431525349617
0.5348733067512512 0.8712395429611206 -0.037653565406799316
0.48382440209388733 0.8704124093055725 -0.043336834758520126
0.3532657027244568 0.788764238357544 -0.019324323162436485
0.4054059684276581 0.6389501094818115 -0.054377418011426926
0.3879241347312927 0.825206995010376 -0.02619611844420433
0.34141653776168823 0.6363776922225952 -0.061970844864845276
0.37531936168670654 0.666025698184967 -0.053665947169065475
0.30725884437561035 0.6811739206314087 -0.04694432020187378
0.47932153940200806 0.9030941724777222 -0.04776245355606079
0.4557127058506012 0.5860443115234375 -0.07113988697528839
0.33300238847732544 0.8199094533920288 -0.009102967567741871
0.3761290907859802 0.8549084663391113 -0.018062565475702286
0.3278457522392273 0.7486593723297119 -0.027208903804421425
0.21737340092658997 0.7056438326835632 0.009395375847816467
0.29129958152770996 0.764398455619812 -0.015716519206762314
0.18989738821983337 0.7373216152191162 0.053799331188201904
0.3426222503185272 0.6967180371284485 -0.04631909728050232
0.4788297116756439 0.5506076216697693 -0.06536757946014404
0.4968464970588684 0.626001238822937 -0.12229926884174347
0.4668616056442261 0.6303117275238037 -0.09965752810239792
0.5190263390541077 0.6076362133026123 -0.1358611285686493
0.45043638348579407 0.44213804602622986 -0.021124834194779396
0.4088893234729767 0.4247675836086273 -0.03724924847483635
0.3698764443397522 0.4196816682815552 -0.047960564494132996
0.33437323570251465 0.424263060092926 -0.04905848205089569
0.3064606785774231 0.4365023970603943 -0.04165949299931526
0.2820711135864258 0.48142555356025696 -0.012536906637251377
0.16742315888404846 0.5563703179359436 0.06321418285369873
0.30647122859954834 0.5124496221542358 -0.026940153911709785
0.33759480714797974 0.5182967782020569 -0.03333859145641327
0.37548500299453735 0.5182293653488159 -0.03309303894639015
0.40969616174697876 0.5134633779525757 -0.02667740359902382
0.43633487820625305 0.5065250992774963 -0.01885821484029293
0.45538634061813354 0.4994199573993683 -0.014887337572872639
0.13462591171264648 0.5636376142501831 0.14434298872947693
0.4610455334186554 0.6361881494522095 -0.08771678060293198
0.5110304355621338 0.5566712617874146 -0.0976187214255333
0.5269239544868469 0.628787636756897 -0.13448260724544525
0.5358047485351562 0.6438039541244507 -0.12117970734834671
0.5206504464149475 0.6343885660171509 -0.12343551963567734
0.46404388546943665 0.6438252329826355 -0.07686734199523926
0.5447534918785095 0.64543217420578 -0.1263285130262375
0.5402213931083679 0.6518502235412598 -0.09809589385986328
0.45440033078193665 0.48207226395606995 -0.0030604107305407524
0.47053998708724976 0.48674213886260986 -0.012412263080477715
0.48305544257164 0.4898911714553833 -0.028529737144708633
0.3288736939430237 0.47019636631011963 -0.025743521749973297
0.307356595993042 0.45812246203422546 -0.028318196535110474
0.5784996151924133 0.5454458594322205 -0.09189344197511673
0.6698616743087769 0.4859011173248291 0.09622396528720856
0.5867108702659607 0.6474547982215881 -0.08721810579299927
0.6963759064674377 0.4051581025123596 0.24058665335178375
0.6115524768829346 0.5030713677406311 0.050538867712020874
0.6336930394172668 0.5049970746040344 0.059558525681495667
0.6535816788673401 0.5052101612091064 0.07284780591726303
0.6741023659706116 0.4956173896789551 0.10249394923448563
0.5935064554214478 0.4978984594345093 0.04423697292804718
0.6472907662391663 0.4425297975540161 0.05419592559337616
0.6211837530136108 0.44413381814956665 0.044989559799432755
0.6691460013389587 0.44683438539505005 0.0689861923456192
0.6808521747589111 0.45639389753341675 0.08299537748098373
0.6862426996231079 0.5121651887893677 0.11839322745800018
0.6148850321769714 0.8733730316162109 0.023196516558527946
0.6748601794242859 0.4821901321411133 0.10696040838956833
0.7070276737213135 0.5143448710441589 0.24924199283123016
0.6936781406402588 0.49902355670928955 0.15143127739429474
0.6513014435768127 0.6086575984954834 0.019427601248025894
0.57382732629776 0.7121157646179199 -0.05923427268862724
0.5656921863555908 0.7288132905960083 -0.04909738898277283
0.6117144823074341 0.7164121270179749 -0.03106744773685932
0.6343814730644226 0.7226433753967285 0.002829079981893301
0.5965479612350464 0.7293173670768738 -0.02562246285378933
0.6184884309768677 0.7317943572998047 0.0037903180345892906
0.6387890577316284 0.7670408487319946 0.05500886216759682
0.5958107709884644 0.6311405301094055 -0.1297059804201126
0.5986310243606567 0.6041224598884583 -0.13471488654613495
0.7004231214523315 0.44142669439315796 0.0997127965092659
0.5984532237052917 0.545578122138977 0.0061399671249091625
0.6332041025161743 0.62089604139328 -0.051347918808460236
0.6300232410430908 0.6065753698348999 -0.04217464104294777
0.7069187164306641 0.6051580309867859 0.0775163322687149
0.589667797088623 0.5722609758377075 -0.11720931529998779
0.6676130890846252 0.4117928445339203 0.03724806383252144
0.6902897953987122 0.42231258749961853 0.0677572563290596
0.6903037428855896 0.3577605187892914 0.18826338648796082
0.5812767148017883 0.42498451471328735 -0.01737579144537449
0.5982024073600769 0.45204102993011475 0.04472928121685982
0.6575004458427429 0.7348111867904663 0.06694329530000687
0.6791504621505737 0.7575868368148804 0.2831202447414398
0.6151161193847656 0.6374345421791077 -0.04888836294412613
0.5966082811355591 0.646826446056366 -0.06220677122473717
0.6572810411453247 0.7406221032142639 0.06323296576738358
0.6475390195846558 0.7428646683692932 0.05338753014802933
0.6940361261367798 0.40905672311782837 0.08563444018363953
0.6303287744522095 0.6310089230537415 -0.039242006838321686
0.6331220865249634 0.4105607271194458 0.008381107822060585
0.6370443105697632 0.39048612117767334 0.005939104128628969
0.6358099579811096 0.29019251465797424 0.06695517897605896
0.6923590898513794 0.3814185559749603 0.1336848884820938
0.6334906220436096 0.3373100459575653 0.03793041408061981
0.7031370401382446 0.4331602156162262 0.12629269063472748
0.7021644115447998 0.4202001690864563 0.18346937000751495
0.571003794670105 0.7216429114341736 -0.05572985112667084
0.6048715114593506 0.7236596941947937 -0.0284600630402565
0.6273690462112427 0.7274447083473206 0.0014462750405073166
0.6089193224906921 0.6420041918754578 -0.048351410776376724
0.6525017023086548 0.7418879270553589 0.057534109801054
0.6427954435348511 0.7692400813102722 0.03867003694176674
0.6429353952407837 0.7436830401420593 0.05165199190378189
0.6108718514442444 0.6321218609809875 -0.08366511762142181
0.6102136373519897 0.7338457703590393 0.005139038898050785
0.5884940028190613 0.7320789694786072 -0.018530139699578285
0.5592886209487915 0.7321105003356934 -0.03983987495303154
0.5698755383491516 0.8398007154464722 -0.02318211831152439
0.5656346678733826 0.8544325828552246 -0.03565240278840065
0.5650222897529602 0.8443712592124939 -0.034915998578071594
0.5620955228805542 0.8326090574264526 -0.02695595473051071
0.5577360391616821 0.8224621415138245 -0.022361772134900093
0.6106135845184326 0.7879095077514648 0.01786302588880062
0.6183875799179077 0.7907519936561584 0.013240888714790344
0.627755880355835 0.7953272461891174 0.010288838297128677
0.6340044736862183 0.7996938824653625 0.015897799283266068
0.6444382667541504 0.6962479948997498 0.013133394531905651
0.6849811673164368 0.6314952373504639 0.3324480950832367
0.6249972581863403 0.7688947319984436 0.03937520831823349
0.6341890096664429 0.7690622806549072 0.03704165294766426
0.5885235071182251 0.6566438674926758 -0.06373964995145798
0.6197171211242676 0.6454991102218628 -0.027410980314016342
0.5927282571792603 0.6519862413406372 -0.06400789320468903
0.6206966638565063 0.5593736171722412 0.02211109548807144
0.6568825244903564 0.5753775238990784 0.03970345854759216
0.6305801868438721 0.6176785826683044 -0.02820807881653309
0.6725137829780579 0.3186661899089813 0.12790431082248688
0.6708600521087646 0.3532978892326355 0.08594882488250732
0.6714795827865601 0.3932974636554718 0.0470617450773716
0.621562659740448 0.7952326536178589 0.03293236345052719
0.5906503796577454 0.3920072019100189 -0.022360853850841522
0.587978720664978 0.3307972252368927 0.0018867460312321782
0.587864875793457 0.27445822954177856 0.019687877967953682
0.6674569845199585 0.502485990524292 0.08903514593839645
0.7002080678939819 0.5296396017074585 0.13893963396549225
0.5819234848022461 0.4919338822364807 0.04414792358875275
0.6910468935966492 0.4683990180492401 0.11154710501432419
0.5841305255889893 0.5295950174331665 -0.007577869575470686
0.6249754428863525 0.6132475733757019 -0.0793357789516449
0.7228296399116516 0.5538331270217896 0.1736733615398407
0.7003747224807739 0.5441709160804749 0.11221348494291306
0.6849472522735596 0.5508475303649902 0.07972350716590881
0.6479989886283875 0.5466476082801819 0.05340252071619034
0.6176513433456421 0.5365310311317444 0.037400588393211365
0.5959279537200928 0.5250389575958252 0.022341547533869743
0.5623710751533508 0.49471282958984375 -0.044899169355630875
0.7336642742156982 0.6032444834709167 0.1640319973230362
0.6980265378952026 0.4678876996040344 0.1290869116783142
0.5826049447059631 0.6461895108222961 -0.12020569294691086
0.6066328287124634 0.5695488452911377 -0.00729334494099021
0.6860799789428711 0.5161049962043762 0.32617485523223877
0.5807592272758484 0.511355459690094 0.013241100125014782
0.6270644068717957 0.6186701059341431 -0.003009228501468897
0.6806803941726685 0.48366913199424744 0.11435336619615555
0.6200985908508301 0.5954388976097107 -0.06864643841981888
0.6852377653121948 0.692401111125946 0.3140997886657715
0.5788092613220215 0.48402851819992065 0.05248837172985077
0.605109453201294 0.5815237164497375 -0.09709125012159348
0.6788411140441895 0.808722972869873 0.14812301099300385
0.6605849862098694 0.84479820728302 0.18217556178569794
0.7224546670913696 0.6204971671104431 0.2533763647079468
0.697846531867981 0.7765125632286072 0.18547363579273224
0.7037665843963623 0.4641209542751312 0.2242591232061386
0.6152151823043823 0.902151882648468 0.03319728001952171
0.5738059878349304 0.6531260013580322 -0.09111333638429642
0.6247332096099854 0.5877273678779602 0.006420891731977463
0.6959898471832275 0.5050047636032104 0.18267442286014557
0.6528132557868958 0.4899355173110962 0.07488816976547241
0.634472131729126 0.49037230014801025 0.06314239650964737
0.649276614189148 0.7692514061927795 0.04420563578605652
0.7334880232810974 0.655890703201294 0.16632892191410065
0.5765411853790283 0.9463922381401062 0.020918583497405052
0.6263864040374756 0.9043735265731812 0.09800682961940765
0.6424015760421753 0.878646731376648 0.1374262422323227
0.6148868799209595 0.4890815019607544 0.0552336759865284
0.5965886116027832 0.48678815364837646 0.05281839147210121
0.584841251373291 0.485658198595047 0.05413303151726723
0.6995623111724854 0.4655625522136688 0.1589953750371933
0.5977929830551147 0.47193193435668945 0.05218721553683281
0.617038369178772 0.46702492237091064 0.05369348078966141
0.6377570033073425 0.4651797413825989 0.06117403507232666
0.656603217124939 0.46786975860595703 0.0730712041258812
0.6670510768890381 0.4733925461769104 0.0843975618481636
0.6943915486335754 0.4548627734184265 0.29025644063949585
0.6634426116943359 0.48820552229881287 0.08672494441270828
0.6271394491195679 0.6834967732429504 -0.01626136712729931
0.6173784732818604 0.6341046690940857 -0.0587184838950634
0.5873806476593018 0.6792820692062378 -0.0581991970539093
0.655807614326477 0.8433951139450073 0.11344661563634872
0.6356958746910095 0.8719940185546875 0.07467876374721527
0.5821284055709839 0.9244235157966614 -0.006983392871916294
0.6712357401847839 0.8086583018302917 0.23412519693374634
0.5851889252662659 0.4788402318954468 0.05254250392317772
0.5826711654663086 0.5356476902961731 -0.04859127104282379
0.606818437576294 0.9277365207672119 0.056340280920267105
0.7199498414993286 0.6777716279029846 0.24226950109004974
0.5888842344284058 0.8074817657470703 -0.0026371099520474672
0.5961808562278748 0.8140321969985962 -0.006734052207320929
0.6029258966445923 0.8223714828491211 -0.010787582956254482
0.6067072153091431 0.8315887451171875 -0.007919138297438622
0.6008456945419312 0.8207985162734985 0.006177840754389763
0.6351599097251892 0.7362141013145447 0.03133198618888855
0.6430357098579407 0.7334286570549011 0.035147543996572495
0.649639368057251 0.7301548719406128 0.03699633479118347
0.655893862247467 0.7125459313392639 0.045334067195653915
0.7210448980331421 0.6646663546562195 0.10705798119306564
0.5722734928131104 0.5108292102813721 -0.02452746033668518
0.5695126056671143 0.46386441588401794 0.026187432929873466
0.5785210132598877 0.46824193000793457 0.043604299426078796
0.6273147463798523 0.7376676797866821 0.03138795122504234
0.7101166248321533 0.7319860458374023 0.14214357733726501
0.5605388283729553 0.4613998532295227 -0.015029603615403175
0.6067799925804138 0.8447163105010986 0.014411719515919685
0.5709306001663208 0.5213334560394287 -0.07135561108589172
0.6035895347595215 0.5746211409568787 -0.0464821383357048
0.5751639604568481 0.8655468821525574 -0.018963424488902092
0.6495194435119629 0.7815799713134766 0.06972726434469223
0.640937328338623 0.6402420997619629 0.011199898086488247
0.6292171478271484 0.8161364793777466 0.04430428519845009
0.6854314208030701 0.6393100619316101 0.04080367088317871
0.658252477645874 0.6670343279838562 0.028680570423603058
0.6990711688995361 0.6812583804130554 0.07082394510507584
0.5821237564086914 0.8967785835266113 -0.016133077442646027
0.614081084728241 0.5879588723182678 -0.025270169600844383
0.6597575545310974 0.8076720237731934 0.09139564633369446
0.6360743641853333 0.8411513566970825 0.05943911150097847
0.670182466506958 0.744227409362793 0.08005128800868988
0.7243150472640991 0.702218234539032 0.16958530247211456
0.6893987655639648 0.7560496926307678 0.10633675754070282
0.711235761642456 0.7307785153388977 0.22563689947128296
0.6716454029083252 0.6965847611427307 0.05238214507699013
0.5935499668121338 0.5527375340461731 -0.026245372369885445
0.6192356944084167 0.6264840364456177 -0.0867585614323616
0.627309262752533 0.630637526512146 -0.0586748830974102
0.6137034893035889 0.6080440282821655 -0.10720859467983246
0.588843584060669 0.4436359405517578 0.02793760411441326
0.6260589361190796 0.43172740936279297 0.03455369919538498
0.657568633556366 0.43038588762283325 0.04666024073958397
0.6804172396659851 0.43637627363204956 0.06639520078897476
0.6917617321014404 0.44914382696151733 0.08785687386989594
0.6862464547157288 0.4913068413734436 0.12799808382987976
0.7168151140213013 0.5670140385627747 0.2554560601711273
0.6819347143173218 0.5206618309020996 0.10209145396947861
0.6660211086273193 0.5256090760231018 0.07919525355100632
0.6398099064826965 0.5244759321212769 0.05949939787387848
0.6125732660293579 0.5188426971435547 0.046140193939208984
0.5919409394264221 0.5110675692558289 0.035768672823905945
0.5785521268844604 0.5027497410774231 0.029421359300613403
0.6822474002838135 0.5738992691040039 0.33899885416030884
0.6236624717712402 0.6362712383270264 -0.047404784709215164
0.5921064019203186 0.5579051375389099 -0.0693112164735794
0.608688235282898 0.6284862756729126 -0.11212987452745438
0.5914740562438965 0.6430407762527466 -0.10815811157226562
0.6043772101402283 0.6341609358787537 -0.10045023262500763
0.6160027384757996 0.6435098052024841 -0.04293631389737129
0.5889334678649902 0.6450353264808655 -0.11584406346082687
0.5813249945640564 0.6513282656669617 -0.08909724652767181
0.5736883878707886 0.48408061265945435 0.04332995414733887
0.5674904584884644 0.4887493848800659 0.02211865410208702
0.5682826638221741 0.49174773693084717 0.0002687179367057979
0.6721581220626831 0.478055477142334 0.09442433714866638
0.6850682497024536 0.46824774146080017 0.09974337369203568
0.3856997489929199 0.46896806359291077 -0.022199509665369987
0.4131675362586975 0.46883296966552734 -0.022199509665369987
0.3847229480743408 0.4476185739040375 -0.022199509665369987
0.3572365641593933 0.4690321087837219 -0.022199509665369987
0.3863168954849243 0.4903201460838318 -0.022199509665369987
0.6402342915534973 0.47730782628059387 0.06963148713111877
0.6598292589187622 0.4779159128665924 0.06963148713111877
0.6396153569221497 0.45932602882385254 0.06963148713111877
0.6196898818016052 0.47665202617645264 0.06963148713111877
0.6405227184295654 0.4954226016998291 0.06963148713111877
