ply
format ascii 1.0
element vertex 478
property float x
property float y
property float z
end_header
0.4899064898490906 0.6336235404014587 -0.11492524296045303
0.4859614074230194 0.5637230277061462 -0.14164966344833374
0.49037426710128784 0.5970405340194702 -0.09570728987455368
0.47115835547447205 0.5089796781539917 -0.07582595944404602
0.4861372411251068 0.5423141121864319 -0.141357883810997
0.4886254072189331 0.5211025476455688 -0.1200130358338356
0.4966175854206085 0.4746089577674866 -0.019702047109603882
0.3430444002151489 0.4830322265625 0.09813355654478073
0.4999386966228485 0.43219193816185 0.02168544940650463
0.5011822581291199 0.4053593873977661 0.03346830606460571
0.5100587606430054 0.3183749318122864 0.11529006063938141
0.4893471300601959 0.6420483589172363 -0.11608690023422241
0.48946455121040344 0.6517322063446045 -0.1121058315038681
0.4903486669063568 0.6582372188568115 -0.10674772411584854
0.4897071421146393 0.7711490988731384 -0.09047911316156387
0.48916563391685486 0.7798365354537964 -0.1004488468170166
0.48859959840774536 0.7900159358978271 -0.10860481858253479
0.4887259006500244 0.8008100986480713 -0.10687941312789917
0.48792773485183716 0.8016819357872009 -0.09209298342466354
0.4872574806213379 0.5792977809906006 -0.13402874767780304
0.4681183397769928 0.5837727785110474 -0.1015363335609436
0.259351521730423 0.43079322576522827 0.2696883976459503
0.400505006313324 0.49958908557891846 0.061107899993658066
0.3788384795188904 0.49977922439575195 0.06437670439481735
0.35803651809692383 0.4984947443008423 0.07317888736724854
0.3307952880859375 0.4925715923309326 0.09859196841716766
0.41951093077659607 0.4960182011127472 0.0624251551926136
0.37510544061660767 0.44288012385368347 0.07295183837413788
0.3987354338169098 0.445163756608963 0.07207018882036209
0.3516886234283447 0.4467501640319824 0.08094481378793716
0.3354561924934387 0.45587384700775146 0.0903601348400116
0.3084929585456848 0.5066049695014954 0.10609728842973709
0.38499218225479126 0.8202250599861145 -0.06949162483215332
0.3357164263725281 0.48113852739334106 0.10879132896661758
0.2406189739704132 0.5186571478843689 0.22656650841236115
0.28255948424339294 0.49834007024765015 0.14033649861812592
0.3690057396888733 0.5731822848320007 -0.008454607799649239
0.44727903604507446 0.6303629875183105 -0.10654408484697342
0.4512820839881897 0.6529071927070618 -0.10432128608226776
0.4052729904651642 0.6452691555023193 -0.0889732763171196
0.3791106939315796 0.6638574600219727 -0.0652039647102356
0.41940218210220337 0.6607658863067627 -0.08850716054439545
0.3955216407775879 0.6726826429367065 -0.06625504046678543
0.36506423354148865 0.7295442819595337 -0.03381912410259247
0.4659610390663147 0.5641190409660339 -0.13747602701187134
0.4629836678504944 0.5439502596855164 -0.13616661727428436
0.3008676767349243 0.4399905800819397 0.11380784958600998
0.42426592111587524 0.524588406085968 0.009970040060579777
0.4104815721511841 0.5699033141136169 -0.07150771468877792
0.4094974398612976 0.5617936849594116 -0.05949147045612335
0.29785966873168945 0.576985776424408 0.03186996653676033
0.46671366691589355 0.524051308631897 -0.11015350371599197
0.35675710439682007 0.4076879322528839 0.07486756145954132
0.32467567920684814 0.41976943612098694 0.09474826604127884
0.28190821409225464 0.38761791586875916 0.23862002789974213
0.45404109358787537 0.423263818025589 0.036627147346735
0.4190754294395447 0.45382049679756165 0.07463938742876053
0.35043442249298096 0.6973006725311279 -0.02039605937898159
0.257733553647995 0.7387279868125916 0.1774308681488037
0.430695116519928 0.5822130441665649 -0.06928244978189468
0.4516204595565796 0.5893413424491882 -0.08053316920995712
0.35572072863578796 0.7116553783416748 -0.023376340046525
0.36467301845550537 0.7119364142417908 -0.030683990567922592
0.3113623261451721 0.4097333252429962 0.11564400047063828
0.4102655053138733 0.5818665027618408 -0.06306357681751251
0.39927470684051514 0.4066517651081085 0.05512484535574913
0.3954663872718811 0.3900323808193207 0.05972732976078987
0.37597885727882385 0.3296951949596405 0.15706603229045868
0.2938303053379059 0.3968696892261505 0.1695711314678192
0.384488970041275 0.3590892553329468 0.10784614831209183
0.2863630950450897 0.43576204776763916 0.142210453748703
0.2707444727420807 0.4328749179840088 0.20314177870750427
0.4476582407951355 0.6420257091522217 -0.10765797644853592
0.411414235830307 0.6530171632766724 -0.0898142009973526
0.38664719462394714 0.6681807637214661 -0.06796515733003616
0.43703997135162354 0.5871296525001526 -0.06748521327972412
0.3600475490093231 0.7119399309158325 -0.027353649958968163
0.36706990003585815 0.7352398037910461 -0.04411052539944649
0.3684123158454895 0.7116087079048157 -0.03174552321434021
0.44217029213905334 0.5709055662155151 -0.09813515096902847
0.40288418531417847 0.6746413111686707 -0.06596292555332184
0.426364541053772 0.6647680401802063 -0.08384416252374649
0.4560473561286926 0.6592880487442017 -0.09894748777151108
0.44517606496810913 0.7964501976966858 -0.08687244355678558
0.43848514556884766 0.7954229712486267 -0.09966453909873962
0.44087281823158264 0.7851929068565369 -0.09947089850902557
0.4454251825809479 0.7748783230781555 -0.09088943898677826
0.45069420337677 0.7668859362602234 -0.08220497518777847
0.3990769684314728 0.7475829720497131 -0.053575534373521805
0.3911152482032776 0.750488817691803 -0.060235098004341125
0.38111937046051025 0.7542361617088318 -0.0655350536108017
0.3739369511604309 0.7583826780319214 -0.062213752418756485
0.3777533769607544 0.6443438529968262 -0.0483071394264698
0.24046099185943604 0.6292582750320435 0.27218976616859436
0.4889844059944153 0.588429868221283 -0.10806425660848618
0.3833250403404236 0.7342103719711304 -0.03875594213604927
0.3747609555721283 0.7346525192260742 -0.04341113939881325
0.4573979377746582 0.5977334380149841 -0.08675037324428558
0.4188092052936554 0.596246600151062 -0.053383372724056244
0.45475709438323975 0.5937002897262573 -0.08394809067249298
0.396945059299469 0.5364696979522705 0.014091205783188343
0.35596227645874023 0.549431562423706 0.01840546727180481
0.40574467182159424 0.5735490918159485 -0.049893882125616074
0.3192029595375061 0.3527933657169342 0.1970721036195755
0.3300519585609436 0.3712765872478485 0.13820746541023254
0.34851568937301636 0.3932074010372162 0.09010402113199234
0.382051944732666 0.7550561428070068 -0.05175444111227989
0.44763070344924927 0.39469173550605774 0.041975609958171844
0.44054996967315674 0.3572300970554352 0.08623027056455612
0.4373246133327484 0.3199356496334076 0.1279866248369217
0.3406694829463959 0.49658456444740295 0.08597976714372635
0.2826492190361023 0.5218859910964966 0.11551881581544876
0.4323148727416992 0.4910111129283905 0.06691833585500717
0.309736430644989 0.4682871699333191 0.11429712176322937
0.44289693236351013 0.5106551647186279 0.004947046283632517
0.42565450072288513 0.5584691166877747 -0.09237952530384064
0.25047874450683594 0.5437154173851013 0.1364932507276535
0.2981216013431549 0.5302255749702454 0.0847010686993599
0.3273429274559021 0.533027172088623 0.056325580924749374
0.37089788913726807 0.5299321413040161 0.04178766533732414
0.4036046862602234 0.5230604410171509 0.0368262343108654
0.42902064323425293 0.5133726000785828 0.03197215124964714
0.4742549657821655 0.480415940284729 -0.009185017086565495
0.24804005026817322 0.5844556093215942 0.10784010589122772
0.2902902364730835 0.4682055711746216 0.1306045651435852
0.47556859254837036 0.5787846446037292 -0.13109801709651947
0.4218141734600067 0.5397143363952637 -0.012466575019061565
0.23970305919647217 0.530316948890686 0.30883342027664185
0.44762688875198364 0.5010606050491333 0.03237604722380638
0.40448370575904846 0.5783042311668396 -0.025484131649136543
0.3233779966831207 0.48284024000167847 0.11346182227134705
0.42567989230155945 0.5487755537033081 -0.07759953290224075
0.2447839379310608 0.6819222569465637 0.23186253011226654
0.4329051971435547 0.48523205518722534 0.07818184047937393
0.4462505877017975 0.5341760516166687 -0.09738539904356003
0.2936229705810547 0.7695035338401794 0.0384538508951664
0.29735562205314636 0.808935821056366 0.06004803255200386
0.23199623823165894 0.6079171299934387 0.19081515073776245
0.26795902848243713 0.743274450302124 0.07791783660650253
0.2560851275920868 0.473621666431427 0.22403044998645782
0.38005492091178894 0.8482961654663086 -0.06909170746803284
0.47981348633766174 0.5877413749694824 -0.10541056841611862
0.39920634031295776 0.5559355616569519 -0.009275810793042183
0.2623744010925293 0.5064030289649963 0.16597622632980347
0.3621322512626648 0.48552441596984863 0.07968960702419281
0.37956666946411133 0.48758965730667114 0.07178434729576111
0.36045122146606445 0.7359122633934021 -0.041150838136672974
0.248651385307312 0.6300669312477112 0.09157576411962509
0.4263290762901306 0.8926414847373962 -0.0882805660367012
0.3534385561943054 0.8553880453109741 -0.019308023154735565
0.3266155421733856 0.8351142406463623 0.01694154366850853
0.5047039985656738 0.3590937852859497 0.07376071065664291
0.48538738489151 0.9015613198280334 -0.10258474946022034
0.39733269810676575 0.488502562046051 0.06934332102537155
0.41427934169769287 0.4879714250564575 0.0721428245306015
0.42590826749801636 0.4870034158229828 0.07762186229228973
0.2727814316749573 0.46935561299324036 0.15946513414382935
0.4148924946784973 0.47497767210006714 0.07613392919301987
0.3975431025028229 0.47099781036376953 0.07459931075572968
0.3810637295246124 0.469531387090683 0.07751412689685822
0.3630828261375427 0.4715321362018585 0.08407632261514664
0.35043686628341675 0.4751835763454437 0.09153225272893906
0.24629512429237366 0.47575727105140686 0.29736730456352234
0.3509615957736969 0.483970582485199 0.08936875313520432
0.49110081791877747 0.6119963526725769 -0.0961611345410347
0.4026918411254883 0.6268280148506165 -0.0635608658194542
0.4301236569881439 0.5771195292472839 -0.07486453652381897
0.45258790254592896 0.6134902834892273 -0.09038529545068741
0.498914897441864 0.4565638303756714 0.010697463527321815
0.32096752524375916 0.7983707189559937 0.003277593059465289
0.34906160831451416 0.822247326374054 -0.03220542147755623
0.42462462186813354 0.8687350749969482 -0.10208795219659805
0.27613064646720886 0.7815050482749939 0.11573905497789383
0.4271095395088196 0.4807293117046356 0.07807614654302597
0.4559626579284668 0.508271336555481 -0.032079003751277924
0.48401233553886414 0.8780775666236877 -0.11479800939559937
0.3845043182373047 0.8750485777854919 -0.057871025055646896
0.23542281985282898 0.6575722098350525 0.1612967997789383
0.42145365476608276 0.7590200901031494 -0.06867656856775284
0.4131748080253601 0.7646493911743164 -0.07572183012962341
0.40497440099716187 0.7723250389099121 -0.08134406059980392
0.39981573820114136 0.7809497714042664 -0.07992898672819138
0.40710628032684326 0.7789289355278015 -0.07080778479576111
0.37614285945892334 0.6893858313560486 -0.04626122862100601
0.3681177496910095 0.687421441078186 -0.04389501363039017
0.3615436851978302 0.6845855712890625 -0.041918911039829254
0.35987672209739685 0.6673029661178589 -0.03005214035511017
0.27790510654449463 0.6314095258712769 0.03692556545138359
0.45955249667167664 0.4940796196460724 -4.7796129365451634e-05
0.4508068859577179 0.4645572304725647 0.06345205008983612
0.4370774030685425 0.4702420234680176 0.07534150034189224
0.38317835330963135 0.689094066619873 -0.046324215829372406
0.27504244446754456 0.6964633464813232 0.04959321767091751
0.4708370566368103 0.45913413166999817 0.02946334518492222
0.395595908164978 0.7967625856399536 -0.06853187829256058
0.491468220949173 0.5053431391716003 -0.08563082665205002
0.47242432832717896 0.4953739047050476 -0.043498311191797256
0.4939952492713928 0.4905659556388855 -0.05036591738462448
0.4350661039352417 0.5373082160949707 -0.046951327472925186
0.48432084918022156 0.850243091583252 -0.11438615620136261
0.48613718152046204 0.8229129314422607 -0.10241372883319855
0.4370443820953369 0.8163795471191406 -0.09242985397577286
0.34641188383102417 0.7393804788589478 -0.023466933518648148
0.3848167061805725 0.5983343124389648 -0.022401412948966026
0.3669382929801941 0.770902693271637 -0.04580426216125488
0.3299412131309509 0.6012523770332336 -0.005514015443623066
0.3611587882041931 0.6230080127716064 -0.021931244060397148
0.3102095127105713 0.6416122913360596 0.003629166167229414
0.428250789642334 0.8418747186660767 -0.10123617947101593
0.4193881154060364 0.5511332154273987 -0.03491291031241417
0.3276388645172119 0.7636079788208008 -0.010476329363882542
0.35511380434036255 0.7928172945976257 -0.03925221413373947
0.3307521939277649 0.7041122913360596 -0.010188520886003971
0.2539043426513672 0.6720438003540039 0.08124519884586334
0.3022242784500122 0.7165006399154663 0.011598306708037853
0.24641075730323792 0.7042225003242493 0.12703080475330353
0.34170353412628174 0.6542282700538635 -0.01636616699397564
0.4397878050804138 0.5240875482559204 -0.02119111828505993
0.4337690770626068 0.5664852261543274 -0.10036695003509521
0.4184459149837494 0.5756804347038269 -0.07849916070699692
0.4436645805835724 0.549917459487915 -0.1148204430937767
0.434664785861969 0.4439248740673065 0.06673978269100189
0.3990946412086487 0.4296643137931824 0.06979800015687943
0.36767637729644775 0.42775237560272217 0.07417169958353043
0.34042856097221375 0.4344852864742279 0.08462110161781311
0.3204669654369354 0.447881817817688 0.09916575253009796
0.30538174510002136 0.4901873469352722 0.12283209711313248
0.23323166370391846 0.5626240372657776 0.21082748472690582
0.32102087140083313 0.5116945505142212 0.08900029212236404
0.3438299894332886 0.5144284963607788 0.07024642080068588
0.3736621141433716 0.5144311189651489 0.05666857585310936
0.4024348855018616 0.5111790299415588 0.051437199115753174
0.4255625605583191 0.5050595998764038 0.05064398795366287
0.4413934648036957 0.49763861298561096 0.050226494669914246
0.239732027053833 0.580338716506958 0.30034950375556946
0.41974276304244995 0.5833523273468018 -0.06907638907432556
0.45272672176361084 0.5209265351295471 -0.06149422377347946
0.4505174160003662 0.564055860042572 -0.12219646573066711
0.46575725078582764 0.5778570175170898 -0.1197085976600647
0.4523729681968689 0.5706325173377991 -0.11195576190948486
0.42664873600006104 0.5913785099983215 -0.06531160324811935
0.46895086765289307 0.5783361196517944 -0.12737005949020386
0.4728744626045227 0.5867324471473694 -0.10345356911420822
0.4413323998451233 0.48393309116363525 0.07162367552518845
0.453553706407547 0.4853689670562744 0.052215825766325
0.461035817861557 0.48455530405044556 0.030594369396567345
0.3424685597419739 0.4781971871852875 0.09895527362823486
0.3238544464111328 0.4678623676300049 0.10282818228006363
0.5129128098487854 0.5097873210906982 -0.08146476000547409
0.681077778339386 0.48615261912345886 0.057861920446157455
0.5128118395805359 0.5846399068832397 -0.10590089112520218
0.7890679240226746 0.4383201599121094 0.2096882313489914
0.6125035285949707 0.495311975479126 0.034688472747802734
0.6342433094978333 0.4972909688949585 0.03295774757862091
0.6572273373603821 0.4993910491466522 0.03710956126451492
0.6943254470825195 0.49538981914520264 0.055907271802425385
0.5952264070510864 0.49175530672073364 0.04140361770987511
0.6469433307647705 0.44191986322402954 0.04036910459399223
0.6213676929473877 0.4437115788459778 0.046111587435007095
0.6734038591384888 0.4466632604598999 0.0438254177570343
0.6918665170669556 0.4568680226802826 0.05010434240102768
0.714918315410614 0.5108693242073059 0.059834130108356476
0.5951797962188721 0.8282007575035095 -0.08903206884860992
0.692258358001709 0.48441797494888306 0.06656470149755478
0.7984694838523865 0.529639482498169 0.16395768523216248
0.749374508857727 0.5011829733848572 0.08865698426961899
0.6306670904159546 0.5787001848220825 -0.035913292318582535
0.533241331577301 0.6329354047775269 -0.11381961405277252
0.528532862663269 0.6551863551139832 -0.11121435463428497
0.5764500498771667 0.650360643863678 -0.10405562072992325
0.6029710173606873 0.6710987091064453 -0.08595383167266846
0.5617074370384216 0.6652995944023132 -0.10203508287668228
0.5862376093864441 0.6795626878738403 -0.08402048051357269
0.6306233406066895 0.7370294332504272 -0.06037786230444908
0.5073199272155762 0.5649407505989075 -0.14091543853282928
0.510389506816864 0.5448132753372192 -0.14045698940753937
0.7334586381912231 0.4379024803638458 0.06590019166469574
0.5776179432868958 0.5275983810424805 -0.007530852686613798
0.5774415135383606 0.5732291340827942 -0.08794482797384262
0.5809364318847656 0.565134584903717 -0.07643482089042664
0.710563600063324 0.5855218172073364 -0.013132492080330849
0.5116751194000244 0.5248538851737976 -0.11567972600460052
0.6682485938072205 0.4046657383441925 0.0410514660179615
0.7056893706321716 0.4169238805770874 0.05280056223273277
0.7595918774604797 0.3941963315010071 0.1852029412984848
0.5581664443016052 0.4193626642227173 0.025121673941612244
0.6005130410194397 0.45207834243774414 0.053489942103624344
0.6491243243217468 0.7048364877700806 -0.05233394354581833
0.7826732993125916 0.7513577342033386 0.11998749524354935
0.5575113892555237 0.5846722722053528 -0.08111101388931274
0.5346134901046753 0.5910573601722717 -0.08651968091726303
0.6267046928405762 0.722905695438385 -0.05113869905471802
0.6180315017700195 0.7224928140640259 -0.05527516454458237
0.7235659956932068 0.4062941074371338 0.07130993902683258
0.5805046558380127 0.5856189131736755 -0.07921692728996277
0.620150625705719 0.4036308825016022 0.03188207745552063
0.6249619722366333 0.3878525197505951 0.036010775715112686
0.651337742805481 0.33360689878463745 0.12660591304302216
0.7341878414154053 0.4053727388381958 0.12107080966234207
0.6303863525390625 0.36471304297447205 0.08107335865497589
0.7535744309425354 0.43348726630210876 0.09102369844913483
0.7642079591751099 0.4418794810771942 0.1476764678955078
0.5316522121429443 0.6442956328392029 -0.11509576439857483
0.5692453384399414 0.657991349697113 -0.10425061732530594
0.5950844287872314 0.6752710342407227 -0.08718538284301758
0.551342248916626 0.5894765853881836 -0.07728873193264008
0.6223541498184204 0.7228579521179199 -0.053126122802495956
0.6146100759506226 0.7443673610687256 -0.06590645015239716
0.6141117811203003 0.7218864560127258 -0.055605415254831314
0.5403891205787659 0.5724443793296814 -0.10915526002645493
0.5799420475959778 0.6811140775680542 -0.08291645348072052
0.5555494427680969 0.6688823699951172 -0.09647959470748901
0.525398313999176 0.6613216400146484 -0.10605407506227493
0.5328077673912048 0.7993665337562561 -0.09371364116668701
0.5393821597099304 0.7981871962547302 -0.10714120417833328
0.5367385149002075 0.7879235744476318 -0.10719263553619385
0.5334426164627075 0.7776556611061096 -0.09851720929145813
0.5293322801589966 0.769541323184967 -0.08958705514669418
0.5835432410240173 0.7550433278083801 -0.07044472545385361
0.5905976295471191 0.7576274871826172 -0.07702644169330597
0.5995514392852783 0.7614572048187256 -0.08301594108343124
0.6064683198928833 0.7658579349517822 -0.08107126504182816
0.6162054538726807 0.649730920791626 -0.0721651241183281
0.8106193542480469 0.6423011422157288 0.20833608508110046
0.5999216437339783 0.7433993816375732 -0.059740129858255386
0.607550323009491 0.7436252236366272 -0.0643887147307396
0.5274200439453125 0.5993590354919434 -0.09281665086746216
0.5734808444976807 0.6001034379005432 -0.06640975922346115
0.530758261680603 0.5954040288925171 -0.08972860127687454
0.6061757206916809 0.5406919717788696 -0.009661136195063591
0.6483686566352844 0.5554187297821045 -0.014013184234499931
0.5869040489196777 0.5775665640830994 -0.06746216118335724
0.7153520584106445 0.3584500849246979 0.1538865864276886
0.6911719441413879 0.37921932339668274 0.09923560917377472
0.6798266172409058 0.3907366991043091 0.05453800410032272
0.6071604490280151 0.7620229721069336 -0.07359814643859863
0.5660773515701294 0.3927308917045593 0.0296315960586071
0.5708192586898804 0.3599965572357178 0.07242931425571442
0.5855830907821655 0.3218853175640106 0.11271677911281586
0.6796269416809082 0.49906742572784424 0.045814789831638336
0.7411604523658752 0.5275812149047852 0.06411252170801163
0.5837555527687073 0.4875032603740692 0.048225097358226776
0.7212681770324707 0.469548761844635 0.06790415942668915
0.5575928092002869 0.5129213929176331 -0.009081757627427578
0.5571549534797668 0.5608309507369995 -0.1055426225066185
0.7746142745018005 0.5544421076774597 0.07823608070611954
0.7176312804222107 0.5369247198104858 0.03632977977395058
0.6803179979324341 0.5387921333312988 0.014611531980335712
0.6321234703063965 0.531273603439331 0.009430985897779465
0.5996125340461731 0.521404504776001 0.012143682688474655
0.5754731893539429 0.5111552476882935 0.01367905829101801
0.5207154154777527 0.4814133048057556 -0.015172716230154037
0.7742658853530884 0.5956190228462219 0.04956286773085594
0.7438996434211731 0.46899402141571045 0.08012096583843231
0.499524861574173 0.5793229937553406 -0.13391545414924622
0.575939416885376 0.5427922010421753 -0.029321668669581413
0.8133540153503418 0.5408292412757874 0.2436385452747345
0.5574014186859131 0.49936288595199585 0.01804875209927559
0.5918253660202026 0.5825822353363037 -0.043401554226875305
0.7064815759658813 0.48539096117019653 0.06928575783967972
0.5605711936950684 0.5513269305229187 -0.09095199406147003
0.8029130697250366 0.6952711343765259 0.17098155617713928
0.5868171453475952 0.48222506046295166 0.058933716267347336
0.5353211760520935 0.5358705520629883 -0.10704654455184937
0.7160786390304565 0.7828395366668701 -0.005144733004271984
0.7192977070808411 0.8221085667610168 0.016412947326898575
0.8036361932754517 0.6208378672599792 0.1275680810213089
0.7513454556465149 0.7565670609474182 0.026803845539689064
0.7822349667549133 0.4830840826034546 0.16464415192604065
0.5992823243141174 0.857333242893219 -0.09008878469467163
0.498670756816864 0.5880865454673767 -0.10722360759973526
0.60001140832901 0.5601036548614502 -0.030289428308606148
0.7758176326751709 0.5091364979743958 0.10918955504894257
0.6546443700790405 0.48600339889526367 0.0442684069275856
0.6352251172065735 0.48530346155166626 0.04026501253247261
0.6209752559661865 0.7453442215919495 -0.06457161158323288
0.773154079914093 0.6420440673828125 0.035010360181331635
0.5476621389389038 0.8975043296813965 -0.10020868480205536
0.6390513777732849 0.8658871650695801 -0.04774699732661247
0.6770827174186707 0.8473154306411743 -0.01859835535287857
0.6179805397987366 0.4846014976501465 0.0424349308013916
0.602989912033081 0.4836153984069824 0.04884697496891022
0.592708945274353 0.48318248987197876 0.05683956667780876
0.7672545909881592 0.4695162773132324 0.10481761395931244
0.6048251986503601 0.47336679697036743 0.05276287719607353
0.6221890449523926 0.4700964391231537 0.04734405130147934
0.640152633190155 0.46987849473953247 0.04598311334848404
0.660237193107605 0.4727289080619812 0.048088438808918
0.6744675636291504 0.4770016372203827 0.052884992212057114
0.8053350448608398 0.4845699667930603 0.2340780794620514
0.6693087816238403 0.48630183935165405 0.05095428228378296
0.5882384777069092 0.6310371160507202 -0.08150269836187363
0.5567287802696228 0.5794417858123779 -0.08637364953756332
0.5322573781013489 0.615479588508606 -0.09790298342704773
0.678800642490387 0.8110100030899048 -0.03199509531259537
0.6413107514381409 0.8337250351905823 -0.060301098972558975
0.5462704300880432 0.8737629652023315 -0.11368751525878906
0.7525902986526489 0.7940945029258728 0.06461668759584427
0.5926839709281921 0.4787212610244751 0.056915052235126495
0.5362972021102905 0.5097653865814209 -0.04140171781182289
0.5970183610916138 0.8832843899726868 -0.07937938719987869
0.7982749342918396 0.6710875630378723 0.10092632472515106
0.560051679611206 0.7640013694763184 -0.08126997202634811
0.5671786665916443 0.7696053981781006 -0.08882635831832886
0.5740359425544739 0.7771730422973633 -0.09528251737356186
0.5791388154029846 0.7859389185905457 -0.09451945871114731
0.5757009983062744 0.7844284176826477 -0.08678194880485535
0.6059228777885437 0.6982501745223999 -0.06807902455329895
0.6134074330329895 0.6965600252151489 -0.06770337373018265
0.6202929019927979 0.6941665410995483 -0.06710749119520187
0.6374364495277405 0.673757791519165 -0.05978712812066078
0.7335126996040344 0.6416720747947693 -0.01158919557929039
0.5384038090705872 0.4957573711872101 -0.009979690425097942
0.5640756487846375 0.46217799186706543 0.05141674354672432
0.5814212560653687 0.46781039237976074 0.057389017194509506
0.5997685194015503 0.6978152394294739 -0.06745458394289017
0.7383905649185181 0.7080933451652527 0.0011036250507459044
0.535245954990387 0.4574504494667053 0.022222114726901054
0.5865334868431091 0.803557276725769 -0.08597036451101303
0.5168660283088684 0.49620503187179565 -0.04857431724667549
0.5556967854499817 0.5396870374679565 -0.0592634379863739
0.5379241704940796 0.8201066255569458 -0.10074043273925781
0.6497312784194946 0.7483148574829102 -0.053978025913238525
0.6125532388687134 0.6034055352210999 -0.04488404840230942
0.6226679086685181 0.7792574763298035 -0.06979919970035553
0.6714494228363037 0.6086353659629822 -0.04095736891031265
0.6366667151451111 0.6292197704315186 -0.05028605833649635
0.6937425136566162 0.6505007743835449 -0.036904528737068176
0.5432252287864685 0.8463524580001831 -0.11227039992809296
0.5751912593841553 0.5541205406188965 -0.05052987486124039
0.6700290441513062 0.7744713425636292 -0.04448261484503746
0.6344739198684692 0.8026689291000366 -0.06548624485731125
0.669353723526001 0.7130095362663269 -0.046696651726961136
0.7669811844825745 0.6844418048858643 0.027344897389411926
0.7026299834251404 0.7275709509849548 -0.029776455834507942
0.7826204895973206 0.7177048921585083 0.06933645159006119
0.6583244204521179 0.6616008877754211 -0.05012837052345276
0.5554564595222473 0.5263563394546509 -0.03444789722561836
0.5483283996582031 0.5683684349060059 -0.11231108754873276
0.5684473514556885 0.5785285830497742 -0.09241151809692383
0.53415846824646 0.5515209436416626 -0.1239454373717308
0.5829352140426636 0.44113460183143616 0.050222691148519516
0.6204205751419067 0.42796945571899414 0.045443568378686905
0.6547455787658691 0.4269406199455261 0.04180173575878143
0.6853365898132324 0.4341987371444702 0.045581597834825516
0.7086840271949768 0.44813287258148193 0.05572781339287758
0.7249128818511963 0.49289530515670776 0.07577889412641525
0.8036524057388306 0.5747159719467163 0.1461350917816162
0.6978909969329834 0.5159960985183716 0.04534851387143135
0.6687949895858765 0.517487645149231 0.03197664022445679
0.6354433298110962 0.513759970664978 0.02496962994337082
0.6065199971199036 0.5079507231712341 0.0263004582375288
0.5851497054100037 0.5014700889587402 0.03150816634297371
0.5699158310890198 0.49450331926345825 0.03457970544695854
0.8130953907966614 0.5921366214752197 0.23482637107372284
0.5690910816192627 0.5865361094474792 -0.08277928084135056
0.5341469645500183 0.5223604440689087 -0.07110009342432022
0.5264906883239746 0.5654006004333496 -0.12974520027637482
0.5127995014190674 0.578842282295227 -0.12413100898265839
0.5275285243988037 0.5719587802886963 -0.11965005844831467
0.563296914100647 0.5944935083389282 -0.07677061855792999
0.507552981376648 0.5791441202163696 -0.130914106965065
0.5068761110305786 0.5874348878860474 -0.10648293793201447
0.5758872628211975 0.4810074269771576 0.05549173429608345
0.5583045482635498 0.48274874687194824 0.03993760049343109
0.5446255207061768 0.4833013415336609 0.020454801619052887
0.6840313076972961 0.48085319995880127 0.05839289352297783
0.7053484916687012 0.4698025584220886 0.060091350227594376
0.3914761543273926 0.47856855392456055 0.08287154883146286
0.4122559428215027 0.47818174958229065 0.08287154883146286
0.39103299379348755 0.46120965480804443 0.08287154883146286
0.3698926270008087 0.47896167635917664 0.08287154883146286
0.39158695936203003 0.4957810640335083 0.08287154883146286
0.633561372756958 0.4775175154209137 0.05183380842208862
0.656360387802124 0.47887110710144043 0.05183380842208862
0.6347191333770752 0.4621278643608093 0.05183380842208862
0.6112878322601318 0.47605064511299133 0.05183380842208862
0.6327081322669983 0.4925704002380371 0.05183380842208862
