ply
format ascii 1.0
element vertex 478
property float x
property float y
property float z
end_header
0.5031068325042725 0.7281123399734497 -0.060632169246673584
0.4971967041492462 0.6473956108093262 -0.13134652376174927
0.49764519929885864 0.6657053232192993 -0.07030884176492691
0.4759754538536072 0.5603440999984741 -0.1009611114859581
0.4967651963233948 0.620952844619751 -0.14000555872917175
0.496355801820755 0.5859223008155823 -0.13146157562732697
0.49592864513397217 0.5012739300727844 -0.0694507509469986
0.3362717926502228 0.48164287209510803 0.029834046959877014
0.49486351013183594 0.4349208176136017 -0.05229887738823891
0.49413299560546875 0.4007091522216797 -0.05712753161787987
0.4922647178173065 0.2672213613986969 -0.036787159740924835
0.5033751726150513 0.7352455854415894 -0.056985970586538315
0.5032607316970825 0.7422463893890381 -0.05046544596552849
0.5030978918075562 0.7475705146789551 -0.04172812029719353
0.503375768661499 0.7479382753372192 -0.029126683250069618
0.5038720369338989 0.761396050453186 -0.03418578580021858
0.5040487051010132 0.7767167091369629 -0.04015529155731201
0.5039849281311035 0.7910600900650024 -0.03786441683769226
0.5023688077926636 0.8302921652793884 -0.020398514345288277
0.4975600838661194 0.6596369743347168 -0.11882816255092621
0.4727425277233124 0.6567482352256775 -0.08592776954174042
0.2497572898864746 0.38055235147476196 0.13863669335842133
0.39560964703559875 0.504176914691925 0.0044763898476958275
0.3749213218688965 0.5049535632133484 0.007027878891676664
0.3539753258228302 0.5034748315811157 0.013863773085176945
0.3246713876724243 0.4886707067489624 0.03372089937329292
0.41325104236602783 0.5004624128341675 0.0068027484230697155
0.369417667388916 0.4348353445529938 -0.0022595992777496576
0.3930776119232178 0.43889257311820984 -0.002743582706898451
0.3461976647377014 0.4378189444541931 0.005814739037305117
0.32963573932647705 0.4467467963695526 0.015359003096818924
0.3034556806087494 0.503064751625061 0.04597265273332596
0.41260775923728943 0.8587725162506104 0.018482137471437454
0.3275042474269867 0.47452059388160706 0.03769150748848915
0.23188510537147522 0.493299275636673 0.1506134420633316
0.2770004868507385 0.48412764072418213 0.06956031173467636
0.3682958483695984 0.6084908246994019 -0.01773115247488022
0.4670451581478119 0.7201078534126282 -0.05776869133114815
0.4708288908004761 0.7376950979232788 -0.045693375170230865
0.4365069568157196 0.7216037511825562 -0.040835801512002945
0.41581475734710693 0.7215555310249329 -0.01590179279446602
0.4443983733654022 0.7331432700157166 -0.03224850818514824
0.42445841431617737 0.7291774153709412 -0.010200384072959423
0.3729496896266937 0.7564175128936768 0.03025294654071331
0.47695961594581604 0.646450936794281 -0.12894898653030396
0.473656564950943 0.6205780506134033 -0.13679122924804688
0.29962337017059326 0.42335638403892517 0.020727980881929398
0.4240366518497467 0.5499799251556396 -0.0221417136490345
0.4159625172615051 0.6291986107826233 -0.06988466531038284
0.4139539301395416 0.6146150231361389 -0.06285194307565689
0.29353833198547363 0.60017991065979 0.015518201515078545
0.4744966924190521 0.5880807638168335 -0.12359260767698288
0.35714054107666016 0.4013307988643646 -0.020648572593927383
0.3248022198677063 0.4074663519859314 -0.0014468523440882564
0.27190279960632324 0.3375316262245178 0.0922992005944252
0.4496419429779053 0.4279439449310303 -0.043674759566783905
0.41241419315338135 0.4503192603588104 0.0033500136341899633
0.35054630041122437 0.7246699333190918 0.032820701599121094
0.25463390350341797 0.7325136661529541 0.21812663972377777
0.43413108587265015 0.6450192928314209 -0.06123265251517296
0.45435571670532227 0.6532720923423767 -0.06324061751365662
0.38659703731536865 0.7190455794334412 0.033659547567367554
0.39305490255355835 0.721489429473877 0.027505602687597275
0.3128371834754944 0.39093783497810364 0.009102351032197475
0.4128543734550476 0.6371614933013916 -0.05656835436820984
0.39769354462623596 0.40611135959625244 -0.03535861894488335
0.3959456980228424 0.3872378468513489 -0.04135475307703018
0.35909485816955566 0.28088587522506714 -0.0010162715334445238
0.28626614809036255 0.3649754226207733 0.04451676830649376
0.3734999895095825 0.3326479494571686 -0.023230725899338722
0.2841908633708954 0.41088002920150757 0.03993239998817444
0.262334942817688 0.39897605776786804 0.08621442317962646
0.46841034293174744 0.7297387719154358 -0.05358414724469185
0.44022616744041443 0.7273268699645996 -0.036579959094524384
0.4198917746543884 0.7251055240631104 -0.014490890316665173
0.4390108585357666 0.6487560868263245 -0.05591639131307602
0.3899485468864441 0.7203289270401001 0.030481833964586258
0.4038054943084717 0.7317129373550415 0.017252840101718903
0.3961864113807678 0.7226464748382568 0.026787659153342247
0.44838395714759827 0.6427393555641174 -0.09424760937690735
0.42844027280807495 0.7328155040740967 -0.007587540429085493
0.44852834939956665 0.7379984855651855 -0.024177445098757744
0.4733266532421112 0.7434228658676147 -0.03699379414319992
0.463638573884964 0.8272796869277954 -0.01661156490445137
0.46777692437171936 0.7855595350265503 -0.03348400816321373
0.4689209461212158 0.7714216709136963 -0.035076308995485306
0.4711546301841736 0.7565627694129944 -0.02873091585934162
0.4741366505622864 0.7438233494758606 -0.02419118396937847
0.42962294816970825 0.7328371405601501 0.002245113719254732
0.4242922067642212 0.7377262115478516 -0.0017233826220035553
0.41881832480430603 0.7439885139465332 -0.004574581515043974
0.41441482305526733 0.7508363127708435 0.0004519423528108746
0.37882983684539795 0.6916937232017517 -0.011352023109793663
0.23014608025550842 0.6023998856544495 0.24700847268104553
0.49766287207603455 0.663614809513092 -0.08724819123744965
0.41432100534439087 0.7285095453262329 0.018143175169825554
0.40901821851730347 0.7299558520317078 0.016130104660987854
0.4621274173259735 0.6620803475379944 -0.06362539529800415
0.41896653175354004 0.6495213508605957 -0.03910033404827118
0.45842212438583374 0.6578946709632874 -0.06419490277767181
0.3973308801651001 0.5610230565071106 -0.01340705156326294
0.3550254702568054 0.5741221904754639 -0.005836612079292536
0.40832003951072693 0.6235471963882446 -0.049022264778614044
0.30604034662246704 0.3035329580307007 0.04344860464334488
0.3213629424571991 0.3417987525463104 0.008712098002433777
0.35046523809432983 0.3825252056121826 -0.017450062558054924
0.3965141475200653 0.7851094007492065 0.015907837077975273
0.44605687260627747 0.396578848361969 -0.053538717329502106
0.4288165867328644 0.33156874775886536 -0.04188989847898483
0.41913241147994995 0.2700100839138031 -0.028177982196211815
0.335395872592926 0.49814000725746155 0.024180667474865913
0.2769315838813782 0.5191351175308228 0.06002163887023926
0.425143837928772 0.49614274501800537 0.00957160722464323
0.3054577708244324 0.455817848443985 0.035290420055389404
0.4416717290878296 0.5363125205039978 -0.03142227977514267
0.4327469766139984 0.6246204376220703 -0.0939362496137619
0.24497714638710022 0.5404676198959351 0.08714404702186584
0.2937924563884735 0.5370082855224609 0.039083171635866165
0.32431840896606445 0.5474584102630615 0.016902895644307137
0.36783626675605774 0.5449507832527161 0.00512060197070241
0.3987767994403839 0.5365025401115417 -0.0012113047996535897
0.421656996011734 0.5272595286369324 -0.008452334441244602
0.4733119010925293 0.5070410370826721 -0.059058744460344315
0.2419891357421875 0.5911950469017029 0.08237654715776443
0.2865031361579895 0.451058566570282 0.04593460261821747
0.4847186803817749 0.6585385799407959 -0.11719036847352982
0.4235195815563202 0.5752254128456116 -0.03277014195919037
0.22954732179641724 0.48697131872177124 0.2261122614145279
0.439797967672348 0.5166098475456238 -0.01269875094294548
0.40496566891670227 0.6228137612342834 -0.02476254664361477
0.3164835572242737 0.4738244414329529 0.04228097200393677
0.4311147630214691 0.6064774394035339 -0.08525347709655762
0.2373371422290802 0.6658711433410645 0.23822355270385742
0.424716055393219 0.48853856325149536 0.01567867584526539
0.4529017508029938 0.5950770378112793 -0.10900556296110153
0.30677124857902527 0.7936230301856995 0.10473158955574036
0.3146470785140991 0.8237541317939758 0.14156809449195862
0.22461843490600586 0.6005436778068542 0.16569000482559204
0.27144181728363037 0.7604306936264038 0.12903304398059845
0.24664047360420227 0.4424560070037842 0.12473943084478378
0.41264858841896057 0.8838380575180054 0.031172608956694603
0.4872645437717438 0.6626257300376892 -0.08553912490606308
0.3997308015823364 0.5903370380401611 -0.023455031216144562
0.25501132011413574 0.4869210720062256 0.09318940341472626
0.35820072889328003 0.4900991916656494 0.015766778960824013
0.37600651383399963 0.4922318458557129 0.009765979833900928
0.3990616202354431 0.7337499856948853 0.02132650837302208
0.24237853288650513 0.6439025402069092 0.09184116870164871
0.45824170112609863 0.9190391302108765 0.03196870908141136
0.38803619146347046 0.8814941644668579 0.08291807770729065
0.35570234060287476 0.8574056029319763 0.10994230210781097
0.4932613670825958 0.33202484250068665 -0.049315594136714935
0.5058420896530151 0.9252204298973083 0.02365000732243061
0.39288443326950073 0.4918646812438965 0.008206360042095184
0.40880119800567627 0.490131676197052 0.011088339611887932
0.4194175601005554 0.48949623107910156 0.015548214316368103
0.2674369513988495 0.44403135776519775 0.06919354945421219
0.40719443559646606 0.46926701068878174 0.007801451254636049
0.3896872103214264 0.46057870984077454 0.004469584673643112
0.37172579765319824 0.45832377672195435 0.005983088165521622
0.353035032749176 0.4609869122505188 0.011984840966761112
0.34084028005599976 0.4661729037761688 0.019621718674898148
0.236429363489151 0.4280495345592499 0.18723784387111664
0.3456060290336609 0.48629194498062134 0.023294508457183838
0.4977881610393524 0.6803774833679199 -0.0621224083006382
0.4061721861362457 0.681847870349884 -0.0322912372648716
0.4351350665092468 0.6426995396614075 -0.07004158943891525
0.45863738656044006 0.6796049475669861 -0.058516573160886765
0.4956791400909424 0.46747976541519165 -0.0523565337061882
0.34549206495285034 0.8272690773010254 0.08514390885829926
0.3785743713378906 0.855094313621521 0.060139648616313934
0.45498305559158325 0.9040920734405518 0.006080954801291227
0.2820420563220978 0.7857004404067993 0.1808840036392212
0.41931426525115967 0.4813344478607178 0.012530072592198849
0.45770198106765747 0.5466591119766235 -0.06503664702177048
0.5045408606529236 0.9098600149154663 -0.000849483534693718
0.42063719034194946 0.9033423066139221 0.05323442071676254
0.22989362478256226 0.6584053635597229 0.16369913518428802
0.44954240322113037 0.7381744384765625 -0.012353625148534775
0.4444626569747925 0.7472991943359375 -0.016454225406050682
0.4404023587703705 0.7583453059196472 -0.02014949545264244
0.4377566874027252 0.7708500623703003 -0.016512826085090637
0.4256286919116974 0.8104516267776489 -0.0015438222326338291
0.4089531898498535 0.725310206413269 0.010178408585488796
0.40430575609207153 0.7226414084434509 0.011049063876271248
0.4003840982913971 0.7202504873275757 0.010534427128732204
0.3584098219871521 0.705031156539917 0.012315265834331512
0.27060192823410034 0.6569194793701172 0.044405486434698105
0.4580969214439392 0.5202864408493042 -0.04347923770546913
0.44330301880836487 0.46943792700767517 -0.0023847531992942095
0.42870891094207764 0.4718317985534668 0.008062472566962242
0.41365912556648254 0.7283300161361694 0.011623584665358067
0.2734547257423401 0.720348060131073 0.08443023264408112
0.46551281213760376 0.4697890877723694 -0.034810490906238556
0.4181535840034485 0.8327313661575317 0.008970972150564194
0.4961637556552887 0.5571705102920532 -0.10967981815338135
0.4747164249420166 0.5353136658668518 -0.08223932236433029
0.49604663252830505 0.5307021141052246 -0.08848913013935089
0.43862685561180115 0.5838660001754761 -0.0643516257405281
0.503694474697113 0.8860189914703369 -0.013568789698183537
0.5030232667922974 0.8562991619110107 -0.016218649223446846
0.45925647020339966 0.8524646162986755 -0.00932171382009983
0.36057499051094055 0.7700231075286865 0.04160730540752411
0.3840945363044739 0.6407609581947327 -0.016071416437625885
0.3872246742248535 0.8045803904533386 0.027555258944630623
0.32569408416748047 0.6365940570831299 -0.00527291651815176
0.35967952013015747 0.6639966368675232 -0.005364658311009407
0.30487608909606934 0.6748744249343872 0.019858751446008682
0.45520275831222534 0.880945086479187 -0.005688231438398361
0.4223942756652832 0.5949786901473999 -0.04668508470058441
0.3475770354270935 0.7946324944496155 0.0606670044362545
0.3800765573978424 0.827687680721283 0.04314633831381798
0.3359454274177551 0.7335862517356873 0.04021346941590309
0.2500642240047455 0.6893181800842285 0.10222138464450836
0.3083854913711548 0.7450699806213379 0.05984744802117348
0.2445109486579895 0.7125602960586548 0.15639923512935638
0.33867448568344116 0.6893766522407532 0.012425827793776989
0.4413926601409912 0.5609412789344788 -0.047497767955064774
0.440981924533844 0.6379135847091675 -0.09898337721824646
0.42399027943611145 0.6389845609664917 -0.0726727619767189
0.45238736271858215 0.6225293278694153 -0.11635305732488632
0.4281102418899536 0.44514867663383484 -0.008627024479210377
0.3952747583389282 0.42765358090400696 -0.011660609394311905
0.3648862838745117 0.4228816032409668 -0.00894807931035757
0.33808034658432007 0.42643970251083374 0.0015068742213770747
0.3176611065864563 0.43701452016830444 0.016016067937016487
0.2995097041130066 0.4792887568473816 0.052042677998542786
0.22548669576644897 0.546439528465271 0.15972170233726501
0.31637752056121826 0.5140323042869568 0.03393502160906792
0.34041714668273926 0.5222403407096863 0.01978663168847561
0.3703472316265106 0.5229597687721252 0.009638803079724312
0.39735251665115356 0.51878422498703 0.003927718382328749
0.41806355118751526 0.5128567218780518 0.0025791889056563377
0.43294477462768555 0.5068316459655762 0.0003949593228753656
0.22917357087135315 0.5435212254524231 0.24429866671562195
0.4229590892791748 0.6431620121002197 -0.06081874296069145
0.4570539891719818 0.5701910257339478 -0.08381824940443039
0.4590475559234619 0.6422277688980103 -0.11754294484853745
0.47146645188331604 0.653960108757019 -0.10758277028799057
0.4585466980934143 0.6456491947174072 -0.10591687262058258
0.42790722846984863 0.649101197719574 -0.05269891768693924
0.47659873962402344 0.6567327976226807 -0.1138540580868721
0.4788254499435425 0.6606590151786804 -0.08562199771404266
0.43275630474090576 0.48947280645370483 0.011557061225175858
0.4451572895050049 0.49480724334716797 -0.0033610817044973373
0.45400866866111755 0.49956458806991577 -0.02061895839869976
0.3334736227989197 0.4706093668937683 0.027446892112493515
0.31833547353744507 0.45805761218070984 0.028568876907229424
0.5166759490966797 0.560045063495636 -0.10228781402111053
0.6695170998573303 0.47820645570755005 0.019802993163466454
0.5227858424186707 0.6563342809677124 -0.0868472158908844
0.745250940322876 0.3770013451576233 0.12107034772634506
0.6047539710998535 0.5029069781303406 -0.0018061406444758177
0.6281504034996033 0.5031888484954834 -0.0006272554164752364
0.6505566239356995 0.5011366009712219 0.005044685676693916
0.6799894571304321 0.48648008704185486 0.023133395239710808
0.5844192504882812 0.4993966221809387 0.0017520063556730747
0.6327172517776489 0.4292644262313843 -0.010424460284411907
0.6056900024414062 0.4346632957458496 -0.009285956621170044
0.6584609746932983 0.4317541718482971 -0.00354653294198215
0.6758753657341003 0.4413900375366211 0.0051027508452534676
0.7000757455825806 0.500892698764801 0.03466528281569481
0.5954890847206116 0.8598510026931763 0.01451942976564169
0.6780529022216797 0.4711180329322815 0.027142830193042755
0.7680285573005676 0.4900783598423004 0.13495200872421265
0.7229975461959839 0.4823843836784363 0.05674116313457489
0.6287546753883362 0.6074736714363098 -0.023608364164829254
0.538408100605011 0.7208799719810486 -0.05913275107741356
0.5347301363945007 0.7389422655105591 -0.04691501706838608
0.568086564540863 0.723283052444458 -0.04365359619259834
0.5872945785522461 0.7248565554618835 -0.019824812188744545
0.5598304271697998 0.7355548739433289 -0.034697700291872025
0.5783628225326538 0.7329330444335938 -0.013406479731202126
0.6290872097015381 0.7563983798027039 0.025013556703925133
0.5175987482070923 0.646353542804718 -0.12969771027565002
0.5197435021400452 0.6203683018684387 -0.13776837289333344
0.7018263936042786 0.41840142011642456 0.008416539989411831
0.5715076923370361 0.5490434765815735 -0.026024771854281425
0.5802262425422668 0.6284810900688171 -0.07341006398200989
0.5820972919464111 0.6137285828590393 -0.06657875329256058
0.7047324180603027 0.5985078811645508 0.005362058058381081
0.5183769464492798 0.5877314209938049 -0.12479843199253082
0.6438032984733582 0.3930818736553192 -0.02912725694477558
0.6775631904602051 0.4001966118812561 -0.012097181752324104
0.7199965119361877 0.33385056257247925 0.07641948014497757
0.5420631170272827 0.42591825127601624 -0.04657324403524399
0.5833467245101929 0.4480586647987366 -0.001997128827497363
0.6499426960945129 0.7244666218757629 0.026646867394447327
0.758486270904541 0.7329257726669312 0.2030419558286667
0.5622189044952393 0.64443439245224 -0.06352066248655319
0.5415451526641846 0.6527312397956848 -0.06436154246330261
0.6146570444107056 0.7266085743904114 0.02836606837809086
0.6081718802452087 0.7284979820251465 0.02285277470946312
0.6871702671051025 0.38360345363616943 -0.0023293085396289825
0.5836015343666077 0.636396586894989 -0.05997764691710472
0.599794328212738 0.3998108506202698 -0.041190262883901596
0.6010139584541321 0.37906962633132935 -0.047267984598875046
0.6268473863601685 0.27819371223449707 -0.010403413325548172
0.7052105665206909 0.36156535148620605 0.03193415328860283
0.6131870150566101 0.3304763436317444 -0.030252961441874504
0.7134007215499878 0.407268762588501 0.02678288146853447
0.7320086359977722 0.39576131105422974 0.0718068778514862
0.5373556017875671 0.7308161854743958 -0.05489481985569
0.564336895942688 0.7295693159103394 -0.03926995024085045
0.5833278894424438 0.7286790013313293 -0.01804434508085251
0.5570962429046631 0.6481741666793823 -0.05793236196041107
0.6112808585166931 0.727645218372345 0.025577129796147346
0.5991637110710144 0.7379860281944275 0.013076274655759335
0.6049826145172119 0.7292935848236084 0.022348349913954735
0.5472955107688904 0.6422781348228455 -0.09655886888504028
0.5739018321037292 0.7364357709884644 -0.010639871470630169
0.5552626252174377 0.7403491139411926 -0.02645108290016651
0.5318880677223206 0.7445900440216064 -0.03822370991110802
0.5415624380111694 0.8273857831954956 -0.018001459538936615
0.5393988490104675 0.7878278493881226 -0.03487269952893257
0.5380803942680359 0.7732175588607788 -0.03641997277736664
0.5352713465690613 0.7580716609954834 -0.030126430094242096
0.5317077040672302 0.7451622486114502 -0.02550210803747177
0.5733219981193542 0.7368598580360413 -0.0008207526989281178
0.5796740055084229 0.7423440217971802 -0.004804094322025776
0.5859174728393555 0.7491281032562256 -0.007884042337536812
0.5906741619110107 0.7563705444335938 -0.003256287658587098
0.6187935471534729 0.6909882426261902 -0.016069447621703148
0.7776025533676147 0.6010298728942871 0.23018550872802734
0.5873486995697021 0.7336461544036865 0.014300684444606304
0.5935362577438354 0.7357872724533081 0.012160198763012886
0.5339834690093994 0.6616945266723633 -0.06481881439685822
0.5775880217552185 0.6488193869590759 -0.04181523621082306
0.5376203060150146 0.6574691534042358 -0.06522993743419647
0.5985933542251587 0.5599715113639832 -0.018639180809259415
0.6414853930473328 0.5728388428688049 -0.012934568338096142
0.588241696357727 0.6226956248283386 -0.052818600088357925
0.6827954053878784 0.30006900429725647 0.030475668609142303
0.6673316955566406 0.3387535512447357 -0.0015007921028882265
0.6488939523696899 0.3730672597885132 -0.0266303438693285
0.6070918440818787 0.7851403951644897 0.011559227481484413
0.5455954074859619 0.39164048433303833 -0.05661291629076004
0.5573859214782715 0.3303588032722473 -0.04551750421524048
0.5656378269195557 0.26850059628486633 -0.03289550170302391
0.6695374250411987 0.4960147738456726 0.014339557848870754
0.727150559425354 0.5161454677581787 0.047413960099220276
0.5707365274429321 0.49500858783721924 0.0050954073667526245
0.6976925134658813 0.4521985650062561 0.02341107279062271
0.5531315803527832 0.535412073135376 -0.0345795638859272
0.5623612403869629 0.624137818813324 -0.09675440192222595
0.7544056177139282 0.5380446314811707 0.07291841506958008
0.7136737108230591 0.5337144136428833 0.027308987453579903
0.684711754322052 0.5443449020385742 0.006983199622482061
0.6389011740684509 0.5442641377449036 -0.002426552353426814
0.6043354868888855 0.5370534062385559 -0.006928429938852787
0.5780518651008606 0.5279744267463684 -0.012572341598570347
0.5190496444702148 0.5066689848899841 -0.06042998284101486
0.7591790556907654 0.5892919301986694 0.06836463510990143
0.7137761116027832 0.4482938051223755 0.033008161932229996
0.510493814945221 0.6584358811378479 -0.11779926717281342
0.5723679065704346 0.5743302702903748 -0.03647014871239662
0.7723973989486694 0.484079509973526 0.2080783247947693
0.5576186776161194 0.5166164040565491 -0.016091691330075264
0.5920974612236023 0.6219193935394287 -0.028710348531603813
0.6876040697097778 0.47144952416419983 0.031169405207037926
0.5639082193374634 0.6057319045066833 -0.08813964575529099
0.7730644941329956 0.665297269821167 0.22228819131851196
0.5701583027839661 0.4867788553237915 0.011014331132173538
0.5407403707504272 0.5945791602134705 -0.11112267524003983
0.7041126489639282 0.7953000068664551 0.09485233575105667
0.7006888389587402 0.8265625238418579 0.1306886374950409
0.7806004285812378 0.5984326004981995 0.15042348206043243
0.7391733527183533 0.7609823942184448 0.11734332144260406
0.750393807888031 0.439156711101532 0.10969823598861694
0.5976491570472717 0.8854495882987976 0.026818156242370605
0.5080851316452026 0.6624491214752197 -0.08588144183158875
0.5966650247573853 0.5894003510475159 -0.028047839179635048
0.743167519569397 0.4858001470565796 0.0790424793958664
0.6469184756278992 0.48649314045906067 0.0070413765497505665
0.6271661520004272 0.488858163356781 0.0020437058992683887
0.6041067838668823 0.7403393387794495 0.016768231987953186
0.7612653374671936 0.6424860954284668 0.07870814949274063
0.5541049242019653 0.9201745986938477 0.02924850583076477
0.6262611746788025 0.8839558362960815 0.0759400874376297
0.6596041321754456 0.8603671193122864 0.10116690397262573
0.6077473759651184 0.4887951910495758 0.0017255074344575405
0.588919997215271 0.4876686632633209 0.005529321730136871
0.5764200091362 0.4877864718437195 0.010643857531249523
0.7284624576568604 0.44235190749168396 0.055323585867881775
0.591428816318512 0.4679277241230011 0.0020992280915379524
0.6112412810325623 0.45858410000801086 -0.0021624797955155373
0.6312941312789917 0.45497047901153564 -0.0018634743755683303
0.651862382888794 0.4569016098976135 0.003030315740033984
0.6649519801139832 0.46239519119262695 0.009909076616168022
0.7617290616035461 0.4245699346065521 0.16927532851696014
0.66021329164505 0.48262786865234375 0.013760100118815899
0.5911869406700134 0.6812108159065247 -0.035706520080566406
0.5610262751579285 0.6422080993652344 -0.07245674729347229
0.5376912951469421 0.6794209480285645 -0.05994337424635887
0.6652947068214417 0.8294105529785156 0.07742676883935928
0.6322570443153381 0.857316792011261 0.054132089018821716
0.5545322895050049 0.9050240516662598 0.0036931438371539116
0.7327883243560791 0.7872738838195801 0.16793322563171387
0.5769377946853638 0.4795316755771637 0.007448190823197365
0.5359795093536377 0.5460658669471741 -0.06720426678657532
0.5927404165267944 0.9051376581192017 0.047964032739400864
0.7775799036026001 0.6571222543716431 0.1494666486978531
0.554974377155304 0.7408967614173889 -0.014550338499248028
0.5608718991279602 0.7505975365638733 -0.018821675330400467
0.5656735897064209 0.7621335983276367 -0.02276516892015934
0.5690662860870361 0.7750558257102966 -0.019392723217606544
0.5790234804153442 0.8103289604187012 -0.004680464044213295
0.5928428173065186 0.7305150032043457 0.006246198900043964
0.5977376103401184 0.7279757261276245 0.006719479337334633
0.6017494797706604 0.7255830764770508 0.005795474164187908
0.6404849290847778 0.7045398950576782 0.006539791356772184
0.7309898734092712 0.6556198000907898 0.0337301567196846
0.5354022979736328 0.5197418928146362 -0.04571724683046341
0.548931360244751 0.468023419380188 -0.0054341708309948444
0.5650027394294739 0.470386266708374 0.0035748700611293316
0.5876818895339966 0.7332664728164673 0.007745333947241306
0.7327714562416077 0.7200381755828857 0.0736553743481636
0.5261003375053406 0.4686170220375061 -0.03675701841711998
0.5882670879364014 0.8333441019058228 0.005443723872303963
0.5178204774856567 0.5349203944206238 -0.08343293517827988
0.5563220977783203 0.5832722783088684 -0.06707645207643509
0.5471011400222778 0.8528150320053101 -0.011015523225069046
0.6433628797531128 0.7708409428596497 0.03550306335091591
0.6134269833564758 0.6398724317550659 -0.020685067400336266
0.6182546615600586 0.805397093296051 0.022589970380067825
0.6727560758590698 0.6354097127914429 -0.012701572850346565
0.6387308239936829 0.6632706522941589 -0.011036071926355362
0.6959115862846375 0.6741223931312561 0.011261421255767345
0.5523987412452698 0.8816623687744141 -0.007950828410685062
0.5737254023551941 0.594036340713501 -0.05009593814611435
0.6597708463668823 0.7960414886474609 0.05355656147003174
0.6280863881111145 0.8292237520217896 0.0377056784927845
0.6664420366287231 0.734061598777771 0.03296622261404991
0.7560575604438782 0.6884168386459351 0.09000317752361298
0.6970996856689453 0.7456262111663818 0.051103319972753525
0.7651757001876831 0.7120761275291443 0.14298619329929352
0.6610894799232483 0.6889517307281494 0.005854357965290546
0.5534640550613403 0.5602712631225586 -0.050515495240688324
0.554507851600647 0.6374176740646362 -0.10157420486211777
0.5722336173057556 0.6384406685829163 -0.07563699036836624
0.5417103171348572 0.6221908926963806 -0.1182001605629921
0.5653852224349976 0.44315239787101746 -0.0128600113093853
0.6027364730834961 0.4224921464920044 -0.017842065542936325
0.6369976997375488 0.41598615050315857 -0.01707821898162365
0.6660162806510925 0.41964372992515564 -0.008328952826559544
0.6867308616638184 0.43140459060668945 0.004836102016270161
0.702594518661499 0.477206289768219 0.04033670574426651
0.7770709991455078 0.5437403917312622 0.14395108819007874
0.6887670755386353 0.5119389295578003 0.02323729544878006
0.6651038527488708 0.5202856659889221 0.010533853434026241
0.633811891078949 0.522144079208374 0.0020347435493022203
0.6036497354507446 0.5188259482383728 -0.0020693473052233458
0.5797553658485413 0.5131722688674927 -0.0019252027850598097
0.5627835988998413 0.5067248344421387 -0.0034156623296439648
0.7757881879806519 0.5413075685501099 0.2267894148826599
0.5732940435409546 0.642486035823822 -0.06367386877536774
0.536613404750824 0.5697005987167358 -0.08596853911876678
0.5357077717781067 0.6419461965560913 -0.11917287111282349
0.5239501595497131 0.653772234916687 -0.10852271318435669
0.5368736982345581 0.645417332649231 -0.10757308453321457
0.5683935880661011 0.6483743786811829 -0.055015549063682556
0.5186631083488464 0.6565179824829102 -0.11463918536901474
0.5165939927101135 0.6603023409843445 -0.08627134561538696
0.561467707157135 0.48797935247421265 0.007616870570927858
0.5485675930976868 0.49412864446640015 -0.00642365962266922
0.5407735109329224 0.4986724257469177 -0.02304023504257202
0.6724749207496643 0.4670965373516083 0.017312664538621902
0.6866148710250854 0.45410770177841187 0.017867133021354675
0.38212013244628906 0.47580593824386597 0.016044504940509796
0.40762364864349365 0.47654807567596436 0.016044504940509796
0.3818894028663635 0.45422181487083435 0.016044504940509796
0.35643112659454346 0.4750280976295471 0.016044504940509796
0.3821136951446533 0.49730533361434937 0.016044504940509796
0.6316606998443604 0.47097212076187134 0.008404846303164959
0.6538354158401489 0.46911704540252686 0.008404846303164959
0.6294730305671692 0.4502449035644531 0.008404846303164959
0.6096611618995667 0.47265857458114624 0.008404846303164959
0.6341095566749573 0.491493821144104 0.008404846303164959
