ply
format ascii 1.0
element vertex 478
property float x
property float y
property float z
end_header
0.5286444425582886 0.6985247135162354 -0.05666782334446907
0.5693280696868896 0.6310980319976807 -0.1342410445213318
0.5494016408920288 0.649889349937439 -0.06878674030303955
0.5338962078094482 0.549199104309082 -0.11815813928842545
0.5709695219993591 0.6063684821128845 -0.14455276727676392
0.5645721554756165 0.5734323263168335 -0.13824589550495148
0.5409547090530396 0.4928854703903198 -0.08406122773885727
0.3259319067001343 0.4770648777484894 -0.04087570682168007
0.5334783792495728 0.4342819154262543 -0.07320014387369156
0.534099280834198 0.4032753109931946 -0.08187000453472137
0.5273676514625549 0.28147202730178833 -0.07318020612001419
0.5283893942832947 0.705305814743042 -0.05248717591166496
0.5270436406135559 0.7114664912223816 -0.04499312862753868
0.5251328945159912 0.7149881720542908 -0.034031111747026443
0.5248586535453796 0.7616974115371704 -0.015921393409371376
0.5269361734390259 0.76988685131073 -0.018600687384605408
0.5280551910400391 0.780159592628479 -0.022000394761562347
0.5279871225357056 0.7921724915504456 -0.015637611970305443
0.5292235016822815 0.8158149719238281 0.009450823999941349
0.5635980367660522 0.6428885459899902 -0.12090686708688736
0.5300424695014954 0.6418617367744446 -0.09366606175899506
0.2116105705499649 0.3799985349178314 0.025997549295425415
0.4045970141887665 0.4991685152053833 -0.04362579062581062
0.37903907895088196 0.5007687211036682 -0.04925018921494484
0.3534180223941803 0.4995076656341553 -0.04994508624076843
0.31467193365097046 0.4844437837600708 -0.039510149508714676
0.42640796303749084 0.495196133852005 -0.03474130481481552
0.3676150441169739 0.4323579668998718 -0.06749151647090912
0.3983127176761627 0.4385283589363098 -0.057962048798799515
0.3377421498298645 0.43348824977874756 -0.06590054929256439
0.31689131259918213 0.4412509799003601 -0.059209562838077545
0.2965092957019806 0.49856850504875183 -0.030083004385232925
0.4243534505367279 0.8419636487960815 0.019552215933799744
0.3150157928466797 0.4696916341781616 -0.035727668553590775
0.20448334515094757 0.4865606427192688 0.05046011880040169
0.2648693919181824 0.48140668869018555 -0.015962231904268265
0.3954223394393921 0.5971723794937134 -0.055857833474874496
0.48909080028533936 0.6950606107711792 -0.06446728855371475
0.4887644052505493 0.7102317214012146 -0.05019612982869148
0.4476433992385864 0.6993566751480103 -0.057844653725624084
0.4176073968410492 0.7034738063812256 -0.039859589189291
0.45399558544158936 0.7095875144004822 -0.04608365520834923
0.4259227514266968 0.7099363803863525 -0.029123129323124886
0.38374876976013184 0.7417715787887573 0.007101425901055336
0.5477906465530396 0.6308689713478088 -0.13724520802497864
0.5455637574195862 0.6065921187400818 -0.14770862460136414
0.28198152780532837 0.41927284002304077 -0.06788206845521927
0.44992485642433167 0.5395840406417847 -0.0546347014605999
0.4614097476005554 0.6165826320648193 -0.09634101390838623
0.45600196719169617 0.6019368767738342 -0.0905982032418251
0.31015264987945557 0.5899802446365356 -0.047570642083883286
0.5407629609107971 0.5756603479385376 -0.13835793733596802
0.3532564043998718 0.4002692997455597 -0.09177233278751373
0.31178396940231323 0.40385374426841736 -0.08412902057170868
0.2495269775390625 0.33782681822776794 -0.016826573759317398
0.4729408323764801 0.43491804599761963 -0.0809960663318634
0.42326098680496216 0.45078104734420776 -0.04348737746477127
0.36238008737564087 0.7104107737541199 -0.0018616343149915338
0.2120356410741806 0.7088426351547241 0.1520950049161911
0.47903910279273987 0.6315584778785706 -0.0797668993473053
0.5026012659072876 0.6390265226364136 -0.07262241840362549
0.37689152359962463 0.7129611372947693 0.004085525870323181
0.3834965229034424 0.7142378091812134 0.0026331781409680843
0.2968054413795471 0.3879261016845703 -0.07857957482337952
0.45393791794776917 0.6242755651473999 -0.08120054751634598
0.406607061624527 0.41047292947769165 -0.09184708446264267
0.4033728837966919 0.39090627431869507 -0.10107672214508057
0.3780865967273712 0.28592586517333984 -0.08220350742340088
0.28043249249458313 0.36430802941322327 -0.051737938076257706
0.40072473883628845 0.33443358540534973 -0.09244726598262787
0.2648102045059204 0.4088684916496277 -0.053871039301157
0.24341526627540588 0.39828792214393616 -0.015256425365805626
0.4885985553264618 0.7033941149711609 -0.05974157899618149
0.4508587419986725 0.7047527432441711 -0.0522896908223629
0.42185547947883606 0.7068167328834534 -0.03594546765089035
0.48361045122146606 0.6352202892303467 -0.07135263830423355
0.3802468180656433 0.7135617733001709 0.003637241432443261
0.39993685483932495 0.7338359355926514 -0.0014092259807512164
0.3865172266960144 0.7149559259414673 0.002822256414219737
0.5042906403541565 0.628664493560791 -0.11338207870721817
0.429336816072464 0.7119496464729309 -0.023945149034261703
0.45696043968200684 0.7123802304267883 -0.034956034272909164
0.4892347753047943 0.7138819098472595 -0.03983074799180031
0.48630422353744507 0.8136638402938843 0.0025798461865633726
0.48826292157173157 0.790086030960083 -0.023219311609864235
0.4891725778579712 0.7781766653060913 -0.02887914329767227
0.4899640679359436 0.7681325078010559 -0.025084931403398514
0.49067431688308716 0.760686993598938 -0.022068487480282784
0.43143725395202637 0.7442667484283447 -0.010453608818352222
0.4281303584575653 0.7466455698013306 -0.012693734839558601
0.42352327704429626 0.7516983151435852 -0.014406059868633747
0.4201422333717346 0.7581937909126282 -0.0099290506914258
0.40752068161964417 0.6781832575798035 -0.04013339802622795
0.17965981364250183 0.5878408551216125 0.1587052196264267
0.5572396516799927 0.6475509405136108 -0.08796511590480804
0.410102516412735 0.7325941324234009 -0.0008797100745141506
0.40519991517066956 0.7324429154396057 -0.001774806180037558
0.511211633682251 0.6476953029632568 -0.07054019719362259
0.4577377438545227 0.6363246440887451 -0.05617017671465874
0.507384717464447 0.6435737609863281 -0.0725431889295578
0.420887291431427 0.5509078502655029 -0.052002936601638794
0.37743887305259705 0.5645900964736938 -0.05436694994568825
0.4464322030544281 0.6105834245681763 -0.07624922692775726
0.3036782741546631 0.30537816882133484 -0.05470127612352371
0.3310365080833435 0.34173741936683655 -0.07646951079368591
0.3446645736694336 0.38119959831237793 -0.09345017373561859
0.4106862246990204 0.7707496285438538 0.0041565801948308945
0.4664507806301117 0.40483757853507996 -0.09541875123977661
0.464905709028244 0.3359507620334625 -0.09260408580303192
0.450349360704422 0.2791935205459595 -0.08764005452394485
0.3291736841201782 0.49408769607543945 -0.045744773000478745
0.2698862552642822 0.5141165256500244 -0.021428830921649933
0.4409521818161011 0.4908081591129303 -0.0296635702252388
0.290404349565506 0.45130616426467896 -0.045896682888269424
0.4711938798427582 0.526292085647583 -0.06064116582274437
0.48709923028945923 0.6112291216850281 -0.1169290617108345
0.23855270445346832 0.5317057371139526 -0.0016057968605309725
0.2911890745162964 0.5303974747657776 -0.036545589566230774
0.3282439112663269 0.5396034121513367 -0.04765329882502556
0.3791840076446533 0.5373455882072449 -0.046753011643886566
0.4156043529510498 0.5293775796890259 -0.04303860291838646
0.4430674910545349 0.52021723985672 -0.043548330664634705
0.515198290348053 0.4981591999530792 -0.08157823234796524
0.2402900755405426 0.5799921751022339 -0.0014600582653656602
0.2710563540458679 0.4484173357486725 -0.042693112045526505
0.550237774848938 0.6425933837890625 -0.12358555942773819
0.45511144399642944 0.5635714530944824 -0.061996590346097946
0.17692068219184875 0.4805731773376465 0.12199516594409943
0.46464288234710693 0.5094611048698425 -0.04386803135275841
0.4379500150680542 0.6096301674842834 -0.05013049393892288
0.30254361033439636 0.46933645009994507 -0.033568255603313446
0.48090553283691406 0.5933853983879089 -0.10942944139242172
0.1895824372768402 0.6461945176124573 0.16056473553180695
0.4391745626926422 0.4832949638366699 -0.025734923779964447
0.5117757320404053 0.5825244188308716 -0.12899969518184662
0.29507026076316833 0.774480938911438 0.06417855620384216
0.28708457946777344 0.8025985956192017 0.10517065227031708
0.20101961493492126 0.587104082107544 0.07619801163673401
0.255726158618927 0.7391061782836914 0.07450234144926071
0.22201918065547943 0.4391214847564697 0.02267323061823845
0.4203985035419464 0.8671059608459473 0.03260417282581329
0.5468560457229614 0.6468688249588013 -0.08884215354919434
0.4281770884990692 0.5786039233207703 -0.055989447981119156
0.24066950380802155 0.4858089089393616 0.0008153294329531491
0.35466715693473816 0.4861244559288025 -0.04785817861557007
0.3777458369731903 0.4876839518547058 -0.048024699091911316
0.39563190937042236 0.7362198829650879 0.0007308466592803597
0.2394922375679016 0.6289800405502319 0.016227738931775093
0.4676720201969147 0.8995668888092041 0.052434470504522324
0.37718629837036133 0.8642061352729797 0.0724407285451889
0.33582600951194763 0.8389025330543518 0.08693704754114151
0.531463623046875 0.33985069394111633 -0.07909111678600311
0.5195709466934204 0.9004061222076416 0.062431834638118744
0.39902496337890625 0.4864714741706848 -0.04309143126010895
0.41885504126548767 0.4846421778202057 -0.035101268440485
0.4324672222137451 0.48428142070770264 -0.027794960886240005
0.2503620386123657 0.4437430500984192 -0.0250985287129879
0.4140784442424774 0.4684840738773346 -0.04162495955824852
0.39159727096557617 0.4608849287033081 -0.0517144650220871
0.3699633777141571 0.45766812562942505 -0.05688488483428955
0.3471924364566803 0.45860132575035095 -0.05633031949400902
0.3318759500980377 0.4624251425266266 -0.05100259929895401
0.18926498293876648 0.42512309551239014 0.07709485292434692
0.33795517683029175 0.482084184885025 -0.04483422264456749
0.5448457598686218 0.6659101247787476 -0.058648522943258286
0.44284144043922424 0.6683917045593262 -0.053545430302619934
0.48273324966430664 0.6292362809181213 -0.08918807655572891
0.5039075016975403 0.6664376854896545 -0.06564929336309433
0.5335394144058228 0.46234750747680664 -0.06988867372274399
0.3369142413139343 0.8098479509353638 0.059164129197597504
0.3766147494316101 0.8388555645942688 0.04788556694984436
0.4712739586830139 0.8846408128738403 0.0236553642898798
0.24672028422355652 0.7616363763809204 0.12832455337047577
0.4312925934791565 0.47762373089790344 -0.03265634551644325
0.5013463497161865 0.536019504070282 -0.08822460472583771
0.5251428484916687 0.8863240480422974 0.03410840779542923
0.42100879549980164 0.8860381841659546 0.05659005418419838
0.20742028951644897 0.6407599449157715 0.08383719623088837
0.45950233936309814 0.7542979717254639 -0.018776018172502518
0.45646730065345764 0.7594596147537231 -0.021568845957517624
0.45370206236839294 0.7675904631614685 -0.023685257881879807
0.4522201418876648 0.7782138586044312 -0.01843125931918621
0.4439355134963989 0.7963255047798157 -0.0004821430193260312
0.4009215235710144 0.7113029360771179 -0.013502242974936962
0.3968273401260376 0.7094970345497131 -0.01567084528505802
0.3931570053100586 0.7074661254882812 -0.018421120941638947
0.37879207730293274 0.6912800073623657 -0.023134054616093636
0.28084880113601685 0.6427227258682251 -0.018809136003255844
0.49371641874313354 0.5107765197753906 -0.06942817568778992
0.46417006850242615 0.4680890440940857 -0.03687572106719017
0.4447537064552307 0.46978652477264404 -0.033703576773405075
0.4049055278301239 0.71254962682724 -0.009627817198634148
0.2707252502441406 0.7025246620178223 0.028108393773436546
0.4944131374359131 0.4681192636489868 -0.06234321743249893
0.4323548376560211 0.8165706396102905 0.011794326826930046
0.5562707781791687 0.5460366010665894 -0.11905563622713089
0.5248309373855591 0.5252079963684082 -0.10136894136667252
0.5486964583396912 0.5207829475402832 -0.10061170905828476
0.48128393292427063 0.571702241897583 -0.08822225034236908
0.5281473398208618 0.8641279339790344 0.019344136118888855
0.5283522009849548 0.8375085592269897 0.014690538868308067
0.4802551865577698 0.8353524208068848 0.00936141423881054
0.3661338984966278 0.7545932531356812 0.014996020123362541
0.41321200132369995 0.6276909708976746 -0.04608999192714691
0.3955244719982147 0.788830578327179 0.01614214852452278
0.3495529592037201 0.624448835849762 -0.050690993666648865
0.38436126708984375 0.6505007147789001 -0.040794432163238525
0.32076507806777954 0.6610944271087646 -0.02933599054813385
0.47508788108825684 0.8620278835296631 0.010701815597712994
0.4586111307144165 0.5822845697402954 -0.07321763038635254
0.3463250696659088 0.7788733243942261 0.032372646033763885
0.3844255805015564 0.8119662404060364 0.031002560630440712
0.34385913610458374 0.7185952067375183 0.0004999643424525857
0.24308426678180695 0.6713240742683411 0.03509201854467392
0.3098585605621338 0.7291572093963623 0.015243248082697392
0.22341571748256683 0.6914352774620056 0.08669175952672958
0.35607385635375977 0.6753930449485779 -0.028978893533349037
0.4783470332622528 0.5497270226478577 -0.07391965389251709
0.4971592426300049 0.6241026520729065 -0.11993270367383957
0.4707517921924591 0.626011312007904 -0.09497810900211334
0.5166504383087158 0.6087969541549683 -0.13530437648296356
0.44442811608314514 0.4479462504386902 -0.05151887238025665
0.4022618234157562 0.4286329746246338 -0.06728281825780869
0.36286452412605286 0.42053377628326416 -0.07495955377817154
0.3287127912044525 0.42222821712493896 -0.07337635010480881
0.3030162453651428 0.43193063139915466 -0.06373908370733261
0.2870413064956665 0.47486382722854614 -0.027691977098584175
0.19967906177043915 0.5364379286766052 0.06277920305728912
0.3122997283935547 0.5088030099868774 -0.03743453696370125
0.34249064326286316 0.5167820453643799 -0.04374198615550995
0.3779652714729309 0.5175478458404541 -0.044404782354831696
0.4103143811225891 0.5133880376815796 -0.04001704603433609
0.4355425536632538 0.5072571635246277 -0.03476639837026596
0.45361587405204773 0.501012921333313 -0.032835863530635834
0.17631027102470398 0.5335591435432434 0.14664292335510254
0.4663625955581665 0.6300656199455261 -0.08189503103494644
0.5084877610206604 0.5586099028587341 -0.1054144948720932
0.5242456197738647 0.6279433965682983 -0.13185115158557892
0.5326729416847229 0.6394756436347961 -0.11633642017841339
0.5188195109367371 0.6315630078315735 -0.1202080175280571
0.4699355363845825 0.6357536911964417 -0.06939520686864853
0.5405613780021667 0.6415351033210754 -0.12126725167036057
0.5374119281768799 0.6455362439155579 -0.09119334071874619
0.4503215253353119 0.4844258725643158 -0.02549929730594158
0.46790993213653564 0.4897320866584778 -0.03434063121676445
0.4808124303817749 0.4934959411621094 -0.04855411499738693
0.32265985012054443 0.46606969833374023 -0.04467340186238289
0.3033352792263031 0.4527873992919922 -0.04730495437979698
0.5732023119926453 0.5488019585609436 -0.10267039388418198
0.6587541103363037 0.480408251285553 0.07117211073637009
0.5780466198921204 0.6397685408592224 -0.08148148655891418
0.6846113204956055 0.3943933844566345 0.19810183346271515
0.6038227081298828 0.4974031150341034 0.028554124757647514
0.6223770380020142 0.4999620318412781 0.03745849430561066
0.6402050256729126 0.4998575747013092 0.05052946135401726
0.66261225938797 0.4865506887435913 0.07929905503988266
0.5893633961677551 0.4923187792301178 0.021914497017860413
0.6401721835136414 0.4402690827846527 0.023481078445911407
0.6174350380897522 0.4431135058403015 0.013642529956996441
0.6595559120178223 0.44293099641799927 0.03926055505871773
0.6700925230979919 0.4505147337913513 0.054343532770872116
0.6725274324417114 0.49931585788726807 0.09742945432662964
0.5971691608428955 0.8289287090301514 0.07243477553129196
0.6646976470947266 0.4738142490386963 0.08143088221549988
0.6866840720176697 0.49013853073120117 0.22425037622451782
0.6862843632698059 0.4805644154548645 0.12716706097126007
0.6377642154693604 0.5940157175064087 0.017803899943828583
0.5609910488128662 0.6912660002708435 -0.04405098408460617
0.5561838150024414 0.7066723704338074 -0.03129542991518974
0.5863224267959595 0.6907276511192322 -0.016206594184041023
0.6019628047943115 0.6922021508216858 0.01702844724059105
0.5777031779289246 0.7025319933891296 -0.00937593076378107
0.5925371050834656 0.7007182836532593 0.01957169733941555
0.6216316223144531 0.7318819165229797 0.07910934835672379
0.5863828063011169 0.6294811964035034 -0.12728621065616608
0.5901883840560913 0.6055599451065063 -0.13583257794380188
0.6927043199539185 0.42836493253707886 0.06703247874975204
0.5913491249084473 0.538841962814331 -0.006498378235846758
0.6193461418151855 0.6124518513679504 -0.05061568692326546
0.6163552403450012 0.5984637141227722 -0.04342163726687431
0.6877517700195312 0.5856044292449951 0.07310625910758972
0.5832129716873169 0.5750167369842529 -0.12316368520259857
0.6628990769386292 0.41137635707855225 0.0005903075216338038
0.683297872543335 0.41559427976608276 0.03219664469361305
0.6807824969291687 0.3550914227962494 0.13769273459911346
0.5829513669013977 0.43306779861450195 -0.05100973695516586
0.5974591374397278 0.4516940414905548 0.014671954326331615
0.6377004384994507 0.7000882029533386 0.08445464819669724
0.6427742838859558 0.6924223899841309 0.3126346170902252
0.6029561758041382 0.6274455785751343 -0.0454731211066246
0.5861090421676636 0.6368269324302673 -0.05537309870123863
0.6195263862609863 0.6993319988250732 0.07974487543106079
0.6130883693695068 0.7014599442481995 0.07000970840454102
0.6897917985916138 0.4001275897026062 0.04596555605530739
0.6161485910415649 0.61995929479599 -0.03634513169527054
0.6313720941543579 0.41591429710388184 -0.02834242396056652
0.6359980702400208 0.3980703055858612 -0.035418134182691574
0.6367478966712952 0.3000359535217285 0.005130651872605085
0.6848586797714233 0.37788087129592896 0.08622764050960541
0.6336766481399536 0.3458545506000519 -0.016742827370762825
0.698250412940979 0.4167765974998474 0.09062927961349487
0.6912990808486938 0.4094720482826233 0.14120107889175415
0.559400737285614 0.699913501739502 -0.03950049355626106
0.5823966264724731 0.6971553564071655 -0.01300621684640646
0.597667932510376 0.6965183615684509 0.016505029052495956
0.5972675085067749 0.6314333081245422 -0.04377318173646927
0.6163581013679504 0.7003544569015503 0.07405713945627213
0.6071494221687317 0.7217569351196289 0.058828677982091904
0.609886109828949 0.702675998210907 0.0684211254119873
0.5998527407646179 0.6255079507827759 -0.08229026943445206
0.5874112248420715 0.7035266757011414 0.02243284322321415
0.5727806091308594 0.7061187028884888 -0.0002742188808042556
0.5522419810295105 0.7107974290847778 -0.02029288187623024
0.5617953538894653 0.8099931478500366 0.021004073321819305
0.5602434277534485 0.7860849499702454 -0.002545238472521305
0.5589884519577026 0.773993194103241 -0.007117815315723419
0.555837869644165 0.7639620304107666 -0.0036588755901902914
0.5512781143188477 0.7566573619842529 -0.0017781445058062673
0.5857667922973633 0.7345645427703857 0.03624367341399193
0.5911839008331299 0.7368342876434326 0.03421328216791153
0.5970152020454407 0.7416102886199951 0.03390984609723091
0.6009811162948608 0.748199462890625 0.04139642044901848
0.6271529197692871 0.6715027689933777 0.02447493188083172
0.6589642763137817 0.5835874080657959 0.3362089991569519
0.5959812998771667 0.7214994430541992 0.05706826224923134
0.6018706560134888 0.7208198308944702 0.05638052895665169
0.5786959528923035 0.6459450721740723 -0.05362799018621445
0.6067652702331543 0.6319572329521179 -0.020682362839579582
0.582428514957428 0.641741156578064 -0.05595987290143967
0.6114485263824463 0.5496945977210999 0.012007610872387886
0.6448973417282104 0.5626760125160217 0.03186112269759178
0.6164416074752808 0.6068376898765564 -0.027603600174188614
0.6676698923110962 0.3231090009212494 0.07109807431697845
0.6671619415283203 0.3561440110206604 0.0342496894299984
0.6688615679740906 0.39345085620880127 0.004960962105542421
0.607463538646698 0.7618454694747925 0.0634751245379448
0.5923017263412476 0.4058254659175873 -0.06294070929288864
0.5895701050758362 0.3418927788734436 -0.05349627509713173
0.5918406248092651 0.287073016166687 -0.04388241469860077
0.6546089053153992 0.4955309331417084 0.06651853770017624
0.6854732632637024 0.5125698447227478 0.12013797461986542
0.5804967284202576 0.4873110055923462 0.020881354808807373
0.681451141834259 0.4567680358886719 0.08376452326774597
0.5788963437080383 0.5259418487548828 -0.02229253575205803
0.6128956079483032 0.6080658435821533 -0.08002154529094696
0.7007511854171753 0.5306532382965088 0.15815234184265137
0.679187536239624 0.530392587184906 0.09673938900232315
0.660953164100647 0.5404884219169617 0.06592360138893127
0.62775719165802 0.5373157858848572 0.03982418030500412
0.6024305820465088 0.5282731056213379 0.02285354770720005
0.5848416090011597 0.5191531777381897 0.006113457027822733
0.5589987635612488 0.49849867820739746 -0.06559933722019196
0.7071722745895386 0.5747674107551575 0.1575799435377121
0.6906074285507202 0.45226770639419556 0.09985985606908798
0.5741088390350342 0.641490638256073 -0.11554844677448273
0.5965486168861389 0.5621253848075867 -0.015181583352386951
0.6692384481430054 0.48647332191467285 0.3055085241794586
0.572893500328064 0.5091347694396973 -0.005475691519677639
0.6131568551063538 0.6059444546699524 -0.0019874165300279856
0.6705721616744995 0.4730305075645447 0.08924812078475952
0.6086077094078064 0.590749979019165 -0.07186632603406906
0.6535450220108032 0.635566234588623 0.33087456226348877
0.5803034901618958 0.47947221994400024 0.0269167460501194
0.5966687798500061 0.5808942317962646 -0.10188911855220795
0.6444045901298523 0.7538431286811829 0.18301765620708466
0.6243120431900024 0.7793488502502441 0.2263980358839035
0.6932034492492676 0.5813516974449158 0.24972869455814362
0.6598365306854248 0.7203813195228577 0.2143954485654831
0.6893306970596313 0.4472758173942566 0.18970100581645966
0.5950220823287964 0.8514626622200012 0.08940397202968597
0.5666635632514954 0.646192729473114 -0.08382926136255264
0.6129469871520996 0.5764731764793396 0.0015078748110681772
0.6932653188705444 0.4812313914299011 0.15828737616539001
0.6410993933677673 0.4877278208732605 0.05040881037712097
0.624512791633606 0.48824286460876465 0.03886878862977028
0.6113243103027344 0.7238398790359497 0.06494393944740295
0.7021243572235107 0.6195359826087952 0.17020183801651
0.5601218938827515 0.8897426128387451 0.0846843346953392
0.5998556613922119 0.8437163233757019 0.15188367664813995
0.6106273531913757 0.8155436515808105 0.18613065779209137
0.6083597540855408 0.48585566878318787 0.030942479148507118
0.593699038028717 0.4822922945022583 0.02819431759417057
0.5845273733139038 0.48069077730178833 0.028973551467061043
0.6965233087539673 0.4453122019767761 0.12819312512874603
0.5974211096763611 0.4673819839954376 0.023720184341073036
0.6143712997436523 0.46264785528182983 0.0243064034730196
0.6322612762451172 0.46150678396224976 0.03176286071538925
0.6485233306884766 0.46381354331970215 0.044579748064279556
0.6575686931610107 0.46795496344566345 0.05693083256483078
0.681026816368103 0.4357961416244507 0.25751352310180664
0.6518157720565796 0.48465394973754883 0.06199302896857262
0.61160808801651 0.6635425686836243 -0.004224411211907864
0.6052329540252686 0.6252256631851196 -0.05692913010716438
0.5777994394302368 0.6639986038208008 -0.044985707849264145
0.6259751915931702 0.7888761758804321 0.15612272918224335
0.6107680201530457 0.8193896412849426 0.12472914159297943
0.566687822341919 0.8755931854248047 0.05451509729027748
0.6331435441970825 0.7412075400352478 0.2725061774253845
0.5859405398368835 0.47443491220474243 0.02554432675242424
0.5771837830543518 0.535609781742096 -0.06234192103147507
0.5851668119430542 0.8698211908340454 0.11530429124832153
0.6857167482376099 0.6298351883888245 0.2505905032157898
0.571075975894928 0.7470519542694092 0.016629714518785477
0.5770076513290405 0.7520111203193665 0.015146265737712383
0.5817424654960632 0.7601223587989807 0.014773940667510033
0.5848095417022705 0.7712061405181885 0.0212539229542017
0.5895167589187622 0.7894564867019653 0.043154019862413406
0.6040266156196594 0.7003313302993774 0.04697400704026222
0.6088970899581909 0.6976312398910522 0.04999227449297905
0.612889289855957 0.6949005126953125 0.05093523859977722
0.6369035840034485 0.6829099655151367 0.05700799077749252
0.6932803392410278 0.633691668510437 0.11229614168405533
0.5684643387794495 0.5110379457473755 -0.04252053424715996
0.5715279579162598 0.4654995799064636 -0.0021975759882479906
0.5801510810852051 0.46725761890411377 0.015284808352589607
0.5988962650299072 0.7025537490844727 0.04847351834177971
0.6770342588424683 0.6879496574401855 0.16040651500225067
0.5599291324615479 0.4669743776321411 -0.04203461855649948
0.5920748710632324 0.8064208626747131 0.05856979638338089
0.56655353307724 0.5250493884086609 -0.0876239612698555
0.5944802165031433 0.5701236128807068 -0.05377443507313728
0.5642452239990234 0.8297587633132935 0.031443096697330475
0.6281183362007141 0.7418279051780701 0.09702832996845245
0.626318633556366 0.6231589317321777 0.015059956349432468
0.6110514402389526 0.7762887477874756 0.08096197247505188
0.6670575141906738 0.6189138293266296 0.043924521654844284
0.6415906548500061 0.6447217464447021 0.03579551354050636
0.6752620935440063 0.6523599624633789 0.07902328670024872
0.5683138966560364 0.8546521067619324 0.03959687426686287
0.6023589968681335 0.5801255106925964 -0.0299894567579031
0.6340699195861816 0.7617572546005249 0.12508076429367065
0.6143836975097656 0.7957436442375183 0.1024375632405281
0.6467799544334412 0.7067749500274658 0.0992664247751236
0.6896730661392212 0.6583646535873413 0.18262897431850433
0.6601555347442627 0.7137526869773865 0.12781664729118347
0.6733123064041138 0.6762166619300842 0.24555471539497375
0.6513428092002869 0.6677144169807434 0.062278591096401215
0.586090087890625 0.5488525629043579 -0.03698815032839775
0.607568085193634 0.6205050349235535 -0.08635234087705612
0.6141592264175415 0.62167888879776 -0.056297045201063156
0.6033650636672974 0.6062583923339844 -0.10834567993879318
0.5898680686950684 0.4463884234428406 -0.004189754370599985
0.6227821707725525 0.43294233083724976 0.0010550919687375426
0.6505516171455383 0.4297240376472473 0.014048092067241669
0.67070472240448 0.4328565299510956 0.03487907722592354
0.6812198162078857 0.4414439797401428 0.057757314294576645
0.6771522760391235 0.4766911268234253 0.10333240032196045
0.6919206380844116 0.5355229377746582 0.2406935840845108
0.6654564142227173 0.5099987983703613 0.08282525837421417
0.6485404968261719 0.5173078775405884 0.06103901192545891
0.6246886253356934 0.5168644189834595 0.041692350059747696
0.6019691824913025 0.5113793015480042 0.02788149006664753
0.5854943990707397 0.504680871963501 0.016340743750333786
0.574711799621582 0.49853137135505676 0.008803614415228367
0.661258339881897 0.5348217487335205 0.3298580050468445
0.6103833913803101 0.6256988048553467 -0.04391485080122948
0.585440993309021 0.5577083826065063 -0.07861972600221634
0.5979071855545044 0.6247689723968506 -0.11080504953861237
0.5821682214736938 0.6367326974868774 -0.10401450097560883
0.5938796401023865 0.6283316016197205 -0.09844870120286942
0.6034767031669617 0.631677508354187 -0.03744717314839363
0.5798895359039307 0.6395379900932312 -0.1112673431634903
0.5731151700019836 0.6438060402870178 -0.08260533958673477
0.5748814940452576 0.4810417890548706 0.018409650772809982
0.5667939186096191 0.487595796585083 -0.001564185367897153
0.5639389157295227 0.49341559410095215 -0.021458420902490616
0.6621488332748413 0.47122982144355774 0.06792062520980835
0.6743767261505127 0.45961397886276245 0.07265204191207886
0.361491322517395 0.4719941020011902 -0.04274562746286392
0.3861091434955597 0.4721643328666687 -0.04274562746286392
0.3617953956127167 0.45254993438720703 -0.04274562746286392
0.33631935715675354 0.471920371055603 -0.04274562746286392
0.3610145151615143 0.4915851056575775 -0.04274562746286392
0.620009183883667 0.4728670120239258 0.043354105204343796
0.6442386507987976 0.47350916266441345 0.043354105204343796
0.6211838722229004 0.45335477590560913 0.043354105204343796
0.5952932834625244 0.4721687436103821 0.043354105204343796
0.6188637018203735 0.49217522144317627 0.043354105204343796
