ply
format ascii 1.0
element vertex 478
property float x
property float y
property float z
end_header
0.5202323794364929 0.6879938244819641 -0.0635768249630928
0.517559826374054 0.6264351606369019 -0.13707709312438965
0.5138591527938843 0.6453939080238342 -0.07301472127437592
0.4945301413536072 0.5473583936691284 -0.10920290648937225
0.5178113579750061 0.6016609072685242 -0.14622682332992554
0.5164623260498047 0.569767415523529 -0.13784584403038025
0.5116682052612305 0.4924040138721466 -0.07599898427724838
0.33608517050743103 0.48690223693847656 0.009747989475727081
0.5098451375961304 0.4318040609359741 -0.0613960362970829
0.5095857381820679 0.39884036779403687 -0.06780960410833359
0.5073957443237305 0.2734288275241852 -0.052116505801677704
0.5195002555847168 0.6964482665061951 -0.06032467260956764
0.5182815194129944 0.7051277756690979 -0.05370064824819565
0.5171236991882324 0.7108644247055054 -0.04480108246207237
0.5136830806732178 0.7523237466812134 -0.023793792352080345
0.5143670439720154 0.7623175382614136 -0.028588661924004555
0.5142530202865601 0.7745156288146973 -0.03282426297664642
0.5135551691055298 0.7879117131233215 -0.026945577934384346
0.5137867331504822 0.8189055323600769 -0.003994847647845745
0.5164790749549866 0.6386165022850037 -0.12417881190776825
0.49215954542160034 0.6365692019462585 -0.09195362776517868
0.22899073362350464 0.3931654691696167 0.11022228002548218
0.40351399779319763 0.505813479423523 -0.010232600383460522
0.3790310323238373 0.5077697038650513 -0.0098609309643507
0.35570430755615234 0.5062342286109924 -0.004737262614071369
0.32514768838882446 0.4940760135650635 0.013521729968488216
0.42501914501190186 0.5004525184631348 -0.006215590052306652
0.36653098464012146 0.4361768960952759 -0.02253570593893528
0.39515939354896545 0.43862152099609375 -0.02030608244240284
0.34027811884880066 0.4414356052875519 -0.015639852732419968
0.323419988155365 0.45200955867767334 -0.006352901924401522
0.3030380606651306 0.5063096284866333 0.02562764100730419
0.4203204810619354 0.8447446823120117 0.024800250306725502
0.32713568210601807 0.48074018955230713 0.017351975664496422
0.22115787863731384 0.49978435039520264 0.1273505538702011
0.274058073759079 0.48833703994750977 0.04741315171122551
0.3795011341571808 0.5997291803359985 -0.028989803045988083
0.479610800743103 0.6840778589248657 -0.06276994943618774
0.4790799915790558 0.7038331031799316 -0.050998106598854065
0.43753162026405334 0.6897655129432678 -0.047636039555072784
0.40746957063674927 0.6950181722640991 -0.022989001125097275
0.44452041387557983 0.7032371759414673 -0.038968659937381744
0.4167912006378174 0.70368492603302 -0.0165459793061018
0.38319557905197144 0.7426568269729614 0.028179602697491646
0.49751827120780945 0.6260877251625061 -0.13603967428207397
0.49510514736175537 0.6020895838737488 -0.14462678134441376
0.2874065637588501 0.4291107654571533 -0.0038785524666309357
0.4351010024547577 0.5436059832572937 -0.03236385062336922
0.43407750129699707 0.6142140030860901 -0.0805962085723877
0.43132638931274414 0.6010339260101318 -0.07365250587463379
0.30028435587882996 0.594755232334137 -0.002055618679150939
0.4948912560939789 0.5724723935127258 -0.13190396130084991
0.3451650142669678 0.40194422006607056 -0.04199741780757904
0.31118977069854736 0.41119658946990967 -0.025443922728300095
0.25651663541793823 0.34846657514572144 0.06228264421224594
0.4545997977256775 0.4220804274082184 -0.057142969220876694
0.4200802147388458 0.4496317505836487 -0.01169530302286148
0.3621770441532135 0.7094985246658325 0.02634897083044052
0.24923694133758545 0.7276189923286438 0.20804063975811005
0.45209088921546936 0.6280462145805359 -0.06931357085704803
0.47261518239974976 0.6347936987876892 -0.0688745379447937
0.36795103549957275 0.7064239978790283 0.02828105539083481
0.37450897693634033 0.707981526851654 0.023336106911301613
0.2971267104148865 0.39622005820274353 -0.015891166403889656
0.4301906228065491 0.6220139265060425 -0.0662815123796463
0.3914329409599304 0.40305787324905396 -0.05344743654131889
0.38716012239456177 0.38492217659950256 -0.060483161360025406
0.36273983120918274 0.2876390218734741 -0.027955275028944016
0.2787882685661316 0.3736096918582916 0.018032075837254524
0.38097935914993286 0.3360070288181305 -0.045195240527391434
0.2716473937034607 0.41777488589286804 0.014639656990766525
0.2502842843532562 0.40930116176605225 0.06012589484453201
0.4786908030509949 0.6945048570632935 -0.05893143638968468
0.4408265948295593 0.6966924667358398 -0.043474335223436356
0.4120665490627289 0.699363648891449 -0.02129930444061756
0.4569234251976013 0.6314353942871094 -0.06302429735660553
0.37125521898269653 0.7071722745895386 0.025786787271499634
0.38808757066726685 0.7296416163444519 0.015887968242168427
0.3776193857192993 0.7089396715164185 0.022950712591409683
0.46784836053848267 0.6242523193359375 -0.10346172749996185
0.42083024978637695 0.7068943381309509 -0.013681730255484581
0.4480981230735779 0.7077227234840393 -0.030506286770105362
0.48022282123565674 0.709336519241333 -0.04230276122689247
0.47295233607292175 0.816291093826294 -0.0030991483945399523
0.47247907519340515 0.7860184907913208 -0.02558763138949871
0.4740186035633087 0.772740364074707 -0.030014686286449432
0.47613734006881714 0.7608093619346619 -0.025537870824337006
0.47867119312286377 0.7518309950828552 -0.02110365778207779
0.4201289117336273 0.7390839457511902 0.002407402265816927
0.41539400815963745 0.7424163818359375 -0.0010540857911109924
0.40933161973953247 0.7483953237533569 -0.003070530015975237
0.40519723296165466 0.7555685043334961 0.0022863696794956923
0.3931235373020172 0.6753509044647217 -0.018748946487903595
0.21765732765197754 0.6069791913032532 0.2317470759153366
0.5152387619018555 0.6428462862968445 -0.09153558313846588
0.4002028703689575 0.7278133034706116 0.016725018620491028
0.394006609916687 0.7280312776565552 0.014972313307225704
0.4797248840332031 0.6428420543670654 -0.06802322715520859
0.4359826445579529 0.6333940625190735 -0.045566003769636154
0.4764457941055298 0.6389257311820984 -0.06942890584468842
0.40659835934638977 0.5552566051483154 -0.025158535689115524
0.3631334900856018 0.5686042308807373 -0.01997026987373829
0.4246697723865509 0.609993577003479 -0.05915798991918564
0.2992279529571533 0.3122889995574951 0.013875983655452728
0.3204677700996399 0.34798958897590637 -0.016271842643618584
0.3361135721206665 0.3843592405319214 -0.04017089307308197
0.4053633213043213 0.7726141214370728 0.018316805362701416
0.4466899633407593 0.3912319242954254 -0.06840357184410095
0.44106289744377136 0.3334411680698395 -0.05953941121697426
0.4296834468841553 0.2759876251220703 -0.05003846436738968
0.33628547191619873 0.5019890069961548 0.004461154341697693
0.27643898129463196 0.5207289457321167 0.03852587193250656
0.43953895568847656 0.4950679540634155 -0.003008263185620308
0.29955828189849854 0.4619275629520416 0.013365080580115318
0.4541425108909607 0.5293734669685364 -0.041032031178474426
0.45227110385894775 0.608293890953064 -0.10417747497558594
0.24481040239334106 0.5418426990509033 0.06461621075868607
0.2936006784439087 0.5368032455444336 0.018578307703137398
0.3257138729095459 0.5452290773391724 -0.0008872699690982699
0.37323012948036194 0.5427321195602417 -0.009471772238612175
0.40845757722854614 0.5346428155899048 -0.013329206965863705
0.4347441792488098 0.5248621702194214 -0.0191351268440485
0.4886009395122528 0.49863868951797485 -0.06765767186880112
0.24496741592884064 0.5893433094024658 0.06108018383383751
0.2791273295879364 0.4565914273262024 0.022375233471393585
0.5042778253555298 0.6378751993179321 -0.12365198880434036
0.4365866780281067 0.5659762024879456 -0.04265862703323364
0.2086637318134308 0.49720653891563416 0.20545485615730286
0.45464852452278137 0.5134291052818298 -0.02278527244925499
0.41979676485061646 0.6099191904067993 -0.03318696841597557
0.3151300549507141 0.480587363243103 0.021744171157479286
0.4499480724334717 0.5920783281326294 -0.09553555399179459
0.22845396399497986 0.666034460067749 0.2255096733570099
0.43995925784111023 0.48729822039604187 0.0023769980762153864
0.4727250635623932 0.5802639126777649 -0.11848452687263489
0.3126051425933838 0.7809718251228333 0.0986265167593956
0.3154917359352112 0.8108997344970703 0.13888733088970184
0.22210976481437683 0.6014150977134705 0.14563263952732086
0.2760184407234192 0.7503969669342041 0.11867105215787888
0.23423275351524353 0.4511624574661255 0.10009295493364334
0.4197959005832672 0.8688828945159912 0.03745138272643089
0.5057438015937805 0.6419994831085205 -0.0904141217470169
0.4115334451198578 0.5811963677406311 -0.033969245851039886
0.2523089647293091 0.4913865923881531 0.06995683908462524
0.3588274121284485 0.49422943592071533 -0.00320901395753026
0.378872275352478 0.4958955645561218 -0.007955271750688553
0.3833473324775696 0.732074499130249 0.019398096948862076
0.2466987818479538 0.6392413377761841 0.07292208075523376
0.46446141600608826 0.9022222757339478 0.04559718444943428
0.3909168541431427 0.865727424621582 0.08775179088115692
0.3574746251106262 0.8423799872398376 0.11116331070661545
0.5084399580955505 0.33392566442489624 -0.06139540672302246
0.5127650499343872 0.9063057899475098 0.042186714708805084
0.3992918133735657 0.4942454695701599 -0.007850401103496552
0.41930001974105835 0.4908837378025055 -0.003557315096259117
0.4330160617828369 0.4891759157180786 0.001764297136105597
0.25998660922050476 0.45021286606788635 0.044883064925670624
0.4157082140445709 0.4691067337989807 -0.008007069118320942
0.3936272859573364 0.4616766571998596 -0.013481001369655132
0.37243524193763733 0.4608007073402405 -0.013765722513198853
0.3520411252975464 0.4651990234851837 -0.008639024570584297
0.3395894765853882 0.4715808033943176 -0.0010622014524415135
0.21411213278770447 0.43999236822128296 0.16254161298274994
0.34542733430862427 0.49080216884613037 0.003592547494918108
0.5136221051216125 0.6600527763366699 -0.0635569840669632
0.42211076617240906 0.6643970012664795 -0.03850344568490982
0.4535084366798401 0.6256185173988342 -0.0786891058087349
0.47527268528938293 0.6602461934089661 -0.062099888920784
0.5101596713066101 0.4619321823120117 -0.0597880557179451
0.35103631019592285 0.8132216930389404 0.08370906859636307
0.38489291071891785 0.8403319120407104 0.0626424178481102
0.46342477202415466 0.8880090117454529 0.017014333978295326
0.2803478538990021 0.7762731313705444 0.1738685518503189
0.43231427669525146 0.48022395372390747 -0.0019440967589616776
0.47338446974754333 0.5364317893981934 -0.07388719171285629
0.5139557719230652 0.8920750021934509 0.014835365116596222
0.4251609444618225 0.887251615524292 0.06189684197306633
0.22996312379837036 0.6559476852416992 0.14626970887184143
0.44745662808418274 0.747427225112915 -0.011056440882384777
0.44257134199142456 0.7539481520652771 -0.014775329269468784
0.43849027156829834 0.7636176347732544 -0.017036251723766327
0.4359845221042633 0.7755435705184937 -0.011868939734995365
0.43425995111465454 0.7989838123321533 0.0056801834143698215
0.39214444160461426 0.7050126791000366 0.004477491602301598
0.38743868470191956 0.702658474445343 0.004757896531373262
0.383561372756958 0.7000946402549744 0.003641817020252347
0.3710837960243225 0.6892105937004089 0.004237494897097349
0.27819907665252686 0.6495932936668396 0.027701247483491898
0.47207844257354736 0.5124720931053162 -0.052612267434597015
0.4562419652938843 0.46693742275238037 -0.01394433993846178
0.44184643030166626 0.47060251235961914 -0.005521553568542004
0.39691805839538574 0.7069923281669617 0.00641513941809535
0.2798635959625244 0.7108302116394043 0.07177530229091644
0.4785633385181427 0.465224027633667 -0.04488701745867729
0.4263524115085602 0.819624125957489 0.01683218590915203
0.514808177947998 0.5436769723892212 -0.1159752756357193
0.491700142621994 0.5245181322097778 -0.09033893793821335
0.5132614970207214 0.5194606184959412 -0.09483926743268967
0.45488089323043823 0.5720152854919434 -0.07374494522809982
0.5143972039222717 0.8700478076934814 0.0019358405843377113
0.5140858888626099 0.8425469398498535 -0.0007091196603141725
0.4685298502445221 0.8394191861152649 0.0029891906306147575
0.3695557713508606 0.7558667659759521 0.039145879447460175
0.3983480632305145 0.6283279061317444 -0.024469459429383278
0.3954583406448364 0.7909405827522278 0.030609678477048874
0.33617472648620605 0.6276106834411621 -0.01736905612051487
0.37246930599212646 0.6514756083488464 -0.01393528189510107
0.31492817401885986 0.6647039651870728 0.007670181337743998
0.4642551839351654 0.8662742972373962 0.005186573602259159
0.43746742606163025 0.5834050178527832 -0.05639847740530968
0.3546779155731201 0.7810009717941284 0.05800607427954674
0.38770002126693726 0.8137401342391968 0.04554052650928497
0.3463869094848633 0.7196964025497437 0.03268982470035553
0.25458234548568726 0.6821473836898804 0.08626997470855713
0.3167760372161865 0.7330897450447083 0.05099407583475113
0.24651497602462769 0.7063102722167969 0.14182531833648682
0.3501647412776947 0.6758270263671875 0.0029956309590488672
0.45583394169807434 0.5513193607330322 -0.05687505379319191
0.4605470597743988 0.6200410723686218 -0.10879243165254593
0.4422721564769745 0.6228054165840149 -0.0822923332452774
0.47316107153892517 0.6048538684844971 -0.12588217854499817
0.43546414375305176 0.4426726698875427 -0.022747809067368507
0.39400970935821533 0.4263366460800171 -0.029070541262626648
0.3582212030887604 0.42420607805252075 -0.028983717784285545
0.3289607763290405 0.43052735924720764 -0.02051147073507309
0.30901503562927246 0.4427535831928253 -0.006429009139537811
0.2972985506057739 0.4843108057975769 0.0310130026191473
0.21904629468917847 0.5501924753189087 0.13759206235408783
0.3168802857398987 0.5161070823669434 0.014624097384512424
0.34215623140335083 0.5227447152137756 0.002329121809452772
0.37512391805648804 0.5234484672546387 -0.005654785316437483
0.40628013014793396 0.518893837928772 -0.00888192281126976
0.43094515800476074 0.5118064880371094 -0.008874156512320042
0.44788119196891785 0.5047315955162048 -0.010180136188864708
0.21191278100013733 0.5515184998512268 0.22659318149089813
0.44071704149246216 0.6269834041595459 -0.0697031170129776
0.4746568500995636 0.557817280292511 -0.09290774911642075
0.4797045886516571 0.6227667927742004 -0.125932976603508
0.4913494884967804 0.6338399648666382 -0.1144004836678505
0.47854116559028625 0.6262891888618469 -0.11407332867383957
0.44540664553642273 0.6324061751365662 -0.05985946208238602
0.496469646692276 0.6363257765769958 -0.12046854943037033
0.49787208437919617 0.6403071284294128 -0.09111097455024719
0.44858595728874207 0.48769140243530273 -0.0006620128988288343
0.4608520567417145 0.49212783575057983 -0.013796897605061531
0.46910879015922546 0.4958012104034424 -0.03027520887553692
0.3325517177581787 0.4764637351036072 0.006860148627310991
0.31360477209091187 0.4643130898475647 0.007346051279455423
0.5339282751083374 0.5465559959411621 -0.10597728192806244
0.6712151765823364 0.48213404417037964 0.03343706950545311
0.5367538928985596 0.6358126997947693 -0.0894518718123436
0.7514643669128418 0.38755252957344055 0.14740100502967834
0.611489474773407 0.5050402879714966 0.005083475261926651
0.6334418654441833 0.5054818391799927 0.008477735333144665
0.6542602181434631 0.5025818943977356 0.01652798056602478
0.6803721189498901 0.4890247881412506 0.03871038928627968
0.5927598476409912 0.5001810789108276 0.005789905786514282
0.6419025659561157 0.43572548031806946 -0.003422946436330676
0.616194486618042 0.43944084644317627 -0.0053308079950511456
0.6660066843032837 0.4390172064304352 0.0066164713352918625
0.6812576055526733 0.4481228291988373 0.017689866945147514
0.6990168690681458 0.5010543465614319 0.05289751663804054
0.600264310836792 0.8380080461502075 0.035739004611968994
0.6784064769744873 0.4757446050643921 0.04223574325442314
0.7606343626976013 0.4919678866863251 0.16553428769111633
0.7223566174507141 0.4833974540233612 0.07822787761688232
0.6343855857849121 0.5947796702384949 -0.013995119370520115
0.5570066571235657 0.6824014782905579 -0.05889409780502319
0.5525270700454712 0.7020947933197021 -0.04753347486257553
0.5887268781661987 0.6855872273445129 -0.03970453515648842
0.6084079742431641 0.6894100904464722 -0.0120394853875041
0.5788823366165161 0.6999787092208862 -0.032199788838624954
0.5975609421730042 0.6994948387145996 -0.007414478808641434
0.6331505179405212 0.7350519299507141 0.04212131351232529
0.5365698933601379 0.6252387762069702 -0.1339370757341385
0.5392329692840576 0.6011314988136292 -0.14217311143875122
0.7128787040710449 0.4254593849182129 0.024848630651831627
0.5794526934623718 0.5410338044166565 -0.022332629188895226
0.5891554355621338 0.6110197901725769 -0.07114685326814651
0.5899824500083923 0.5978361368179321 -0.06394988298416138
0.7061043381690979 0.5867898464202881 0.023280099034309387
0.5369375944137573 0.5715486407279968 -0.12879174947738647
0.6611360907554626 0.4012182950973511 -0.022538747638463974
0.692165195941925 0.4087746739387512 -0.0008274081046693027
0.7319779992103577 0.34437528252601624 0.09557151794433594
0.5609687566757202 0.4248250126838684 -0.050952427089214325
0.594246506690979 0.4509637653827667 0.00048114280798472464
0.6522226929664612 0.7012145519256592 0.04332682490348816
0.727299690246582 0.7156844139099121 0.24263896048069
0.5715386271476746 0.6255612969398499 -0.06214582175016403
0.5526028275489807 0.6334937214851379 -0.06529492139816284
0.6305212378501892 0.6994511485099792 0.04301617667078972
0.6238454580307007 0.7014455199241638 0.036287885159254074
0.7039844393730164 0.3935823440551758 0.010604174807667732
0.5909969210624695 0.6186634302139282 -0.05707717314362526
0.6187177300453186 0.40419554710388184 -0.04010651260614395
0.6220948696136475 0.3853757977485657 -0.046589624136686325
0.6431980729103088 0.2861967086791992 -0.009368759579956532
0.7179822325706482 0.3688642382621765 0.04775005206465721
0.6294931769371033 0.334280401468277 -0.029043542221188545
0.7249730229377747 0.4148082733154297 0.04568164423108101
0.7393895387649536 0.4032664895057678 0.09392433613538742
0.5555883049964905 0.6928901672363281 -0.055148787796497345
0.5839725732803345 0.6932185888290405 -0.03613892197608948
0.6033337116241455 0.6944907307624817 -0.01136726699769497
0.5664653182029724 0.6291440725326538 -0.0573214590549469
0.6272141933441162 0.7004001140594482 0.03937932848930359
0.6148460507392883 0.7222767472267151 0.0274065975099802
0.6205542683601379 0.7026240229606628 0.03558968007564545
0.5599609613418579 0.6224932074546814 -0.09699814021587372
0.5923270583152771 0.7029789090156555 -0.00496662175282836
0.5739189982414246 0.7046441435813904 -0.024046601727604866
0.5491074919700623 0.707785427570343 -0.03869760408997536
0.552597165107727 0.8139005303382874 0.000214134604902938
0.5511116981506348 0.7831600904464722 -0.021850889548659325
0.5505044460296631 0.7696523070335388 -0.026131799444556236
0.5484416484832764 0.7576878666877747 -0.02175215445458889
0.5448912382125854 0.7487362027168274 -0.017568016424775124
0.588884174823761 0.7325512170791626 0.011110197752714157
0.5945409536361694 0.7357091903686523 0.00771762989461422
0.6005857586860657 0.7413015365600586 0.006007811985909939
0.6044529676437378 0.7485535740852356 0.011968935839831829
0.6249713897705078 0.6695854663848877 -0.006112426053732634
0.751348614692688 0.5975883603096008 0.2706303298473358
0.6027536392211914 0.7210755944252014 0.027758074924349785
0.6092132329940796 0.7209479808807373 0.026070432737469673
0.5463380813598633 0.6419673562049866 -0.06458678841590881
0.5844731330871582 0.6302939653396606 -0.038401901721954346
0.5492455959320068 0.6379527449607849 -0.06595688313245773
0.6058144569396973 0.5516340732574463 -0.011799585074186325
0.6477643251419067 0.5633516311645508 -0.002014057245105505
0.5949370861053467 0.606579601764679 -0.04919524863362312
0.6982335448265076 0.3096141815185547 0.040848564356565475
0.6832535266876221 0.34479475021362305 0.0074094063602387905
0.6687792539596558 0.38276514410972595 -0.019459588453173637
0.613827109336853 0.7659806609153748 0.029748639091849327
0.567260205745697 0.39349162578582764 -0.061557963490486145
0.5734919905662537 0.33256667852401733 -0.05114058032631874
0.5819703936576843 0.27528348565101624 -0.04069766402244568
0.6711198687553406 0.4974953532218933 0.02824760414659977
0.7214073538780212 0.5141028761863708 0.06899207830429077
0.5801913738250732 0.49486005306243896 0.0077758412808179855
0.7021791934967041 0.4572915732860565 0.04100728780031204
0.5624991655349731 0.527414083480835 -0.033011190593242645
0.5745256543159485 0.6058743000030518 -0.09651824831962585
0.7481431365013123 0.5333777070045471 0.09931076318025589
0.7088149189949036 0.5301479697227478 0.04711489751935005
0.68217933177948 0.5392575263977051 0.023096632212400436
0.640038013458252 0.5391274690628052 0.008602859452366829
0.6079037189483643 0.532597005367279 0.00041774343117140234
0.5836180448532104 0.5237283706665039 -0.00873519852757454
0.533237099647522 0.49792125821113586 -0.06431794166564941
0.7499040365219116 0.5799211263656616 0.09541066735982895
0.7188973426818848 0.4525943994522095 0.052959464490413666
0.5280485153198242 0.6373965740203857 -0.12194037437438965
0.5799682140350342 0.5633584856987 -0.03295004367828369
0.7617055177688599 0.4895887076854706 0.245314359664917
0.5655285716056824 0.5125975608825684 -0.014737259596586227
0.5973219871520996 0.6064282059669495 -0.02355000004172325
0.6886727213859558 0.4754228889942169 0.04793708398938179
0.5745331048965454 0.5896148681640625 -0.08771050721406937
0.7429426908493042 0.6552838683128357 0.26292768120765686
0.5790705680847168 0.48686087131500244 0.013714054599404335
0.5558680891990662 0.5785571336746216 -0.11283105611801147
0.6884089112281799 0.7691925168037415 0.12405401468276978
0.6784515380859375 0.7983017563819885 0.16504383087158203
0.7603468894958496 0.5912427306175232 0.1836436688899994
0.7177921533584595 0.7382560968399048 0.14876756072044373
0.7508786916732788 0.44443851709365845 0.13647376000881195
0.5994061231613159 0.8614403605461121 0.04948034510016441
0.5244866609573364 0.6417162418365479 -0.08939128369092941
0.6030184030532837 0.5776050090789795 -0.02220442146062851
0.73957759141922 0.4858064353466034 0.10411995649337769
0.6517645120620728 0.4908507168292999 0.017614781856536865
0.6336604356765747 0.49383848905563354 0.010468586347997189
0.6192664504051208 0.7245867252349854 0.03175145387649536
0.7482173442840576 0.6287958025932312 0.10597643256187439
0.5578497648239136 0.8980293869972229 0.05211944133043289
0.6187629103660583 0.8556238412857056 0.10439376533031464
0.6454166769981384 0.8306416273117065 0.13218413293361664
0.6152055263519287 0.49344655871391296 0.007955596782267094
0.5976056456565857 0.49084222316741943 0.010012844577431679
0.5856735706329346 0.48914244771003723 0.013941904529929161
0.7332941293716431 0.4468674063682556 0.07787677645683289
0.5980549454689026 0.4691636264324188 0.00582917733117938
0.6168108582496643 0.4618202745914459 0.0026777531020343304
0.6360641717910767 0.4599965214729309 0.005014491733163595
0.6549764275550842 0.46278655529022217 0.012689470313489437
0.6665706634521484 0.46783795952796936 0.021713003516197205
0.760703444480896 0.43327295780181885 0.2016950100660324
0.6634136438369751 0.48655760288238525 0.0261797234416008
0.5989305377006531 0.6603893041610718 -0.028781840577721596
0.5711740255355835 0.6232035160064697 -0.07203911989927292
0.5508130788803101 0.65877765417099 -0.05808696895837784
0.6559029221534729 0.8023993968963623 0.10431388765573502
0.6276546120643616 0.830673098564148 0.07887067645788193
0.5614453554153442 0.8839467763900757 0.02343483828008175
0.7046216130256653 0.7637418508529663 0.20502431690692902
0.5849701166152954 0.4796755611896515 0.01046472042798996
0.5491159558296204 0.5350393652915955 -0.06845290958881378
0.59147047996521 0.8796046376228333 0.0739365816116333
0.7534152269363403 0.6446917057037354 0.18261902034282684
0.5696046948432922 0.7421204447746277 -0.0045721884816884995
0.5751795768737793 0.7484133243560791 -0.008035512641072273
0.57950758934021 0.7579450011253357 -0.009974283166229725
0.5818588137626648 0.7701027989387512 -0.004578268621116877
0.5882850289344788 0.7939636707305908 0.013922588899731636
0.6122111082077026 0.6997655630111694 0.016065819188952446
0.617599368095398 0.6968652606010437 0.01744764856994152
0.6221509575843811 0.693839967250824 0.017125099897384644
0.6447123885154724 0.6820202469825745 0.019962836056947708
0.7248146533966064 0.6400059461593628 0.055288445204496384
0.547073483467102 0.5113001465797424 -0.046982865780591965
0.5621640086174011 0.4675619900226593 -0.006649539340287447
0.575917661190033 0.47112053632736206 0.004858922678977251
0.6066839694976807 0.7023387551307678 0.017485901713371277
0.7203565239906311 0.6998900771141052 0.09989827126264572
0.5414733290672302 0.46627867221832275 -0.04073997586965561
0.5947123169898987 0.8136386275291443 0.025992628186941147
0.5335413813591003 0.5237246155738831 -0.08750206977128983
0.5668243765830994 0.5699868202209473 -0.06657634675502777
0.5570958852767944 0.8362463712692261 0.007305462379008532
0.6439206600189209 0.7474156022071838 0.0553356409072876
0.6173799633979797 0.6237322092056274 -0.01226647850126028
0.6213272213935852 0.7832477688789368 0.04333711788058281
0.6756312251091003 0.6204972267150879 0.0019064047373831272
0.6425259113311768 0.6455118656158447 0.0013013171264901757
0.6941348314285278 0.6561205983161926 0.02968764118850231
0.5616453886032104 0.8626495003700256 0.011048178188502789
0.5810562968254089 0.5806845426559448 -0.04749397188425064
0.6558886766433716 0.7711944580078125 0.07709470391273499
0.6275628805160522 0.8049983382225037 0.060160718858242035
0.665331244468689 0.7109536528587341 0.05245794355869293
0.7404583692550659 0.6710752248764038 0.11794638633728027
0.6899717450141907 0.722796618938446 0.07439228892326355
0.7401131391525269 0.6943631172180176 0.1761549711227417
0.6630775332450867 0.6683800220489502 0.02110910788178444
0.5634651184082031 0.5493988990783691 -0.049179043620824814
0.5673296451568604 0.6178374886512756 -0.10182391107082367
0.5818367004394531 0.6198791265487671 -0.07434611022472382
0.5577070713043213 0.6030427813529968 -0.12017609924077988
0.5797779560089111 0.44402337074279785 -0.012772812508046627
0.6168285608291626 0.4266967475414276 -0.014644570648670197
0.6497539281845093 0.42288053035736084 -0.010196300223469734
0.6766130924224854 0.4274745583534241 0.002484000287950039
0.6944398880004883 0.43871474266052246 0.019416579976677895
0.7033676505088806 0.47951704263687134 0.05908774584531784
0.7626442909240723 0.5412374138832092 0.17655938863754272
0.6881129741668701 0.5108972191810608 0.04014594852924347
0.6664061546325684 0.5181926488876343 0.024431411176919937
0.6372318267822266 0.5206571221351624 0.012430536560714245
0.6090255379676819 0.5176658630371094 0.005351252853870392
0.5869778394699097 0.5113357305526733 0.0018498166464269161
0.5715520977973938 0.5043553113937378 -0.00148098380304873
0.7566611766815186 0.5432065725326538 0.2663399279117584
0.5818167328834534 0.6239859461784363 -0.061916980892419815
0.551020622253418 0.5563000440597534 -0.08729889988899231
0.5517709851264954 0.6211655139923096 -0.12151118367910385
0.5388500690460205 0.6329077482223511 -0.11179744452238083
0.5511223673820496 0.6248968839645386 -0.10949638485908508
0.5766266584396362 0.629623293876648 -0.05333641171455383
0.535044252872467 0.6355113387107849 -0.1183699518442154
0.5315176844596863 0.6396781206130981 -0.0893094390630722
0.5715155005455017 0.4874175488948822 0.00878363847732544
0.5593181848526001 0.4920944571495056 -0.006921455264091492
0.5517058968544006 0.4955209493637085 -0.024593593552708626
0.6732131242752075 0.4719277024269104 0.030753320083022118
0.6900908350944519 0.4595983624458313 0.03284865617752075
0.3780544400215149 0.47903019189834595 -0.0017360724741593003
0.4028474688529968 0.4787667393684387 -0.0017360724741593003
0.377057284116745 0.45834362506866455 -0.0017360724741593003
0.3526246249675751 0.4790499806404114 -0.0017360724741593003
0.3788644075393677 0.4994891583919525 -0.0017360724741593003
0.626505970954895 0.47751516103744507 0.016543889418244362
0.6534565091133118 0.47654402256011963 0.016543889418244362
0.6259533762931824 0.45580199360847473 0.016543889418244362
0.5997123122215271 0.47846388816833496 0.016543889418244362
0.6272690296173096 0.49903345108032227 0.016543889418244362
