ply
format ascii 1.0
element vertex 478
property float x
property float y
property float z
end_header
0.5162062048912048 0.710634171962738 -0.0735207349061966
0.5310213565826416 0.634715735912323 -0.12266207486391068
0.5215569734573364 0.6604082584381104 -0.06732109189033508
0.5051384568214417 0.5510273575782776 -0.09150764346122742
0.5321098566055298 0.6091248393058777 -0.12916713953018188
0.5294416546821594 0.5754356980323792 -0.11810379475355148
0.5192474722862244 0.4918690621852875 -0.05092998594045639
0.33897432684898376 0.4825998544692993 0.008010976947844028
0.5159542560577393 0.42063045501708984 -0.03140896186232567
0.5162767767906189 0.3849394917488098 -0.033235255628824234
0.5129152536392212 0.2670712172985077 -0.0004986114799976349
0.5160439014434814 0.7184867858886719 -0.07108074426651001
0.5150699019432068 0.7264134883880615 -0.06361154466867447
0.5138009786605835 0.7314555048942566 -0.05154342204332352
0.5141307711601257 0.7599018812179565 -0.048600103706121445
0.5150388479232788 0.7707061767578125 -0.05051029473543167
0.5152052044868469 0.7844744920730591 -0.05542111396789551
0.5144851207733154 0.7987271547317505 -0.052227988839149475
0.5102668404579163 0.8229426741600037 -0.031387828290462494
0.5278446078300476 0.6480494737625122 -0.11170265823602676
0.5013645887374878 0.6488025784492493 -0.08412560820579529
0.2238757610321045 0.3841962218284607 0.10860368609428406
0.4053955674171448 0.502745509147644 -0.00691961357370019
0.3810836672782898 0.5053760409355164 -0.00899655744433403
0.357278436422348 0.5049702525138855 -0.005905794445425272
0.3257509469985962 0.4934292435646057 0.009059128351509571
0.426619291305542 0.4966627061367035 0.0003291514585725963
0.37166571617126465 0.427939236164093 -0.016674639657139778
0.3996911942958832 0.4302212595939636 -0.011332103982567787
0.34525030851364136 0.43367815017700195 -0.012833265587687492
0.3275817036628723 0.44542816281318665 -0.005964229349046946
0.30103111267089844 0.5105170011520386 0.017194004729390144
0.4195946455001831 0.8536428809165955 -0.023311110213398933
0.32950401306152344 0.47742006182670593 0.014619824476540089
0.2134595811367035 0.4975675642490387 0.10865224897861481
0.2705596089363098 0.49339982867240906 0.03801952302455902
0.3936130106449127 0.6159183382987976 -0.035103294998407364
0.48468685150146484 0.7071310877799988 -0.07504679262638092
0.4870325028896332 0.727292537689209 -0.06504687666893005
0.4517345130443573 0.7176883220672607 -0.06768196076154709
0.42969784140586853 0.7308483123779297 -0.05621633306145668
0.46151304244995117 0.7319207191467285 -0.061071377247571945
0.44166141748428345 0.7391357421875 -0.0497877337038517
0.40140870213508606 0.7824827432632446 -0.027594691142439842
0.5109045505523682 0.634453296661377 -0.12325090914964676
0.5084432363510132 0.6099915504455566 -0.1294516772031784
0.29101133346557617 0.4230530261993408 -0.0014785663224756718
0.44083693623542786 0.5497015118598938 -0.027376672253012657
0.4459984004497528 0.6306816935539246 -0.07607803493738174
0.4422931671142578 0.6169885396957397 -0.0690627470612526
0.31781208515167236 0.6138759851455688 -0.018929146230220795
0.5070706605911255 0.5784845948219299 -0.11500075459480286
0.35567301511764526 0.3917142152786255 -0.0289778932929039
0.3182055354118347 0.4019869565963745 -0.01714269071817398
0.25562572479248047 0.3376307487487793 0.07083053141832352
0.46593043208122253 0.41668495535850525 -0.03286471590399742
0.42358654737472534 0.4412754774093628 -0.0014515504008159041
0.38522326946258545 0.7596992254257202 -0.02476835623383522
0.2293383926153183 0.7386692762374878 0.1550534963607788
0.4634121060371399 0.6447345614433289 -0.06508395075798035
0.482424795627594 0.6515640020370483 -0.06368963420391083
0.40549832582473755 0.757402241230011 -0.026021139696240425
0.41225916147232056 0.7562811374664307 -0.03060835972428322
0.3039320111274719 0.38484305143356323 -0.006711262743920088
0.44248950481414795 0.6425961256027222 -0.06396383792161942
0.404279500246048 0.3948619067668915 -0.03431753069162369
0.400613009929657 0.372646301984787 -0.037683404982089996
0.3678118586540222 0.2777004837989807 0.0033710903953760862
0.28231075406074524 0.363060861825943 0.027039505541324615
0.3868897259235382 0.32571646571159363 -0.017260970547795296
0.27435094118118286 0.41142135858535767 0.01715586706995964
0.25092825293540955 0.40057146549224854 0.06080600619316101
0.48542657494544983 0.7181334495544434 -0.07308196276426315
0.4567478597164154 0.7256784439086914 -0.06574533134698868
0.43552321195602417 0.7353985905647278 -0.05510648339986801
0.468228280544281 0.649531364440918 -0.058796148747205734
0.4089078903198242 0.7569106817245483 -0.02827220968902111
0.42077213525772095 0.7642207145690918 -0.03923344984650612
0.41559967398643494 0.7556002140045166 -0.03073788434267044
0.47871851921081543 0.6350587606430054 -0.09514007717370987
0.44626384973526 0.7410140037536621 -0.04480524733662605
0.4654666483402252 0.7352437376976013 -0.05062318220734596
0.4885448217391968 0.7322525978088379 -0.053933851420879364
0.4789606034755707 0.8224231004714966 -0.035843607038259506
0.482756644487381 0.7982200384140015 -0.05656715855002403
0.48501232266426086 0.7836973667144775 -0.05909917876124382
0.48718881607055664 0.7698268890380859 -0.05358390137553215
0.4890013337135315 0.7599754333496094 -0.05120008438825607
0.4468007981777191 0.758602499961853 -0.04284091666340828
0.4422261118888855 0.7637355923652649 -0.04596804827451706
0.43621793389320374 0.7713422775268555 -0.05051707476377487
0.43107566237449646 0.7798123359680176 -0.048149559646844864
0.41632843017578125 0.7122061252593994 -0.04929362237453461
0.19752514362335205 0.6101757287979126 0.19249364733695984
0.5247026085853577 0.6540356278419495 -0.08259294927120209
0.4320136308670044 0.757513701915741 -0.036071088165044785
0.42666488885879517 0.7604293823242188 -0.038369070738554
0.4898279905319214 0.6608876585960388 -0.06572320312261581
0.4489281177520752 0.6578592658042908 -0.046182114630937576
0.4863205552101135 0.6563003659248352 -0.06495337933301926
0.4146212637424469 0.5651666522026062 -0.025070127099752426
0.375766396522522 0.5830118656158447 -0.025154855102300644
0.43639621138572693 0.6289050579071045 -0.05722539499402046
0.30137667059898376 0.3009538948535919 0.032742343842983246
0.32546722888946533 0.33706408739089966 0.0019038181053474545
0.34729284048080444 0.37049928307533264 -0.024543462321162224
0.42145174741744995 0.7979472279548645 -0.03508125990629196
0.4592151939868927 0.3800638020038605 -0.040119413286447525
0.44796618819236755 0.32531794905662537 -0.023885324597358704
0.4358077943325043 0.26797056198120117 -0.0076955100521445274
0.33730757236480713 0.5013695359230042 0.0012733436888083816
0.271477609872818 0.5304844379425049 0.02532501332461834
0.4406700134277344 0.4903225600719452 0.005604021716862917
0.30071836709976196 0.45873385667800903 0.009687415324151516
0.4592379927635193 0.532499372959137 -0.03206809610128403
0.4635295569896698 0.6197564005851746 -0.09559574723243713
0.24393723905086517 0.5483554601669312 0.04433094710111618
0.2900794446468353 0.5480024218559265 0.005022579804062843
0.3241729438304901 0.5565648078918457 -0.011815723963081837
0.37328213453292847 0.5518897771835327 -0.014425867237150669
0.4093407094478607 0.5408030152320862 -0.013356133364140987
0.43639707565307617 0.5281236171722412 -0.013980930671095848
0.4958036541938782 0.4980908930301666 -0.04695405438542366
0.2499542385339737 0.6036946773529053 0.034387197345495224
0.27897703647613525 0.4557112455368042 0.018252037465572357
0.5156561136245728 0.6475117206573486 -0.11250549554824829
0.44509419798851013 0.5756207704544067 -0.03821064159274101
0.193961501121521 0.49444591999053955 0.18268389999866486
0.45708730816841125 0.5134314298629761 -0.013354271650314331
0.43162041902542114 0.6304367184638977 -0.03483179211616516
0.31627851724624634 0.4786526560783386 0.017245691269636154
0.46020618081092834 0.6032748222351074 -0.08634397387504578
0.20722441375255585 0.6727914214134216 0.1795855164527893
0.44080960750579834 0.4812730550765991 0.01143291313201189
0.483608216047287 0.5878610610961914 -0.10503145307302475
0.3044412136077881 0.8012450933456421 0.042426370084285736
0.2967471480369568 0.8280090093612671 0.08128185570240021
0.21354815363883972 0.6083890199661255 0.11258401721715927
0.2694462537765503 0.7672200798988342 0.06709010899066925
0.23029044270515442 0.4451739192008972 0.09148253500461578
0.4117620885372162 0.8763715624809265 -0.01269878726452589
0.5151194334030151 0.6532940864562988 -0.08228795230388641
0.42212581634521484 0.5952270030975342 -0.03389672189950943
0.24612055718898773 0.4996383786201477 0.05721182003617287
0.3620656132698059 0.4880528450012207 -0.0027625097427517176
0.38197892904281616 0.4890238642692566 -0.005495675373822451
0.415332168340683 0.7685389518737793 -0.03681757301092148
0.2547193169593811 0.6555978059768677 0.039307571947574615
0.4528524875640869 0.9082988500595093 0.0007507801055908203
0.3745417892932892 0.8791919350624084 0.032822832465171814
0.33917373418807983 0.858740508556366 0.05339767038822174
0.5150231719017029 0.32700368762016296 -0.018149016425013542
0.502345085144043 0.910041332244873 0.0031093989964574575
0.4019401967525482 0.4872484803199768 -0.0029469365254044533
0.42129889130592346 0.48411881923675537 0.0031875285785645247
0.4342508316040039 0.482841432094574 0.009947406128048897
0.25841575860977173 0.45081305503845215 0.039424315094947815
0.4183129668235779 0.4630611538887024 0.0003941287868656218
0.39734652638435364 0.4562046527862549 -0.0059292917139828205
0.37696900963783264 0.4556894898414612 -0.00803435780107975
0.35640138387680054 0.46060889959335327 -0.005753885488957167
0.3433166444301605 0.4675438106060028 -0.0005281999474391341
0.2040301114320755 0.43363460898399353 0.1507856398820877
0.34862229228019714 0.4855601191520691 0.002609536750242114
0.5200861096382141 0.6816914677619934 -0.063831627368927
0.439859002828598 0.6957874894142151 -0.055474504828453064
0.464814692735672 0.6401028037071228 -0.07258395105600357
0.487449049949646 0.6846391558647156 -0.067291259765625
0.5159143209457397 0.4572155773639679 -0.03248714655637741
0.33974799513816833 0.8321266770362854 0.024902043864130974
0.37415021657943726 0.8545473217964172 0.007300766184926033
0.45633891224861145 0.891785740852356 -0.027760621160268784
0.26096105575561523 0.7910897135734558 0.11893561482429504
0.43376094102859497 0.47389304637908936 0.006879594177007675
0.48134368658065796 0.5394617319107056 -0.0598488487303257
0.5064713358879089 0.8929747343063354 -0.02499079518020153
0.41177454590797424 0.8967115879058838 0.011480595916509628
0.22162017226219177 0.6658819913864136 0.1068689376115799
0.4663213789463043 0.759199321269989 -0.04826202616095543
0.4624936878681183 0.7670329809188843 -0.05144384875893593
0.4581051170825958 0.7783336639404297 -0.05678320676088333
0.4545306861400604 0.7914044260978699 -0.055052969604730606
0.44695910811424255 0.8123232126235962 -0.04019547998905182
0.425203800201416 0.7473344206809998 -0.03995461016893387
0.41911521553993225 0.7459628582000732 -0.0413568839430809
0.4138720631599426 0.7436564564704895 -0.042028725147247314
0.3977097272872925 0.7344348430633545 -0.0385916493833065
0.2963358759880066 0.6695210933685303 -0.0010133783798664808
0.4778299927711487 0.5133030414581299 -0.03775038197636604
0.4607771337032318 0.4599509835243225 0.001493091811425984
0.4444235861301422 0.46322280168533325 0.005898422561585903
0.43055763840675354 0.7476859092712402 -0.0371379517018795
0.2890070676803589 0.7314227819442749 0.028732512146234512
0.4843505620956421 0.458825945854187 -0.02348943054676056
0.4321337342262268 0.8321313858032227 -0.02977788634598255
0.5258671641349792 0.5469896793365479 -0.09495808929204941
0.500315248966217 0.5260230302810669 -0.0707060769200325
0.522645115852356 0.5205554366111755 -0.072039894759655
0.4640909433364868 0.5806920528411865 -0.06414903700351715
0.5086466073989868 0.8705374002456665 -0.03508997708559036
0.5094820857048035 0.844893753528595 -0.03248530998826027
0.471027672290802 0.8444409370422363 -0.034482717514038086
0.37542054057121277 0.7901096940040588 -0.016479352489113808
0.4107168912887573 0.6513174772262573 -0.0338188000023365
0.4003879129886627 0.8142271041870117 -0.023125816136598587
0.3564043343067169 0.6472060680389404 -0.0335543192923069
0.3897015154361725 0.6778479814529419 -0.036597415804862976
0.3342318534851074 0.6895719170570374 -0.02181696519255638
0.46252694725990295 0.8696913719177246 -0.0368838831782341
0.44689908623695374 0.595970869064331 -0.05129637569189072
0.35178667306900024 0.8064690232276917 0.0015762681141495705
0.38461369276046753 0.8313904404640198 -0.008050580509006977
0.35808342695236206 0.7597537040710449 -0.01661578379571438
0.26103752851486206 0.6994993686676025 0.04623651131987572
0.32346710562705994 0.7609947919845581 0.002387329703196883
0.237577423453331 0.7187873125076294 0.09519001096487045
0.37095174193382263 0.7131316065788269 -0.03124481625854969
0.4634096026420593 0.5570604205131531 -0.048123057931661606
0.47194209694862366 0.63094162940979 -0.10001236200332642
0.4543304443359375 0.6387010216712952 -0.07728848606348038
0.48512548208236694 0.6135967373847961 -0.11363989114761353
0.4424712061882019 0.435650110244751 -0.007969222031533718
0.4020942747592926 0.41795045137405396 -0.017139796167612076
0.3658422529697418 0.4147738218307495 -0.02120940200984478
0.33492183685302734 0.4213997721672058 -0.016935408115386963
0.3126515746116638 0.4357990622520447 -0.006379797123372555
0.29636526107788086 0.48554205894470215 0.024375252425670624
0.2100052386522293 0.5524433255195618 0.11057862639427185
0.31583601236343384 0.5210780501365662 0.006338223349303007
0.3420575261116028 0.5275882482528687 -0.0038251285441219807
0.3760291039943695 0.5268635749816895 -0.008361381478607655
0.4077414572238922 0.5204948782920837 -0.007806891575455666
0.4326399862766266 0.511749804019928 -0.0029716063290834427
0.45001980662345886 0.5030018091201782 -0.0015606427332386374
0.1945667862892151 0.5517253875732422 0.19518880546092987
0.4526861310005188 0.6460968852043152 -0.06611892580986023
0.48438534140586853 0.5630961060523987 -0.07927943021059036
0.4916441738605499 0.6317903995513916 -0.11482641845941544
0.5015368461608887 0.6444083452224731 -0.10429061204195023
0.48942363262176514 0.6362380981445312 -0.10416188836097717
0.4579204022884369 0.6537685394287109 -0.05731524899601936
0.5074692964553833 0.6462907195091248 -0.10986146330833435
0.5070270895957947 0.6522879004478455 -0.08318941295146942
0.44975703954696655 0.48185890913009644 0.010338572785258293
0.4635775089263916 0.48784786462783813 -0.0006508775986731052
0.47251325845718384 0.49214857816696167 -0.015126541256904602
0.3356793224811554 0.47293826937675476 0.005810481961816549
0.3159788250923157 0.45992884039878845 0.0051255784928798676
0.5442795753479004 0.5505906343460083 -0.08323955535888672
0.6607657074928284 0.47375690937042236 0.06873097270727158
0.5444275736808777 0.6484193801879883 -0.07778683304786682
0.7311478853225708 0.3841373920440674 0.2025212198495865
0.6037092208862305 0.4998292922973633 0.03238171339035034
0.625076949596405 0.501153826713562 0.0380496121942997
0.6452182531356812 0.4999885559082031 0.04836348816752434
0.6699540019035339 0.4843514561653137 0.07326201349496841
0.5848978161811829 0.49496251344680786 0.031364135444164276
0.6316729784011841 0.41877907514572144 0.03267478197813034
0.606804370880127 0.4235104024410248 0.027659712359309196
0.6543795466423035 0.4226527214050293 0.04406651109457016
0.6688458919525146 0.434037983417511 0.05536181479692459
0.688808798789978 0.5028734803199768 0.08652454614639282
0.5843186974525452 0.845698356628418 0.005142776295542717
0.6676556468009949 0.4666796922683716 0.07812955975532532
0.7394411563873291 0.4933165907859802 0.20336738228797913
0.7094287872314453 0.4823310375213623 0.11552165448665619
0.6223958730697632 0.6135150790214539 0.0043656290508806705
0.5445154905319214 0.7048428058624268 -0.06480998545885086
0.5391792058944702 0.7250069379806519 -0.05563805252313614
0.5705225467681885 0.7118337750434875 -0.04667061194777489
0.5858384966850281 0.7225611209869385 -0.027130497619509697
0.5589120984077454 0.7268264889717102 -0.042762354016304016
0.5730488896369934 0.7316144704818726 -0.025149639695882797
0.6017041206359863 0.777710497379303 0.009908156469464302
0.5487661361694336 0.6341844797134399 -0.11791254580020905
0.5532006621360779 0.6096381545066833 -0.12316716462373734
0.6955398321151733 0.40635937452316284 0.07124460488557816
0.5780297517776489 0.5485131740570068 -0.001641706912778318
0.5901570916175842 0.6291568279266357 -0.05219658091664314
0.5907178521156311 0.6153830885887146 -0.04439713433384895
0.6829088926315308 0.609885036945343 0.04665469750761986
0.5493927001953125 0.5780124664306641 -0.10689297318458557
0.6486980319023132 0.3760603070259094 0.021987345069646835
0.6765335202217102 0.3849942088127136 0.04629087448120117
0.717177152633667 0.33904674649238586 0.15507470071315765
0.5576855540275574 0.4110938310623169 -0.015775466337800026
0.5856078267097473 0.437516450881958 0.030177701264619827
0.6176190376281738 0.7549861669540405 0.020585758611559868
0.696912407875061 0.7252874970436096 0.24269984662532806
0.5714989304542542 0.6436373591423035 -0.04769580811262131
0.5550342202186584 0.650902271270752 -0.05491016432642937
0.5992717742919922 0.7456719279289246 0.013372378423810005
0.5926490426063538 0.7450262904167175 0.00415030075237155
0.6853441596031189 0.36621734499931335 0.06076439470052719
0.5880892872810364 0.6408311724662781 -0.04058430716395378
0.6102181673049927 0.3826843798160553 0.0006588842952623963
0.6128415465354919 0.35936203598976135 -0.0018387559102848172
0.6409069895744324 0.28069913387298584 0.05183686316013336
0.708823561668396 0.36082693934440613 0.10126927495002747
0.6320174932479858 0.32559722661972046 0.023725857958197594
0.7051386833190918 0.39421534538269043 0.09498265385627747
0.724515438079834 0.3977370858192444 0.14495603740215302
0.5427876710891724 0.7159032821655273 -0.06297199428081512
0.5649095177650452 0.7203785181045532 -0.04604101926088333
0.5799285173416138 0.7274934649467468 -0.028443701565265656
0.5656761527061462 0.6482867002487183 -0.0444476343691349
0.5959319472312927 0.7454341053962708 0.00819272082298994
0.5884507894515991 0.7540157437324524 -0.008354788646101952
0.5893666744232178 0.7446916103363037 0.003073520492762327
0.5659447312355042 0.6347105503082275 -0.07895071059465408
0.5668712258338928 0.7337079048156738 -0.021337907761335373
0.5532159805297852 0.730448305606842 -0.0332774855196476
0.5354356169700623 0.7300095558166504 -0.04428250342607498
0.5381710529327393 0.8207669854164124 -0.026385633274912834
0.542860746383667 0.795283317565918 -0.04618361219763756
0.5418673157691956 0.7807464599609375 -0.0484168566763401
0.5391839146614075 0.7669703364372253 -0.04310228303074837
0.5357979536056519 0.75727778673172 -0.04124591872096062
0.5667030811309814 0.7508147358894348 -0.019233552739024162
0.5721625685691833 0.7557540535926819 -0.022272052243351936
0.5785419940948486 0.7630403637886047 -0.025855781510472298
0.5834619998931885 0.7715265154838562 -0.02173169143497944
0.602115273475647 0.7094512581825256 -0.016066864132881165
0.7209360599517822 0.6023035645484924 0.2906290590763092
0.5766538977622986 0.7481731176376343 -0.00644186045974493
0.5825929641723633 0.7506522536277771 -0.008671090938150883
0.549048125743866 0.6603256464004517 -0.057022709399461746
0.5781301856040955 0.6559654474258423 -0.027614671736955643
0.5519627332687378 0.6557938456535339 -0.056471504271030426
0.5999447703361511 0.5635578036308289 0.009548606351017952
0.6353610157966614 0.5807820558547974 0.021758491173386574
0.59200119972229 0.6271721720695496 -0.0317869707942009
0.689895749092102 0.30352991819381714 0.1015414148569107
0.6802448034286499 0.3356339931488037 0.061493512243032455
0.6543086171150208 0.3534412086009979 0.02905694581568241
0.5854912400245667 0.7932217121124268 -0.004129195585846901
0.563133716583252 0.373058021068573 -0.021713603287935257
0.5784504413604736 0.32577037811279297 -0.0025722256395965815
0.5839529037475586 0.2700164020061493 0.016748545691370964
0.6613365411758423 0.49466705322265625 0.061727773398160934
0.7123233079910278 0.5223864316940308 0.1021261066198349
0.5724440217018127 0.48935043811798096 0.033328164368867874
0.6884235143661499 0.44598275423049927 0.07984030246734619
0.5640884041786194 0.5315786004066467 -0.011498547159135342
0.5810220241546631 0.6188735365867615 -0.07625120878219604
0.7311288118362427 0.5433524250984192 0.1313232034444809
0.7011734843254089 0.5423654913902283 0.07726972550153732
0.6764968633651733 0.5538374185562134 0.04975428804755211
0.6359177827835083 0.5509341359138489 0.03277587890625
0.6048305034637451 0.5405786037445068 0.022535672411322594
0.5816086530685425 0.5290437936782837 0.012740797363221645
0.5394046306610107 0.49773627519607544 -0.03809082508087158
0.7271890640258789 0.59758061170578 0.12094707787036896
0.7033740878105164 0.44188597798347473 0.09473078697919846
0.5388465523719788 0.6472520232200623 -0.10822188854217529
0.5783580541610718 0.5743236541748047 -0.013469822704792023
0.7324576377868652 0.49060916900634766 0.2841956615447998
0.5642427206039429 0.5154058337211609 0.007527850102633238
0.5907953381538391 0.628706693649292 -0.00929969735443592
0.6767043471336365 0.46734532713890076 0.0840546041727066
0.5802266597747803 0.6021697521209717 -0.06668656319379807
0.7127623558044434 0.6620777249336243 0.27343663573265076
0.5714702606201172 0.4796611964702606 0.040441613644361496
0.565767765045166 0.5870352387428284 -0.09071489423513412
0.6658046841621399 0.7872238159179688 0.10665076225996017
0.6573407649993896 0.8109212517738342 0.1475410908460617
0.7367039918899536 0.6004625558853149 0.20692668855190277
0.6901323199272156 0.7540788650512695 0.14251108467578888
0.732465386390686 0.4423225522041321 0.18150803446769714
0.5868973135948181 0.8662517070770264 0.017917199060320854
0.5335709452629089 0.6531674265861511 -0.0797039270401001
0.5964019298553467 0.593544065952301 -0.0033129905350506306
0.7259269952774048 0.48776060342788696 0.1424560397863388
0.6418178677558899 0.4821834862232208 0.05059739947319031
0.6244369745254517 0.48445069789886475 0.04174748808145523
0.5935857892036438 0.7581155300140381 -0.003672877559438348
0.7184443473815918 0.6479134559631348 0.12295308709144592
0.5475105047225952 0.902084469795227 0.01796087622642517
0.605168342590332 0.8641233444213867 0.07537270337343216
0.6294231414794922 0.8417407274246216 0.10707688331604004
0.606458842754364 0.4836467504501343 0.03749494627118111
0.5887328386306763 0.4815545082092285 0.03799619525671005
0.5771149396896362 0.48106059432029724 0.04119051992893219
0.7153900861740112 0.43627050518989563 0.12204659730195999
0.5913782119750977 0.461381733417511 0.035937342792749405
0.6100728511810303 0.45305371284484863 0.03553306683897972
0.6285990476608276 0.45051512122154236 0.040035031735897064
0.6463885307312012 0.4532480537891388 0.04880590736865997
0.6572017073631287 0.45873644948005676 0.05795256048440933
0.7359492778778076 0.4320939779281616 0.2499253898859024
0.6530786752700806 0.4782210886478424 0.06049395725131035
0.5860050320625305 0.6939452290534973 -0.030244063585996628
0.5728345513343811 0.6391929984092712 -0.055802203714847565
0.5500537753105164 0.6840214729309082 -0.05686201900243759
0.6392427682876587 0.8182777166366577 0.0769357830286026
0.6133819818496704 0.8414035439491272 0.04834343120455742
0.5524555444717407 0.8864758610725403 -0.011054668575525284
0.6782285571098328 0.7754103541374207 0.1968478411436081
0.5778371095657349 0.47236955165863037 0.03874054178595543
0.5551137924194336 0.538818359375 -0.046038541942834854
0.5795192122459412 0.8851722478866577 0.04297172278165817
0.7265082001686096 0.6559755802154541 0.19700364768505096
0.5531607270240784 0.7538448572158813 -0.030595939606428146
0.5582124590873718 0.7614541053771973 -0.033153973519802094
0.563119649887085 0.7726032733917236 -0.03742341697216034
0.5663946866989136 0.7858750820159912 -0.03476033732295036
0.5650288462638855 0.8086389303207397 -0.017510920763015747
0.5837441682815552 0.7377509474754333 -0.009243725799024105
0.5901938676834106 0.7361271381378174 -0.007711187936365604
0.5957217216491699 0.733464241027832 -0.006263006944209337
0.6128308176994324 0.7308536767959595 0.003164077876135707
0.6932201385498047 0.6630917191505432 0.06989108771085739
0.5512993335723877 0.5128048062324524 -0.023276979103684425
0.5565085411071777 0.458766371011734 0.01975049264729023
0.5681653618812561 0.46166306734085083 0.032705724239349365
0.5776287913322449 0.7385017275810242 -0.007384444586932659
0.6874863505363464 0.7217153906822205 0.10032068192958832
0.5403306484222412 0.4595645070075989 -0.012424040585756302
0.5748603343963623 0.8261132836341858 -0.004944310523569584
0.5423204302787781 0.5256081819534302 -0.06331981718540192
0.5703594088554382 0.5797920823097229 -0.046126335859298706
0.54392409324646 0.8413292765617371 -0.022622087970376015
0.6220401525497437 0.7828933000564575 0.026768960058689117
0.6071304678916931 0.6486993432044983 -0.00183284399099648
0.6002821922302246 0.8068127632141113 0.011118846014142036
0.6531515121459961 0.6433360576629639 0.017387859523296356
0.6241542100906372 0.6745114922523499 0.003609153674915433
0.665858805179596 0.6838550567626953 0.03653396666049957
0.5507873296737671 0.8655686974525452 -0.021187029778957367
0.5805191993713379 0.5946972966194153 -0.028631048277020454
0.6373422741889954 0.7958198189735413 0.05102144181728363
0.610640823841095 0.821156919002533 0.029956908896565437
0.639757513999939 0.7532841563224792 0.03570016101002693
0.7081146240234375 0.6901795864105225 0.1261281669139862
0.6634174585342407 0.7514409422874451 0.06271787732839584
0.7124190330505371 0.707144021987915 0.18076269328594208
0.6355198621749878 0.7089133262634277 0.016640396788716316
0.5660282969474792 0.5561729073524475 -0.02851765975356102
0.5735151767730713 0.6302602887153625 -0.08240510523319244
0.5828198790550232 0.6374541521072388 -0.057130858302116394
0.5686644911766052 0.6128581762313843 -0.09982439130544662
0.5727381110191345 0.43037450313568115 0.0172122810035944
0.6078541278839111 0.4084039330482483 0.02005147933959961
0.6388623118400574 0.4030672311782837 0.027877137064933777
0.6638138294219971 0.4086855947971344 0.04226207360625267
0.6804702877998352 0.42230114340782166 0.05957109108567238
0.6909821033477783 0.4747372269630432 0.09552081674337387
0.7412292957305908 0.5464394688606262 0.20747679471969604
0.6789177656173706 0.5151515603065491 0.07159031927585602
0.6587421298027039 0.5239604711532593 0.053044404834508896
0.6306121349334717 0.524299681186676 0.03845694288611412
0.6032049655914307 0.5187721848487854 0.02919682487845421
0.5816255211830139 0.5112612843513489 0.024871226400136948
0.5668267607688904 0.50332111120224 0.021211950108408928
0.7253392934799194 0.5463640689849854 0.2959095537662506
0.5803837776184082 0.6445721387863159 -0.046328797936439514
0.5586267709732056 0.5623133182525635 -0.06518475711345673
0.5620151162147522 0.6311145424842834 -0.10360866039991379
0.5478435158729553 0.6438137292861938 -0.09773934632539749
0.5592499375343323 0.6358279585838318 -0.09262704849243164
0.5729556083679199 0.6521094441413879 -0.04070362076163292
0.5449704527854919 0.6458603143692017 -0.10453422367572784
0.539949357509613 0.6518151164054871 -0.07868774980306625
0.5643131136894226 0.48107898235321045 0.03445048630237579
0.5549827814102173 0.48859602212905884 0.01730428822338581
0.5503665208816528 0.49444276094436646 -0.00034260202664881945
0.6633417010307312 0.4630791246891022 0.06696921586990356
0.6774159669876099 0.44794154167175293 0.07000354677438736
0.38435280323028564 0.4719007611274719 0.0019650959875434637
0.4105767011642456 0.47096866369247437 0.0019650959875434637
0.3839430510997772 0.4473254680633545 0.0019650959875434637
0.3575495481491089 0.4726050794124603 0.0019650959875434637
0.38454145193099976 0.49625957012176514 0.0019650959875434637
0.6248976588249207 0.4665600061416626 0.048799771815538406
0.6472528576850891 0.4661335349082947 0.048799771815538406
0.6237061023712158 0.44271421432495117 0.048799771815538406
0.6023167967796326 0.46689513325691223 0.048799771815538406
0.6260766983032227 0.4905160665512085 0.048799771815538406
