ply
format ascii 1.0
element vertex 478
property float x
property float y
property float z
end_header
0.4811398386955261 0.7455815076828003 -0.08119210600852966
0.5268679261207581 0.6363338828086853 -0.13275481760501862
0.517830491065979 0.6659575700759888 -0.07580669224262238
0.5008822679519653 0.5475210547447205 -0.09358581155538559
0.5277296900749207 0.6077642440795898 -0.1384943276643753
0.5256218314170837 0.5724439024925232 -0.12536486983299255
0.517959475517273 0.49019575119018555 -0.050738539546728134
0.33594807982444763 0.48360908031463623 0.032053880393505096
0.5160327553749084 0.42637842893600464 -0.02739972621202469
0.5162172317504883 0.3902799189090729 -0.02741965465247631
0.5140861868858337 0.2628247141838074 0.01308309193700552
0.48098719120025635 0.7510204315185547 -0.07926889508962631
0.4816332459449768 0.7550424337387085 -0.07252214103937149
0.48310521245002747 0.7570539712905884 -0.0620068795979023
0.48228973150253296 0.7807286381721497 -0.055721066892147064
0.4807278513908386 0.788166880607605 -0.06020889803767204
0.47948208451271057 0.7980766892433167 -0.06704692542552948
0.47916510701179504 0.8093815445899963 -0.06582421064376831
0.5094213485717773 0.8460516929626465 -0.047476690262556076
0.524248480796814 0.6521742343902588 -0.1217467337846756
0.49542123079299927 0.6521134376525879 -0.09107065945863724
0.21045219898223877 0.3856132924556732 0.15045666694641113
0.4021904766559601 0.5047763586044312 0.009529843926429749
0.37807056307792664 0.5062555074691772 0.009385598823428154
0.3539884090423584 0.5050671696662903 0.014506477862596512
0.3210155963897705 0.4945899248123169 0.0333835668861866
0.42263561487197876 0.4992715120315552 0.014787618070840836
0.36981457471847534 0.43052852153778076 0.004233785904943943
0.39674389362335205 0.43337059020996094 0.007427881471812725
0.3433854281902313 0.4355660676956177 0.00986916571855545
0.32483822107315063 0.44715893268585205 0.018331682309508324
0.2949981093406677 0.5112956762313843 0.042590852826833725
0.410778284072876 0.8885131478309631 -0.031888920813798904
0.32627636194229126 0.4793820381164551 0.0399276502430439
0.19831311702728271 0.504903256893158 0.1467219442129135
0.26076650619506836 0.49549880623817444 0.06746012717485428
0.3804943561553955 0.6147304773330688 -0.026880279183387756
0.45143425464630127 0.7382402420043945 -0.08056219667196274
0.45509588718414307 0.7511220574378967 -0.07147350162267685
0.4259725511074066 0.7396785616874695 -0.06954633444547653
0.4088976979255676 0.743988037109375 -0.052933771163225174
0.4339635670185089 0.7494939565658569 -0.06352154165506363
0.417744904756546 0.7500823736190796 -0.04775475338101387
0.3832775056362152 0.7875309586524963 -0.02131892926990986
0.5048165917396545 0.6353251934051514 -0.13191284239292145
0.5023869872093201 0.6076477766036987 -0.13710680603981018
0.28455930948257446 0.42295143008232117 0.025994621217250824
0.43535396456718445 0.5493116974830627 -0.019360532984137535
0.43465182185173035 0.6274160742759705 -0.0766124427318573
0.431833952665329 0.6132727265357971 -0.06817953288555145
0.2994934916496277 0.6116018891334534 -0.001647760858759284
0.502063512802124 0.5748560428619385 -0.11997654289007187
0.352116197347641 0.38471072912216187 -0.008866488933563232
0.3138074278831482 0.3988555073738098 0.006646604277193546
0.24454738199710846 0.334364116191864 0.11031694710254669
0.4664669930934906 0.41096848249435425 -0.02323882468044758
0.41991671919822693 0.4446432590484619 0.01559642143547535
0.3622441589832306 0.7590083479881287 -0.01566711626946926
0.2147461175918579 0.7742101550102234 0.17789345979690552
0.45307260751724243 0.6440406441688538 -0.06759865581989288
0.4743599593639374 0.652899980545044 -0.06935212016105652
0.3891904354095459 0.7551599740982056 -0.01580411195755005
0.39511561393737793 0.7555126547813416 -0.02108015865087509
0.2966679334640503 0.3824574053287506 0.020228281617164612
0.4308464229106903 0.6394657492637634 -0.06446930766105652
0.40256044268608093 0.3862535357475281 -0.01901508867740631
0.398193359375 0.3628774881362915 -0.021425586193799973
0.36292555928230286 0.26968565583229065 0.03161652758717537
0.26966676115989685 0.3587939441204071 0.060493599623441696
0.38113483786582947 0.31852760910987854 0.005833104718476534
0.2653520703315735 0.4133274555206299 0.04779142513871193
0.23605862259864807 0.40046268701553345 0.09779521822929382
0.4523581862449646 0.7460747957229614 -0.07879015058279037
0.429632306098938 0.7452569007873535 -0.06765290349721909
0.4129856526851654 0.7472684383392334 -0.05246593430638313
0.45825037360191345 0.6491355299949646 -0.06196758896112442
0.39212682843208313 0.7553412914276123 -0.01853604055941105
0.40100032091140747 0.7667760848999023 -0.03216967359185219
0.39790767431259155 0.7557896971702576 -0.02156991884112358
0.47025108337402344 0.635509729385376 -0.09914784133434296
0.422166109085083 0.7517380714416504 -0.043810464441776276
0.4381316900253296 0.7516127824783325 -0.05408960208296776
0.4583946168422699 0.7535989880561829 -0.06146575137972832
0.4733240306377411 0.8430995941162109 -0.0488012321293354
0.4495660066604614 0.8052423000335693 -0.06666834652423859
0.4508547782897949 0.7937560677528381 -0.06742769479751587
0.45393502712249756 0.7840695381164551 -0.05990365520119667
0.4579559564590454 0.7771531343460083 -0.05529121309518814
0.4226144552230835 0.768643856048584 -0.0391097217798233
0.4175349473953247 0.7717486619949341 -0.04374077916145325
0.4119858145713806 0.7767569422721863 -0.04876943677663803
0.4077610671520233 0.7833124399185181 -0.04596009477972984
0.395746111869812 0.7112804651260376 -0.04381586238741875
0.1837361752986908 0.6345838904380798 0.22747333347797394
0.5212656259536743 0.6595675349235535 -0.0915546715259552
0.4110071361064911 0.7637939453125 -0.02848583459854126
0.4058799743652344 0.7648360729217529 -0.03153558075428009
0.4822695255279541 0.6635605096817017 -0.07196683436632156
0.43739330768585205 0.6557298898696899 -0.04758245497941971
0.4786068797111511 0.6583796739578247 -0.07111895829439163
0.40668633580207825 0.5641711950302124 -0.015218082815408707
0.3635301887989044 0.5804579257965088 -0.013014310039579868
0.42529407143592834 0.6256765127182007 -0.05586272105574608
0.29347699880599976 0.29432186484336853 0.06746560335159302
0.3160479664802551 0.33025670051574707 0.03079225681722164
0.34185558557510376 0.36335015296936035 -0.0018035171087831259
0.40635946393013 0.8097343444824219 -0.03339618816971779
0.4595959186553955 0.3724011778831482 -0.02909681387245655
0.44489169120788574 0.3194224536418915 -0.006712052505463362
0.43383800983428955 0.26089242100715637 0.012894912622869015
0.33336108922958374 0.5016876459121704 0.023772822692990303
0.2638036012649536 0.5298936367034912 0.052666980773210526
0.43594032526016235 0.49280571937561035 0.019587300717830658
0.29452043771743774 0.46049660444259644 0.03718113899230957
0.4552731215953827 0.5320567488670349 -0.02542591094970703
0.4544273018836975 0.6174595952033997 -0.09818585962057114
0.22866132855415344 0.5510451793670654 0.0745081752538681
0.285600483417511 0.5455051064491272 0.02941545844078064
0.3218969404697418 0.553107738494873 0.008371647447347641
0.37179630994796753 0.5499035716056824 0.0009444866445846856
0.40791499614715576 0.5402683019638062 -0.0007135677733458579
0.4357575476169586 0.527925431728363 -0.0037532064598053694
0.4930700361728668 0.496212899684906 -0.04391567036509514
0.2316996157169342 0.60735023021698 0.0612943135201931
0.2704421281814575 0.45719441771507263 0.04770318418741226
0.5106446146965027 0.6509231925010681 -0.12142153084278107
0.43759220838546753 0.5746051073074341 -0.03254009038209915
0.1812351942062378 0.5076378583908081 0.22472155094146729
0.45712336897850037 0.5128876566886902 -0.004040523432195187
0.4210270643234253 0.6280695199966431 -0.03128570318222046
0.31125783920288086 0.48056983947753906 0.043463993817567825
0.45209214091300964 0.600273847579956 -0.08743996173143387
0.1928764283657074 0.7030834555625916 0.2087179273366928
0.43473756313323975 0.48463135957717896 0.026849845424294472
0.47736650705337524 0.5847169756889343 -0.1081886738538742
0.2849350571632385 0.8309682607650757 0.05302983522415161
0.2818455398082733 0.8695632815361023 0.09019520878791809
0.19579729437828064 0.6230733394622803 0.14434535801410675
0.24916291236877441 0.794898271560669 0.08288131654262543
0.21547695994377136 0.4488042891025543 0.12955717742443085
0.40395307540893555 0.9204483032226562 -0.02314881607890129
0.5106490254402161 0.6582198143005371 -0.09052781760692596
0.41263043880462646 0.5940352082252502 -0.02720109559595585
0.23336893320083618 0.5025877952575684 0.0897342637181282
0.35940277576446533 0.48864996433258057 0.018346484750509262
0.37915828824043274 0.4903790354728699 0.01359733659774065
0.3967859148979187 0.769646167755127 -0.029342297464609146
0.23377692699432373 0.6650039553642273 0.06252872198820114
0.4540407955646515 0.9622468948364258 -0.017431428655982018
0.36627283692359924 0.9276396632194519 0.028163054957985878
0.32696425914764404 0.9041078686714172 0.05549907684326172
0.5151588320732117 0.3243292570114136 -0.007384756114333868
0.5100618600845337 0.9674609899520874 -0.019892791286110878
0.39857205748558044 0.48980391025543213 0.014175094664096832
0.41643720865249634 0.4875625967979431 0.019263848662376404
0.42821937799453735 0.48628467321395874 0.025571631267666817
0.24659046530723572 0.4544539451599121 0.07178395986557007
0.41376450657844543 0.46933823823928833 0.017765915021300316
0.39390113949775696 0.4638712406158447 0.012624231167137623
0.3750280737876892 0.46268999576568604 0.012207664549350739
0.35528165102005005 0.4660049080848694 0.016280531883239746
0.3419615626335144 0.4713056683540344 0.023018009960651398
0.19069212675094604 0.4401848316192627 0.19357754290103912
0.3459402322769165 0.48613592982292175 0.025398006662726402
0.5154164433479309 0.6870277523994446 -0.07192665338516235
0.42434588074684143 0.6952764987945557 -0.054677221924066544
0.454545795917511 0.6394619345664978 -0.07506924122571945
0.4778193235397339 0.6868603229522705 -0.07288206368684769
0.5158255100250244 0.4595835208892822 -0.02964327670633793
0.32419419288635254 0.8663496971130371 0.028815992176532745
0.3621678948402405 0.8941231966018677 0.003898117458447814
0.45393839478492737 0.9384536743164062 -0.045328203588724136
0.24616007506847382 0.8297643661499023 0.13421908020973206
0.4279804825782776 0.4780183434486389 0.023195551708340645
0.4770468771457672 0.5373140573501587 -0.05732256919145584
0.5106850266456604 0.9435266256332397 -0.04726394638419151
0.4076468348503113 0.947830319404602 -2.9729242669418454e-05
0.20293709635734558 0.6861106753349304 0.13368089497089386
0.43827807903289795 0.7729597091674805 -0.04848797619342804
0.4328307509422302 0.778271496295929 -0.05333077535033226
0.4283469319343567 0.7862282991409302 -0.05937174707651138
0.42554980516433716 0.7965250611305237 -0.058007992804050446
0.43604063987731934 0.8292657732963562 -0.04472358524799347
0.4051256477832794 0.7522629499435425 -0.03386491909623146
0.4004232585430145 0.750639021396637 -0.03409634530544281
0.3967662751674652 0.7487900257110596 -0.03417288884520531
0.37380510568618774 0.7325085401535034 -0.029331550002098083
0.2730183005332947 0.6750244498252869 0.015651004388928413
0.4748750925064087 0.5121688842773438 -0.032817889004945755
0.45860058069229126 0.461106538772583 0.013649523258209229
0.4403344392776489 0.46617749333381653 0.02124606817960739
0.40993165969848633 0.7532720565795898 -0.03147470951080322
0.26547423005104065 0.747560441493988 0.044134631752967834
0.4855937659740448 0.45785218477249146 -0.016020743176341057
0.4223499596118927 0.8580397367477417 -0.03685186803340912
0.5228999853134155 0.5439121127128601 -0.09946370869874954
0.496876984834671 0.5229557156562805 -0.07040922343730927
0.5204006433486938 0.5178008079528809 -0.07392321527004242
0.4575961232185364 0.5787277221679688 -0.06270399689674377
0.5110961198806763 0.9122278690338135 -0.05601953715085983
0.5102888941764832 0.8767727613449097 -0.051511988043785095
0.466408371925354 0.8735920190811157 -0.04956634342670441
0.3586210012435913 0.802638828754425 -0.010780001990497112
0.3976391553878784 0.6501628160476685 -0.029006237164139748
0.3874306082725525 0.8343568444252014 -0.023291775956749916
0.33657363057136536 0.646998941898346 -0.023428360000252724
0.3712739050388336 0.6780567765235901 -0.029037849977612495
0.3106847405433655 0.6933532357215881 -0.009564333595335484
0.4587630033493042 0.9076910018920898 -0.053087715059518814
0.4386661648750305 0.5940829515457153 -0.04841909930109978
0.33548322319984436 0.8289080858230591 0.006835008971393108
0.3722410798072815 0.8609833717346191 -0.010076282545924187
0.33670350909233093 0.7658905982971191 -0.007260520942509174
0.238994300365448 0.7148807644844055 0.06613567471504211
0.3011445105075836 0.7755791544914246 0.013664962723851204
0.21860745549201965 0.7438693642616272 0.11701922118663788
0.3475079834461212 0.7134093046188354 -0.022042328491806984
0.45796167850494385 0.555720329284668 -0.04383590444922447
0.4628647565841675 0.6302158832550049 -0.10364378988742828
0.4430292844772339 0.6367519497871399 -0.07937702536582947
0.4776880443096161 0.6115365028381348 -0.11915401369333267
0.44050705432891846 0.4350855052471161 0.007043921388685703
0.399715393781662 0.4156733751296997 0.0007968873251229525
0.36377283930778503 0.412273108959198 -0.0007630485924892128
0.3319750130176544 0.4198782742023468 0.006411823444068432
0.3083000183105469 0.4359890818595886 0.01944604143500328
0.2889884114265442 0.48801785707473755 0.051679059863090515
0.19365763664245605 0.5631530284881592 0.1463472545146942
0.31147515773773193 0.5206813216209412 0.029938820749521255
0.3388515114784241 0.5262858867645264 0.016505727544426918
0.37339988350868225 0.5265523195266724 0.008705683052539825
0.4053475260734558 0.5215147137641907 0.007116047199815512
0.4302835464477539 0.5132911205291748 0.00948620680719614
0.4479482173919678 0.5044397115707397 0.009981056675314903
0.18170976638793945 0.5710180997848511 0.23427554965019226
0.4414672255516052 0.6440259218215942 -0.06791684776544571
0.4792776107788086 0.5603442788124084 -0.07934734970331192
0.4842473864555359 0.6320400834083557 -0.12118575721979141
0.4955667555332184 0.6471850275993347 -0.11197835206985474
0.4822292923927307 0.6375751495361328 -0.10997787117958069
0.44693493843078613 0.65226149559021 -0.059917520731687546
0.5016900897026062 0.6493347883224487 -0.11832032352685928
0.5017951130867004 0.6563448309898376 -0.0907394289970398
0.4451488256454468 0.48429039120674133 0.02405523881316185
0.46178099513053894 0.48909860849380493 0.010008729062974453
0.4728189706802368 0.4915526509284973 -0.0075445580296218395
0.3336615264415741 0.4755921959877014 0.030233245342969894
0.31172677874565125 0.4617352783679962 0.030769335106015205
0.5426682233810425 0.5490289330482483 -0.08939498662948608
0.6843315958976746 0.49126070737838745 0.061329301446676254
0.5443833470344543 0.6539546251296997 -0.08777406066656113
0.7467167377471924 0.40786871314048767 0.19980931282043457
0.6149721145629883 0.5093786716461182 0.02877299301326275
0.6381237506866455 0.512814998626709 0.0324324332177639
0.6604622602462769 0.51405268907547 0.04119886830449104
0.6911647319793701 0.5022532939910889 0.06472784280776978
0.5957371592521667 0.5030361413955688 0.029667476192116737
0.6557121872901917 0.43843168020248413 0.027681220322847366
0.6277347803115845 0.4406087398529053 0.025726767256855965
0.6808855533599854 0.44377368688583374 0.037291269749403
0.696002185344696 0.45506131649017334 0.047879885882139206
0.7049818634986877 0.5216692090034485 0.07658197730779648
0.6002244353294373 0.8919955492019653 -0.0169502105563879
0.6930256485939026 0.4845571517944336 0.07058572769165039
0.7564651966094971 0.5258244276046753 0.19332662224769592
0.7281016707420349 0.506187915802002 0.10566707700490952
0.6325920224189758 0.6247937083244324 -0.0066053434275090694
0.5144885778427124 0.7431730031967163 -0.07482197135686874
0.5131197571754456 0.7556324005126953 -0.06605759263038635
0.547760546207428 0.7504158616065979 -0.05791410058736801
0.5721774697303772 0.7582597136497498 -0.03716116026043892
0.5413276553153992 0.7586484551429749 -0.0531761609017849
0.564544677734375 0.7629963755607605 -0.0341210775077343
0.6163043975830078 0.7957816123962402 -0.0013919587945565581
0.5469919443130493 0.6369516253471375 -0.12916795909404755
0.5502579212188721 0.6094049215316772 -0.13394483923912048
0.7249339818954468 0.4383465051651001 0.061271701008081436
0.5834730267524719 0.5553407669067383 -0.006187072489410639
0.5956642627716064 0.6332443952560425 -0.06427557021379471
0.5958330631256104 0.6192682385444641 -0.05548018589615822
0.7006947994232178 0.6270734667778015 0.03159996494650841
0.547035813331604 0.5764548778533936 -0.11580760776996613
0.6759434938430786 0.4046577513217926 0.01496608555316925
0.7067544460296631 0.4169923961162567 0.03696331009268761
0.7296777963638306 0.35639140009880066 0.1540795862674713
0.5694337487220764 0.4208001494407654 -0.01580520160496235
0.603249728679657 0.4511112868785858 0.030479896813631058
0.6352327466011047 0.7694610953330994 0.008418816141784191
0.7308043241500854 0.7870523929595947 0.2243042290210724
0.5765455961227417 0.648618221282959 -0.057777322828769684
0.5572601556777954 0.6562280654907227 -0.06438584625720978
0.6052316427230835 0.7744738459587097 0.005203601438552141
0.5993731021881104 0.7740868330001831 -0.0025044772773981094
0.7175009250640869 0.4024849236011505 0.05282297730445862
0.5945351719856262 0.6453548073768616 -0.05231809988617897
0.631470263004303 0.40371161699295044 -0.0027039761189371347
0.6367152333259583 0.38273221254348755 -0.0045472304336726665
0.6458536982536316 0.2849231958389282 0.05562955513596535
0.7184764742851257 0.3785039782524109 0.09683418273925781
0.63442063331604 0.3323056995868683 0.02526857703924179
0.7353204488754272 0.4291633367538452 0.08579260110855103
0.7377051711082458 0.42044371366500854 0.1389859914779663
0.5137484669685364 0.7506304383277893 -0.0730360671877861
0.5443242192268372 0.7550560832023621 -0.05667666345834732
0.5682502388954163 0.7607343196868896 -0.03785521537065506
0.5702134370803833 0.6531936526298523 -0.05441058427095413
0.602192759513855 0.7743000984191895 0.0009939853334799409
0.5870137214660645 0.7834591865539551 -0.015671005472540855
0.5963864922523499 0.7739207148551941 -0.0034236456267535686
0.5686700344085693 0.6396371722221375 -0.09072475880384445
0.5616064071655273 0.7641884684562683 -0.030944829806685448
0.5388533473014832 0.7603758573532104 -0.04432814568281174
0.5125895142555237 0.7580229640007019 -0.05593233183026314
0.5425199866294861 0.8449292778968811 -0.04350129887461662
0.5134952068328857 0.8104023337364197 -0.06084826588630676
0.5125553607940674 0.7986809015274048 -0.061293650418519974
0.5119544267654419 0.7887582778930664 -0.05383985862135887
0.5110644698143005 0.7815826535224915 -0.04957381635904312
0.5601846575737 0.7810349464416504 -0.026157565414905548
0.5640940070152283 0.7846623063087463 -0.03079332411289215
0.568485677242279 0.7903433442115784 -0.0356057807803154
0.5719950795173645 0.7971401810646057 -0.032095927745103836
0.6135810613632202 0.7196741700172424 -0.02635100483894348
0.7472635507583618 0.6529834866523743 0.278482586145401
0.5779198408126831 0.7791379690170288 -0.012455587275326252
0.5823838710784912 0.780879557132721 -0.015573029406368732
0.5499123930931091 0.666240930557251 -0.06718050688505173
0.5844871401786804 0.6609959006309509 -0.037895988672971725
0.5536103248596191 0.661467969417572 -0.06625150889158249
0.607750415802002 0.5724150538444519 0.00239733443595469
0.6464658379554749 0.5919942259788513 0.010824522003531456
0.5983060002326965 0.6321149468421936 -0.04271302744746208
0.6983528137207031 0.314452201128006 0.10270272195339203
0.685790479183197 0.34841373562812805 0.05957803875207901
0.6838082075119019 0.38538992404937744 0.02355196326971054
0.5983985066413879 0.8157184720039368 -0.017092453315854073
0.5798346996307373 0.3854837715625763 -0.020890677347779274
0.5793061852455139 0.32686519622802734 0.003152733901515603
0.5869004130363464 0.2694847285747528 0.024975353851914406
0.6796775460243225 0.5112496614456177 0.0535832904279232
0.7260663509368896 0.5424399971961975 0.09074120223522186
0.5833764672279358 0.4964953660964966 0.03282421454787254
0.7141202688217163 0.4698736071586609 0.07106316089630127
0.5675351619720459 0.536612868309021 -0.014937978237867355
0.5836305618286133 0.6224767565727234 -0.08812056481838226
0.7474665641784668 0.5705560445785522 0.11772113293409348
0.7112772464752197 0.55955570936203 0.06537153571844101
0.6830186247825623 0.5672906041145325 0.03908716142177582
0.6396144032478333 0.5599002242088318 0.0243577528744936
0.6077746748924255 0.5464573502540588 0.016905397176742554
0.5839443206787109 0.532498836517334 0.009705417789518833
0.5396324992179871 0.4982353448867798 -0.0395907387137413
0.7482888698577881 0.6261478066444397 0.10452219098806381
0.728047788143158 0.46940213441848755 0.08540914952754974
0.5366519689559937 0.6518442034721375 -0.11922767758369446
0.5838744640350342 0.5803358554840088 -0.019753942266106606
0.7525501251220703 0.5288679599761963 0.2778892517089844
0.5666186213493347 0.5169253349304199 0.006139774341136217
0.5982387065887451 0.6347258687019348 -0.01861885003745556
0.7015143632888794 0.4871175289154053 0.07569210231304169
0.5827652215957642 0.6051739454269409 -0.07717873156070709
0.7429908514022827 0.7187005877494812 0.2583051025867462
0.5839034914970398 0.487748920917511 0.040582019835710526
0.5653671026229858 0.587925910949707 -0.10071863234043121
0.6990861296653748 0.8409342765808105 0.08578246831893921
0.6927213668823242 0.8771233558654785 0.12632623314857483
0.7611913084983826 0.6417613625526428 0.1911519318819046
0.7247344255447388 0.8074271082878113 0.12127895653247833
0.747282862663269 0.46951496601104736 0.17415279150009155
0.6063319444656372 0.9231306910514832 -0.0072485413402318954
0.5314650535583496 0.6589992642402649 -0.08916094154119492
0.6042016744613647 0.6016243100166321 -0.011502880603075027
0.7439392805099487 0.514409065246582 0.13201938569545746
0.6611520051956177 0.49732518196105957 0.0442010797560215
0.640876293182373 0.49703022837638855 0.036521878093481064
0.5912278890609741 0.7867483496665955 -0.0117423627525568
0.7456128597259521 0.6824163794517517 0.10467882454395294
0.562917947769165 0.9630645513534546 -0.007704206742346287
0.6330586671829224 0.9305720925331116 0.051854830235242844
0.6618294715881348 0.9088259339332581 0.08509968966245651
0.6209577322006226 0.49441400170326233 0.03382556140422821
0.6026282906532288 0.49112647771835327 0.0360240563750267
0.5902353525161743 0.4896901547908783 0.0405312106013298
0.7399342060089111 0.46659815311431885 0.1124570295214653
0.6071947813034058 0.4726736545562744 0.03492061421275139
0.6279404163360596 0.4656590521335602 0.032611846923828125
0.6490516662597656 0.46325910091400146 0.03542565181851387
0.6698160171508789 0.46679264307022095 0.04268265515565872
0.682004451751709 0.4737316966056824 0.051032744348049164
0.7533600330352783 0.4624038338661194 0.24578696489334106
0.6748635768890381 0.494964063167572 0.053404904901981354
0.5928630232810974 0.7018250823020935 -0.04119749367237091
0.5777184963226318 0.6441678404808044 -0.0663030818104744
0.5499886274337769 0.6898126602172852 -0.0671374648809433
0.6683960556983948 0.8734728693962097 0.05583510920405388
0.6386696100234985 0.8986064195632935 0.025360720232129097
0.5637183785438538 0.9397060871124268 -0.036463040858507156
0.7137141227722168 0.8400164246559143 0.1769019216299057
0.5917604565620422 0.48159360885620117 0.03841954469680786
0.5560149550437927 0.5403841733932495 -0.05032961443066597
0.6018393039703369 0.9495267868041992 0.017402123659849167
0.7557786703109741 0.7029750347137451 0.17896592617034912
0.5371659994125366 0.781569242477417 -0.03846731409430504
0.5404248237609863 0.7872951030731201 -0.04307859018445015
0.543158769607544 0.7956705093383789 -0.048880685120821
0.5452418327331543 0.8060773611068726 -0.04720861092209816
0.5745437145233154 0.8330793976783752 -0.032617926597595215
0.5845810770988464 0.7682380080223083 -0.016719356179237366
0.5883054733276367 0.7672290205955505 -0.01561568584293127
0.5916340947151184 0.7659056782722473 -0.014696277678012848
0.6286320090293884 0.7424221634864807 -0.0073157260194420815
0.7185142636299133 0.6907440423965454 0.05220481753349304
0.5529835224151611 0.5155600309371948 -0.025452595204114914
0.5664219260215759 0.46539974212646484 0.022530464455485344
0.5814054608345032 0.47058433294296265 0.03366199508309364
0.5808274149894714 0.7688277363777161 -0.015368930995464325
0.7191832065582275 0.7616591453552246 0.08105756342411041
0.5457358956336975 0.4621184468269348 -0.011125380173325539
0.5876504182815552 0.8617410659790039 -0.023769378662109375
0.5413721799850464 0.5246212482452393 -0.06672294437885284
0.57306969165802 0.5832455158233643 -0.05331464484333992
0.5505222678184509 0.8751569986343384 -0.04331040009856224
0.6397829055786133 0.8113333582878113 0.012004205025732517
0.6161009669303894 0.6583012938499451 -0.012310094200074673
0.6160770654678345 0.8403526544570923 -0.005430313758552074
0.6698765754699707 0.6596181392669678 0.003026452846825123
0.6369811296463013 0.6880787014961243 -0.007972963154315948
0.6884604692459106 0.7068862318992615 0.020502682775259018
0.5594797730445862 0.9093626737594604 -0.04482255503535271
0.5857542753219604 0.599779486656189 -0.036713797599077225
0.6612944006919861 0.8373668789863586 0.0327218696475029
0.6311176419258118 0.8665677905082703 0.009888021275401115
0.660024106502533 0.7771319150924683 0.02034485526382923
0.7393134236335754 0.7308344841003418 0.10700676590204239
0.691087543964386 0.7874751091003418 0.04517023637890816
0.744997501373291 0.7588648796081543 0.16042937338352203
0.6540254354476929 0.7249085307121277 0.0034334189258515835
0.5692012310028076 0.5601503252983093 -0.03375290706753731
0.5765331387519836 0.6346611976623535 -0.09453582763671875
0.5882605314254761 0.6420912742614746 -0.06896154582500458
0.5686201453208923 0.614951491355896 -0.11137299239635468
0.5874568819999695 0.4424436688423157 0.01914464309811592
0.6287316083908081 0.4270944595336914 0.01823997125029564
0.6643159985542297 0.4254343509674072 0.022156519815325737
0.692057192325592 0.43289610743522644 0.03449735790491104
0.7093102931976318 0.44743263721466064 0.05094471946358681
0.7123045325279236 0.4965279698371887 0.08644096553325653
0.7612557411193848 0.5833311676979065 0.1943136602640152
0.6931415796279907 0.5319107174873352 0.0619969516992569
0.6694050431251526 0.5375978946685791 0.044568900018930435
0.6390713453292847 0.534728467464447 0.03171436861157417
0.6102967262268066 0.5266591906547546 0.025123819708824158
0.5880365371704102 0.5172125101089478 0.022980237379670143
0.5728017091751099 0.5077199935913086 0.020749950781464577
0.7484098076820374 0.5910151600837708 0.28735706210136414
0.5860854983329773 0.6492502689361572 -0.0576385036110878
0.5590610504150391 0.563300371170044 -0.07204978168010712
0.5623984932899475 0.6349291205406189 -0.11549868434667587
0.5476113557815552 0.6490592956542969 -0.10859252512454987
0.5604826211929321 0.6407634019851685 -0.10402413457632065
0.5785244107246399 0.6568494439125061 -0.051131170243024826
0.5438328981399536 0.6508380174636841 -0.11559868603944778
0.5389792323112488 0.6575962901115417 -0.08838751167058945
0.5752313137054443 0.48785579204559326 0.035303995013237
0.5612372756004333 0.4923030734062195 0.018318042159080505
0.5538074970245361 0.4953776001930237 -0.00043960337643511593
0.6884754300117493 0.47947096824645996 0.0595829002559185
0.7038440108299255 0.46919751167297363 0.06218953803181648
0.38941454887390137 0.4762938618659973 0.021906808018684387
0.4094846844673157 0.47658389806747437 0.021906808018684387
0.3902580738067627 0.45545297861099243 0.021906808018684387
0.36822324991226196 0.47613590955734253 0.021906808018684387
0.3882455825805664 0.49727362394332886 0.021906808018684387
0.6551054120063782 0.4813995361328125 0.044480107724666595
0.6750202775001526 0.4821307063102722 0.044480107724666595
0.654113233089447 0.46179431676864624 0.044480107724666595
0.6342742443084717 0.4804815351963043 0.044480107724666595
0.6556186676025391 0.5013278126716614 0.044480107724666595
