ply
format ascii 1.0
element vertex 478
property float x
property float y
property float z
end_header
0.5126651525497437 0.6728268265724182 -0.06517242640256882
0.5389682650566101 0.6194270253181458 -0.13312149047851562
0.5277604460716248 0.6395178437232971 -0.07312741875648499
0.511168360710144 0.5413942337036133 -0.10446907579898834
0.5395510792732239 0.5946296453475952 -0.14124755561351776
0.5360120534896851 0.5632752180099487 -0.1316721886396408
0.523732602596283 0.4890117943286896 -0.06721960753202438
0.331794410943985 0.488027423620224 0.0034208400174975395
0.5200819969177246 0.43327733874320984 -0.04948826879262924
0.5198962688446045 0.40110689401626587 -0.0536743625998497
0.5119258165359497 0.2777023911476135 -0.03102671168744564
0.512752115726471 0.6793093681335449 -0.06158017739653587
0.512333869934082 0.685359001159668 -0.05503050610423088
0.5116391181945801 0.6889075636863708 -0.045832861214876175
0.5127443671226501 0.712354838848114 -0.03720656409859657
0.5139042735099792 0.7204154133796692 -0.04268310219049454
0.5144341588020325 0.7305983901023865 -0.04999091103672981
0.5143305063247681 0.7420660853385925 -0.050217680633068085
0.51761794090271 0.7729053497314453 -0.035098638385534286
0.5358090996742249 0.6322448253631592 -0.12096890807151794
0.507266104221344 0.6311259865760803 -0.09162362664937973
0.21041040122509003 0.39372119307518005 0.0991990715265274
0.40477174520492554 0.5078390836715698 -0.011693351902067661
0.38005438446998596 0.5092208981513977 -0.013308968394994736
0.3553363084793091 0.5072550773620605 -0.009980362839996815
0.31940925121307373 0.4941021502017975 0.005684691481292248
0.4255222678184509 0.503382682800293 -0.005258579272776842
0.37145817279815674 0.4380481541156769 -0.024537228047847748
0.3989443778991699 0.44259339570999146 -0.019128644838929176
0.3437087833881378 0.44109511375427246 -0.01971324346959591
0.32373571395874023 0.45085299015045166 -0.011763245798647404
0.29822009801864624 0.5066161751747131 0.016028372570872307
0.42268607020378113 0.8221260905265808 -0.01504175178706646
0.32148706912994385 0.4815840721130371 0.010379588231444359
0.20169344544410706 0.5017936825752258 0.11111664772033691
0.26636919379234314 0.49103620648384094 0.036320142447948456
0.383627712726593 0.5924393534660339 -0.03713139146566391
0.4731178283691406 0.670141339302063 -0.06778775155544281
0.4747498631477356 0.6848297715187073 -0.05539119243621826
0.4336394965648651 0.6761281490325928 -0.056331343948841095
0.4063238799571991 0.6814851760864258 -0.03565261885523796
0.4423810839653015 0.68578040599823 -0.04653497412800789
0.4171183407306671 0.687426745891571 -0.027594810351729393
0.37690070271492004 0.7212756276130676 0.002558364300057292
0.5182344317436218 0.6193115711212158 -0.13345912098884583
0.5161858797073364 0.5949352383613586 -0.14127373695373535
0.2886345088481903 0.4259446859359741 -0.011424476280808449
0.4422801733016968 0.5386499166488647 -0.03269152715802193
0.44426870346069336 0.6073709726333618 -0.08345099538564682
0.44078290462493896 0.5940006375312805 -0.07627589255571365
0.2971467673778534 0.5871047973632812 -0.015551980584859848
0.5139976143836975 0.5658575296401978 -0.12800340354442596
0.3554115891456604 0.3967771530151367 -0.042699262499809265
0.3177427053451538 0.4061492085456848 -0.029698560014367104
0.24468466639518738 0.3479723334312439 0.056531332433223724
0.46710020303726196 0.4228839576244354 -0.049376558512449265
0.4220189154148102 0.45454996824264526 -0.008808137848973274
0.3514930009841919 0.6946230530738831 0.003144497750326991
0.2159135937690735 0.7383310794830322 0.17538568377494812
0.4620389938354492 0.621799647808075 -0.07186595350503922
0.4838349521160126 0.6285908818244934 -0.07007357478141785
0.37183600664138794 0.6900862455368042 0.008273957297205925
0.37933817505836487 0.6907947659492493 0.004853157326579094
0.3014969825744629 0.3918476700782776 -0.02007812075316906
0.4377988576889038 0.6147730946540833 -0.0699661448597908
0.4040576219558716 0.400315523147583 -0.04977754130959511
0.4004487097263336 0.38171789050102234 -0.055624525994062424
0.36361074447631836 0.28825193643569946 -0.020388342440128326
0.2745947539806366 0.37205082178115845 0.013827917166054249
0.38687342405319214 0.3347163200378418 -0.037613920867443085
0.2691879868507385 0.41709381341934204 0.006349167786538601
0.24000512063503265 0.4093790054321289 0.051482878625392914
0.4734548330307007 0.6782557368278503 -0.06368812918663025
0.43793001770973206 0.6813032031059265 -0.051679398864507675
0.41156792640686035 0.6845571994781494 -0.03319813683629036
0.46637675166130066 0.6250860095024109 -0.06502977013587952
0.37569430470466614 0.6904103755950928 0.006788408383727074
0.3929422199726105 0.7012966871261597 -0.005537141114473343
0.3829866051673889 0.6912741661071777 0.004560294561088085
0.4828442633152008 0.6186575293540955 -0.10410463809967041
0.42195719480514526 0.6893450021743774 -0.02411654405295849
0.44653335213661194 0.688466489315033 -0.03743378818035126
0.4766746461391449 0.6883665919303894 -0.04632607474923134
0.47892239689826965 0.7729352712631226 -0.03626663610339165
0.47374093532562256 0.7399022579193115 -0.051426880061626434
0.47524696588516235 0.7285467386245728 -0.051306337118148804
0.4768356680870056 0.7184826135635376 -0.04333031177520752
0.47855761647224426 0.7113264203071594 -0.037719473242759705
0.42356443405151367 0.7039176821708679 -0.01723466068506241
0.4190385937690735 0.706569492816925 -0.02219715714454651
0.41320133209228516 0.7114302515983582 -0.02649329975247383
0.4086589515209198 0.7175520658493042 -0.022872760891914368
0.39111050963401794 0.6660901308059692 -0.03150441125035286
0.1847250759601593 0.6161907315254211 0.20564308762550354
0.5322545766830444 0.6369621753692627 -0.09001230448484421
0.40499478578567505 0.6989012956619263 -0.003213297575712204
0.3990876078605652 0.6995667219161987 -0.005812301300466061
0.49158161878585815 0.6367881298065186 -0.07095135003328323
0.4421018958091736 0.6261326670646667 -0.050143420696258545
0.4881165027618408 0.6328346133232117 -0.07112018764019012
0.4125760793685913 0.5497412085533142 -0.028586741536855698
0.36704322695732117 0.5616747140884399 -0.027383828535676003
0.43205133080482483 0.6026029586791992 -0.06288369745016098
0.29409003257751465 0.31167906522750854 0.0143917016685009
0.32175394892692566 0.3459011912345886 -0.01500149630010128
0.3455505073070526 0.3794735074043274 -0.040046144276857376
0.40432941913604736 0.744198739528656 -0.010680283419787884
0.460395872592926 0.3917185068130493 -0.059145811945199966
0.4489239454269409 0.33356380462646484 -0.04637204855680466
0.4335865378379822 0.2785032093524933 -0.03551144897937775
0.33286428451538086 0.5024004578590393 -0.0024774991907179356
0.27003172039985657 0.5207985639572144 0.026313908398151398
0.4392299950122833 0.49864763021469116 -0.0009064453188329935
0.29661208391189575 0.46177130937576294 0.005101868882775307
0.46269920468330383 0.5249242186546326 -0.039384376257658005
0.46690046787261963 0.6018176078796387 -0.10502462089061737
0.23300758004188538 0.5402624011039734 0.04867752641439438
0.29166069626808167 0.5335417985916138 0.0067348601296544075
0.3283560872077942 0.54035484790802 -0.010614436119794846
0.3782503604888916 0.539057731628418 -0.015558382496237755
0.4140797257423401 0.5327222347259521 -0.01610405743122101
0.441097229719162 0.5240604281425476 -0.018865734338760376
0.5001874566078186 0.4951709806919098 -0.061293236911296844
0.2317085713148117 0.5870318412780762 0.042598262429237366
0.27545973658561707 0.4575015902519226 0.012658564373850822
0.5230414867401123 0.631611704826355 -0.12155859917402267
0.44446393847465515 0.5603172779083252 -0.04362292215228081
0.18041610717773438 0.5017681121826172 0.18565362691879272
0.46195581555366516 0.5132300853729248 -0.02008376270532608
0.4254226088523865 0.6026938557624817 -0.0377790741622448
0.30911126732826233 0.48074978590011597 0.013749080710113049
0.46324700117111206 0.5855289697647095 -0.09586288779973984
0.19439178705215454 0.677313506603241 0.1962144523859024
0.4370603859424591 0.4925089180469513 0.004641691222786903
0.489725798368454 0.5738241076469421 -0.11667341738939285
0.2921712398529053 0.779187798500061 0.06390368193387985
0.294125497341156 0.8149074912071228 0.10184311121702194
0.19800731539726257 0.6061602830886841 0.12358247488737106
0.2491144835948944 0.7528233528137207 0.08671814948320389
0.2191745638847351 0.45198947191238403 0.08746101707220078
0.4211008846759796 0.8488806486129761 -0.004926084540784359
0.5222566723823547 0.636202335357666 -0.08952250331640244
0.41775771975517273 0.574940025806427 -0.03773589804768562
0.24037836492061615 0.49587178230285645 0.056595612317323685
0.35822242498397827 0.496206134557724 -0.007719025947153568
0.3798791766166687 0.49820539355278015 -0.010868493467569351
0.38770154118537903 0.7038683295249939 -0.00263713370077312
0.2287968397140503 0.6385791301727295 0.051430750638246536
0.4702097773551941 0.8764283657073975 0.00294206733815372
0.3878140449523926 0.8565912842750549 0.04562205821275711
0.3463183045387268 0.8403217196464539 0.07138615101575851
0.5165765285491943 0.33517584204673767 -0.04297022148966789
0.5177730321884155 0.8767160177230835 0.0037285233847796917
0.40005776286125183 0.49724122881889343 -0.00900252815335989
0.4183105230331421 0.49496981501579285 -0.0031113061122596264
0.43058380484580994 0.49384719133377075 0.0032831761054694653
0.25221890211105347 0.453676700592041 0.03371886909008026
0.4134589433670044 0.47772711515426636 -0.0068025123327970505
0.3927014172077179 0.47053155303001404 -0.01348765566945076
0.37326642870903015 0.46789008378982544 -0.015572022646665573
0.3525646924972534 0.469393789768219 -0.012480824254453182
0.33815255761146545 0.47366148233413696 -0.006227367091923952
0.190454363822937 0.4419717490673065 0.1470533013343811
0.3431246280670166 0.49242132902145386 -0.0020986092276871204
0.5247986316680908 0.6541891694068909 -0.06531451642513275
0.42587319016456604 0.6561920046806335 -0.048067398369312286
0.4648496210575104 0.6196125745773315 -0.08006373047828674
0.4849909245967865 0.6536592841148376 -0.06779738515615463
0.5201600193977356 0.4614158272743225 -0.04956533759832382
0.3390127718448639 0.8070266246795654 0.045583635568618774
0.37937235832214355 0.828792929649353 0.021951422095298767
0.46907222270965576 0.8600444197654724 -0.025585349649190903
0.2511482238769531 0.7841566801071167 0.13933992385864258
0.4294452965259552 0.48692411184310913 -6.794043292757124e-05
0.4860086143016815 0.5311905741691589 -0.07023577392101288
0.519684374332428 0.8593997955322266 -0.02441777102649212
0.4281628131866455 0.8691762685775757 0.018451720476150513
0.20313408970832825 0.6619158983230591 0.12104947865009308
0.44889792799949646 0.7082861661911011 -0.029454145580530167
0.4447149336338043 0.7134339213371277 -0.03497263416647911
0.4408760666847229 0.7212573885917664 -0.04055829718708992
0.4382294714450836 0.7312318086624146 -0.03850986063480377
0.4380494952201843 0.7623193860054016 -0.02613483928143978
0.3958480954170227 0.6890466213226318 -0.010347794741392136
0.3904210329055786 0.6874704957008362 -0.010879261419177055
0.3858630657196045 0.6857655644416809 -0.012377680279314518
0.36302003264427185 0.6776106357574463 -0.013157428242266178
0.2650136947631836 0.6446971297264099 0.00813581794500351
0.4823027551174164 0.508624792098999 -0.04851097986102104
0.4600476324558258 0.4706554412841797 -0.00784972682595253
0.44249099493026733 0.4755060076713562 -0.0015822348650544882
0.4013938903808594 0.6903228759765625 -0.00816718116402626
0.2589068114757538 0.7084286212921143 0.04491202533245087
0.4890705347061157 0.46762582659721375 -0.037562113255262375
0.4291306138038635 0.7923035025596619 -0.019983656704425812
0.5316595435142517 0.5378223657608032 -0.1090182289481163
0.505881667137146 0.5194272994995117 -0.08450661599636078
0.5277562737464905 0.5144570469856262 -0.08699005842208862
0.4667370319366455 0.5660260915756226 -0.07277566939592361
0.5203191041946411 0.8347045183181763 -0.036634039133787155
0.5189769268035889 0.8026766180992126 -0.0366516150534153
0.4745473265647888 0.8038219213485718 -0.03548109903931618
0.36230990290641785 0.7411868572235107 0.009320477955043316
0.4009431004524231 0.6207053065299988 -0.0332041010260582
0.3937607407569885 0.7709354758262634 -0.0032137352973222733
0.3336903750896454 0.6192503571510315 -0.031716156750917435
0.36984968185424805 0.643038809299469 -0.02742600254714489
0.3038526177406311 0.6574152708053589 -0.012125293724238873
0.4706021249294281 0.8357066512107849 -0.03626726567745209
0.4461868405342102 0.5771552324295044 -0.05773328244686127
0.34542882442474365 0.77031409740448 0.024121029302477837
0.38436609506607056 0.7982026934623718 0.007912673056125641
0.33496224880218506 0.7087212800979614 0.006399986799806356
0.2325814962387085 0.6828981637954712 0.06132848560810089
0.3011634349822998 0.7259001731872559 0.022753218188881874
0.2178938388824463 0.7119221687316895 0.11280312389135361
0.3401932120323181 0.6665864586830139 -0.015483676455914974
0.4661614000797272 0.5459283590316772 -0.0556013397872448
0.47571825981140137 0.6140416264533997 -0.10940580070018768
0.4529910087585449 0.6163333058357239 -0.08464821428060532
0.49161970615386963 0.5983331203460693 -0.12485779821872711
0.4409264624118805 0.4456002712249756 -0.01743987575173378
0.4013931155204773 0.42684146761894226 -0.026757219806313515
0.36610379815101624 0.4220622479915619 -0.030319180339574814
0.3345860242843628 0.42712679505348206 -0.0247025266289711
0.3102852702140808 0.44003573060035706 -0.012739100493490696
0.2912106513977051 0.48588600754737854 0.02164122462272644
0.1971607506275177 0.5536568760871887 0.11813193559646606
0.31425219774246216 0.5150595307350159 0.005493075121194124
0.34328752756118774 0.5213721394538879 -0.004984380677342415
0.37793219089508057 0.5227998495101929 -0.010346941649913788
0.4094245135784149 0.5194250345230103 -0.010818538255989552
0.4338161051273346 0.5132778286933899 -0.007752949837595224
0.45105651021003723 0.506770133972168 -0.007496872451156378
0.18132397532463074 0.5585625767707825 0.2032175064086914
0.4495277404785156 0.6201826930046082 -0.07256530970335007
0.48951247334480286 0.551922082901001 -0.09013568609952927
0.49822649359703064 0.6167093515396118 -0.12475816160440445
0.5080913305282593 0.6284791827201843 -0.11300855875015259
0.49513158202171326 0.6209474802017212 -0.11340697854757309
0.45327144861221313 0.6254921555519104 -0.06293300539255142
0.5143983960151672 0.6303831934928894 -0.11872548609972
0.5136688351631165 0.634678304195404 -0.09049226343631744
0.44820624589920044 0.4917197525501251 0.002960209036245942
0.46432238817214966 0.4947313964366913 -0.008929669857025146
0.4769997000694275 0.4967406094074249 -0.025213060900568962
0.32910239696502686 0.4775990843772888 0.0007552769966423512
0.310491681098938 0.46379441022872925 0.0003783522988669574
0.5496843457221985 0.54095059633255 -0.09694770723581314
0.6628703474998474 0.4816250205039978 0.058561623096466064
0.5538622736930847 0.6302207708358765 -0.08583856374025345
0.7264193296432495 0.39340656995773315 0.18684345483779907
0.6085960865020752 0.5037614107131958 0.023966629058122635
0.6287786364555359 0.5037775635719299 0.029536010697484016
0.6481791734695435 0.5008195042610168 0.03963731229305267
0.6721868515014648 0.4872974157333374 0.06434644758701324
0.5912414789199829 0.49952709674835205 0.02263624593615532
0.6344020366668701 0.43720388412475586 0.01997734047472477
0.6114374399185181 0.44142574071884155 0.015631098300218582
0.6563460826873779 0.4394702911376953 0.03185553103685379
0.6708847284317017 0.44780462980270386 0.04397883266210556
0.6909103393554688 0.4982657730579376 0.07947420328855515
0.6031563878059387 0.8131110668182373 0.011456731706857681
0.6696457862854004 0.47583991289138794 0.06811198592185974
0.7390289902687073 0.49658337235450745 0.19813965260982513
0.7116290926933289 0.4799453020095825 0.10753906518220901
0.6397597789764404 0.5895963907241821 -0.0005786214605905116
0.5493051409721375 0.668696403503418 -0.05796955153346062
0.5460395812988281 0.6837342977523804 -0.04616241902112961
0.5833964347839355 0.6730602383613586 -0.03634602576494217
0.605097234249115 0.677927553653717 -0.00823015347123146
0.5733880400657654 0.6836879253387451 -0.028767148032784462
0.5937074422836304 0.6847335696220398 -0.003976999782025814
0.6299085021018982 0.7152774930000305 0.037739288061857224
0.55731600522995 0.6186304688453674 -0.1286277323961258
0.559840977191925 0.5943878293037415 -0.1355506181716919
0.6988399028778076 0.41688984632492065 0.05511604994535446
0.5850318670272827 0.537594199180603 -0.00899125449359417
0.6026703715324402 0.6051396727561951 -0.06145975738763809
0.6016322374343872 0.5921151041984558 -0.053578510880470276
0.7087060213088989 0.5818547606468201 0.045210521668195724
0.5553959608078003 0.5653552412986755 -0.12062997370958328
0.6517812013626099 0.3940655291080475 0.002769898623228073
0.6795693635940552 0.4003484845161438 0.0278822910040617
0.7121822237968445 0.3497449457645416 0.13478852808475494
0.5627670884132385 0.42227470874786377 -0.03479398787021637
0.5920391082763672 0.4525671601295471 0.019279805943369865
0.6517940759658813 0.6888362765312195 0.04558868706226349
0.7184624671936035 0.7232449650764465 0.2570059895515442
0.5852354764938354 0.6199412941932678 -0.05517852306365967
0.5666730403900146 0.6277039647102356 -0.06163869425654411
0.6302447319030762 0.6870536208152771 0.0453161858022213
0.6227962374687195 0.6878664493560791 0.03764529526233673
0.6893196105957031 0.38380399346351624 0.04156779497861862
0.6030547618865967 0.6125641465187073 -0.04841320961713791
0.6141949892044067 0.39921051263809204 -0.018761087208986282
0.6162170171737671 0.3801618814468384 -0.023634223267436028
0.6367762684822083 0.29177677631378174 0.02356351725757122
0.7058278322219849 0.3716508448123932 0.08216649293899536
0.6295068264007568 0.3372577428817749 -0.0006149737164378166
0.7094603776931763 0.4057437777519226 0.07782472670078278
0.7224652767181396 0.40682169795036316 0.12913033366203308
0.5484856367111206 0.6770434975624084 -0.053892023861408234
0.5787074565887451 0.6788681149482727 -0.032771751284599304
0.5998679995536804 0.6814031600952148 -0.007834278978407383
0.5799720883369446 0.6233324408531189 -0.051687441766262054
0.6265674829483032 0.6874246001243591 0.041161611676216125
0.6146581172943115 0.6989321708679199 0.023582246154546738
0.6190682649612427 0.688385546207428 0.036467526108026505
0.5765912532806396 0.6173407435417175 -0.0892036035656929
0.5880518555641174 0.6868208050727844 -0.0016694886144250631
0.5683095455169678 0.6865070462226868 -0.020699840039014816
0.5428830981254578 0.6873576641082764 -0.03687050938606262
0.5525304079055786 0.7702661752700806 -0.02713175117969513
0.5513989329338074 0.7393558025360107 -0.04130743816494942
0.5498012900352478 0.7277837991714478 -0.04076525196433067
0.5469977855682373 0.7176433801651001 -0.033028796315193176
0.5432162284851074 0.710527241230011 -0.027896171435713768
0.5877339839935303 0.7020050287246704 0.005271281581372023
0.5936484336853027 0.7048037052154541 0.00031055620638653636
0.6004967093467712 0.7097749710083008 -0.003269780892878771
0.6056535243988037 0.7160435914993286 0.001818380900658667
0.6300773620605469 0.6621930599212646 -0.0006068283109925687
0.7282272577285767 0.6070290803909302 0.2963198125362396
0.6013733148574829 0.6966229677200317 0.024810919538140297
0.6082690358161926 0.6972401738166809 0.022292930632829666
0.5593441128730774 0.6360747814178467 -0.06270869821310043
0.5952063798904419 0.6240926384925842 -0.03310361132025719
0.5629283785820007 0.6321215033531189 -0.06293884664773941
0.6099503040313721 0.5481570363044739 0.0033199028111994267
0.6507475972175598 0.5589970946311951 0.01601371541619301
0.6052384376525879 0.600663959980011 -0.03944870084524155
0.684525191783905 0.3149402141571045 0.07784383744001389
0.676668643951416 0.34742051362991333 0.039517611265182495
0.657765805721283 0.3750280737876892 0.00830795243382454
0.6105952262878418 0.737946093082428 0.018164264038205147
0.5669533014297485 0.3913877010345459 -0.04328782111406326
0.5779807567596436 0.3351256847381592 -0.02745935320854187
0.5814661979675293 0.2807842791080475 -0.013511632569134235
0.6636977791786194 0.49567291140556335 0.05296550691127777
0.714246392250061 0.5108731985092163 0.09695848822593689
0.5799590349197388 0.49471500515937805 0.023892419412732124
0.6909166574478149 0.45372387766838074 0.06908566504716873
0.5693844556808472 0.5241434574127197 -0.02050998993217945
0.5905934572219849 0.6002979874610901 -0.08726084977388382
0.738763689994812 0.5344662070274353 0.12870977818965912
0.7025020122528076 0.5261865854263306 0.07318975031375885
0.6780838966369629 0.5352904796600342 0.04602087661623955
0.6384811401367188 0.5353327989578247 0.02766549587249756
0.608512282371521 0.5292055010795593 0.01652168296277523
0.5860458016395569 0.5210018157958984 0.0055864667519927025
0.5437679290771484 0.49498242139816284 -0.05341627821326256
0.7464776635169983 0.5796449780464172 0.12231780588626862
0.7062590718269348 0.4472222924232483 0.083158940076828
0.5472036004066467 0.6310815811157227 -0.11771078407764435
0.5876184701919556 0.5591598153114319 -0.020788658410310745
0.7305590510368347 0.4973573088645935 0.27969324588775635
0.5693688988685608 0.5109188556671143 -0.0012752152979373932
0.6055516004562378 0.6008309721946716 -0.014646627008914948
0.6793937683105469 0.47403818368911743 0.07440245151519775
0.5885207653045654 0.5841873288154602 -0.07773514837026596
0.7263916730880737 0.6648070216178894 0.2834691107273102
0.5799040794372559 0.48788803815841675 0.030461395159363747
0.5720515847206116 0.5727810859680176 -0.10350774228572845
0.6934381723403931 0.7635667324066162 0.12345903366804123
0.6800412535667419 0.7971680164337158 0.16403436660766602
0.7491776943206787 0.5962643623352051 0.2105182260274887
0.7222701907157898 0.7371695637702942 0.15686120092868805
0.7303035259246826 0.4487878084182739 0.17083697021007538
0.6034299731254578 0.8379977345466614 0.02345948852598667
0.5417206883430481 0.6358997225761414 -0.08715440332889557
0.6090601682662964 0.5732532739639282 -0.009470553137362003
0.7291145324707031 0.4826858639717102 0.13518480956554413
0.6446571350097656 0.48998647928237915 0.040755949914455414
0.6279394030570984 0.4931003749370575 0.032041165977716446
0.6200200319290161 0.7014914155006409 0.02849159575998783
0.7493652701377869 0.6285352110862732 0.12865474820137024
0.5613724589347839 0.8701534867286682 0.01956600695848465
0.6208875775337219 0.8418607711791992 0.08632177859544754
0.6473252773284912 0.8233566284179688 0.12228227406740189
0.611253023147583 0.4930659830570221 0.027697525918483734
0.5952631831169128 0.4908725619316101 0.028265953063964844
0.58504718542099 0.4893674850463867 0.031348563730716705
0.7195839881896973 0.44070327281951904 0.10979072749614716
0.5966125726699829 0.4738069772720337 0.02513507567346096
0.6135931015014648 0.468269407749176 0.023880990222096443
0.6306136250495911 0.46666768193244934 0.027985405176877975
0.6475259065628052 0.4679854214191437 0.037115611135959625
0.6582890748977661 0.4709916412830353 0.046739984303712845
0.7315741777420044 0.4399763345718384 0.23947690427303314
0.6554592251777649 0.48580697178840637 0.050534334033727646
0.6059528589248657 0.6536085605621338 -0.024509839713573456
0.5857869982719421 0.6177200675010681 -0.06458469480276108
0.5605615377426147 0.6526579856872559 -0.05786366015672684
0.6593455076217651 0.7921390533447266 0.09408796578645706
0.6312543153762817 0.8148553967475891 0.06024327874183655
0.5662692785263062 0.8541393876075745 -0.009927725419402122
0.7028460502624512 0.7673587799072266 0.21310675144195557
0.5852211117744446 0.4821123480796814 0.028426941484212875
0.5603981018066406 0.5305929183959961 -0.05769902095198631
0.59419846534729 0.8578986525535583 0.04841583967208862
0.7472704648971558 0.6494441628456116 0.2045334428548813
0.5680428147315979 0.706876814365387 -0.012335805222392082
0.5739104747772217 0.7120851278305054 -0.017347054556012154
0.5790320038795471 0.7200724482536316 -0.02205510064959526
0.5827164053916931 0.7303280234336853 -0.019413525238633156
0.5856624245643616 0.7570978403091431 -0.004817243665456772
0.6099443435668945 0.6860445141792297 0.019160302355885506
0.6157641410827637 0.6842367053031921 0.021171361207962036
0.6205880641937256 0.6823022961616516 0.021404948085546494
0.6477603316307068 0.6726930737495422 0.025752602145075798
0.7307599782943726 0.6359325647354126 0.07422475516796112
0.555682897567749 0.5083029270172119 -0.035162314772605896
0.5639903545379639 0.46772587299346924 0.008611494675278664
0.5758851766586304 0.47222498059272766 0.021953480318188667
0.6038433909416199 0.6875060796737671 0.020001234486699104
0.7269587516784668 0.6962845325469971 0.11147490888834
0.5459506511688232 0.46594732999801636 -0.028046121820807457
0.5949803590774536 0.7850399613380432 0.0031546514946967363
0.5467740893363953 0.5190582275390625 -0.07780533283948898
0.5780616998672485 0.565056562423706 -0.056094780564308167
0.5592660307884216 0.7997578382492065 -0.024439005181193352
0.6439944505691528 0.7330561280250549 0.04978948086500168
0.6241487860679626 0.61780846118927 -0.003530853195115924
0.6203576922416687 0.7625165581703186 0.028672289103269577
0.6823074221611023 0.6138935685157776 0.01569214090704918
0.6490128636360168 0.6387073993682861 0.009940806776285172
0.7028265595436096 0.6497118473052979 0.042047999799251556
0.5660014152526855 0.8307508230209351 -0.02172430418431759
0.5903785228729248 0.5759519338607788 -0.03685114532709122
0.6584904193878174 0.75874924659729 0.07026443630456924
0.6294455528259277 0.7869890928268433 0.04348870366811752
0.6682707071304321 0.7012870907783508 0.05539685860276222
0.7441062927246094 0.6709519028663635 0.13548225164413452
0.695836067199707 0.714739203453064 0.07910774648189545
0.7394634485244751 0.6975694298744202 0.19232407212257385
0.6694462895393372 0.6609278321266174 0.029510891065001488
0.5727964043617249 0.5450969934463501 -0.03766128793358803
0.5841271281242371 0.6124062538146973 -0.09330931305885315
0.5961030125617981 0.6141670346260071 -0.06614341586828232
0.5763288736343384 0.5970512628555298 -0.11161267757415771
0.5790836811065674 0.44306814670562744 0.005168489180505276
0.6121272444725037 0.42514288425445557 0.006380967330187559
0.6415275931358337 0.42050501704216003 0.013430573977530003
0.6659572124481201 0.4239656925201416 0.028655514121055603
0.6827582716941833 0.4346049427986145 0.04699329286813736
0.6933286190032959 0.4764324426651001 0.08672882616519928
0.7460514307022095 0.5462453365325928 0.20731331408023834
0.6808778047561646 0.5081619024276733 0.06522493809461594
0.6611682176589966 0.5155705213546753 0.04703236743807793
0.6339673399925232 0.5179974436759949 0.0323382131755352
0.6077951192855835 0.5153230428695679 0.022626716643571854
0.5873989462852478 0.5096042156219482 0.017320333048701286
0.5733910202980042 0.503322958946228 0.012762178666889668
0.727996826171875 0.5520210266113281 0.29693636298179626
0.5948490500450134 0.6180518269538879 -0.0543527714908123
0.5647682547569275 0.551085352897644 -0.07717397809028625
0.5710355043411255 0.6152842044830322 -0.11463905870914459
0.5570363998413086 0.6271929144859314 -0.10711193084716797
0.5690159797668457 0.6195842623710632 -0.10292568802833557
0.5889996290206909 0.6235036849975586 -0.04752078652381897
0.5537754893302917 0.6294862031936646 -0.11395732313394547
0.5486676692962646 0.6338968873023987 -0.08636058866977692
0.572364866733551 0.4881408214569092 0.024241019040346146
0.5621527433395386 0.4918127655982971 0.0067787496373057365
0.5560912489891052 0.49484091997146606 -0.011905648745596409
0.6647640466690063 0.4735628664493561 0.05614258721470833
0.6798070669174194 0.45830491185188293 0.05946880951523781
0.3653128445148468 0.4807833433151245 -0.004059856757521629
0.3901269733905792 0.4796757698059082 -0.004059856757521629
0.3643776476383209 0.4617637097835541 -0.004059856757521629
0.34002605080604553 0.481892466545105 -0.004059856757521629
0.3661484718322754 0.4997064173221588 -0.004059856757521629
0.6196393966674805 0.47926145792007446 0.038325317203998566
0.64195716381073 0.4786983132362366 0.038325317203998566
0.6188965439796448 0.4604640007019043 0.038325317203998566
0.5975536704063416 0.47969698905944824 0.038325317203998566
0.6206124424934387 0.4977417290210724 0.038325317203998566
