ply
format ascii 1.0
element vertex 478
property float x
property float y
property float z
end_header
0.49028927087783813 0.6731521487236023 -0.06754912436008453
0.48783913254737854 0.6022672653198242 -0.12216153740882874
0.4912309944629669 0.6248435378074646 -0.06121159344911575
0.4711726903915405 0.5334444046020508 -0.09184779971837997
0.4875231981277466 0.580551028251648 -0.13082844018936157
0.4887881278991699 0.5527358055114746 -0.12200210243463516
0.4936259686946869 0.48435378074645996 -0.06201248615980148
0.3337692618370056 0.4820576310157776 0.037453506141901016
0.49470049142837524 0.42343589663505554 -0.050525564700365067
0.494638592004776 0.3910534977912903 -0.05739220604300499
0.4968412220478058 0.2770608365535736 -0.03706114739179611
0.49021515250205994 0.6798272132873535 -0.0651438906788826
0.4905511438846588 0.686966061592102 -0.05659753829240799
0.4914223253726959 0.691956639289856 -0.043316517025232315
0.49167531728744507 0.7250491976737976 -0.037021439522504807
0.49108368158340454 0.7358233332633972 -0.037187349051237106
0.49070417881011963 0.7503079175949097 -0.038714177906513214
0.4907921850681305 0.7650352120399475 -0.030119862407445908
0.4954710602760315 0.7703272700309753 -0.00012057917774654925
0.4889352321624756 0.613399863243103 -0.1098242998123169
0.47287479043006897 0.6139223575592041 -0.0765221118927002
0.23399990797042847 0.3892943859100342 0.1560707688331604
0.3999928832054138 0.5069124102592468 0.00807494018226862
0.37660518288612366 0.5095159411430359 0.011943120509386063
0.35400259494781494 0.5066097974777222 0.020460570231080055
0.3248599171638489 0.4877345860004425 0.0423969104886055
0.41873806715011597 0.4988299608230591 0.009820210747420788
0.3605068624019623 0.42729684710502625 0.0001523868995718658
0.38846874237060547 0.4293223023414612 -0.0025164950639009476
0.335864782333374 0.43339449167251587 0.010343808680772781
0.32084959745407104 0.44430115818977356 0.021174561232328415
0.3049759268760681 0.5014843344688416 0.056042760610580444
0.41572195291519165 0.7916125655174255 0.025926945731043816
0.32546478509902954 0.4721464216709137 0.045966487377882004
0.2305935025215149 0.48930782079696655 0.1679050773382187
0.2757386565208435 0.4803010821342468 0.081602081656456
0.38284868001937866 0.592910647392273 -0.0075897634960711
0.46729719638824463 0.6697583794593811 -0.061798855662345886
0.4706791341304779 0.6873273849487305 -0.052124351263046265
0.44530385732650757 0.6816375255584717 -0.04722107574343681
0.4314306974411011 0.6953530311584473 -0.03148072957992554
0.4543830156326294 0.6932452321052551 -0.04314641281962395
0.44208967685699463 0.7018706798553467 -0.02824394218623638
0.4066554605960846 0.7355811595916748 0.009664960205554962
0.47021234035491943 0.6020050644874573 -0.11918456107378006
0.4665486216545105 0.5814751386642456 -0.1267833113670349
0.28463149070739746 0.4236699342727661 0.03201392665505409
0.42763304710388184 0.5363975763320923 -0.01598648726940155
0.4284781217575073 0.6014547944068909 -0.058722954243421555
0.4267809987068176 0.5907555818557739 -0.05221428722143173
0.31312429904937744 0.5938970446586609 0.025568464770913124
0.4684656858444214 0.5555260181427002 -0.11317272484302521
0.3377327620983124 0.39772260189056396 -0.014438559301197529
0.3063763380050659 0.40699297189712524 0.007674065418541431
0.2539209723472595 0.3473087251186371 0.10467372089624405
0.4421846270561218 0.4158164858818054 -0.04091029241681099
0.4123843014240265 0.44084882736206055 0.002977387048304081
0.3917452096939087 0.7166905403137207 0.014020728878676891
0.2734818458557129 0.6975274085998535 0.23889130353927612
0.446878582239151 0.6129639148712158 -0.050660282373428345
0.46266597509384155 0.617915689945221 -0.053016792982816696
0.4184398055076599 0.7214232087135315 0.006794216576963663
0.42418912053108215 0.7203184366226196 -0.001576457405462861
0.2909427583217621 0.39035841822624207 0.01888616569340229
0.42978864908218384 0.6119522452354431 -0.04541273042559624
0.381827175617218 0.3977028727531433 -0.031236007809638977
0.3760378956794739 0.3784843683242798 -0.03648699074983597
0.3503763675689697 0.29065170884132385 0.0019569038413465023
0.27095746994018555 0.36897364258766174 0.0536327064037323
0.36492782831192017 0.3349127173423767 -0.020466376096010208
0.2678108513355255 0.4100019335746765 0.05331018567085266
0.2496585249900818 0.4026435613632202 0.09929309040307999
0.46819156408309937 0.67913419008255 -0.06016571819782257
0.44952547550201416 0.6880828738212585 -0.04685473069548607
0.43624448776245117 0.6988818645477295 -0.03223887458443642
0.45232170820236206 0.6166858673095703 -0.045284733176231384
0.4213126003742218 0.7209781408309937 0.002250117249786854
0.4275861978530884 0.7281417846679688 -0.010186226107180119
0.42709189653396606 0.7195940017700195 -0.0020769417751580477
0.4525129199028015 0.6036054491996765 -0.08322775363922119
0.4469309151172638 0.7030085921287537 -0.023266436532139778
0.4586244821548462 0.6959137916564941 -0.03245803341269493
0.47357502579689026 0.6920555830001831 -0.04000123217701912
0.467773973941803 0.7688702344894409 0.00039360890514217317
0.46585583686828613 0.7630503177642822 -0.028898412361741066
0.4673311710357666 0.7481460571289062 -0.03573385998606682
0.47002434730529785 0.7336059808731079 -0.03395206108689308
0.4731908142566681 0.7239192724227905 -0.033637192100286484
0.4467345178127289 0.7221732139587402 -0.01850450411438942
0.44164353609085083 0.7274591326713562 -0.019995443522930145
0.4355383515357971 0.7352638840675354 -0.022393453866243362
0.430675208568573 0.7438487410545349 -0.017443504184484482
0.4099811911582947 0.6733999252319336 -0.021751275286078453
0.24250707030296326 0.5882977843284607 0.27339568734169006
0.4900701642036438 0.618316650390625 -0.07854291051626205
0.43818914890289307 0.7213034629821777 -0.008938751183450222
0.4328734874725342 0.7243205904960632 -0.010364163666963577
0.46769046783447266 0.6259039640426636 -0.053245823830366135
0.43846070766448975 0.6248664855957031 -0.028093688189983368
0.4653454124927521 0.6219266057014465 -0.053729526698589325
0.4032311737537384 0.5504164099693298 -0.0058654965832829475
0.36466842889785767 0.5664651393890381 0.004468189086765051
0.42444443702697754 0.601310133934021 -0.038455672562122345
0.29053598642349243 0.31347566843032837 0.049746204167604446
0.30709874629974365 0.34505757689476013 0.01444042194634676
0.3271571695804596 0.3784725069999695 -0.011108755134046078
0.4208376407623291 0.7477335929870605 0.002598951105028391
0.4325881898403168 0.3830210566520691 -0.05119512975215912
0.4256815016269684 0.33395034074783325 -0.04203423112630844
0.4169568121433258 0.27986350655555725 -0.027545465156435966
0.3354542553424835 0.49971672892570496 0.03226592391729355
0.27947208285331726 0.5169639587402344 0.07103891670703888
0.43062472343444824 0.4912213385105133 0.012267534621059895
0.298365980386734 0.4545067548751831 0.04428674653172493
0.4432166516780853 0.5208387970924377 -0.025431809946894646
0.4379125237464905 0.5913654565811157 -0.08263811469078064
0.2514688968658447 0.5352832674980164 0.10037769377231598
0.29756683111190796 0.5369774699211121 0.04872709885239601
0.32913339138031006 0.5481312870979309 0.024585656821727753
0.3744063079357147 0.5452213883399963 0.012314504012465477
0.40663033723831177 0.5353610515594482 0.004459022544324398
0.4297560453414917 0.5238634943962097 -0.0037221976090222597
0.4715387523174286 0.4899761378765106 -0.051791224628686905
0.25986242294311523 0.5844845771789551 0.0949154794216156
0.27803468704223633 0.4487305283546448 0.056959815323352814
0.4786914587020874 0.6128450036048889 -0.10772333294153214
0.43128979206085205 0.557508111000061 -0.025117045268416405
0.2273179292678833 0.4867713451385498 0.2524014413356781
0.4468458294868469 0.5113674998283386 -0.008576437830924988
0.4233686327934265 0.6035091280937195 -0.015397126786410809
0.31443262100219727 0.4715304374694824 0.0512925386428833
0.4374346137046814 0.5783796310424805 -0.07444506138563156
0.2540060579776764 0.6419790983200073 0.2629511058330536
0.4304487109184265 0.4818711280822754 0.017477961257100105
0.4514719247817993 0.5642258524894714 -0.09805130213499069
0.3222559690475464 0.7479408979415894 0.10858260840177536
0.324169397354126 0.7688062787055969 0.1545446664094925
0.2406647503376007 0.5865939855575562 0.1839040219783783
0.29389578104019165 0.720853328704834 0.13922028243541718
0.23889684677124023 0.4429594576358795 0.14055608212947845
0.41113466024398804 0.8088379502296448 0.04237476736307144
0.48230960965156555 0.6176957488059998 -0.07648304104804993
0.41151556372642517 0.5748131275177002 -0.014769021421670914
0.2553800940513611 0.4811541438102722 0.10728248208761215
0.3560566306114197 0.4957134425640106 0.021274283528327942
0.3759693503379822 0.4986966550350189 0.014067397452890873
0.4228437840938568 0.7324146032333374 -0.0058355554938316345
0.26957809925079346 0.6288233995437622 0.10291615128517151
0.4508717656135559 0.8376777172088623 0.05177970975637436
0.38622793555259705 0.8084383606910706 0.09527342021465302
0.3576344847679138 0.7921462059020996 0.12013964354991913
0.4955121576786041 0.33446019887924194 -0.050697632133960724
0.49824103713035583 0.8436229825019836 0.04318125918507576
0.39552202820777893 0.49599719047546387 0.011661170050501823
0.41326984763145447 0.48982954025268555 0.013821219094097614
0.4247070550918579 0.4853968620300293 0.017893480136990547
0.25926244258880615 0.4400246739387512 0.08266109228134155
0.410588800907135 0.4587653577327728 0.00857764296233654
0.3900984525680542 0.4501248896121979 0.006105718202888966
0.36887890100479126 0.44949546456336975 0.008785123005509377
0.3490348756313324 0.45443135499954224 0.016548369079828262
0.33726373314857483 0.46147650480270386 0.02535959891974926
0.22591406106948853 0.4333283305168152 0.21003244817256927
0.34284889698028564 0.48929011821746826 0.030124222859740257
0.4918495714664459 0.6436206102371216 -0.05633103474974632
0.4283917546272278 0.6579415202140808 -0.031479451805353165
0.4457162916660309 0.6087120175361633 -0.05945863574743271
0.46504324674606323 0.6463639736175537 -0.05238712579011917
0.4948679804801941 0.4547848403453827 -0.04742080345749855
0.3518242835998535 0.7718948125839233 0.08636168390512466
0.3809952139854431 0.7893044948577881 0.06568676233291626
0.44873806834220886 0.8252573013305664 0.02096474915742874
0.2976919412612915 0.7402297854423523 0.19902361929416656
0.42430996894836426 0.47268643975257874 0.013812568970024586
0.4567183554172516 0.5249888896942139 -0.057664696127176285
0.49677667021751404 0.830324649810791 0.013216167688369751
0.41592270135879517 0.824347734451294 0.0695214495062828
0.25193482637405396 0.6358495354652405 0.18101651966571808
0.45844534039497375 0.7228915691375732 -0.02666030265390873
0.453497052192688 0.7306841015815735 -0.02782437764108181
0.44860678911209106 0.7423921227455139 -0.030013272538781166
0.4452824294567108 0.7557190656661987 -0.024915184825658798
0.44107043743133545 0.759716272354126 -0.0022706708405166864
0.4323827922344208 0.7112378478050232 -0.014376985840499401
0.4267633855342865 0.7102372646331787 -0.014070854522287846
0.42227157950401306 0.7083149552345276 -0.013421012088656425
0.3979940116405487 0.6939732432365417 -0.005835876800119877
0.30172887444496155 0.6409963369369507 0.05256935581564903
0.45754480361938477 0.503454864025116 -0.037104785442352295
0.4454750716686249 0.4603510797023773 -0.0020550009794533253
0.4321581721305847 0.4636088013648987 0.008476386778056622
0.43758636713027954 0.711027979850769 -0.011553606949746609
0.30363208055496216 0.6923483610153198 0.09041188657283783
0.46620962023735046 0.45965152978897095 -0.03121342323720455
0.4274565279483795 0.7752773761749268 0.014485950581729412
0.49047815799713135 0.5297576189041138 -0.10119331628084183
0.47113409638404846 0.5129568576812744 -0.07439637184143066
0.49200838804244995 0.508031964302063 -0.08105897903442383
0.442893922328949 0.5602549910545349 -0.055481310933828354
0.4960041046142578 0.811730146408081 7.064866804284975e-05
0.495785117149353 0.7896975874900818 0.0006367822061292827
0.4600889980792999 0.7869824171066284 0.005656552035361528
0.3799518644809723 0.7408998608589172 0.027776027098298073
0.4038255214691162 0.6219128966331482 -0.00818182434886694
0.40131109952926636 0.7602072954177856 0.021621359512209892
0.3488507866859436 0.6205569505691528 0.004625673871487379
0.38310062885284424 0.6453009843826294 -0.004525613971054554
0.3344178795814514 0.6570228934288025 0.023487797006964684
0.45190685987472534 0.8077100515365601 0.007936365902423859
0.43266236782073975 0.5741408467292786 -0.037685394287109375
0.35892254114151 0.7526195049285889 0.05483706295490265
0.38725337386131287 0.7723630666732788 0.04341971129179001
0.363279789686203 0.7164856195449829 0.029209274798631668
0.2793349623680115 0.6655265092849731 0.11196238547563553
0.33300817012786865 0.7165869474411011 0.056161995977163315
0.267528772354126 0.6805337071418762 0.17137014865875244
0.36998605728149414 0.676856279373169 0.006969792302697897
0.444473534822464 0.5408079624176025 -0.04021253436803818
0.4452117085456848 0.6001691222190857 -0.08772571384906769
0.43584883213043213 0.6078130006790161 -0.061558015644550323
0.4506887197494507 0.5849195122718811 -0.10495828837156296
0.4256907105445862 0.43506619334220886 -0.009665325284004211
0.3859364986419678 0.41891175508499146 -0.011003689840435982
0.35148870944976807 0.41779452562332153 -0.005975556094199419
0.32423004508018494 0.42461952567100525 0.006673102267086506
0.30638936161994934 0.4365607500076294 0.023284826427698135
0.297807514667511 0.47630706429481506 0.062360189855098724
0.23248901963233948 0.5377227663993835 0.17750263214111328
0.31904685497283936 0.5138049125671387 0.042911186814308167
0.3432135581970215 0.523106575012207 0.02725605107843876
0.3745797276496887 0.5248520970344543 0.01562897488474846
0.4035954475402832 0.5191725492477417 0.008199067786335945
0.42515259981155396 0.5099303722381592 0.00624955864623189
0.43983978033065796 0.5014437437057495 0.0033576141577214003
0.23488086462020874 0.5375468730926514 0.2714354991912842
0.4377712607383728 0.6143393516540527 -0.04974633455276489
0.45534059405326843 0.544236958026886 -0.07470245659351349
0.45725351572036743 0.5996531248092651 -0.1068979948759079
0.4699959456920624 0.6098706126213074 -0.09792102128267288
0.4592437148094177 0.6035879254341125 -0.09540863335132599
0.4445021152496338 0.6207643747329712 -0.04177524521946907
0.4727703034877777 0.6116241812705994 -0.10428255051374435
0.4766577184200287 0.6167335510253906 -0.076473668217659
0.4382688105106354 0.482477605342865 0.013530989177525043
0.45072874426841736 0.4875991940498352 -0.0009932322427630424
0.4588398039340973 0.4923563599586487 -0.016351638361811638
0.33076924085617065 0.46693554520606995 0.03455054759979248
0.31247246265411377 0.4562801718711853 0.03605368360877037
0.5111060738563538 0.5333163142204285 -0.09470637142658234
0.6750134229660034 0.48543933033943176 0.015813784673810005
0.5091577768325806 0.6139597296714783 -0.0787382498383522
0.7940725088119507 0.38580322265625 0.12298586964607239
0.6020437479019165 0.5084381699562073 -0.005968638230115175
0.6265257000923157 0.5111076235771179 -0.004905518610030413
0.6509174108505249 0.5090985894203186 0.001062659895978868
0.6841634511947632 0.49095672369003296 0.01941714622080326
0.5822051763534546 0.5013778209686279 -0.001367647317238152
0.6424857974052429 0.43218016624450684 -0.01715005375444889
0.6127076148986816 0.43380868434906006 -0.016192737966775894
0.6694149374961853 0.4384196996688843 -0.009635151363909245
0.6862854361534119 0.4491792619228363 -0.0005393230239860713
0.7045958042144775 0.5041090250015259 0.030931269749999046
0.5830411911010742 0.7952550649642944 0.016297781839966774
0.6846823692321777 0.4755237102508545 0.023261256515979767
0.7994840741157532 0.4877772033214569 0.1336238831281662
0.7374035120010376 0.48205024003982544 0.05338021367788315
0.6154570579528809 0.5931215882301331 -0.0211546178907156
0.5152096748352051 0.6706582903862 -0.06499427556991577
0.5130431652069092 0.6880142688751221 -0.05500795319676399
0.5413156151771545 0.6840800642967224 -0.05404210090637207
0.5586801171302795 0.6982705593109131 -0.040777791291475296
0.5330868363380432 0.6950491070747375 -0.04896966367959976
0.549015998840332 0.7044605016708374 -0.035885006189346313
0.5922942757606506 0.737886369228363 -0.0024168482050299644
0.5065573453903198 0.6020347476005554 -0.12100547552108765
0.5098797678947449 0.5813790559768677 -0.1290186196565628
0.7208642959594727 0.43085843324661255 0.005909247323870659
0.5693418383598328 0.5358506441116333 -0.024974966421723366
0.5599517822265625 0.6018327474594116 -0.06692903488874435
0.5635262131690979 0.5909573435783386 -0.06074456125497818
0.6939226984977722 0.5943722724914551 0.002102384576573968
0.5103203654289246 0.5553564429283142 -0.11606500297784805
0.6590298414230347 0.4085090756416321 -0.03256699815392494
0.6948909163475037 0.41598305106163025 -0.015060761012136936
0.7650327682495117 0.3438968360424042 0.07493781298398972
0.5494959354400635 0.4242892861366272 -0.04691428318619728
0.5878424644470215 0.4450666606426239 -0.008179767988622189
0.6080678105354309 0.7190393805503845 -0.000601494568400085
0.7669787406921387 0.7020743489265442 0.20828886330127716
0.5408354997634888 0.6134887337684631 -0.05649374797940254
0.5233704447746277 0.6182363033294678 -0.05596308782696724
0.5792202949523926 0.7245166301727295 -0.005745949689298868
0.5736598372459412 0.7234150767326355 -0.012421722523868084
0.7106847763061523 0.3997783064842224 -0.005214655306190252
0.5604764819145203 0.6125593185424805 -0.05337259918451309
0.6120651364326477 0.4084567725658417 -0.04353509098291397
0.6167432069778442 0.3897361159324646 -0.04905010387301445
0.651622474193573 0.2884424030780792 -0.015235675498843193
0.7395476698875427 0.3669899106025696 0.027160486206412315
0.6322324872016907 0.3334904611110687 -0.03493606299161911
0.7393622994422913 0.41633331775665283 0.025368649512529373
0.7688091397285461 0.40079939365386963 0.06893569976091385
0.5145119428634644 0.6798303127288818 -0.06335141509771347
0.5372018218040466 0.6900564432144165 -0.05320468917489052
0.5541480183601379 0.7014970779418945 -0.04065771400928497
0.5354930758476257 0.6172814965248108 -0.05009680241346359
0.5763263702392578 0.7240833044052124 -0.009242989122867584
0.5669727325439453 0.7308158278465271 -0.019835302606225014
0.5706967115402222 0.7227069139480591 -0.012544438242912292
0.5308282375335693 0.6037366390228271 -0.08884274214506149
0.545037031173706 0.7056085467338562 -0.030542343854904175
0.5297398567199707 0.6976094245910645 -0.03779330849647522
0.5117210745811462 0.692826509475708 -0.042873263359069824
0.5246158242225647 0.7697908878326416 -0.0024445748422294855
0.5173947811126709 0.7636876106262207 -0.03190409019589424
0.5158854722976685 0.7488239407539368 -0.03881207853555679
0.5141952037811279 0.7342857122421265 -0.03701178729534149
0.5123136043548584 0.7246863842010498 -0.0365418940782547
0.5456116199493408 0.7246348857879639 -0.025736382231116295
0.5498842000961304 0.7296096682548523 -0.027243176475167274
0.5553116202354431 0.7373480796813965 -0.029914449900388718
0.5598905086517334 0.7458504438400269 -0.025658395141363144
0.5833794474601746 0.6746793389320374 -0.032740045338869095
0.8014630079269409 0.5889186263084412 0.23870046436786652
0.5573130249977112 0.7243825197219849 -0.018124569207429886
0.5619108080863953 0.7270614504814148 -0.019665546715259552
0.5175080895423889 0.6262269616127014 -0.05621129274368286
0.5529561042785645 0.6257674098014832 -0.034440137445926666
0.5202124118804932 0.6223133206367493 -0.05657786503434181
0.595598042011261 0.5499001741409302 -0.01807369291782379
0.6365988850593567 0.5662510395050049 -0.012322877533733845
0.5674789547920227 0.6017395853996277 -0.047110579907894135
0.7197301387786865 0.3103972375392914 0.02538839727640152
0.6961463689804077 0.34339672327041626 -0.006727453321218491
0.6695361733436584 0.38939547538757324 -0.03019157610833645
0.5762358903884888 0.7501307129859924 -0.007154527585953474
0.5573226809501648 0.3935803472995758 -0.057780224829912186
0.5677971839904785 0.33308205008506775 -0.0493939146399498
0.5799495577812195 0.27860015630722046 -0.03607615828514099
0.6719927787780762 0.5027403831481934 0.0106973173096776
0.7310954332351685 0.5188694596290588 0.04308585450053215
0.569312334060669 0.4949994683265686 0.0023231147788465023
0.7103434205055237 0.4591737687587738 0.018942279741168022
0.5519682765007019 0.5202645659446716 -0.032701168209314346
0.5465977787971497 0.5914974808692932 -0.08926147222518921
0.7685812711715698 0.5349810719490051 0.06860093027353287
0.710930585861206 0.5395079851150513 0.02265218459069729
0.6762895584106445 0.5508280396461487 0.002294400008395314
0.6281000375747681 0.5473076701164246 -0.004741345066577196
0.5941271185874939 0.5375245809555054 -0.008505047298967838
0.5698234438896179 0.5270332098007202 -0.013194804079830647
0.5176742076873779 0.489693820476532 -0.054886944591999054
0.7595953941345215 0.5853611826896667 0.06347610056400299
0.7321821451187134 0.4528701901435852 0.029405394569039345
0.49985814094543457 0.6128534078598022 -0.10917650163173676
0.5634000897407532 0.5572860836982727 -0.03351074829697609
0.8134835958480835 0.484291672706604 0.21675416827201843
0.5511319637298584 0.5156444311141968 -0.016034359112381935
0.5708271861076355 0.6039611101150513 -0.024060767143964767
0.6954143643379211 0.4750632643699646 0.027271833270788193
0.5493692755699158 0.5783456563949585 -0.081147700548172
0.7893190979957581 0.6446335911750793 0.23013819754123688
0.5704295039176941 0.48580509424209595 0.007221216801553965
0.5308600068092346 0.564075231552124 -0.10297451168298721
0.6961615681648254 0.7542484402656555 0.08591734617948532
0.7021574378013611 0.7765727043151855 0.1314479559659958
0.7913902997970581 0.5877352952957153 0.14960113167762756
0.7310208082199097 0.7261867523193359 0.11236578971147537
0.7860051393508911 0.4408297538757324 0.10813494771718979
0.5897271037101746 0.8136173486709595 0.031753383576869965
0.4982335567474365 0.6176416277885437 -0.07737866044044495
0.585148811340332 0.5747818946838379 -0.025186775252223015
0.761988639831543 0.48112598061561584 0.07633157074451447
0.6493513584136963 0.4983670115470886 0.0021922357846051455
0.6276736855506897 0.5003626346588135 -0.002830349374562502
0.5717198848724365 0.7349718809127808 -0.016335830092430115
0.7511422038078308 0.6309987902641296 0.07301361113786697
0.5477381944656372 0.8404097557067871 0.04606178030371666
0.6244729161262512 0.8152271509170532 0.0804535448551178
0.6603294014930725 0.7999964952468872 0.10149896144866943
0.6073857545852661 0.49769648909568787 -0.0028002681210637093
0.5883598923683167 0.492243230342865 0.0013139313086867332
0.5761531591415405 0.48893240094184875 0.006711329333484173
0.7541874647140503 0.44252896308898926 0.052843037992715836
0.5918353796005249 0.4603100121021271 -0.0037014081608504057
0.6136337518692017 0.45009151101112366 -0.008231964893639088
0.6370648145675659 0.4495093524456024 -0.00792631320655346
0.6591584086418152 0.4551934003829956 -0.0026508686132729053
0.6720713973045349 0.4634030759334564 0.004612949211150408
0.809058427810669 0.4300444722175598 0.17535395920276642
0.664420485496521 0.49251776933670044 0.009470987133681774
0.5625581741333008 0.6587997674942017 -0.03975078836083412
0.5408896207809448 0.6092135906219482 -0.06524202227592468
0.5205324292182922 0.6467289328575134 -0.05579080432653427
0.6603432893753052 0.7784196138381958 0.06822583079338074
0.6263394951820374 0.7957684993743896 0.05135504901409149
0.5468249917030334 0.8276100158691406 0.015221789479255676
0.7364203929901123 0.7465187311172485 0.17182694375514984
0.5770253539085388 0.4761465787887573 0.002636459656059742
0.532121479511261 0.5247058868408203 -0.06248907744884491
0.5878171920776367 0.8293889164924622 0.058544520288705826
0.7802634239196777 0.6385339498519897 0.1486607939004898
0.5302155613899231 0.7244131565093994 -0.031922802329063416
0.5340617895126343 0.7320632338523865 -0.03324798867106438
0.5380066633224487 0.7436617612838745 -0.035844482481479645
0.5411365628242493 0.7568861246109009 -0.03107651323080063
0.553586483001709 0.7614549994468689 -0.009097352623939514
0.5626705288887024 0.7141188979148865 -0.023726357147097588
0.5674508213996887 0.7130963206291199 -0.02444802224636078
0.5716771483421326 0.7113622426986694 -0.024681812152266502
0.5984628200531006 0.6957874298095703 -0.019482513889670372
0.710722804069519 0.6430030465126038 0.02780720964074135
0.5346106290817261 0.5031037926673889 -0.042249251157045364
0.5522671341896057 0.46552419662475586 -0.00820150412619114
0.567910373210907 0.46779167652130127 -0.0008514380897395313
0.5582170486450195 0.714133620262146 -0.020644940435886383
0.7129443287849426 0.6960424184799194 0.06561854481697083
0.5271794199943542 0.46579211950302124 -0.034898560494184494
0.5701951384544373 0.7781230211257935 0.006420555990189314
0.5145174860954285 0.5127262473106384 -0.0770372599363327
0.5464089512825012 0.5602229833602905 -0.06167714670300484
0.5335388779640198 0.7883907556533813 0.0017154010711237788
0.6225587725639343 0.7444108724594116 0.0135486526414752
0.5918420553207397 0.6224170923233032 -0.018857058137655258
0.5993543863296509 0.7637141942977905 0.010393023490905762
0.6530253291130066 0.621482789516449 -0.01284093875437975
0.6141992807388306 0.6463660597801208 -0.01788078248500824
0.6711153388023376 0.6591598987579346 0.0035690213553607464
0.5419753193855286 0.8095115423202515 0.0025772361550480127
0.5598774552345276 0.5740628242492676 -0.04547686129808426
0.6482402682304382 0.7575604915618896 0.038129888474941254
0.6165205240249634 0.777309775352478 0.030492719262838364
0.6400987505912781 0.7197301387786865 0.012018307112157345
0.7421046495437622 0.6687877774238586 0.08393868058919907
0.6772317886352539 0.7208773493766785 0.03580183535814285
0.7631574273109436 0.6845993995666504 0.1408957690000534
0.6300230026245117 0.6788583397865295 -0.00891039427369833
0.5474420785903931 0.5405610799789429 -0.046958114951848984
0.5380767583847046 0.6003818511962891 -0.09378635138273239
0.5515316724777222 0.6082753539085388 -0.06851115822792053
0.5293390154838562 0.584887683391571 -0.10966067016124725
0.5714236497879028 0.4411714971065521 -0.018238043412566185
0.6116353273391724 0.4263639450073242 -0.023843949660658836
0.6482462882995605 0.42526566982269287 -0.023354917764663696
0.6783697009086609 0.43136200308799744 -0.014382430352270603
0.699068546295166 0.4427265524864197 -0.00037594896275550127
0.7129029631614685 0.4790772795677185 0.03666873648762703
0.7988171577453613 0.5373427271842957 0.14220327138900757
0.6892821788787842 0.5163573026657104 0.019290020689368248
0.6625064015388489 0.525515615940094 0.006769964937120676
0.6285895109176636 0.5265604853630066 -0.0011506095761433244
0.5978997945785522 0.5207774639129639 -0.005025035701692104
0.5755393505096436 0.5124986171722412 -0.003712140955030918
0.5598699450492859 0.5049217939376831 -0.004866504576057196
0.8085052967071533 0.5362741947174072 0.23578907549381256
0.5509203672409058 0.6149196028709412 -0.056513138115406036
0.5298821330070496 0.5440481901168823 -0.07953450083732605
0.5221604108810425 0.5997433662414551 -0.11077968776226044
0.5107614994049072 0.6100872159004211 -0.10013089329004288
0.522059440612793 0.6038209199905396 -0.09933335334062576
0.5449522733688354 0.6214436888694763 -0.04741693288087845
0.5067262649536133 0.6116715669631958 -0.10610619187355042
0.5046905279159546 0.6167625188827515 -0.07801024615764618
0.561547577381134 0.486712783575058 0.005041404161602259
0.5477842688560486 0.49195554852485657 -0.007377822417765856
0.5372885465621948 0.4974687397480011 -0.021586375311017036
0.6790616512298584 0.4697851240634918 0.01279719639569521
0.6960737109184265 0.4608986973762512 0.013029792346060276
0.38401731848716736 0.46999356150627136 0.02021745592355728
0.41482579708099365 0.46813148260116577 0.02021745592355728
0.3822017312049866 0.43772679567337036 0.02021745592355728
0.35275813937187195 0.4716615676879883 0.02021745592355728
0.38574841618537903 0.5021538138389587 0.02021745592355728
0.6296146512031555 0.46927639842033386 0.003618135815486312
0.6621747016906738 0.4706510603427887 0.003618135815486312
0.6305031776428223 0.4388110339641571 0.003618135815486312
0.5972155928611755 0.46763187646865845 0.003618135815486312
0.6288943290710449 0.49992817640304565 0.003618135815486312
