ply
format ascii 1.0
element vertex 478
property float x
property float y
property float z
end_header
0.5097960829734802 0.7399570941925049 -0.07191330194473267
0.4956596791744232 0.6434248685836792 -0.14500099420547485
0.49777331948280334 0.6685042977333069 -0.0777878686785698
0.47610974311828613 0.5540527105331421 -0.10952229797840118
0.4957837164402008 0.6156421303749084 -0.15407399833202362
0.4966232180595398 0.579741358757019 -0.14403074979782104
0.4994373321533203 0.4943525195121765 -0.07415446639060974
0.3314000964164734 0.48168301582336426 0.03767995908856392
0.5002001523971558 0.4425662159919739 -0.05651119723916054
0.5003645420074463 0.4113178849220276 -0.061233457177877426
0.5021464824676514 0.28344106674194336 -0.030921904370188713
0.5093920826911926 0.7456219792366028 -0.0678459107875824
0.5083237290382385 0.7507101893424988 -0.059870705008506775
0.5072271823883057 0.7542803883552551 -0.048911333084106445
0.506837785243988 0.7711501121520996 -0.04088020697236061
0.5065895318984985 0.7804731130599976 -0.04617192596197128
0.5057333707809448 0.7919025421142578 -0.05302930623292923
0.5044144988059998 0.8031434416770935 -0.050869930535554886
0.4989667534828186 0.8515235185623169 -0.029621362686157227
0.49617063999176025 0.6573644280433655 -0.13132581114768982
0.47125375270843506 0.6557510495185852 -0.09455740451812744
0.24425160884857178 0.40067726373672485 0.15894277393817902
0.3963334560394287 0.4953164756298065 0.011469991877675056
0.3728172183036804 0.49906253814697266 0.013112666085362434
0.34948796033859253 0.5006074905395508 0.019937120378017426
0.31929856538772583 0.4921303987503052 0.041301824152469635
0.41641882061958313 0.489421546459198 0.012625797651708126
0.3578697443008423 0.44353538751602173 0.0015534457052126527
0.3849102556705475 0.4437660872936249 0.0019754250533878803
0.3334159255027771 0.4482291042804718 0.009454097598791122
0.31760895252227783 0.4567755162715912 0.020242838189005852
0.29638615250587463 0.5085080862045288 0.054113321006298065
0.3968108296394348 0.892367959022522 0.009722648188471794
0.32200193405151367 0.47904956340789795 0.0456409752368927
0.22613215446472168 0.5099312663078308 0.1711634397506714
0.26810333132743835 0.49482083320617676 0.07999305427074432
0.36941781640052795 0.617055356502533 -0.015077629126608372
0.4729239046573639 0.7353940606117249 -0.06830913573503494
0.47356978058815 0.7487524151802063 -0.05451171472668648
0.43690964579582214 0.7397679090499878 -0.05000217631459236
0.4112544059753418 0.7430253624916077 -0.024718262255191803
0.444033682346344 0.7485976219177246 -0.0406133309006691
0.42043337225914 0.749117910861969 -0.018028857186436653
0.3704681396484375 0.786624014377594 0.021764419972896576
0.47364234924316406 0.6424807906150818 -0.14225029945373535
0.4707452356815338 0.6158478856086731 -0.15060190856456757
0.2820628881454468 0.4417772889137268 0.02375413104891777
0.4256238341331482 0.5513413548469543 -0.020688099786639214
0.4135541319847107 0.6325618028640747 -0.07510023564100266
0.41249021887779236 0.6180932521820068 -0.0666297897696495
0.2954613268375397 0.6119890809059143 0.01996539905667305
0.47330954670906067 0.5825600028038025 -0.13516908884048462
0.3397616744041443 0.41788914799690247 -0.023360392078757286
0.30539506673812866 0.425936222076416 -0.0032778976019471884
0.2691604197025299 0.35596758127212524 0.10719261318445206
0.44921818375587463 0.43449145555496216 -0.04703879728913307
0.4090762138366699 0.4496796131134033 0.00978359766304493
0.3497191071510315 0.7555316686630249 0.027469975873827934
0.24351656436920166 0.7643391489982605 0.24066054821014404
0.43233203887939453 0.6480158567428589 -0.06484639644622803
0.453024297952652 0.6563936471939087 -0.06957770884037018
0.37744826078414917 0.7486597299575806 0.027112822979688644
0.38447368144989014 0.7498202323913574 0.02002287469804287
0.2924256920814514 0.41089314222335815 0.010258256457746029
0.4113631248474121 0.6436660885810852 -0.06052567437291145
0.38729482889175415 0.4191141128540039 -0.03811206668615341
0.38212376832962036 0.39971455931663513 -0.043810103088617325
0.3654559850692749 0.2967957556247711 0.006193255074322224
0.28483641147613525 0.38168463110923767 0.053214747458696365
0.3796200752258301 0.3451789319515228 -0.019379669800400734
0.2680840492248535 0.43061167001724243 0.046505432575941086
0.2587317228317261 0.41697168350219727 0.10105906426906586
0.472752183675766 0.7429217100143433 -0.06387567520141602
0.4401962161064148 0.7444566488265991 -0.04588630422949791
0.4155091345310211 0.7461727857589722 -0.023309392854571342
0.43808385729789734 0.6528909206390381 -0.06069356948137283
0.38106781244277954 0.7492233514785767 0.023283688351511955
0.39616894721984863 0.759190559387207 0.00669850455597043
0.3880651891231537 0.7504668235778809 0.018847836181521416
0.4460912346839905 0.640792727470398 -0.10264921188354492
0.4248705208301544 0.751321017742157 -0.01457624975591898
0.4477485418319702 0.7514438033103943 -0.030900122597813606
0.47530481219291687 0.7524168491363525 -0.0438799150288105
0.4597629904747009 0.8489481806755066 -0.026148144155740738
0.4662140905857086 0.7999163269996643 -0.046783048659563065
0.4684223234653473 0.7886688709259033 -0.04837324842810631
0.4715166985988617 0.7772952318191528 -0.04086317867040634
0.47480419278144836 0.7686643600463867 -0.035722069442272186
0.4247472584247589 0.760624885559082 -0.00824530329555273
0.419518381357193 0.7638476490974426 -0.013050129637122154
0.4133461117744446 0.7690757513046265 -0.016446592286229134
0.4084850549697876 0.7750605344772339 -0.011327683925628662
0.38074642419815063 0.7127160429954529 -0.01812707632780075
0.22190549969673157 0.6295338869094849 0.27714431285858154
0.4968310594558716 0.6628627181053162 -0.0963754877448082
0.4076469838619232 0.7562576532363892 0.008590876124799252
0.4019472301006317 0.7573649287223816 0.0059032803401350975
0.4613063335418701 0.6668537855148315 -0.07034721225500107
0.4198327362537384 0.6592334508895874 -0.04149957001209259
0.4572734832763672 0.6617315411567688 -0.07086803764104843
0.3985660672187805 0.5656300187110901 -0.010859007947146893
0.35630151629447937 0.5819323062896729 -0.0032465485855937004
0.40728136897087097 0.6295760273933411 -0.05132006108760834
0.3076154589653015 0.32031261920928955 0.052993111312389374
0.3234717547893524 0.35668569803237915 0.014482523314654827
0.3311304748058319 0.39889779686927795 -0.01748240739107132
0.39310526847839355 0.8112947940826416 0.005883396603167057
0.44026410579681396 0.40381690859794617 -0.057229768484830856
0.43666326999664307 0.34205567836761475 -0.039075817912817
0.42791450023651123 0.2858225107192993 -0.022014286369085312
0.330490380525589 0.49811920523643494 0.03096361830830574
0.2695803940296173 0.5266363620758057 0.0698121190071106
0.4291418790817261 0.48374760150909424 0.01596531830728054
0.29327577352523804 0.4670514464378357 0.04174882173538208
0.4436977207660675 0.5347992777824402 -0.03148110583424568
0.43014785647392273 0.6237685680389404 -0.10183095186948776
0.24133360385894775 0.5530625581741333 0.09902012348175049
0.28559988737106323 0.5423627495765686 0.04674917086958885
0.31603914499282837 0.5506435036659241 0.02287605218589306
0.36320608854293823 0.5455256700515747 0.00912229623645544
0.39848095178604126 0.5340644717216492 0.0028441871982067823
0.42392709851264954 0.5224183797836304 -0.005492201074957848
0.47580793499946594 0.5007680654525757 -0.06254380941390991
0.24098685383796692 0.6061388254165649 0.09296143054962158
0.27347683906555176 0.465292751789093 0.05385821312665939
0.48261356353759766 0.6562085151672363 -0.1294460892677307
0.4246252179145813 0.5774965882301331 -0.03165267035365105
0.22088849544525146 0.5108356475830078 0.25579163432121277
0.44315168261528015 0.5097906589508057 -0.010249401442706585
0.40514910221099854 0.6307553648948669 -0.023338615894317627
0.30922603607177734 0.4807572066783905 0.0501798577606678
0.4298630952835083 0.6062655448913574 -0.09161095321178436
0.22875210642814636 0.6952252984046936 0.2656136453151703
0.4285080134868622 0.47517696022987366 0.02319941110908985
0.45136192440986633 0.5916935205459595 -0.1185169667005539
0.28989678621292114 0.8242867588996887 0.11012709140777588
0.29397881031036377 0.8600136041641235 0.15202492475509644
0.22088703513145447 0.6200782656669617 0.18574605882167816
0.2601533532142639 0.787574291229248 0.1398058384656906
0.242252916097641 0.45914989709854126 0.14362472295761108
0.3915478587150574 0.9233958721160889 0.023167088627815247
0.48592525720596313 0.6618016958236694 -0.09440891444683075
0.4006212651729584 0.596301794052124 -0.021116983145475388
0.2480911910533905 0.49968966841697693 0.10691628605127335
0.35387763381004333 0.48379701375961304 0.02279609441757202
0.3733777403831482 0.48314985632896423 0.016301164403557777
0.39115995168685913 0.7614981532096863 0.01139302272349596
0.24206802248954773 0.6614632606506348 0.10264301300048828
0.44034990668296814 0.9641071557998657 0.02495676279067993
0.36253002285957336 0.9245409965515137 0.08209942281246185
0.33044809103012085 0.8977310657501221 0.11400104314088821
0.5013567209243774 0.3430263102054596 -0.0465676449239254
0.4974389374256134 0.9701699614524841 0.015788720920681953
0.3925643563270569 0.4803089499473572 0.014607311226427555
0.4108463227748871 0.4770059585571289 0.017707761377096176
0.42285704612731934 0.4759810268878937 0.022584283724427223
0.2570551633834839 0.4600576162338257 0.08034539967775345
0.40664395689964294 0.4655793309211731 0.014892706647515297
0.38565337657928467 0.4639161229133606 0.009732055477797985
0.3659791350364685 0.4654875099658966 0.011008116416633129
0.347093403339386 0.4695722460746765 0.01725286990404129
0.3348842263221741 0.47386038303375244 0.02594091184437275
0.2291879653930664 0.44948434829711914 0.21310392022132874
0.34091025590896606 0.482879102230072 0.03066345490515232
0.49847957491874695 0.6912543177604675 -0.07002346217632294
0.40762215852737427 0.6985878348350525 -0.038586169481277466
0.43278688192367554 0.643927276134491 -0.07541009783744812
0.4591746926307678 0.6919580101966858 -0.0667426586151123
0.5002197027206421 0.46749937534332275 -0.054491445422172546
0.3231861889362335 0.8625391125679016 0.08488544076681137
0.35596126317977905 0.8932746648788452 0.055812373757362366
0.4387471377849579 0.943840742111206 -0.0051695494912564754
0.26659533381462097 0.8193656802177429 0.1976572722196579
0.42147156596183777 0.47065025568008423 0.019623294472694397
0.45859089493751526 0.5422464609146118 -0.06871629506349564
0.4970552325248718 0.9496186971664429 -0.013192092068493366
0.39747747778892517 0.9478728771209717 0.04836348816752434
0.22633230686187744 0.6803901791572571 0.18226110935211182
0.44740015268325806 0.7648635506629944 -0.023394767194986343
0.4422445297241211 0.7710286378860474 -0.02849103882908821
0.43733659386634827 0.7797310948371887 -0.03275354579091072
0.4337911605834961 0.7897140979766846 -0.029285522177815437
0.4217059314250946 0.8333785533905029 -0.012302069924771786
0.40105190873146057 0.7494893074035645 0.002283456502482295
0.3957950174808502 0.7475882172584534 0.0028301714919507504
0.3916453719139099 0.7455670833587646 0.002626644214615226
0.3597032129764557 0.7314606308937073 0.006178501062095165
0.27240049839019775 0.6729575991630554 0.050256744027137756
0.46045204997062683 0.5160015821456909 -0.044981278479099274
0.4474221467971802 0.46241486072540283 0.0035129329189658165
0.4313240349292755 0.46362578868865967 0.014218808151781559
0.4065236449241638 0.7512295246124268 0.0043442705646157265
0.26809781789779663 0.742702841758728 0.09179317951202393
0.46817100048065186 0.4649687707424164 -0.033817581832408905
0.409140408039093 0.8611738681793213 -8.880422683432698e-05
0.49755042791366577 0.550085723400116 -0.11947348713874817
0.4756941795349121 0.5282701849937439 -0.08847489953041077
0.4984329640865326 0.5226893424987793 -0.09546571969985962
0.4391173720359802 0.583576500415802 -0.06760486960411072
0.4972666800022125 0.9186662435531616 -0.027567652985453606
0.498086541891098 0.8823789358139038 -0.028247226029634476
0.45163944363594055 0.8790923953056335 -0.02052873745560646
0.35012444853782654 0.8005369305610657 0.035262949764728546
0.38375431299209595 0.6524378061294556 -0.01532704383134842
0.3768268823623657 0.8350843787193298 0.019518796354532242
0.32730358839035034 0.6481167078018188 -0.002448177896440029
0.3592970073223114 0.6791966557502747 -0.006110049784183502
0.30417031049728394 0.6918806433677673 0.023312488570809364
0.44238561391830444 0.9139500856399536 -0.01827976107597351
0.42285412549972534 0.597966730594635 -0.047770556062459946
0.33025068044662476 0.8262956738471985 0.05760014057159424
0.3632085621356964 0.8612768054008484 0.037263769656419754
0.3290519714355469 0.7621852159500122 0.03733573481440544
0.24695801734924316 0.7099031805992126 0.11293583363294601
0.2990555763244629 0.7710458040237427 0.06111029535531998
0.23767271637916565 0.7369535565376282 0.1719641536474228
0.33711403608322144 0.7117226719856262 0.010748629458248615
0.4424605071544647 0.5597065091133118 -0.048792764544487
0.4381629228591919 0.6361231207847595 -0.10780899971723557
0.4214528203010559 0.6416566967964172 -0.07857632637023926
0.4490519165992737 0.6188283562660217 -0.12798824906349182
0.42780357599258423 0.4457889795303345 -0.0039183832705020905
0.3867042660713196 0.435019314289093 -0.0095957787707448
0.3512057960033417 0.4340224862098694 -0.00861875806003809
0.32185325026512146 0.43937355279922485 0.002018516417592764
0.3023117184638977 0.4500012993812561 0.018595978617668152
0.2911173105239868 0.48789122700691223 0.06047149375081062
0.2198730707168579 0.5639100074768066 0.18004924058914185
0.30972710251808167 0.5175305604934692 0.04156060889363289
0.33418381214141846 0.5230628848075867 0.025446929037570953
0.36716657876968384 0.5208178162574768 0.01426629163324833
0.39807915687561035 0.5134286284446716 0.01019909419119358
0.4218341112136841 0.5052151679992676 0.007167587522417307
0.43811625242233276 0.49784958362579346 0.0054621947929263115
0.22018390893936157 0.5694891214370728 0.275492787361145
0.42119771242141724 0.6482105255126953 -0.06541065126657486
0.4570330083370209 0.5663158893585205 -0.0897466242313385
0.4555334448814392 0.6383569836616516 -0.12909027934074402
0.4695459008216858 0.6516357660293579 -0.11857616901397705
0.4560757577419281 0.6426804065704346 -0.11607064306735992
0.4278864860534668 0.6560571193695068 -0.0566893145442009
0.4744480848312378 0.6542810201644897 -0.12570716440677643
0.47726553678512573 0.6598551273345947 -0.09440622478723526
0.43708503246307373 0.4769267439842224 0.018419165164232254
0.4506552815437317 0.4852387011051178 0.0015495683765038848
0.4576111435890198 0.49159473180770874 -0.019154461100697517
0.32745271921157837 0.4769397974014282 0.03426195681095123
0.30768412351608276 0.4669862985610962 0.03523625433444977
0.5193873643875122 0.5541030764579773 -0.11059833317995071
0.6735280156135559 0.47968482971191406 0.02932986244559288
0.5236628651618958 0.655706524848938 -0.09536492824554443
0.7727572321891785 0.40261295437812805 0.14582812786102295
0.6019532680511475 0.49202772974967957 0.006035992875695229
0.6253854036331177 0.4955461919307709 0.006646208930760622
0.6495577096939087 0.49843236804008484 0.012429594993591309
0.6850988864898682 0.49028390645980835 0.0322813056409359
0.5829010009765625 0.4869961142539978 0.00835363194346428
0.6447153687477112 0.4423811733722687 -0.005328021943569183
0.6170809268951416 0.44212228059768677 -0.003471631556749344
0.6695716381072998 0.4476850926876068 0.0015650878194719553
0.6852362155914307 0.45643350481987 0.011694024316966534
0.7062525749206543 0.5079188346862793 0.044245921075344086
0.6003952622413635 0.8938237428665161 0.005488289520144463
0.6844732761383057 0.4773223400115967 0.036733560264110565
0.7911012172698975 0.5128843188285828 0.15735581517219543
0.7388482093811035 0.49374377727508545 0.06885197758674622
0.6323462724685669 0.6177124381065369 -0.020730065181851387
0.5462644100189209 0.735439658164978 -0.06967897713184357
0.5416594743728638 0.7487906217575073 -0.055865563452243805
0.5785202980041504 0.7392790913581848 -0.052823781967163086
0.6006466746330261 0.7425615191459656 -0.028755638748407364
0.5691665410995483 0.7486169338226318 -0.04332241415977478
0.5904648303985596 0.7491310238838196 -0.02153092809021473
0.633859395980835 0.786841630935669 0.016090866178274155
0.5181766748428345 0.6425799131393433 -0.14289237558841705
0.5212326049804688 0.6159422993659973 -0.15140506625175476
0.7215020656585693 0.443541944026947 0.013426437973976135
0.5760312676429749 0.5516335964202881 -0.024136241525411606
0.584932804107666 0.6325963139533997 -0.07803662121295929
0.5867810845375061 0.6179244518280029 -0.06972590833902359
0.7091561555862427 0.6134188771247864 0.010160748846828938
0.5203325152397156 0.5825661420822144 -0.13622520864009857
0.6607511043548584 0.4192829430103302 -0.0304134339094162
0.6964356303215027 0.4282052516937256 -0.01226635929197073
0.7442398071289062 0.35735949873924255 0.09562622755765915
0.5504127740859985 0.4353397786617279 -0.04922414571046829
0.592735767364502 0.44806909561157227 0.005452663637697697
0.6556628346443176 0.7555556297302246 0.020661847665905952
0.7728413343429565 0.7686404585838318 0.22920307517051697
0.5658000111579895 0.6480016112327576 -0.06717520952224731
0.5441888570785522 0.6563255786895752 -0.07071729004383087
0.6299002766609192 0.748930811882019 0.021228190511465073
0.623103141784668 0.7500504851341248 0.01498427800834179
0.7113711833953857 0.4133583903312683 0.0006049494841136038
0.5879873037338257 0.6436969637870789 -0.06338074803352356
0.6125756502151489 0.4200366139411926 -0.04292512312531471
0.6187300682067871 0.4010946452617645 -0.0486048199236393
0.6416754126548767 0.29697006940841675 -7.566002750536427e-05
0.7248750925064087 0.38380125164985657 0.04251314699649811
0.6248964071273804 0.34590354561805725 -0.025021804496645927
0.7385337352752686 0.43230071663856506 0.035338398069143295
0.7542077302932739 0.4198143780231476 0.08877895027399063
0.5446897149085999 0.742973268032074 -0.06524205952882767
0.5742409229278564 0.7443242073059082 -0.04866378381848335
0.5960992574691772 0.7458689212799072 -0.027096856385469437
0.5599522590637207 0.65284264087677 -0.06245667114853859
0.6264781355857849 0.749489963054657 0.017834700644016266
0.6115732789039612 0.7593531012535095 0.0023812504950910807
0.6196935772895813 0.7506766319274902 0.014034354127943516
0.5494926571846008 0.6408193707466125 -0.10463450103998184
0.5848969221115112 0.7516608238220215 -0.017784176394343376
0.563900887966156 0.7517779469490051 -0.033323924988508224
0.5381761193275452 0.7526277303695679 -0.045192696154117584
0.5386999845504761 0.8494486808776855 -0.027644481509923935
0.5415847897529602 0.7994645833969116 -0.04821646958589554
0.5416818857192993 0.7883626222610474 -0.04982516169548035
0.5402182340621948 0.7772479057312012 -0.04227857291698456
0.5376901030540466 0.7688555121421814 -0.03715408593416214
0.5843814611434937 0.7609360814094543 -0.011442914605140686
0.589351236820221 0.7639162540435791 -0.016212690621614456
0.5944911241531372 0.768744707107544 -0.019613558426499367
0.5980964303016663 0.7744266390800476 -0.014836451970040798
0.6212837100028992 0.7125511169433594 -0.022620590403676033
0.7989253997802734 0.6343221664428711 0.2642069458961487
0.6005584597587585 0.7566969990730286 0.0044253491796553135
0.6062530279159546 0.7576385736465454 0.0017354398733004928
0.5358084440231323 0.666804850101471 -0.07152092456817627
0.5799096822738647 0.6592400670051575 -0.04376615211367607
0.5398116111755371 0.6617172956466675 -0.07202068716287613
0.603446364402771 0.5660833716392517 -0.01573110558092594
0.6464540362358093 0.5828056931495667 -0.010226682759821415
0.5928714275360107 0.6295613646507263 -0.054511312395334244
0.7025675177574158 0.3209298253059387 0.043889883905649185
0.6833118200302124 0.3583189845085144 0.006063616834580898
0.6709689497947693 0.40087005496025085 -0.024964837357401848
0.6088699698448181 0.8118228912353516 0.0014547905884683132
0.5602872967720032 0.40545639395713806 -0.05973267927765846
0.5667474269866943 0.34225547313690186 -0.04188019782304764
0.5775332450866699 0.28576192259788513 -0.025101199746131897
0.6713711023330688 0.4965008497238159 0.0224608164280653
0.73340904712677 0.525849461555481 0.058613162487745285
0.5709517002105713 0.48208314180374146 0.01215097401291132
0.7111490964889526 0.46690261363983154 0.031848639249801636
0.5575485825538635 0.53505539894104 -0.03431591019034386
0.5658466815948486 0.6239452362060547 -0.10420007258653641
0.770050585269928 0.5559605360031128 0.08622894436120987
0.7128096222877502 0.542934775352478 0.03639606386423111
0.6781167984008789 0.5516616702079773 0.014028854668140411
0.6297799944877625 0.5456914901733398 0.0022900544572621584
0.5957316160202026 0.533694863319397 -0.002184156095609069
0.5716454982757568 0.5224626064300537 -0.009133411571383476
0.5236655473709106 0.5008977055549622 -0.06375686079263687
0.7690775394439697 0.6088619828224182 0.08019037544727325
0.7325839996337891 0.46550577878952026 0.04293461889028549
0.5100117325782776 0.6563177704811096 -0.1299639195203781
0.5760252475738525 0.577643632888794 -0.034805648028850555
0.8000394105911255 0.5137714743614197 0.24204087257385254
0.5534620881080627 0.5102924108505249 -0.013114084489643574
0.5960085391998291 0.630734920501709 -0.026424959301948547
0.696043074131012 0.4787353277206421 0.04089543595910072
0.567291796207428 0.6062873005867004 -0.09400271624326706
0.7908792495727539 0.7000904083251953 0.25324755907058716
0.573936939239502 0.4736715257167816 0.0192194152623415
0.5436411499977112 0.5918092131614685 -0.12033989280462265
0.7156690359115601 0.8267638683319092 0.1004117876291275
0.7133283615112305 0.8633622527122498 0.14276760816574097
0.7950876951217651 0.6238841414451599 0.17189915478229523
0.7485053539276123 0.7902147769927979 0.12851287424564362
0.7733277082443237 0.4617178440093994 0.1303807944059372
0.6052113771438599 0.925184965133667 0.01860685646533966
0.5079939365386963 0.6617544889450073 -0.09472571313381195
0.6005927920341492 0.5966580510139465 -0.02525256760418415
0.7616266012191772 0.4972571134567261 0.09450642764568329
0.6469874382019043 0.4804641604423523 0.015460287220776081
0.6263617873191833 0.4790021777153015 0.009711463935673237
0.6158463954925537 0.7615573406219482 0.006581304129213095
0.7677202224731445 0.6642293334007263 0.09038455039262772
0.5547704100608826 0.9651228785514832 0.022459598258137703
0.6378530859947205 0.9268894195556641 0.07595612108707428
0.6733468770980835 0.9006482362747192 0.10634653270244598
0.6073939204216003 0.4765552878379822 0.00895327515900135
0.5898064970970154 0.47401565313339233 0.01279197633266449
0.5787004828453064 0.47386497259140015 0.01820884272456169
0.7524138689041138 0.45946204662323 0.06841617822647095
0.5960282683372498 0.46585315465927124 0.010012658312916756
0.6166555285453796 0.4648609757423401 0.004070668015629053
0.6369818449020386 0.4667022228240967 0.004365492146462202
0.6570520997047424 0.47034981846809387 0.009650581516325474
0.6700254678726196 0.4739171862602234 0.017887355759739876
0.7900861501693726 0.4515380263328552 0.19931431114673615
0.6620302200317383 0.48040735721588135 0.02262304536998272
0.5929772257804871 0.698377251625061 -0.04183648154139519
0.5646836161613464 0.6440327763557434 -0.0774284154176712
0.5391290187835693 0.6919960379600525 -0.06814970821142197
0.6793596744537354 0.865047037601471 0.07704213261604309
0.6439107656478882 0.8956369757652283 0.04962194338440895
0.5558644533157349 0.9449349641799927 -0.007804670836776495
0.7449769973754883 0.8228797912597656 0.18716242909431458
0.5812335014343262 0.470194935798645 0.015213877893984318
0.5397909283638 0.5424273014068604 -0.07056497782468796
0.5997756123542786 0.9494731426239014 0.043708041310310364
0.7884542346000671 0.6842435002326965 0.16930818557739258
0.5633871555328369 0.7651268243789673 -0.025708427652716637
0.5678630471229553 0.7709549069404602 -0.030857820063829422
0.5714025497436523 0.7792662382125854 -0.03528236225247383
0.5733187198638916 0.7889091968536377 -0.03198879957199097
0.5781598091125488 0.8338180780410767 -0.015514720231294632
0.6082781553268433 0.749523937702179 -0.002322060288861394
0.6134946346282959 0.7474850416183472 -0.002154434332624078
0.6177516579627991 0.7454614043235779 -0.002714645816013217
0.6443363428115845 0.7313573360443115 0.00025423651095479727
0.7338321805000305 0.6748195886611938 0.03945083171129227
0.5398440957069397 0.516356348991394 -0.047040168195962906
0.5535788536071777 0.4618612229824066 0.0012507104547694325
0.5703377723693848 0.4621891379356384 0.010817167349159718
0.6023821830749512 0.7515261769294739 0.00017862796084955335
0.7387778759002686 0.7447530031204224 0.08105482906103134
0.5299884676933289 0.46615487337112427 -0.03502228856086731
0.5893959999084473 0.8620460629463196 -0.0037750331684947014
0.5217132568359375 0.5283313393592834 -0.08945246040821075
0.5590140223503113 0.5837975740432739 -0.06989795714616776
0.5450477004051208 0.8796709179878235 -0.022497763857245445
0.6525592803955078 0.8015751838684082 0.028718365356326103
0.6176618933677673 0.6526815891265869 -0.01951085962355137
0.6238962411880493 0.836087703704834 0.01441874448210001
0.6755420565605164 0.6492595672607422 -0.010090204887092113
0.6429692506790161 0.6797634959220886 -0.011696280911564827
0.6999403238296509 0.6932615041732788 0.014432569965720177
0.5525074005126953 0.9149389863014221 -0.020888298749923706
0.5770586729049683 0.5978053212165833 -0.05062292888760567
0.67200767993927 0.8281126618385315 0.050070472061634064
0.636761486530304 0.8630037903785706 0.03151421993970871
0.6749152541160583 0.76310133934021 0.02931792475283146
0.7623003721237183 0.7125266790390015 0.10123944282531738
0.7053813934326172 0.7726682424545288 0.05195290222764015
0.7748115658760071 0.7402938604354858 0.1597091555595398
0.6667600870132446 0.7122979164123535 0.0035506805870682
0.557007908821106 0.5599640011787415 -0.05127236992120743
0.5573701858520508 0.6362344026565552 -0.10998274385929108
0.5764375925064087 0.6417328119277954 -0.08102535456418991
0.5445953011512756 0.6190311908721924 -0.12991245090961456
0.573327898979187 0.4452609419822693 -0.0071212006732821465
0.6142974495887756 0.4347756505012512 -0.01470407284796238
0.6504502296447754 0.43427324295043945 -0.015454242005944252
0.6801155805587769 0.4403347969055176 -0.006241647060960531
0.7004971504211426 0.45084938406944275 0.009419901296496391
0.7145527601242065 0.4867188334465027 0.05044372007250786
0.7966880202293396 0.5674080848693848 0.1658811867237091
0.6903282403945923 0.5171735882759094 0.03229420632123947
0.6627553701400757 0.5226315259933472 0.017377719283103943
0.6288830041885376 0.5192902088165283 0.007688481360673904
0.5986234545707703 0.51158207654953 0.005152987316250801
0.5761750340461731 0.503822922706604 0.003448052564635873
0.5607380270957947 0.4969365894794464 0.002429804066196084
0.8010385036468506 0.5733463168144226 0.262037992477417
0.577327311038971 0.6482416391372681 -0.06782974302768707
0.539485514163971 0.5664288401603699 -0.0915525034070015
0.5377424359321594 0.6385475397109985 -0.13046099245548248
0.5244221091270447 0.6519463658332825 -0.11936609447002411
0.5383812189102173 0.6429764032363892 -0.11741795390844345
0.5709531307220459 0.655971109867096 -0.058683764189481735
0.5188366174697876 0.6544339060783386 -0.12638574838638306
0.5171114206314087 0.659826934337616 -0.09496447443962097
0.5638940334320068 0.4755200743675232 0.015324865467846394
0.5490379333496094 0.4845462441444397 -0.0007203778950497508
0.5398660898208618 0.4922943711280823 -0.021192170679569244
0.6781232357025146 0.4762517213821411 0.025782834738492966
0.6962370872497559 0.46634960174560547 0.026276709511876106
0.3698175251483917 0.4692784249782562 0.02274326980113983
0.39426320791244507 0.46807020902633667 0.02274326980113983
0.3695133924484253 0.44795799255371094 0.02274326980113983
0.34534314274787903 0.4703019857406616 0.02274326980113983
0.37000152468681335 0.49059441685676575 0.02274326980113983
0.6300462484359741 0.47107040882110596 0.01625094935297966
0.6516759395599365 0.47204458713531494 0.01625094935297966
0.630161464214325 0.45161139965057373 0.01625094935297966
0.6090390682220459 0.4699947237968445 0.01625094935297966
0.6301737427711487 0.4904731810092926 0.01625094935297966
