ply
format ascii 1.0
element vertex 478
property float x
property float y
property float z
end_header
0.4940071702003479 0.6942799687385559 -0.04691735655069351
0.49381184577941895 0.6298546195030212 -0.11880045384168625
0.4944899082183838 0.6469108462333679 -0.055854666978120804
0.47574543952941895 0.5532413721084595 -0.09910255670547485
0.4939872920513153 0.607269287109375 -0.12974879145622253
0.4944170415401459 0.5762717127799988 -0.12532281875610352
0.49630996584892273 0.4998771846294403 -0.07865379750728607
0.3403981328010559 0.48248061537742615 0.01960727386176586
0.49715933203697205 0.4428073763847351 -0.07330946624279022
0.4974241852760315 0.4125048816204071 -0.0842473953962326
0.5008574724197388 0.2871866226196289 -0.0821928083896637
0.49461615085601807 0.7056363821029663 -0.04249096289277077
0.4952611029148102 0.7177430391311646 -0.034196849912405014
0.495891273021698 0.725817084312439 -0.022166768088936806
0.4962117671966553 0.7264474630355835 -0.016271285712718964
0.49685418605804443 0.7387328147888184 -0.01718069612979889
0.4974752962589264 0.7523394823074341 -0.019480379298329353
0.4981955885887146 0.766228199005127 -0.012949504889547825
0.49452418088912964 0.7832019329071045 0.013168536126613617
0.49405786395072937 0.639927327632904 -0.1055307611823082
0.4731551706790924 0.6370747089385986 -0.07258852571249008
0.2711300849914551 0.38253289461135864 0.11307720094919205
0.39740025997161865 0.5055361986160278 -0.004709226079285145
0.37719929218292236 0.5055917501449585 -0.0013815335696563125
0.35730862617492676 0.5036672949790955 0.005922901444137096
0.3315882086753845 0.489679753780365 0.025216851383447647
0.41430580615997314 0.5027211904525757 -0.004245765972882509
0.37019866704940796 0.44047385454177856 -0.01778852753341198
0.39421361684799194 0.44568759202957153 -0.020116757601499557
0.3473277688026428 0.44223928451538086 -0.008334118872880936
0.33258718252182007 0.45025208592414856 0.002281138440594077
0.31397056579589844 0.5034850239753723 0.03935195133090019
0.4127410352230072 0.8065857887268066 0.05285273864865303
0.33346179127693176 0.47573453187942505 0.026723258197307587
0.2569812536239624 0.4834935665130615 0.14025269448757172
0.2930150330066681 0.4872657358646393 0.060373470187187195
0.3824926018714905 0.5976665616035461 -0.008070955984294415
0.4650011658668518 0.6895018219947815 -0.04257715120911598
0.4696179926395416 0.7174801826477051 -0.028806917369365692
0.43854445219039917 0.6973828077316284 -0.025668920949101448
0.42230406403541565 0.704627513885498 -0.0046134889125823975
0.44856274127960205 0.7166681289672852 -0.017280338332057
0.4325917661190033 0.716243326663971 0.0013883595820516348
0.39220622181892395 0.7311506867408752 0.04281911253929138
0.4753730893135071 0.6286075115203857 -0.11607053875923157
0.4721328318119049 0.6068226099014282 -0.12599582970142365
0.30691927671432495 0.4308890700340271 0.005566233769059181
0.4298924207687378 0.5432205200195312 -0.023924892768263817
0.4234331250190735 0.6155887246131897 -0.05770958587527275
0.4220496416091919 0.6027612686157227 -0.05238319933414459
0.3161546587944031 0.591753363609314 0.02402905374765396
0.4737902879714966 0.5780338048934937 -0.11669454723596573
0.3552144765853882 0.412181556224823 -0.04052506759762764
0.3265271782875061 0.4163849353790283 -0.019709881395101547
0.2894754707813263 0.3454590439796448 0.0603841207921505
0.44573527574539185 0.43881893157958984 -0.06398890912532806
0.41403689980506897 0.4575931429862976 -0.014007030054926872
0.37481945753097534 0.7075092792510986 0.043807826936244965
0.2796410620212555 0.6862993240356445 0.24406221508979797
0.44056451320648193 0.6288837194442749 -0.0483366996049881
0.45859086513519287 0.6360079646110535 -0.049804091453552246
0.4025244116783142 0.7147939205169678 0.04083802178502083
0.40774524211883545 0.7156029343605042 0.03384813293814659
0.31782659888267517 0.4031656086444855 -0.011619016528129578
0.4225045144557953 0.6235853433609009 -0.043549537658691406
0.39351171255111694 0.4180414080619812 -0.05622050538659096
0.3909763693809509 0.40149956941604614 -0.06473958492279053
0.3712131381034851 0.29778701066970825 -0.04128553345799446
0.3014039993286133 0.3731502890586853 0.01768997311592102
0.3831178545951843 0.34739571809768677 -0.05607002601027489
0.29654327034950256 0.42178982496261597 0.022829649969935417
0.2809491753578186 0.4019250273704529 0.0636245459318161
0.46665626764297485 0.7045043706893921 -0.03795338794589043
0.4434507489204407 0.7074640393257141 -0.022021090611815453
0.42719289660453796 0.7104837894439697 -0.003256511874496937
0.4455615282058716 0.6324976682662964 -0.04335849732160568
0.40523970127105713 0.7152360081672668 0.03700414299964905
0.4167296886444092 0.7221347093582153 0.02500309981405735
0.4106190800666809 0.7159726619720459 0.033044006675481796
0.45095667243003845 0.6245788931846619 -0.08166762441396713
0.4368927478790283 0.7204822301864624 0.0059114983305335045
0.45277735590934753 0.7229180335998535 -0.0069647738710045815
0.4725501239299774 0.7251093983650208 -0.017360001802444458
0.4634718894958496 0.7809745073318481 0.01621856912970543
0.4683913588523865 0.7631294131278992 -0.009387072175741196
0.46896639466285706 0.7497022151947021 -0.014772527851164341
0.4705559313297272 0.7364268898963928 -0.012182970531284809
0.4729582369327545 0.7252988815307617 -0.011360731907188892
0.437620609998703 0.7199728488922119 0.010682887397706509
0.43332788348197937 0.7243149280548096 0.009188488125801086
0.4288454055786133 0.7299790382385254 0.008135988377034664
0.42555058002471924 0.7364392280578613 0.013991468586027622
0.399543434381485 0.6751191020011902 -0.0006273345206864178
0.2572730481624603 0.5744171738624573 0.254425048828125
0.49423590302467346 0.6435230374336243 -0.07367217540740967
0.4256841838359833 0.7180061936378479 0.024355119094252586
0.421077162027359 0.719938337802887 0.02367444522678852
0.465374231338501 0.6444090008735657 -0.04817119613289833
0.42983943223953247 0.6352331042289734 -0.025086581707000732
0.46218469738960266 0.6403437256813049 -0.04991650581359863
0.4063093662261963 0.554349422454834 -0.012086717411875725
0.3687848746776581 0.5680543184280396 -0.001155070960521698
0.4183519780635834 0.6111440062522888 -0.03767815977334976
0.3207781910896301 0.3166700005531311 0.006555022206157446
0.3336501717567444 0.3538571000099182 -0.021180570125579834
0.3494947552680969 0.3961212635040283 -0.04024629667401314
0.4103807210922241 0.7506107091903687 0.033602140843868256
0.4405477046966553 0.41134244203567505 -0.07839401811361313
0.43643543124198914 0.34690141677856445 -0.07697092741727829
0.42936450242996216 0.288811057806015 -0.07094276696443558
0.34052813053131104 0.49843716621398926 0.016296852380037308
0.29156678915023804 0.5180774331092834 0.055606260895729065
0.4254722595214844 0.49892738461494446 -0.002773331943899393
0.3134835958480835 0.4596637487411499 0.022993838414549828
0.4454440474510193 0.5304027795791626 -0.035225559026002884
0.4364287853240967 0.610130250453949 -0.08234970271587372
0.26901376247406006 0.5305759310722351 0.08534713834524155
0.3033938407897949 0.5335979461669922 0.03773041442036629
0.3292401432991028 0.5428440570831299 0.016766782850027084
0.37057483196258545 0.5410820841789246 0.0038430264685302973
0.400932252407074 0.5339253544807434 -0.0044570197351276875
0.4233468472957611 0.5258959531784058 -0.014035932719707489
0.47453573346138 0.5046904683113098 -0.06750240176916122
0.26989227533340454 0.5780256986618042 0.08794776350259781
0.2985023856163025 0.45684605836868286 0.0332116037607193
0.48276787996292114 0.6387907266616821 -0.10349858552217484
0.4306870102882385 0.5663347840309143 -0.029528643935918808
0.255599707365036 0.47474080324172974 0.2164381891489029
0.44026243686676025 0.5162258744239807 -0.02086578495800495
0.4167496860027313 0.6107449531555176 -0.014409830793738365
0.3241080939769745 0.4758998453617096 0.03174622356891632
0.4356977641582489 0.5945208668708801 -0.07586559653282166
0.2646142244338989 0.6286939978599548 0.25510531663894653
0.4258410930633545 0.4918269217014313 0.001209210604429245
0.45412808656692505 0.5840452909469604 -0.10076845437288284
0.32431167364120483 0.7485387921333313 0.1314660608768463
0.32912787795066833 0.7681735157966614 0.17699478566646576
0.25464287400245667 0.5781868100166321 0.17116038501262665
0.2960124611854553 0.71749347448349 0.15477286279201508
0.26851025223731995 0.43912583589553833 0.10763096809387207
0.41092291474342346 0.8250858187675476 0.07090753316879272
0.4853132665157318 0.6425040364265442 -0.0717342421412468
0.41049864888191223 0.5809102654457092 -0.017203159630298615
0.2764827013015747 0.49102523922920227 0.08428800851106644
0.3596692681312561 0.4909319579601288 0.005791622679680586
0.3770439326763153 0.49358272552490234 -0.0006308348383754492
0.4130595028400421 0.7247951030731201 0.029813744127750397
0.273769736289978 0.6228014826774597 0.10446995496749878
0.4506753385066986 0.8526382446289062 0.08081231266260147
0.3896729052066803 0.8195735812187195 0.12362123280763626
0.3627021312713623 0.7983840703964233 0.14701366424560547
0.499358206987381 0.34772825241088867 -0.08592977374792099
0.4939861297607422 0.8577983379364014 0.0718543753027916
0.393709659576416 0.49394261837005615 -0.0032035696785897017
0.40939897298812866 0.493085652589798 -0.0016531794099137187
0.4200817346572876 0.4928281903266907 0.0016137970378622413
0.28527048230171204 0.45265161991119385 0.055536527186632156
0.40959301590919495 0.47342902421951294 -0.007787451613694429
0.392719030380249 0.46441972255706787 -0.011072030290961266
0.3744651675224304 0.46124184131622314 -0.008714322932064533
0.35608115792274475 0.46311765909194946 -0.0014250919921323657
0.34464019536972046 0.4679318070411682 0.00722225196659565
0.26079702377319336 0.42358851432800293 0.1688852310180664
0.3481638431549072 0.48696252703666687 0.01337464153766632
0.49480921030044556 0.6624994277954102 -0.04734630137681961
0.4212811291217804 0.665360689163208 -0.01794179528951645
0.44060254096984863 0.6261234283447266 -0.058171384036540985
0.46319568157196045 0.6622838973999023 -0.0426836796104908
0.49704524874687195 0.46991556882858276 -0.06767486780881882
0.354997456073761 0.7777097225189209 0.1144091933965683
0.3817897140979767 0.8012676239013672 0.09456592798233032
0.44791772961616516 0.842682957649231 0.04957636818289757
0.30224165320396423 0.7334534525871277 0.21344679594039917
0.42065709829330444 0.4848346412181854 -0.0026729574892669916
0.4594079256057739 0.5400850176811218 -0.06680822372436523
0.4933709502220154 0.847819447517395 0.042203910648822784
0.4176482558250427 0.8388372659683228 0.09846486151218414
0.2610355019569397 0.6277133822441101 0.17760729789733887
0.4533160626888275 0.7226327657699585 -0.0013140507508069277
0.44922158122062683 0.7306244373321533 -0.0026177032850682735
0.4459739327430725 0.7401288151741028 -0.003788759233430028
0.4441039562225342 0.7516565322875977 0.0017895689234137535
0.4334088861942291 0.7682594060897827 0.022907596081495285
0.4200989305973053 0.715690553188324 0.018445800989866257
0.41516655683517456 0.7130066752433777 0.018759887665510178
0.41109219193458557 0.7101173400878906 0.018207106739282608
0.3830101788043976 0.6892613768577576 0.020774604752659798
0.29958540201187134 0.6381822824478149 0.058602429926395416
0.46025151014328003 0.5160619616508484 -0.04988367110490799
0.44356074929237366 0.4758908152580261 -0.01921195536851883
0.4297821521759033 0.4776322841644287 -0.008824093267321587
0.4250746965408325 0.7182192206382751 0.021311983466148376
0.3013489842414856 0.6892266273498535 0.10428290069103241
0.46350568532943726 0.47542744874954224 -0.04951402172446251
0.4215205907821655 0.7867153882980347 0.03945804759860039
0.4950743615627289 0.5504961013793945 -0.10873675346374512
0.47493794560432434 0.5303428769111633 -0.08605355024337769
0.49564793705940247 0.5263829827308655 -0.09316007047891617
0.44290247559547424 0.5739959478378296 -0.059695031493902206
0.49339333176612854 0.8299682140350342 0.025525638833642006
0.4939002990722656 0.8054386973381042 0.01991220936179161
0.45585882663726807 0.802153468132019 0.0263964980840683
0.37415510416030884 0.7397854924201965 0.05825522541999817
0.3984628915786743 0.6268294453620911 -0.004258021246641874
0.3959100842475891 0.7658993005752563 0.05092857405543327
0.3462591767311096 0.6227651834487915 0.008203567005693913
0.3776525855064392 0.6476514935493469 0.006642828695476055
0.3292071223258972 0.6561926007270813 0.03483450412750244
0.4494808614253998 0.8252676129341125 0.03344159573316574
0.42994263768196106 0.5844855308532715 -0.040138907730579376
0.3586896061897278 0.7555585503578186 0.08346204459667206
0.38523298501968384 0.7821640968322754 0.07218519598245621
0.355294793844223 0.7111578583717346 0.05500971898436546
0.28122520446777344 0.660382091999054 0.11995436996221542
0.3295608162879944 0.7145559787750244 0.07835341989994049
0.27317866683006287 0.6741522550582886 0.17772544920444489
0.36077654361724854 0.6732909679412842 0.024575194343924522
0.445493221282959 0.5528379678726196 -0.04680722579360008
0.44391945004463196 0.6208344101905823 -0.08670619875192642
0.4305760860443115 0.6236276626586914 -0.05975229665637016
0.4532592296600342 0.6078107357025146 -0.10520625114440918
0.42775970697402954 0.4536752700805664 -0.027906902134418488
0.3943556547164917 0.43576061725616455 -0.031205883249640465
0.3637967109680176 0.4298468232154846 -0.026922516524791718
0.33859682083129883 0.4321143627166748 -0.014707248657941818
0.32146498560905457 0.4417904019355774 0.0014547428581863642
0.3108990490436554 0.48130300641059875 0.042105477303266525
0.253091037273407 0.5304114818572998 0.15725111961364746
0.3239428400993347 0.5129860639572144 0.02891436219215393
0.3450351357460022 0.5207875967025757 0.01490633562207222
0.3731883466243744 0.5219475626945496 0.004292557016015053
0.3996660113334656 0.5187506675720215 -0.0024396288208663464
0.41995784640312195 0.513914167881012 -0.006196815054863691
0.4342173635959625 0.5084845423698425 -0.009666230529546738
0.2556280791759491 0.5237327814102173 0.24285179376602173
0.43092459440231323 0.628208339214325 -0.04769466444849968
0.45844703912734985 0.5616337656974792 -0.08056996762752533
0.45968693494796753 0.624139666557312 -0.10490988194942474
0.47158491611480713 0.6341512799263 -0.0943392887711525
0.45989465713500977 0.6267035603523254 -0.09330271184444427
0.43661266565322876 0.6339319944381714 -0.03916015848517418
0.4757857620716095 0.6368840336799622 -0.10024956613779068
0.47826892137527466 0.6406645774841309 -0.07210506498813629
0.4333306550979614 0.49291372299194336 -0.0026376619935035706
0.44574829936027527 0.49791449308395386 -0.016093023121356964
0.4533627927303314 0.5011399388313293 -0.03138688579201698
0.33824992179870605 0.4720512330532074 0.015805605798959732
0.32388362288475037 0.46096479892730713 0.016804710030555725
0.5144703388214111 0.5533078908920288 -0.10210087895393372
0.6659798622131348 0.4770907759666443 -0.0007059878553263843
0.5161123275756836 0.6372255682945251 -0.0748729258775711
0.748373806476593 0.38693585991859436 0.07784438133239746
0.6046820282936096 0.5017983913421631 -0.01778441108763218
0.6248787641525269 0.501539945602417 -0.017128098756074905
0.6455576419830322 0.500296950340271 -0.012248457409441471
0.6753509640693665 0.4857468008995056 0.0038027812261134386
0.5881728529930115 0.49998512864112854 -0.014597645029425621
0.6348751187324524 0.4382151961326599 -0.034984420984983444
0.6102046966552734 0.44410812854766846 -0.03384137153625488
0.6587464809417725 0.4391273856163025 -0.027892962098121643
0.6743183732032776 0.4463444948196411 -0.01871434971690178
0.6918909549713135 0.5022026300430298 0.016571149230003357
0.5764239430427551 0.8080278038978577 0.04387590289115906
0.6746103167533875 0.47050824761390686 0.005508781876415014
0.7552188634872437 0.4869374632835388 0.11049381643533707
0.7162110209465027 0.48638689517974854 0.034844376146793365
0.6129400730133057 0.5991479754447937 -0.021918516606092453
0.5230435729026794 0.6862735152244568 -0.04643603786826134
0.5216346979141235 0.7145086526870728 -0.032522961497306824
0.5519395470619202 0.6908561587333679 -0.0334455706179142
0.5703753232955933 0.6954451203346252 -0.014881424605846405
0.5442299842834473 0.7107812762260437 -0.02424343302845955
0.5614611506462097 0.7078503370285034 -0.007417261600494385
0.6004170775413513 0.7316746711730957 0.030404405668377876
0.5125149488449097 0.6289235949516296 -0.11786355078220367
0.5152945518493652 0.6069747805595398 -0.1282370537519455
0.7032021284103394 0.4297123849391937 -0.019211087375879288
0.5668358206748962 0.5437134504318237 -0.03311923146247864
0.5674521923065186 0.6158770322799683 -0.06635163724422455
0.5696329474449158 0.6030526161193848 -0.06136250123381615
0.6823420524597168 0.5944871306419373 0.002290095668286085
0.5151934623718262 0.5781179070472717 -0.1195574402809143
0.6491183042526245 0.41247889399528503 -0.058088209480047226
0.6812008023262024 0.41576331853866577 -0.041459135711193085
0.7286465764045715 0.3488863706588745 0.028474198654294014
0.5511892437934875 0.4444306492805481 -0.07000606507062912
0.5901095271110535 0.4565427899360657 -0.025189446285367012
0.6181151270866394 0.7080137133598328 0.02885577455163002
0.7222145795822144 0.6878415942192078 0.21204987168312073
0.5501164793968201 0.62896329164505 -0.05452588200569153
0.531501829624176 0.6360986828804016 -0.052929747849702835
0.5938284993171692 0.7007030844688416 0.027938302606344223
0.5883944630622864 0.7023019194602966 0.0224115252494812
0.6925643682479858 0.40149879455566406 -0.03457091003656387
0.5685877799987793 0.6238203644752502 -0.051998935639858246
0.6067983508110046 0.42121726274490356 -0.06838688254356384
0.6096609234809875 0.403377890586853 -0.07710406184196472
0.6369617581367493 0.2988041937351227 -0.059965696185827255
0.7120423913002014 0.3752825856208801 -0.006981052923947573
0.6203685402870178 0.3477663993835449 -0.07009321451187134
0.7156074643135071 0.42073455452919006 -0.003130443627014756
0.7344750165939331 0.4053593873977661 0.0357753150165081
0.5230588912963867 0.7013860940933228 -0.041921574622392654
0.5482306480407715 0.7012864947319031 -0.029489874839782715
0.5660451650619507 0.7015917897224426 -0.012730496935546398
0.5447183847427368 0.6325435042381287 -0.04846464842557907
0.5910100936889648 0.7015189528465271 0.025074247270822525
0.5797563791275024 0.7113041281700134 0.014863218180835247
0.585487961769104 0.7031803727149963 0.021995484828948975
0.538671612739563 0.6249417066574097 -0.08752583712339401
0.5580725073814392 0.712317705154419 -0.0023714681155979633
0.5407046675682068 0.7172996997833252 -0.013342059217393398
0.5200002193450928 0.7223582863807678 -0.02111891843378544
0.5263650417327881 0.7816241979598999 0.01280099805444479
0.5278640389442444 0.7613735795021057 -0.013121570460498333
0.5258888006210327 0.7476450204849243 -0.018714826554059982
0.5230641961097717 0.7341617941856384 -0.016190743073821068
0.5200278162956238 0.7228467464447021 -0.015195206739008427
0.557310938835144 0.7124288082122803 0.0024171683471649885
0.5621621012687683 0.7168282866477966 0.0010501215001568198
0.5672162771224976 0.7225285172462463 -0.0002949789341073483
0.5711778998374939 0.7292901277542114 0.005081953480839729
0.5923224687576294 0.6756284832954407 -0.012299935333430767
0.7516351938247681 0.5779442191123962 0.22013640403747559
0.5702850222587585 0.7082234621047974 0.014457779005169868
0.5750315189361572 0.7096145749092102 0.013803358189761639
0.5244171023368835 0.6446831822395325 -0.0513785295188427
0.5610854625701904 0.6354741454124451 -0.03187970444560051
0.5277854204177856 0.6406359672546387 -0.05293172597885132
0.5909009575843811 0.5552802681922913 -0.024085329845547676
0.6288293600082397 0.5698440670967102 -0.016910750418901443
0.5737375020980835 0.61156165599823 -0.046978648751974106
0.6933392286300659 0.3187812864780426 -0.0197884663939476
0.6757824420928955 0.35491490364074707 -0.04142977297306061
0.6560137271881104 0.39494019746780396 -0.05890091881155968
0.5807976126670837 0.7513307332992554 0.023483017459511757
0.5572414994239807 0.4156777262687683 -0.08465816080570221
0.563589870929718 0.34707948565483093 -0.08437826484441757
0.5746976733207703 0.28914520144462585 -0.08054054528474808
0.6643778681755066 0.49495697021484375 -0.00391340022906661
0.7131649255752563 0.5181034207344055 0.030557258054614067
0.5771439075469971 0.497060626745224 -0.011933468282222748
0.6956722736358643 0.45668286085128784 -0.0006597494939342141
0.5505670309066772 0.5306011438369751 -0.04262841120362282
0.5531216263771057 0.6104992032051086 -0.08931984007358551
0.7375856041908264 0.5339086055755615 0.057531170547008514
0.6980628967285156 0.5351265668869019 0.01398730743676424
0.6691529750823975 0.544894814491272 -0.0038239802233874798
0.6268768310546875 0.5424659252166748 -0.012127082794904709
0.5966461896896362 0.5346288681030273 -0.016911186277866364
0.5741692185401917 0.5264122486114502 -0.02349678799510002
0.5187059640884399 0.5046554207801819 -0.07055909931659698
0.7332696318626404 0.5813121795654297 0.060007572174072266
0.7117065191268921 0.455794095993042 0.0074372305534780025
0.5054479837417603 0.639002799987793 -0.10496120899915695
0.5643972158432007 0.5667642951011658 -0.038515374064445496
0.7598204612731934 0.4789527654647827 0.18005718290805817
0.5569400787353516 0.516368567943573 -0.028357945382595062
0.5765161514282227 0.6112672090530396 -0.023833483457565308
0.6844433546066284 0.4714464247226715 0.009638799354434013
0.5551398992538452 0.5947728157043457 -0.08301651477813721
0.7405980825424194 0.6315847039222717 0.22198143601417542
0.578106164932251 0.4896910488605499 -0.008131689392030239
0.5354175567626953 0.5843275785446167 -0.10591602325439453
0.6705241799354553 0.7494558691978455 0.11074531078338623
0.6668855547904968 0.7683107256889343 0.15295378863811493
0.7512138485908508 0.5812543630599976 0.14128144085407257
0.7006441354751587 0.7182608246803284 0.13025905191898346
0.7456098794937134 0.4429216980934143 0.07849869877099991
0.5777884721755981 0.8264425992965698 0.06114087253808975
0.503347635269165 0.6425718665122986 -0.07265941053628922
0.5849831104278564 0.5817447900772095 -0.028199002146720886
0.7345806360244751 0.4896085858345032 0.05654281750321388
0.6440371870994568 0.48533403873443604 -0.011927930638194084
0.6259983777999878 0.48783260583877563 -0.016285186633467674
0.5839226245880127 0.7137877941131592 0.01890133135020733
0.7268326878547668 0.6255201697349548 0.0772404596209526
0.5378317832946777 0.8533406257629395 0.07435351610183716
0.6026404500007629 0.8201358914375305 0.10759501159191132
0.6316473484039307 0.798786461353302 0.12727969884872437
0.6092831492424011 0.488560289144516 -0.016391009092330933
0.5940017700195312 0.4889681339263916 -0.012797856703400612
0.5836256742477417 0.4900676906108856 -0.008308695629239082
0.7268552780151367 0.4518704116344452 0.02816207893192768
0.5957432389259338 0.47152507305145264 -0.01978396065533161
0.6130408048629761 0.46205830574035645 -0.025140073150396347
0.6316549777984619 0.4582042694091797 -0.025177156552672386
0.6507616639137268 0.4592317044734955 -0.020106671378016472
0.6625679731369019 0.46334773302078247 -0.012656547129154205
0.7571555376052856 0.42817652225494385 0.13262173533439636
0.6568114757537842 0.4814671277999878 -0.005906310863792896
0.569991946220398 0.6657125949859619 -0.026781942695379257
0.5499081015586853 0.6262838840484619 -0.06428580731153488
0.527004063129425 0.6625758409500122 -0.04656201973557472
0.6383978724479675 0.7790796160697937 0.09767851233482361
0.6087443232536316 0.8024500608444214 0.08136463910341263
0.5394989252090454 0.8436645865440369 0.044095613062381744
0.696393609046936 0.7336893677711487 0.18470723927021027
0.5836941599845886 0.48287224769592285 -0.013190753757953644
0.5334228277206421 0.540292501449585 -0.0718524158000946
0.5723377466201782 0.8396227955818176 0.08646418899297714
0.7410941123962402 0.6300109028816223 0.14873027801513672
0.54034823179245 0.7176014184951782 -0.0077262078411877155
0.5452836155891418 0.7258322834968567 -0.00917777419090271
0.5494617223739624 0.7356784343719482 -0.010690591298043728
0.552514910697937 0.7477206587791443 -0.005225253291428089
0.5568169355392456 0.7689018845558167 0.015475462190806866
0.5753440260887146 0.7047780156135559 0.008120665326714516
0.5797063112258911 0.7015365362167358 0.007551832590252161
0.5836409330368042 0.698277473449707 0.006296488456428051
0.6094840168952942 0.6898593902587891 0.0066264537163078785
0.6976919174194336 0.6406393647193909 0.035442061722278595
0.5343768000602722 0.516180694103241 -0.055100467056035995
0.5574280619621277 0.47569549083709717 -0.025939082726836205
0.5735037326812744 0.4764153063297272 -0.01807013526558876
0.5709920525550842 0.7079352736473083 0.01140093058347702
0.6953315138816833 0.6907052397727966 0.08124750107526779
0.5330753922462463 0.47712576389312744 -0.0537404790520668
0.5679386258125305 0.7876527905464172 0.03136749565601349
0.5165696740150452 0.5303740501403809 -0.08876887708902359
0.5498314499855042 0.5744192600250244 -0.06641709804534912
0.5325281023979187 0.8028143644332886 0.022487541660666466
0.6184264421463013 0.7410505414009094 0.04399929940700531
0.5953541994094849 0.6278457641601562 -0.015821443870663643
0.59518963098526 0.7669706344604492 0.03971676528453827
0.6490725874900818 0.6248994469642639 -0.009090212173759937
0.616341233253479 0.6492564678192139 -0.007401168812066317
0.6664175987243652 0.658516526222229 0.015345999971032143
0.5381278991699219 0.8263366222381592 0.028294717893004417
0.5638427734375 0.5848021507263184 -0.048483557999134064
0.6347107887268066 0.7572683095932007 0.06752277910709381
0.6054350733757019 0.7834370732307434 0.05991416051983833
0.6379359364509583 0.7124848961830139 0.037916041910648346
0.7179434299468994 0.6622850894927979 0.09413296729326248
0.6648390293121338 0.7160352468490601 0.05884292349219322
0.7262178659439087 0.6754794120788574 0.14981451630592346
0.6332024335861206 0.6749916076660156 0.008346226997673512
0.5486882328987122 0.5531978011131287 -0.05398540943861008
0.5455750226974487 0.6211668252944946 -0.09298526495695114
0.5599688291549683 0.6239137649536133 -0.06711264699697495
0.5351884961128235 0.608143150806427 -0.11000359803438187
0.5737830400466919 0.45523694157600403 -0.03712619096040726
0.6081276535987854 0.4361334443092346 -0.04407840222120285
0.6403250098228455 0.42882078886032104 -0.04354996606707573
0.6675444841384888 0.43025392293930054 -0.034768931567668915
0.6866593360900879 0.43912509083747864 -0.021015316247940063
0.6978878378868103 0.4789835810661316 0.018643468618392944
0.7563071250915527 0.533839762210846 0.12671074271202087
0.6798767447471619 0.5120773315429688 0.007128581870347261
0.6559692025184631 0.5201817750930786 -0.004072821699082851
0.6266975998878479 0.5207308530807495 -0.011538500897586346
0.6001899242401123 0.5173226594924927 -0.015195852145552635
0.5802197456359863 0.5128602385520935 -0.01591932587325573
0.5658369660377502 0.5075749158859253 -0.017731592059135437
0.7572008967399597 0.527581512928009 0.2069019377231598
0.5596736073493958 0.6283362507820129 -0.054895203560590744
0.5328652262687683 0.5619070529937744 -0.08577968925237656
0.528748095035553 0.6246171593666077 -0.10880356281995773
0.5173715949058533 0.6346392631530762 -0.09658733755350113
0.5294623374938965 0.6272671222686768 -0.09733740240335464
0.5537557005882263 0.6340123414993286 -0.045199837535619736
0.5126842260360718 0.6372306942939758 -0.10206442326307297
0.5106437802314758 0.6407249569892883 -0.07371912896633148
0.5695741176605225 0.49130895733833313 -0.010596089996397495
0.5542568564414978 0.49708831310272217 -0.02258356474339962
0.5437676310539246 0.501192033290863 -0.03670945391058922
0.6693006157875061 0.4671023488044739 -0.004712520632892847
0.6841939687728882 0.45668545365333557 -0.0050704265013337135
0.38295310735702515 0.4764915704727173 0.0033867640886455774
0.4045388102531433 0.47746822237968445 0.0033867640886455774
0.3835045099258423 0.4579567313194275 0.0033867640886455774
0.3609358072280884 0.4754487872123718 0.0033867640886455774
0.38215768337249756 0.4948805868625641 0.0033867640886455774
0.6238743662834167 0.4727213382720947 -0.012232097797095776
0.6466600298881531 0.47194981575012207 -0.012232097797095776
0.6227580308914185 0.45340803265571594 -0.012232097797095776
0.601223349571228 0.47343599796295166 -0.012232097797095776
0.6251177191734314 0.4920250177383423 -0.012232097797095776
