ply
format ascii 1.0
element vertex 478
property float x
property float y
property float z
end_header
0.4675273299217224 0.7061588764190674 -0.06061233952641487
0.42708152532577515 0.6125633120536804 -0.10283049941062927
0.4543927311897278 0.6409324407577515 -0.05662466213107109
0.42832493782043457 0.5351686477661133 -0.06606869399547577
0.42406123876571655 0.5875489711761475 -0.10835124552249908
0.43152958154678345 0.556628406047821 -0.09952133893966675
0.4588800072669983 0.48043131828308105 -0.04570429399609566
0.3669249415397644 0.47640490531921387 0.09202361851930618
0.46640706062316895 0.41865915060043335 -0.03040449693799019
0.46438711881637573 0.38637858629226685 -0.03241812065243721
0.46845486760139465 0.2645420730113983 -0.005830748006701469
0.4687344431877136 0.7167878150939941 -0.058569490909576416
0.47212591767311096 0.727272093296051 -0.052493948489427567
0.4764957129955292 0.7341067790985107 -0.04355233535170555
0.4782259464263916 0.7645325660705566 -0.037642952054739
0.4766295552253723 0.7757568359375 -0.0400797538459301
0.47623318433761597 0.7903681993484497 -0.04351501166820526
0.47845715284347534 0.8064528703689575 -0.03999493271112442
0.48139750957489014 0.8090238571166992 -0.021961551159620285
0.43582361936569214 0.6270024180412292 -0.09364467859268188
0.4311656653881073 0.6289215087890625 -0.06170230731368065
0.34961998462677 0.3898875117301941 0.21156935393810272
0.4112282395362854 0.49731385707855225 0.04897577688097954
0.39469870924949646 0.4996704161167145 0.05847786366939545
0.37974461913108826 0.498865008354187 0.07135946303606033
0.3653072714805603 0.4848094880580902 0.09784701466560364
0.42411476373672485 0.4909476041793823 0.04255208745598793
0.3834911584854126 0.4277045428752899 0.05449766293168068
0.40295305848121643 0.4299791753292084 0.04374369606375694
0.3671107888221741 0.4324036240577698 0.06877097487449646
0.35866332054138184 0.4429352879524231 0.08124250918626785
0.35602623224258423 0.501529335975647 0.11161299794912338
0.4343087673187256 0.8370231986045837 0.026919487863779068
0.363434374332428 0.4693729877471924 0.10139675438404083
0.3535058796405792 0.4936283230781555 0.22431063652038574
0.34901946783065796 0.48336488008499146 0.14082959294319153
0.39025044441223145 0.6007118225097656 0.026291240006685257
0.44525736570358276 0.7026058435440063 -0.047589998692274094
0.45449554920196533 0.7282959818840027 -0.04037105292081833
0.42992129921913147 0.7137500047683716 -0.025135990232229233
0.4235522747039795 0.7288066148757935 -0.0020003740210086107
0.4431820511817932 0.7327703833580017 -0.023186760023236275
0.43637633323669434 0.7398386001586914 -0.002975383074954152
0.4150039553642273 0.7592368721961975 0.03794289007782936
0.41463786363601685 0.6127844452857971 -0.09563126415014267
0.4102720320224762 0.5891479849815369 -0.09944722801446915
0.3418087065219879 0.4205192029476166 0.09952443093061447
0.42380642890930176 0.5366551876068115 0.01215975172817707
0.4028763771057129 0.6105207800865173 -0.029995979741215706
0.4048338830471039 0.5975395441055298 -0.023085976019501686
0.3517387807369232 0.6008292436599731 0.07732593268156052
0.4175008535385132 0.5598345994949341 -0.08517418801784515
0.3637462258338928 0.3925169110298157 0.0437534935772419
0.3480943441390991 0.40149760246276855 0.07211662083864212
0.35058361291885376 0.34568649530410767 0.16755935549736023
0.4281788468360901 0.40962374210357666 -0.00809489656239748
0.4197314977645874 0.439442902803421 0.04151902347803116
0.402335524559021 0.7348275780677795 0.04966387525200844
0.4018469452857971 0.7190450429916382 0.24425353109836578
0.41767704486846924 0.624426007270813 -0.02942873351275921
0.429903507232666 0.6318963170051575 -0.04127231612801552
0.4257572591304779 0.7582365870475769 0.041616104543209076
0.43088793754577637 0.7568215727806091 0.0314125120639801
0.3450329601764679 0.3864564895629883 0.08637137711048126
0.40868479013442993 0.6217597126960754 -0.020623141899704933
0.38856837153434753 0.39279913902282715 0.016461322084069252
0.38511788845062256 0.3732476234436035 0.014667501673102379
0.3851497769355774 0.2860433757305145 0.06323827803134918
0.3454289734363556 0.36727747321128845 0.12441082298755646
0.3859637677669525 0.3309776484966278 0.039060961455106735
0.33905503153800964 0.40999341011047363 0.12223140895366669
0.3415133059024811 0.4031122028827667 0.16774488985538483
0.44846469163894653 0.7170200347900391 -0.04585373401641846
0.4358122646808624 0.7244390249252319 -0.025008495897054672
0.4292374849319458 0.7348129749298096 -0.004431204870343208
0.42346513271331787 0.6290909051895142 -0.029214996844530106
0.42825448513031006 0.7576121687889099 0.03567693755030632
0.43089163303375244 0.7650753855705261 0.019043995067477226
0.4333217144012451 0.7561243772506714 0.029719576239585876
0.41339677572250366 0.6154474020004272 -0.0566474013030529
0.44314056634902954 0.7422544360160828 -0.0011200621956959367
0.45001840591430664 0.7372567653656006 -0.01668570190668106
0.4609169363975525 0.734664261341095 -0.03171612322330475
0.45891618728637695 0.8058831095695496 -0.011830775998532772
0.45614272356033325 0.8038561344146729 -0.02866082824766636
0.4553188383579254 0.7879409790039062 -0.03118574433028698
0.45794177055358887 0.7737956047058105 -0.027442263439297676
0.4620864987373352 0.7638604044914246 -0.02563466876745224
0.44429636001586914 0.7611569166183472 0.003456760197877884
0.4395866394042969 0.765574038028717 0.0008321860805153847
0.43463951349258423 0.7724771499633789 -0.0009896950796246529
0.43146950006484985 0.7811635136604309 0.004473146051168442
0.4041959047317505 0.6890930533409119 0.009490370750427246
0.38952523469924927 0.599672257900238 0.288128137588501
0.4448605179786682 0.6341790556907654 -0.06963752955198288
0.4394419193267822 0.7594468593597412 0.01928042061626911
0.434950590133667 0.7617960572242737 0.01768934540450573
0.43492254614830017 0.6409655213356018 -0.04278571531176567
0.41947585344314575 0.636346697807312 -0.012494084425270557
0.43229973316192627 0.6365895867347717 -0.04270382970571518
0.4090688228607178 0.5517612099647522 0.026736700907349586
0.38348954916000366 0.5699633955955505 0.04423713684082031
0.4073847234249115 0.6089721322059631 -0.012089410796761513
0.36154377460479736 0.31074315309524536 0.11526570469141006
0.35970884561538696 0.34264472126960754 0.08213018625974655
0.360085129737854 0.37363940477371216 0.051324568688869476
0.4256749153137207 0.7770952582359314 0.022213341668248177
0.4208696782588959 0.3777807354927063 -0.012376773171126842
0.4196973741054535 0.3270125687122345 0.005180904176086187
0.41888946294784546 0.2719723880290985 0.021548451855778694
0.3697301149368286 0.4941874146461487 0.08606209605932236
0.3446418046951294 0.51919025182724 0.12987497448921204
0.4321233034133911 0.4842345714569092 0.04179539903998375
0.3514295220375061 0.45315515995025635 0.10657456517219543
0.43269598484039307 0.5203765630722046 0.0007304177852347493
0.40269356966018677 0.6003097295761108 -0.05273114889860153
0.3394393026828766 0.539271891117096 0.16077148914337158
0.345937043428421 0.5372512340545654 0.10671934485435486
0.3584328889846802 0.5467207431793213 0.07721293717622757
0.3858517110347748 0.5416222810745239 0.05357491225004196
0.4077394902706146 0.5302180051803589 0.03818895295262337
0.4229346513748169 0.5184260010719299 0.024606972932815552
0.4451454281806946 0.48712700605392456 -0.02964382991194725
0.3356683552265167 0.5910813808441162 0.15270976722240448
0.3451628088951111 0.44945913553237915 0.12278483808040619
0.42828163504600525 0.626695990562439 -0.08820659667253494
0.41976845264434814 0.5605186820030212 0.0021775730419903994
0.37601321935653687 0.4921451210975647 0.2824244201183319
0.4335077404975891 0.5054010152816772 0.016472890973091125
0.41171514987945557 0.610924243927002 0.006540375761687756
0.3603001832962036 0.47026461362838745 0.10817383974790573
0.40665823221206665 0.5845322012901306 -0.04476587846875191
0.3941044211387634 0.6579532027244568 0.2723650336265564
0.4340527057647705 0.47550565004348755 0.04831354320049286
0.4107516407966614 0.5695315003395081 -0.06791429221630096
0.39449232816696167 0.7797191143035889 0.1319621056318283
0.41449326276779175 0.804809033870697 0.15647239983081818
0.352232426404953 0.5968817472457886 0.22873884439468384
0.3823738694190979 0.7464364171028137 0.1673155426979065
0.3468623459339142 0.4456939697265625 0.20247706770896912
0.4370393753051758 0.8605741858482361 0.03864283487200737
0.43840688467025757 0.6335358023643494 -0.0656139999628067
0.4092584252357483 0.5796132683753967 0.014269784092903137
0.34466540813446045 0.4878242015838623 0.16808907687664032
0.37916141748428345 0.48516738414764404 0.07257572561502457
0.393253892660141 0.48681220412254333 0.06161699816584587
0.4278675317764282 0.7696262001991272 0.024553323164582253
0.3436209559440613 0.6405532956123352 0.15270139276981354
0.4683877229690552 0.8975505828857422 0.023569464683532715
0.4366337060928345 0.8593255281448364 0.08551665395498276
0.42652300000190735 0.8366888165473938 0.11732245981693268
0.4643124043941498 0.3238954544067383 -0.02069285325706005
0.5035290122032166 0.9074947834014893 0.0023448625579476357
0.4080381989479065 0.484872967004776 0.05356549844145775
0.42139843106269836 0.48049211502075195 0.05021190270781517
0.42977046966552734 0.47766661643981934 0.05046085640788078
0.34252607822418213 0.4447382390499115 0.1486520916223526
0.42061591148376465 0.4589107632637024 0.049027785658836365
0.4061948359012604 0.4523813724517822 0.051915209740400314
0.3899312913417816 0.4508447051048279 0.05996716767549515
0.3755577802658081 0.45441174507141113 0.07147590816020966
0.36825257539749146 0.4605429768562317 0.08144556730985641
0.3582768142223358 0.43629923462867737 0.2526237666606903
0.37135952711105347 0.4812062978744507 0.08360343426465988
0.4581044018268585 0.6617640256881714 -0.05327964201569557
0.41310471296310425 0.6735517382621765 -0.008915791288018227
0.41395920515060425 0.6201359033584595 -0.03722279146313667
0.435568243265152 0.6639272570610046 -0.041161924600601196
0.4671224057674408 0.4494112730026245 -0.030800629407167435
0.40955549478530884 0.810822606086731 0.10098055005073547
0.4241181015968323 0.834833025932312 0.07058687508106232
0.45818382501602173 0.8810730576515198 0.0056315017864108086
0.40844494104385376 0.7683974504470825 0.20259782671928406
0.42950916290283203 0.4686702489852905 0.04880037158727646
0.4301459789276123 0.5261428356170654 -0.032026030123233795
0.4934321343898773 0.8899829387664795 -0.016208931803703308
0.44858378171920776 0.8805009126663208 0.05255315825343132
0.3600613474845886 0.6502848863601685 0.21883250772953033
0.45130735635757446 0.762507438659668 -0.011112972162663937
0.4462515115737915 0.769913911819458 -0.013190099038183689
0.44212543964385986 0.7806540131568909 -0.015175800770521164
0.4406090974807739 0.7944414615631104 -0.01122261956334114
0.43936917185783386 0.7936033010482788 0.005028842482715845
0.4325883388519287 0.7479820847511292 0.016246961429715157
0.42691248655319214 0.7462688088417053 0.019431110471487045
0.4221058189868927 0.7433481812477112 0.02191736549139023
0.4001716375350952 0.7102831602096558 0.03197769820690155
0.35135138034820557 0.6542582511901855 0.10081631690263748
0.43936464190483093 0.5020169615745544 -0.01337343081831932
0.4401313364505768 0.4544183611869812 0.02446942962706089
0.4338214099407196 0.45843446254730225 0.040051285177469254
0.43823134899139404 0.7482442259788513 0.016560446470975876
0.36747580766677856 0.7131108641624451 0.1283780187368393
0.4464218318462372 0.45255380868911743 -0.007541739381849766
0.4381403923034668 0.8141707181930542 0.016787270084023476
0.44133758544921875 0.5309451818466187 -0.08084212988615036
0.43630343675613403 0.5126470923423767 -0.050735749304294586
0.4500049650669098 0.5069130063056946 -0.06240038201212883
0.41802650690078735 0.564276933670044 -0.028948303312063217
0.4874115288257599 0.8645921349525452 -0.024871746078133583
0.4846583604812622 0.8348882794380188 -0.023171845823526382
0.4581950902938843 0.8297585248947144 -0.007288893684744835
0.405705988407135 0.7679531574249268 0.054396145045757294
0.4013655185699463 0.6322813630104065 0.017480751499533653
0.42152583599090576 0.7938435077667236 0.03670249879360199
0.3693076968193054 0.6319792866706848 0.04472893849015236
0.3898499011993408 0.6591933369636536 0.028560055419802666
0.36569446325302124 0.6729585528373718 0.06636809557676315
0.4550699293613434 0.8574842810630798 -0.0035095014609396458
0.41509661078453064 0.5787360668182373 -0.011401575990021229
0.40124377608299255 0.7852529883384705 0.07792007923126221
0.419536292552948 0.8116974234580994 0.053865328431129456
0.3902571201324463 0.7373141050338745 0.06530503183603287
0.3558332324028015 0.6824508309364319 0.15406987071037292
0.3800126612186432 0.7406148910522461 0.09209711104631424
0.3708598017692566 0.7001096606254578 0.203676238656044
0.385427862405777 0.6929240822792053 0.044924478977918625
0.4254428744316101 0.5429590344429016 -0.01369411125779152
0.406710684299469 0.6109007596969604 -0.05879192799329758
0.40718087553977966 0.6183537840843201 -0.03618822991847992
0.40431147813796997 0.5931452512741089 -0.07530559599399567
0.4248945116996765 0.4303063750267029 0.026595836505293846
0.39730241894721985 0.41659432649612427 0.03556007519364357
0.3741303086280823 0.4150931239128113 0.049028798937797546
0.3576894998550415 0.4206753969192505 0.06785297393798828
0.35012897849082947 0.4332256317138672 0.08678392320871353
0.35546785593032837 0.47705793380737305 0.12014508992433548
0.35074397921562195 0.5449686050415039 0.23017115890979767
0.35957980155944824 0.5122511386871338 0.09695328027009964
0.37126588821411133 0.5195618867874146 0.07654275745153427
0.39079076051712036 0.5185770988464355 0.05829185992479324
0.4107881188392639 0.5120660066604614 0.04482492431998253
0.4254226088523865 0.5035699009895325 0.035275526344776154
0.43493276834487915 0.49551790952682495 0.02891179546713829
0.3863013982772827 0.5453959703445435 0.292795866727829
0.4125363528728485 0.6252837777137756 -0.027586497366428375
0.42100417613983154 0.5471656918525696 -0.04724341258406639
0.4087660014629364 0.6106907725334167 -0.08014219999313354
0.4248283803462982 0.6238420009613037 -0.07818139344453812
0.4154428243637085 0.6160662770271301 -0.07089215517044067
0.42053166031837463 0.6327211260795593 -0.024822859093546867
0.42514628171920776 0.6255984902381897 -0.08451572805643082
0.43414750695228577 0.6322234272956848 -0.06366146355867386
0.4378319978713989 0.47603338956832886 0.04021269083023071
0.4425763487815857 0.48146578669548035 0.022150680422782898
0.44199657440185547 0.4857429265975952 0.005549192428588867
0.36501285433769226 0.46538543701171875 0.09057590365409851
0.35626381635665894 0.4545552134513855 0.09568527340888977
0.4607729911804199 0.5346115827560425 -0.0828128308057785
0.6500508189201355 0.4735751152038574 -0.03138934448361397
0.46623000502586365 0.6289862394332886 -0.07461795210838318
0.7867582440376282 0.3572818636894226 0.03557663410902023
0.580753743648529 0.49818557500839233 -0.029718691483139992
0.6048561930656433 0.49885475635528564 -0.036338355392217636
0.6293804049491882 0.49598199129104614 -0.038624223321676254
0.665159285068512 0.4808599054813385 -0.03279731422662735
0.5608087182044983 0.4920671284198761 -0.01936137117445469
0.6061670780181885 0.42151862382888794 -0.044230036437511444
0.5800881385803223 0.42635828256607056 -0.0337117575109005
0.6328765153884888 0.4236322343349457 -0.04586884006857872
0.6526294946670532 0.4330010712146759 -0.04314872622489929
0.6895450353622437 0.49568647146224976 -0.029058143496513367
0.5783493518829346 0.8495484590530396 -0.03117275983095169
0.6602537631988525 0.46622806787490845 -0.027958374470472336
0.8070558309555054 0.47707656025886536 0.029120715335011482
0.7227185964584351 0.4772881269454956 -0.018147533759474754
0.5873876810073853 0.5983303189277649 -0.051977645605802536
0.49631255865097046 0.7002017498016357 -0.0678696557879448
0.4996185302734375 0.7264735698699951 -0.05876907706260681
0.5326589941978455 0.7118302583694458 -0.06727294623851776
0.5598993301391602 0.7247814536094666 -0.06025654822587967
0.5281736850738525 0.7297559976577759 -0.05967693403363228
0.5528647899627686 0.7353640794754028 -0.05190853402018547
0.5954862236976624 0.7637827396392822 -0.03796204552054405
0.4451140761375427 0.6123763918876648 -0.10663653165102005
0.44608357548713684 0.5884614586830139 -0.11258167028427124
0.6890308856964111 0.40868449211120605 -0.049544163048267365
0.5412461757659912 0.5337448716163635 -0.03865824639797211
0.5225790739059448 0.6102620363235474 -0.07864516228437424
0.5292889475822449 0.5967124700546265 -0.0731719434261322
0.6707803606987 0.596912145614624 -0.05470321699976921
0.4520644545555115 0.5591299533843994 -0.10195580124855042
0.6147774457931519 0.38226884603500366 -0.05911264941096306
0.6551826596260071 0.3896700441837311 -0.057371508330106735
0.7356755137443542 0.3128357231616974 0.009511919692158699
0.5102038383483887 0.4140141010284424 -0.04133419319987297
0.5590595006942749 0.4386060833930969 -0.02115929126739502
0.6120608448982239 0.7382313013076782 -0.04213954508304596
0.8230688571929932 0.7326297163963318 0.08095996081829071
0.5073700547218323 0.6251028180122375 -0.06586208939552307
0.4899250268936157 0.6326018571853638 -0.059405453503131866
0.5968043208122253 0.7496576905250549 -0.037844616919755936
0.5905961394309998 0.7493613362312317 -0.03815775364637375
0.6709661483764648 0.37399566173553467 -0.05194808915257454
0.5306244492530823 0.6220133304595947 -0.06816332042217255
0.56768399477005 0.3883330225944519 -0.053860828280448914
0.5688973069190979 0.36850666999816895 -0.05796165391802788
0.6019731163978577 0.26352208852767944 -0.027286620810627937
0.7017005681991577 0.3416881263256073 -0.028663501143455505
0.5809361338615417 0.31396397948265076 -0.04499398544430733
0.7099850177764893 0.3988823890686035 -0.03799047693610191
0.7489155530929565 0.3775119185447693 -0.006345837377011776
0.497769832611084 0.7145696878433228 -0.06592707335948944
0.5297719240188599 0.7214804887771606 -0.06454450637102127
0.5559632778167725 0.7302180528640747 -0.0575784295797348
0.5045747756958008 0.6302489638328552 -0.0586882047355175
0.5935022830963135 0.749539852142334 -0.037702977657318115
0.5789026021957397 0.7592576146125793 -0.04258403182029724
0.5878165364265442 0.7492035627365112 -0.037721358239650726
0.48477715253829956 0.6150057315826416 -0.09006153792142868
0.5511156916618347 0.7382327318191528 -0.0474478080868721
0.5272270441055298 0.7342754006385803 -0.05077861621975899
0.5017464756965637 0.7329744100570679 -0.0505698062479496
0.5126533508300781 0.8085724115371704 -0.03043670952320099
0.5087409019470215 0.8033812642097473 -0.04871036484837532
0.5053552985191345 0.7871962785720825 -0.0517457090318203
0.5037470459938049 0.7725282311439514 -0.047821033746004105
0.5031819343566895 0.7625656127929688 -0.044847600162029266
0.5519739389419556 0.7572113275527954 -0.043105628341436386
0.5554665327072144 0.7614192962646484 -0.04582285135984421
0.5601319670677185 0.7685166597366333 -0.04912247508764267
0.56441330909729 0.7771286368370056 -0.04772544652223587
0.567747175693512 0.6910497546195984 -0.057829197496175766
0.8554085493087769 0.5945158004760742 0.10435152053833008
0.5704967975616455 0.75443434715271 -0.03958248347043991
0.5742769241333008 0.7562534809112549 -0.04151180014014244
0.4837658405303955 0.6420630812644958 -0.06055467948317528
0.529010534286499 0.6379311084747314 -0.05014036223292351
0.4864855110645294 0.6375131011009216 -0.06019072234630585
0.5675278306007385 0.5481211543083191 -0.04130266606807709
0.6064790487289429 0.5655887126922607 -0.04900703579187393
0.5384095907211304 0.6085357069969177 -0.06349845230579376
0.6752889752388 0.28075069189071655 -0.013708091340959072
0.6472220420837402 0.31962260603904724 -0.04073094576597214
0.6231028437614441 0.36307770013809204 -0.057837069034576416
0.5732429623603821 0.7829759120941162 -0.03974035382270813
0.5130087733268738 0.3815506100654602 -0.04918145388364792
0.5229302644729614 0.31768542528152466 -0.03826006129384041
0.5353529453277588 0.2594214677810669 -0.02387157827615738
0.6517544984817505 0.4909020960330963 -0.03671960160136223
0.7200608253479004 0.5119795799255371 -0.02698713168501854
0.547351598739624 0.48572033643722534 -0.013255047611892223
0.6847729086875916 0.44446760416030884 -0.03696407005190849
0.5221090912818909 0.5178489685058594 -0.04013693705201149
0.49936190247535706 0.5993826985359192 -0.09222245216369629
0.7602316737174988 0.5297194719314575 -0.017544474452733994
0.6973316669464111 0.5286597609519958 -0.040031157433986664
0.6596463322639465 0.5372620224952698 -0.046573325991630554
0.6096959114074707 0.534868061542511 -0.04016807675361633
0.5746909379959106 0.5262321829795837 -0.03249526768922806
0.5479581356048584 0.515834391117096 -0.02841005101799965
0.4812273681163788 0.48578983545303345 -0.04722124710679054
0.7561016082763672 0.5868770480155945 -0.024582628160715103
0.7090890407562256 0.44102081656455994 -0.03468671813607216
0.44650840759277344 0.6265693306922913 -0.09695146232843399
0.5346153974533081 0.5584772825241089 -0.04662812501192093
0.8471442461013794 0.4710116386413574 0.09363774955272675
0.5268017649650574 0.5035796165466309 -0.02491966262459755
0.5472490191459656 0.610519289970398 -0.043970704078674316
0.6735657453536987 0.46464091539382935 -0.027915246784687042
0.5063180923461914 0.5833892226219177 -0.08463231474161148
0.8475968241691589 0.6618644595146179 0.09661054611206055
0.5491522550582886 0.4789671301841736 -0.009117260575294495
0.47826188802719116 0.5685057640075684 -0.09722759574651718
0.7148967385292053 0.7992427349090576 -0.0005052736960351467
0.7362828850746155 0.8306758403778076 0.032850686460733414
0.8165959715843201 0.5929039716720581 0.034191422164440155
0.758030116558075 0.7626990079879761 0.0113212950527668
0.7808743119239807 0.4231528341770172 0.016319043934345245
0.5897059440612793 0.8769896030426025 -0.024562252685427666
0.4530349373817444 0.6332888603210449 -0.0709310919046402
0.558397650718689 0.5773025751113892 -0.04612501710653305
0.7526600360870361 0.4824613928794861 -0.007229992188513279
0.6234066486358643 0.48329564929008484 -0.03539242967963219
0.6026020646095276 0.4865105450153351 -0.033734485507011414
0.5835840702056885 0.7633428573608398 -0.04195978492498398
0.7569799423217773 0.6417244672775269 -0.017478354275226593
0.5506319403648376 0.9082733988761902 -0.0078119030222296715
0.6397667527198792 0.883185863494873 0.005640058312565088
0.683224618434906 0.8632774949073792 0.016757220029830933
0.5836099982261658 0.48615244030952454 -0.027611510828137398
0.5663613677024841 0.48301270604133606 -0.01936999149620533
0.5552548766136169 0.48082059621810913 -0.011890143156051636
0.7350302934646606 0.4367602467536926 -0.021237147971987724
0.5676610469818115 0.46393275260925293 -0.021892432123422623
0.5869474411010742 0.4574015140533447 -0.030506737530231476
0.6057913303375244 0.4548547863960266 -0.036403533071279526
0.6266313195228577 0.45588552951812744 -0.03868994861841202
0.6412835717201233 0.4594281315803528 -0.036620914936065674
0.8224700689315796 0.4073653221130371 0.06802697479724884
0.6384563446044922 0.47875386476516724 -0.03398806229233742
0.5403086543083191 0.6749632954597473 -0.05971338972449303
0.5032535195350647 0.6203852295875549 -0.07146453857421875
0.4883610010147095 0.6646843552589417 -0.06213570386171341
0.6721140146255493 0.8315691351890564 -0.006397123448550701
0.63381028175354 0.8559775352478027 -0.014290501363575459
0.5413498282432556 0.8900336027145386 -0.028587795794010162
0.782896101474762 0.7895216941833496 0.05675947293639183
0.5546413660049438 0.4727867841720581 -0.014528943225741386
0.4922652244567871 0.5245366096496582 -0.0595051646232605
0.5953046083450317 0.8989399671554565 -0.006367076188325882
0.8122193813323975 0.6538212299346924 0.03288383036851883
0.528270959854126 0.7597718834877014 -0.045671749860048294
0.5310744643211365 0.7671455144882202 -0.048935163766145706
0.5344865322113037 0.7784377336502075 -0.05267824977636337
0.5380591750144958 0.7923800945281982 -0.050861865282058716
0.5457503795623779 0.7983318567276001 -0.039594605565071106
0.5752381086349487 0.7421292066574097 -0.04557989910244942
0.5789636373519897 0.7398712635040283 -0.04835016280412674
0.5828008055686951 0.7369592785835266 -0.05060143396258354
0.5925973057746887 0.7126982808113098 -0.052466560155153275
0.704787015914917 0.6556410193443298 -0.04245628044009209
0.5011733770370483 0.5000873804092407 -0.042167454957962036
0.5241584777832031 0.45797914266586304 -0.011793569661676884
0.541594386100769 0.4608622193336487 -0.012326003052294254
0.5720971822738647 0.7432531714439392 -0.042243435978889465
0.7233554720878601 0.7221421003341675 -0.01750049740076065
0.49608248472213745 0.45674407482147217 -0.028685903176665306
0.5647392272949219 0.8237162828445435 -0.033299028873443604
0.4709068834781647 0.5116325616836548 -0.06562010943889618
0.5083010196685791 0.5631861090660095 -0.06496661901473999
0.5231133103370667 0.834913969039917 -0.031338732689619064
0.6225339770317078 0.7772475481033325 -0.03349492698907852
0.5698630809783936 0.6317670345306396 -0.046508293598890305
0.5975562334060669 0.8046883344650269 -0.032779645174741745
0.6288779973983765 0.6308146119117737 -0.05705687403678894
0.593557596206665 0.6594201326370239 -0.052272312343120575
0.6589758396148682 0.6749088764190674 -0.050721678882837296
0.5321277976036072 0.8643348813056946 -0.03562002629041672
0.529314398765564 0.5773442387580872 -0.05679997429251671
0.6510283946990967 0.7999525666236877 -0.023593297228217125
0.6168889403343201 0.8275496959686279 -0.024163000285625458
0.6397473812103271 0.7441073060035706 -0.04066716879606247
0.7553316950798035 0.6887017488479614 -0.008839444257318974
0.6816574335098267 0.751582145690918 -0.030662767589092255
0.7960906028747559 0.7106513977050781 0.02711431495845318
0.6189514994621277 0.6948163509368896 -0.05170745402574539
0.5132876634597778 0.5412319898605347 -0.05247410759329796
0.4901280105113983 0.6105727553367615 -0.0949149876832962
0.5136152505874634 0.6186339855194092 -0.07744691520929337
0.47212091088294983 0.5926303267478943 -0.10467496514320374
0.538730263710022 0.431715190410614 -0.023761780932545662
0.5747857093811035 0.41151535511016846 -0.03891748562455177
0.6085805296897888 0.4050427973270416 -0.04918700084090233
0.640471339225769 0.4085890054702759 -0.05189734324812889
0.6667409539222717 0.4217309355735779 -0.04772602766752243
0.6943354606628418 0.4706650972366333 -0.025097254663705826
0.8152040243148804 0.5342090129852295 0.03042612411081791
0.6732038259506226 0.5060991048812866 -0.03474203124642372
0.6446108818054199 0.513496994972229 -0.03785722702741623
0.6097646951675415 0.5150084495544434 -0.03526831790804863
0.5782902240753174 0.5110275745391846 -0.028492089360952377
0.5544126033782959 0.5035547018051147 -0.02002544328570366
0.5371798872947693 0.49596190452575684 -0.01593872345983982
0.8544602394104004 0.5319872498512268 0.10450036078691483
0.5187935829162598 0.6258581280708313 -0.06778933852910995
0.48353707790374756 0.5462106466293335 -0.07575604319572449
0.46584552526474 0.6106645464897156 -0.10326998680830002
0.46176818013191223 0.6244423985481262 -0.09146516025066376
0.47155624628067017 0.6163501143455505 -0.09450457245111465
0.5171948671340942 0.6339975595474243 -0.05843479186296463
0.4548134207725525 0.6257091760635376 -0.09536637365818024
0.46049633622169495 0.6323798298835754 -0.0727430209517479
0.5380223393440247 0.47789427638053894 -0.007358079310506582
0.5227627158164978 0.48305630683898926 -0.012906667776405811
0.5103171467781067 0.48576515913009644 -0.023741340264678
0.6511499881744385 0.462796688079834 -0.033287882804870605
0.6684263348579407 0.44644030928611755 -0.0364803709089756
0.40445476770401 0.46635231375694275 0.06668601185083389
0.4258493185043335 0.46684348583221436 0.06668601185083389
0.40567994117736816 0.44342750310897827 0.06668601185083389
0.3830779790878296 0.4656522870063782 0.06668601185083389
0.403118371963501 0.48892539739608765 0.06668601185083389
0.6048606634140015 0.4705755114555359 -0.02764887548983097
0.6271969079971313 0.46915221214294434 -0.02764887548983097
0.6044175028800964 0.4501515030860901 -0.02764887548983097
0.5833669304847717 0.4718104302883148 -0.02764887548983097
0.6053252816200256 0.4907971918582916 -0.02764887548983097
