ply
format ascii 1.0
element vertex 478
property float x
property float y
property float z
end_header
0.4980835020542145 0.7006897330284119 -0.061072636395692825
0.4854733347892761 0.6445683240890503 -0.1306709349155426
0.4908149242401123 0.6641679406166077 -0.06995908915996552
0.4692803919315338 0.5584805607795715 -0.10013647377490997
0.48487600684165955 0.6181655526161194 -0.1393473744392395
0.48618173599243164 0.5834730267524719 -0.1310303807258606
0.4915775656700134 0.4986562430858612 -0.07027169317007065
0.3425773084163666 0.48468202352523804 0.034563060849905014
0.4930424988269806 0.42521876096725464 -0.054832980036735535
0.4928486943244934 0.38847965002059937 -0.060552481561899185
0.4944067895412445 0.26111727952957153 -0.04474999010562897
0.49838295578956604 0.7058269381523132 -0.0577380545437336
0.49903085827827454 0.7105013728141785 -0.05126850679516792
0.49980586767196655 0.713096559047699 -0.042168132960796356
0.5006942749023438 0.7715187072753906 -0.02482364885509014
0.5002157688140869 0.7789629101753235 -0.02896106243133545
0.4998707175254822 0.7888816595077515 -0.0334494523704052
0.5000802874565125 0.7999162077903748 -0.028885604813694954
0.4960896670818329 0.8293337225914001 -0.008575319312512875
0.4871252775192261 0.65720134973526 -0.11838123947381973
0.466921329498291 0.6548760533332825 -0.08523453772068024
0.2609831392765045 0.38587337732315063 0.14928941428661346
0.4023978114128113 0.505273699760437 0.006000866647809744
0.3810671865940094 0.5051912069320679 0.009842511266469955
0.3599432110786438 0.5042840242385864 0.018123460933566093
0.33199208974838257 0.49368220567703247 0.040061160922050476
0.42026180028915405 0.5034364461898804 0.00718231126666069
0.3661244511604309 0.4398162066936493 -0.0009742441470734775
0.3915632367134094 0.442852258682251 -0.003053925232961774
0.34293943643569946 0.44399523735046387 0.009239442646503448
0.3283025026321411 0.4538246691226959 0.020038235932588577
0.31196388602256775 0.5073603391647339 0.05391331762075424
0.41478031873703003 0.8517443537712097 0.030310936272144318
0.3340633511543274 0.4810677766799927 0.04349387437105179
0.25345179438591003 0.49724453687667847 0.1626458764076233
0.28765612840652466 0.48904848098754883 0.07903989404439926
0.3735947608947754 0.6100908517837524 -0.012744486331939697
0.46230262517929077 0.6962932348251343 -0.056131236255168915
0.46554046869277954 0.7073045969009399 -0.04489592835307121
0.4312586784362793 0.697062075138092 -0.03748925402760506
0.4113585352897644 0.699817419052124 -0.011545679531991482
0.43966561555862427 0.7053029537200928 -0.030070718377828598
0.4211408793926239 0.7057734131813049 -0.007058122660964727
0.38395291566848755 0.7544289827346802 0.03837364912033081
0.4666825234889984 0.6438837647438049 -0.1275578737258911
0.46363499760627747 0.6181185841560364 -0.1352699100971222
0.2940044701099396 0.42561089992523193 0.029654568061232567
0.4259861409664154 0.551529049873352 -0.019884590059518814
0.4161534607410431 0.62928706407547 -0.06730911880731583
0.41558849811553955 0.6147905588150024 -0.06043515354394913
0.30381572246551514 0.6023839712142944 0.02458266355097294
0.46599534153938293 0.5859822630882263 -0.12215438485145569
0.3423614799976349 0.40142422914505005 -0.015877999365329742
0.312894344329834 0.4087564945220947 0.005975757725536823
0.2769708037376404 0.3397738039493561 0.09980776160955429
0.4414093494415283 0.4249514937400818 -0.04466034844517708
0.4136802554130554 0.45378321409225464 0.0019205929711461067
0.36490941047668457 0.7229859232902527 0.04032258689403534
0.2917429804801941 0.7300525903701782 0.23551319539546967
0.4334070086479187 0.6448010206222534 -0.05912785604596138
0.4521011412143707 0.6525478363037109 -0.06187737360596657
0.39045560359954834 0.7115477919578552 0.039814941585063934
0.396962970495224 0.7130232453346252 0.03308664634823799
0.30096927285194397 0.3900473117828369 0.01705610379576683
0.41502079367637634 0.6373313069343567 -0.05396149680018425
0.38394105434417725 0.40401995182037354 -0.033644597977399826
0.3794173300266266 0.3821384906768799 -0.03970399871468544
0.36015352606773376 0.2770874500274658 -0.0024488430935889482
0.28849542140960693 0.3636643886566162 0.0521247573196888
0.371798574924469 0.3260624408721924 -0.022899027913808823
0.2820386588573456 0.41111043095588684 0.049723874777555466
0.27049997448921204 0.40089693665504456 0.09545860439538956
0.463187038898468 0.7022603750228882 -0.05240340158343315
0.43530187010765076 0.7014598250389099 -0.03392599895596504
0.416058748960495 0.7029218077659607 -0.010838481597602367
0.43840491771698 0.648377001285553 -0.054272715002298355
0.3937283456325531 0.7122685313224792 0.0363013781607151
0.4049829840660095 0.7351822257041931 0.02413714863359928
0.3997807204723358 0.7138274908065796 0.03249504417181015
0.443937748670578 0.6416323184967041 -0.09214042127132416
0.4258274435997009 0.7075414657592773 -0.004554340150207281
0.4440556466579437 0.7076300382614136 -0.022095726802945137
0.46868422627449036 0.7101855874061584 -0.03589261323213577
0.4599746763706207 0.8259962797164917 -0.0038458644412457943
0.4642282724380493 0.7953382134437561 -0.023330984637141228
0.4652300179004669 0.7843685746192932 -0.026504408568143845
0.46766379475593567 0.774565577507019 -0.021833719685673714
0.4709929823875427 0.7678636908531189 -0.018188035115599632
0.4294269382953644 0.7478987574577332 0.008820153772830963
0.42454320192337036 0.7502006888389587 0.005562030244618654
0.4184834659099579 0.7549529075622559 0.003206457942724228
0.4143688380718231 0.7610979080200195 0.008516290225088596
0.3875521123409271 0.6905727982521057 -0.006096650380641222
0.26562970876693726 0.6062032580375671 0.2642681300640106
0.4887923002243042 0.6615720987319946 -0.08735301345586777
0.41634804010391235 0.7347228527069092 0.024557068943977356
0.41043174266815186 0.734195351600647 0.02288779988884926
0.45889636874198914 0.6611026525497437 -0.06166819855570793
0.42201370000839233 0.6492817997932434 -0.03654135763645172
0.45565247535705566 0.6570318937301636 -0.06258295476436615
0.4003251791000366 0.5634869933128357 -0.009759817272424698
0.3598729372024536 0.5766879320144653 0.0004607041191775352
0.4115028381347656 0.6238964796066284 -0.046471837908029556
0.3077111840248108 0.30247437953948975 0.04695119336247444
0.3200526237487793 0.3374030292034149 0.012914859689772129
0.33412569761276245 0.3795304596424103 -0.0129476897418499
0.4024815857410431 0.7826769351959229 0.025388579815626144
0.43339166045188904 0.38962554931640625 -0.05444781482219696
0.4277392625808716 0.324653297662735 -0.04488547891378403
0.4202927052974701 0.26470237970352173 -0.03351675719022751
0.34248682856559753 0.5002856254577637 0.02984037436544895
0.287475049495697 0.5230369567871094 0.06934922933578491
0.43170246481895447 0.4998788833618164 0.009010497480630875
0.30703943967819214 0.4616142511367798 0.04319057986140251
0.4424092173576355 0.5368081331253052 -0.029827089980244637
0.429426372051239 0.6237300634384155 -0.09158459305763245
0.2635621428489685 0.5436105728149414 0.09859931468963623
0.30111855268478394 0.5400921702384949 0.047660768032073975
0.32818740606307983 0.5504204630851746 0.02408476360142231
0.37144774198532104 0.5495181083679199 0.010383298620581627
0.4038239121437073 0.5423216223716736 0.0020031100139021873
0.4271259307861328 0.5334319472312927 -0.006583314388990402
0.4705922603607178 0.5050082206726074 -0.05901928246021271
0.2623634934425354 0.5936436653137207 0.09425514191389084
0.2900492250919342 0.4551384150981903 0.05525607615709305
0.475527822971344 0.6562176942825317 -0.11617644131183624
0.4255834221839905 0.5761067867279053 -0.030894210562109947
0.25480327010154724 0.49309074878692627 0.2416881024837494
0.4439205825328827 0.5218945741653442 -0.01226850226521492
0.40964365005493164 0.6233012080192566 -0.022629879415035248
0.32224100828170776 0.48113512992858887 0.04921523854136467
0.42969009280204773 0.6057726144790649 -0.08316529542207718
0.2748800814151764 0.6667748689651489 0.2559404671192169
0.43145495653152466 0.49158814549446106 0.014437180943787098
0.44760236144065857 0.5935891270637512 -0.10703222453594208
0.3294534683227539 0.7872686386108398 0.1173456460237503
0.3400007486343384 0.8158437013626099 0.15775491297245026
0.2544497549533844 0.6027317643165588 0.17894931137561798
0.3003462553024292 0.7558081746101379 0.14257796108722687
0.261218398809433 0.4460352659225464 0.13559439778327942
0.4153319001197815 0.8744863271713257 0.04358089342713356
0.4793938398361206 0.6607197523117065 -0.08524994552135468
0.40346798300743103 0.5916608572006226 -0.020576901733875275
0.2706911861896515 0.4919807016849518 0.10386057943105698
0.3632689416408539 0.4883192181587219 0.018782097846269608
0.3809007704257965 0.48991358280181885 0.011747564189136028
0.4005950093269348 0.736946165561676 0.028315097093582153
0.2659437954425812 0.6446325182914734 0.10366997122764587
0.45465508103370667 0.9084436893463135 0.04577166214585304
0.3970780372619629 0.871329128742218 0.09757344424724579
0.37219393253326416 0.8477336764335632 0.12505725026130676
0.4934346079826355 0.3248778283596039 -0.055018555372953415
0.4978654086589813 0.9145480394363403 0.03542768955230713
0.3984585106372833 0.4905194342136383 0.00928530003875494
0.41516005992889404 0.4908766746520996 0.01123523898422718
0.42606744170188904 0.49182137846946716 0.01503829937428236
0.27603334188461304 0.4470621347427368 0.07941952347755432
0.41167595982551575 0.47385162115097046 0.006857496686279774
0.392763614654541 0.466381311416626 0.004299696069210768
0.3737649917602539 0.46482962369918823 0.006926009897142649
0.3556986451148987 0.4683162271976471 0.01470171008259058
0.34461709856987 0.47382494807243347 0.023268649354577065
0.25399890542030334 0.43437349796295166 0.200733482837677
0.3512376546859741 0.4865964651107788 0.027380716055631638
0.4925597608089447 0.6785892248153687 -0.06133076176047325
0.41140806674957275 0.6809253096580505 -0.027614060789346695
0.4333503544330597 0.6424764394760132 -0.0683927834033966
0.45670878887176514 0.6781758069992065 -0.055754583328962326
0.4931291937828064 0.46252596378326416 -0.05449937656521797
0.3612973093986511 0.8195589780807495 0.09741395711898804
0.3885781764984131 0.8460681438446045 0.07242754846811295
0.4514302611351013 0.8948174715042114 0.018233230337500572
0.3145142197608948 0.7803229093551636 0.19830183684825897
0.42500370740890503 0.4846830368041992 0.011507897637784481
0.45492565631866455 0.545576810836792 -0.06417424231767654
0.49647244811058044 0.900365948677063 0.009341882541775703
0.4227829873561859 0.8929431438446045 0.0676063522696495
0.26259154081344604 0.6585260033607483 0.1771349459886551
0.4477616250514984 0.7595149278640747 -0.005884818732738495
0.442573606967926 0.7642452716827393 -0.00903011392802
0.4382587671279907 0.7722801566123962 -0.011784960515797138
0.4356466233730316 0.7824901342391968 -0.007261449936777353
0.4264598786830902 0.8083590269088745 0.009831628762185574
0.4069492816925049 0.7082947492599487 0.014872416853904724
0.4021467864513397 0.7064139246940613 0.016174152493476868
0.39818093180656433 0.704327404499054 0.015896523371338844
0.37042397260665894 0.7036630511283875 0.018567731603980064
0.28832221031188965 0.6573386192321777 0.0547773577272892
0.45709940791130066 0.5193928480148315 -0.04277357459068298
0.4455127716064453 0.47109901905059814 -0.004845894407480955
0.433015912771225 0.47499608993530273 0.006219996605068445
0.41145357489585876 0.7095354795455933 0.015953855589032173
0.29603976011276245 0.7180906534194946 0.0961102545261383
0.4636392891407013 0.47055113315582275 -0.036907780915498734
0.4203847646713257 0.8279978632926941 0.020823240280151367
0.4880671501159668 0.5549699068069458 -0.10975946485996246
0.46990281343460083 0.5334840416908264 -0.08197122812271118
0.48977798223495483 0.5284705758094788 -0.08913378417491913
0.4375741481781006 0.5835320949554443 -0.0629781186580658
0.49583500623703003 0.8787292242050171 -0.0027007441967725754
0.49596649408340454 0.852065920829773 -0.005203313194215298
0.45583629608154297 0.8480960726737976 0.0028386558406054974
0.3725074529647827 0.7664297223091125 0.050984516739845276
0.39087462425231934 0.6414374709129333 -0.01172119751572609
0.39476245641708374 0.7999565005302429 0.0381510853767395
0.33473968505859375 0.6375802755355835 0.0024133429396897554
0.36835452914237976 0.6641371846199036 0.0008085167501121759
0.31849154829978943 0.6747177243232727 0.02846447192132473
0.45138323307037354 0.8739737868309021 0.006634415127336979
0.42431914806365967 0.59538334608078 -0.04487515613436699
0.3606898784637451 0.7892522811889648 0.07175669819116592
0.3886374235153198 0.8208329081535339 0.054419662803411484
0.3505772352218628 0.7313220500946045 0.04937956854701042
0.27554070949554443 0.6881143450737 0.11430010199546814
0.3261845111846924 0.7418984174728394 0.07042230665683746
0.2773211598396301 0.7102531790733337 0.17033524811267853
0.3509560823440552 0.6886250376701355 0.020113395527005196
0.4411633312702179 0.5608953833580017 -0.04608384892344475
0.43651846051216125 0.6368246674537659 -0.096675343811512
0.4231155514717102 0.6389104723930359 -0.07043606787919998
0.4455304741859436 0.6205829977989197 -0.11361701041460037
0.42617493867874146 0.44568538665771484 -0.010360930114984512
0.3886847496032715 0.4284668564796448 -0.011016389355063438
0.35602718591690063 0.42545145750045776 -0.005883669015020132
0.3298064172267914 0.430542916059494 0.006788087543100119
0.3131263852119446 0.4424104392528534 0.023122314363718033
0.30699610710144043 0.48496758937835693 0.06035587564110756
0.2515109181404114 0.5498497486114502 0.17286184430122375
0.32378244400024414 0.5177668929100037 0.0410933643579483
0.34624895453453064 0.5249323844909668 0.025892212986946106
0.37608328461647034 0.5258764028549194 0.014065434224903584
0.404028981924057 0.5226979851722717 0.006164862774312496
0.42522236704826355 0.5177847743034363 0.003487996757030487
0.43934670090675354 0.5115070343017578 -2.9580871341750026e-05
0.2602774202823639 0.5490833520889282 0.2612611651420593
0.4235855042934418 0.6431097984313965 -0.05863979458808899
0.4526710510253906 0.5689646005630493 -0.08252014219760895
0.45160001516342163 0.6400952935218811 -0.11560381948947906
0.4647141695022583 0.6517832279205322 -0.10649707913398743
0.4525086581707001 0.6438582539558411 -0.10419962555170059
0.42904120683670044 0.648829996585846 -0.050599489361047745
0.46859896183013916 0.6544891595840454 -0.11276315897703171
0.4722091853618622 0.6588157415390015 -0.08516114950180054
0.43883222341537476 0.4930002689361572 0.00975204911082983
0.4499339461326599 0.49842554330825806 -0.005134160630404949
0.45599520206451416 0.5032781362533569 -0.021277325227856636
0.3384014368057251 0.47801393270492554 0.03219743072986603
0.3200352191925049 0.4651739001274109 0.03451322391629219
0.5084292888641357 0.5579590797424316 -0.10369309782981873
0.6690400242805481 0.47860485315322876 0.00903781596571207
0.5125037431716919 0.654499888420105 -0.08797528594732285
0.7723897695541382 0.37839561700820923 0.10780084878206253
0.6057456731796265 0.5027904510498047 -0.010545669123530388
0.6292392015457153 0.5021642446517944 -0.009995493106544018
0.6520806550979614 0.5000580549240112 -0.004953728057444096
0.6812430024147034 0.4877477288246155 0.012672229669988155
0.5853078961372375 0.5006987452507019 -0.005704849027097225
0.6375166773796082 0.43227845430374146 -0.02205386571586132
0.6104224324226379 0.4371262788772583 -0.019733548164367676
0.6634136438369751 0.434791624546051 -0.015077740885317326
0.6803963780403137 0.4441326856613159 -0.006223060190677643
0.7042694091796875 0.5018820762634277 0.024537624791264534
0.5857897400856018 0.8524734973907471 0.0179006215184927
0.6777323484420776 0.47412121295928955 0.01661844179034233
0.7841767072677612 0.49203935265541077 0.1225447952747345
0.7288499474525452 0.48261910676956177 0.045942291617393494
0.6248690485954285 0.6076132655143738 -0.02975386381149292
0.5363129377365112 0.6978840231895447 -0.061024606227874756
0.5357864499092102 0.7091047763824463 -0.04956904053688049
0.5742335319519043 0.7006596326828003 -0.04738864675164223
0.5997880697250366 0.7045903205871582 -0.02490098774433136
0.5668705701828003 0.7088115811347961 -0.03905445709824562
0.5906515121459961 0.7103658318519592 -0.01872572861611843
0.6248305439949036 0.7527926564216614 0.021320335566997528
0.5054921507835388 0.6436201333999634 -0.12978388369083405
0.5076720714569092 0.6176500916481018 -0.13799677789211273
0.7133446931838989 0.4152125120162964 -0.00162883207667619
0.5694186687469482 0.5495381355285645 -0.0310769435018301
0.5704872012138367 0.6277145743370056 -0.07762401551008224
0.5729684233665466 0.6129049062728882 -0.07115654647350311
0.7039708495140076 0.5988610982894897 -0.003656676970422268
0.5078757405281067 0.5853829383850098 -0.12566916644573212
0.6556692123413086 0.38916724920272827 -0.037087079137563705
0.6897760629653931 0.3964943289756775 -0.02102394960820675
0.7452822327613831 0.3319435119628906 0.06247992813587189
0.5475542545318604 0.4201608896255493 -0.051296088844537735
0.5872883796691895 0.44969040155410767 -0.011504583992064
0.6456792950630188 0.7204896211624146 0.02032461017370224
0.7553888559341431 0.7278350591659546 0.19794882833957672
0.5527370572090149 0.643690824508667 -0.06727331876754761
0.5323475003242493 0.6517540216445923 -0.06593233346939087
0.6307346224784851 0.7185669541358948 0.022179637104272842
0.6237136125564575 0.7196571230888367 0.017388656735420227
0.7016620635986328 0.3773016929626465 -0.012016254477202892
0.5743752121925354 0.6356987953186035 -0.06403423845767975
0.6095730066299438 0.3947209119796753 -0.04824906960129738
0.6122586131095886 0.3714570999145508 -0.05464068055152893
0.6408411264419556 0.27138033509254456 -0.02324414998292923
0.7255682349205017 0.35712680220603943 0.019933685660362244
0.6242482662200928 0.3213835060596466 -0.040171973407268524
0.7264392375946045 0.4020380973815918 0.01612783409655094
0.7531181573867798 0.39477968215942383 0.059090375900268555
0.5366042256355286 0.7039212584495544 -0.0573185496032238
0.57061368227005 0.7050639390945435 -0.043457888066768646
0.5955387353897095 0.707572877407074 -0.02333296649158001
0.5479541420936584 0.647345244884491 -0.060418978333473206
0.6271904706954956 0.7190733551979065 0.01983489841222763
0.6129253506660461 0.7410820722579956 0.010061345994472504
0.6207662224769592 0.7201347351074219 0.017256757244467735
0.5364754796028137 0.6407407522201538 -0.09916448593139648
0.5864099860191345 0.7118344902992249 -0.015599388629198074
0.5629917979240417 0.7108852863311768 -0.030471492558717728
0.5342894792556763 0.7118266820907593 -0.04063544049859047
0.5348900556564331 0.8262806534767151 -0.008556932210922241
0.5388377904891968 0.7969986200332642 -0.0284301545470953
0.5375001430511475 0.7860041260719299 -0.03200898319482803
0.5356261730194092 0.7762932777404785 -0.02718929946422577
0.5334486961364746 0.7697876691818237 -0.023323221132159233
0.5843206644058228 0.7528278827667236 -0.002229820005595684
0.5887665748596191 0.755009114742279 -0.0055392743088305
0.5946372747421265 0.7596436738967896 -0.008060328662395477
0.5988726615905762 0.7655441164970398 -0.003338764887303114
0.6130953431129456 0.6885283589363098 -0.020984170958399773
0.7885565757751465 0.602502703666687 0.22269336879253387
0.6014513373374939 0.740357518196106 0.011017929762601852
0.6072672009468079 0.7400572299957275 0.009259109385311604
0.5253590941429138 0.660548210144043 -0.06555420160293579
0.5692840814590454 0.6478481888771057 -0.04447130858898163
0.5285295248031616 0.6564087271690369 -0.06648116558790207
0.5974874496459961 0.5610206723213196 -0.02456096187233925
0.6409404873847961 0.5738473534584045 -0.019818127155303955
0.5796920657157898 0.6220347881317139 -0.05745432898402214
0.7040389180183411 0.29502782225608826 0.016701091080904007
0.684877872467041 0.331269770860672 -0.012710360810160637
0.6627800464630127 0.3662874102592468 -0.03571007773280144
0.6016536355018616 0.7820082306861877 0.011531704105436802
0.5531878471374512 0.3827832341194153 -0.06167606636881828
0.5626990795135498 0.322183221578598 -0.05358200892806053
0.5732271075248718 0.2614955008029938 -0.04387550428509712
0.6706081032752991 0.49540695548057556 0.003909366670995951
0.7313184142112732 0.517289400100708 0.03646673634648323
0.5716199278831482 0.49726009368896484 -0.002508266596123576
0.7039886713027954 0.4530264735221863 0.013385666534304619
0.5505645275115967 0.5352006554603577 -0.0388316735625267
0.5519498586654663 0.6224384903907776 -0.0999261736869812
0.7607747316360474 0.5392829179763794 0.06149535998702049
0.7181817293167114 0.5347509980201721 0.016852425411343575
0.6890109181404114 0.544897198677063 -0.0023633644450455904
0.6410196423530579 0.5452638268470764 -0.009771492332220078
0.6047037839889526 0.5388278961181641 -0.013232854194939137
0.5774924159049988 0.5302631855010986 -0.01813451759517193
0.5148976445198059 0.5042577385902405 -0.06275971978902817
0.7601799368858337 0.5898339748382568 0.05723685398697853
0.7223576307296753 0.4471624195575714 0.02218054234981537
0.4993855059146881 0.6561424732208252 -0.11796804517507553
0.567477285861969 0.5741609334945679 -0.041486822068691254
0.7957572937011719 0.48710867762565613 0.19818724691867828
0.5569626092910767 0.5185893774032593 -0.021086614578962326
0.584529459476471 0.6213943958282471 -0.03321388363838196
0.6899545192718506 0.47386160492897034 0.021095745265483856
0.5541386008262634 0.6042471528053284 -0.09166780114173889
0.7774038314819336 0.6641138792037964 0.21613669395446777
0.5710047483444214 0.4889494478702545 0.0026063609402626753
0.5306575298309326 0.592612624168396 -0.11322987824678421
0.692491352558136 0.7862939834594727 0.08962779492139816
0.6887804269790649 0.8152228593826294 0.12897251546382904
0.7836015224456787 0.599152147769928 0.13877689838409424
0.728365957736969 0.7537333369255066 0.10999275743961334
0.7698791027069092 0.44018206000328064 0.0968637615442276
0.5862103700637817 0.875704824924469 0.03031311370432377
0.4984377920627594 0.6604769825935364 -0.08637963235378265
0.5924317836761475 0.5894473791122437 -0.03372950479388237
0.7479544281959534 0.4857485890388489 0.06732931733131409
0.6477351188659668 0.48413601517677307 -0.0036080970894545317
0.6288590431213379 0.4865835905075073 -0.008086306042969227
0.617749035358429 0.7429261207580566 0.013169788755476475
0.7579692006111145 0.6413476467132568 0.06787113845348358
0.543423593044281 0.9094700217247009 0.0379537008702755
0.6144006252288818 0.872099757194519 0.07823345065116882
0.6474226117134094 0.8481612205505371 0.10121219605207443
0.6094605326652527 0.48759546875953674 -0.007687888108193874
0.5904195308685303 0.4881417453289032 -0.0032880071084946394
0.5776346921920776 0.4894040822982788 0.0021125131752341986
0.7380719780921936 0.43985864520072937 0.043842293322086334
0.5934789776802063 0.4723209738731384 -0.008227422833442688
0.6138252019882202 0.46465909481048584 -0.013218691572546959
0.6336263418197632 0.4619903564453125 -0.013567944057285786
0.6531752943992615 0.46360698342323303 -0.008610669523477554
0.665438175201416 0.4677995443344116 -0.0015087784267961979
0.7882447242736816 0.427351713180542 0.15763533115386963
0.6602354645729065 0.48134344816207886 0.002984455553814769
0.5840223431587219 0.6792709231376648 -0.03887206315994263
0.5512345433235168 0.6413962244987488 -0.07569616287946701
0.5309212803840637 0.6776859164237976 -0.06063344329595566
0.6542432904243469 0.819842517375946 0.07480499148368835
0.6204957962036133 0.8470324277877808 0.054442062973976135
0.5443251132965088 0.8958399295806885 0.010793541558086872
0.7237286567687988 0.7784711122512817 0.16397690773010254
0.5782787799835205 0.48243075609207153 -0.0017938019009307027
0.5304006934165955 0.5445093512535095 -0.07013791054487228
0.580909788608551 0.8939319849014282 0.053256094455718994
0.7749877572059631 0.6556181907653809 0.13876554369926453
0.5611386299133301 0.7631940841674805 -0.014399093575775623
0.5654205083847046 0.7676575183868408 -0.017824165523052216
0.5694783329963684 0.7754588723182678 -0.020923906937241554
0.5722074508666992 0.7853657603263855 -0.01657625287771225
0.5726373195648193 0.8081579208374023 -0.0005409899167716503
0.610511064529419 0.7137353420257568 0.0004192673659417778
0.615164041519165 0.7120916247367859 0.0006144942599348724
0.6193016767501831 0.7101359367370605 -0.00042314676102250814
0.6358169913291931 0.7012436985969543 5.5560220062034205e-05
0.7264140844345093 0.6541547775268555 0.023906687274575233
0.5320425629615784 0.5182867050170898 -0.04928791522979736
0.5514741539955139 0.4677964150905609 -0.012727172113955021
0.5672747492790222 0.4719964265823364 -0.00473188329488039
0.606341540813446 0.7146003842353821 0.002333051757887006
0.7246264219284058 0.7153580784797668 0.06523075699806213
0.5279297232627869 0.4673050045967102 -0.04132998734712601
0.580119252204895 0.8282012343406677 0.009666845202445984
0.5115877985954285 0.5328739881515503 -0.08518275618553162
0.5490058064460754 0.5822259783744812 -0.07079584896564484
0.5390933752059937 0.8485232591629028 -0.0025825994089245796
0.6373565793037415 0.7653231620788574 0.03182975575327873
0.6066352725028992 0.6392266750335693 -0.0256541408598423
0.6111118793487549 0.7996762990951538 0.02292671613395214
0.6684858202934265 0.6348094940185547 -0.019680947065353394
0.6332584619522095 0.6618379354476929 -0.016780661419034004
0.6904712915420532 0.6720854043960571 0.0031823550816625357
0.5432832837104797 0.8747584819793701 -0.00046376074897125363
0.5664919018745422 0.5934281945228577 -0.05467089265584946
0.6513949036598206 0.7887889742851257 0.05010991916060448
0.6182944178581238 0.8211116790771484 0.037738826125860214
0.6606311798095703 0.7293527722358704 0.026355592533946037
0.7498528957366943 0.6851217746734619 0.08011322468519211
0.6889262795448303 0.7400187253952026 0.04418572410941124
0.7580149173736572 0.707632839679718 0.13347889482975006
0.6563946008682251 0.6861431002616882 -0.0013431549305096269
0.5481606125831604 0.5594527721405029 -0.05450659245252609
0.5436707735061646 0.6357823014259338 -0.10427184402942657
0.5623718500137329 0.6376104950904846 -0.0791853740811348
0.5301876068115234 0.6198151111602783 -0.12012974917888641
0.570245623588562 0.44165706634521484 -0.021214596927165985
0.6095128059387207 0.42168736457824707 -0.026682645082473755
0.6447035074234009 0.4161551594734192 -0.026253700256347656
0.6740854382514954 0.4199647307395935 -0.017956826835870743
0.6944432854652405 0.43180322647094727 -0.004622752778232098
0.7070122957229614 0.47832202911376953 0.030234280973672867
0.7867120504379272 0.5454365015029907 0.13155928254127502
0.6922788023948669 0.5125628113746643 0.013260923326015472
0.6681098341941833 0.5202574729919434 0.0015820646658539772
0.6354896426200867 0.5224074721336365 -0.0058194370940327644
0.6043388843536377 0.5199020504951477 -0.009364869445562363
0.5798310041427612 0.5151222348213196 -0.008124223910272121
0.5628397464752197 0.508709192276001 -0.009398278780281544
0.7938249111175537 0.5441157221794128 0.21773310005664825
0.5638924837112427 0.64173823595047 -0.0671577900648117
0.528740644454956 0.567980170249939 -0.08867263793945312
0.5238527059555054 0.6396241784095764 -0.12032568454742432
0.5129381418228149 0.6517502069473267 -0.10920684784650803
0.525611937046051 0.6434977054595947 -0.10905399173498154
0.5595365166664124 0.6475179195404053 -0.05778040364384651
0.5074698328971863 0.6543765068054199 -0.11498834192752838
0.5064197778701782 0.6584926843643188 -0.0870613306760788
0.5624554753303528 0.49004387855529785 2.5233670385205187e-05
0.5491188764572144 0.49542713165283203 -0.012376491911709309
0.5409379005432129 0.49982115626335144 -0.027515675872564316
0.6725336909294128 0.47126737236976624 0.00639243284240365
0.6906376481056213 0.4563227891921997 0.007043348625302315
0.3884577751159668 0.4760276675224304 0.017857639119029045
0.41280096769332886 0.4762701392173767 0.017857639119029045
0.3881015181541443 0.4532288908958435 0.017857639119029045
0.36397427320480347 0.4756600856781006 0.017857639119029045
0.38859835267066956 0.4984431266784668 0.017857639119029045
0.6304274797439575 0.47555190324783325 -0.0018653491279110312
0.6544754505157471 0.4745365381240845 -0.0018653491279110312
0.6292630434036255 0.45442289113998413 -0.0018653491279110312
0.606450617313385 0.4763995110988617 -0.0018653491279110312
0.6315701603889465 0.4962998628616333 -0.0018653491279110312
