ply
format ascii 1.0
element vertex 478
property float x
property float y
property float z
end_header
0.5410588383674622 0.7103123664855957 -0.06655840575695038
0.5582718849182129 0.6313085556030273 -0.12970004975795746
0.5405426621437073 0.656197190284729 -0.06627078354358673
0.5255686640739441 0.5484547019004822 -0.11057674139738083
0.5606361627578735 0.6060724854469299 -0.13917718827724457
0.5553855895996094 0.5726958513259888 -0.131153404712677
0.5346753001213074 0.4882148504257202 -0.07172589004039764
0.32993847131729126 0.47437700629234314 -0.03852050378918648
0.5292027592658997 0.4114139676094055 -0.059589166194200516
0.5309665203094482 0.37389540672302246 -0.06720830500125885
0.5255025625228882 0.2463487684726715 -0.052164167165756226
0.5403515100479126 0.72603839635849 -0.06300409138202667
0.5374316573143005 0.7437621355056763 -0.0541989840567112
0.5333470106124878 0.7561904788017273 -0.04090350493788719
0.5329378247261047 0.7568027973175049 -0.032364849001169205
0.5342749953269958 0.7759682536125183 -0.0331035740673542
0.5340434312820435 0.7989059686660767 -0.03527849167585373
0.5309959650039673 0.8199359178543091 -0.027463557198643684
0.5203557014465332 0.833230197429657 0.001290158019401133
0.5524388551712036 0.6443274021148682 -0.11681457608938217
0.5227791666984558 0.6452188491821289 -0.09015937894582748
0.1768294721841812 0.356998473405838 0.03710602596402168
0.4012826681137085 0.4980376958847046 -0.041656993329524994
0.3753657937049866 0.5006459951400757 -0.04739934206008911
0.34908822178840637 0.49843940138816833 -0.04773128032684326
0.31285643577575684 0.4826574921607971 -0.037396788597106934
0.4238792955875397 0.49002352356910706 -0.030742088332772255
0.369240939617157 0.42121848464012146 -0.06440173089504242
0.39685913920402527 0.42459094524383545 -0.05429471284151077
0.3405397832393646 0.423999547958374 -0.06287651509046555
0.3194991946220398 0.4332805275917053 -0.056621696799993515
0.2836493253707886 0.4985058605670929 -0.02872658148407936
0.4155403673648834 0.8641892671585083 0.0023698084987699986
0.319118857383728 0.46824824810028076 -0.03316284716129303
0.1726696789264679 0.4772515296936035 0.053655028343200684
0.2448180466890335 0.47643086314201355 -0.013574245385825634
0.39102357625961304 0.6105326414108276 -0.05554337427020073
0.5098333954811096 0.7039057016372681 -0.07341869920492172
0.5089483261108398 0.7437677383422852 -0.06003445014357567
0.4718547463417053 0.7187893390655518 -0.06911513209342957
0.4454672038555145 0.7325435876846313 -0.057534199208021164
0.48027676343917847 0.7458630204200745 -0.05910256505012512
0.4564685523509979 0.7489760518074036 -0.04730851203203201
0.39692214131355286 0.7806301116943359 -0.01878696121275425
0.5376741290092468 0.6312575936317444 -0.13309365510940552
0.5359479188919067 0.6071311831474304 -0.14269916713237762
0.27059897780418396 0.39898908138275146 -0.06149323657155037
0.44216564297676086 0.5436474680900574 -0.05058327689766884
0.46010494232177734 0.6262961626052856 -0.093380868434906
0.4539783000946045 0.6121292114257812 -0.08756832778453827
0.301159530878067 0.6072465777397156 -0.0502827949821949
0.5314794778823853 0.5756400227546692 -0.13182339072227478
0.3494435250759125 0.36947423219680786 -0.08234183490276337
0.30567649006843567 0.3785833716392517 -0.07503809779882431
0.2191421091556549 0.30926263332366943 -0.004863029811531305
0.4708823561668396 0.4007527828216553 -0.06953388452529907
0.4203615188598633 0.4351484179496765 -0.03957250714302063
0.3795141577720642 0.753646969795227 -0.024821443483233452
0.1880914866924286 0.7228577733039856 0.14719939231872559
0.4785730540752411 0.6403460502624512 -0.07692311704158783
0.4998801648616791 0.6474073529243469 -0.06882861256599426
0.41304224729537964 0.7539961338043213 -0.022838542237877846
0.42019030451774597 0.7542102932929993 -0.02541527710855007
0.2855736017227173 0.35782545804977417 -0.06946241855621338
0.45465388894081116 0.6375378370285034 -0.07861164957284927
0.4036610424518585 0.37457728385925293 -0.08142437785863876
0.40047332644462585 0.3510453701019287 -0.08922010660171509
0.360976904630661 0.2513992190361023 -0.06802408397197723
0.2542889416217804 0.33640244603157043 -0.04290301352739334
0.38521435856819153 0.3029223084449768 -0.07998446375131607
0.24663515388965607 0.38528573513031006 -0.04668174684047699
0.21359147131443024 0.375129371881485 -0.007737765554338694
0.509390652179718 0.7247644066810608 -0.07007826864719391
0.47640252113342285 0.7328988909721375 -0.06545405089855194
0.45123013854026794 0.7409048080444336 -0.05439528822898865
0.4834495186805725 0.6451225280761719 -0.06771865487098694
0.4167914092540741 0.7541660070419312 -0.023782990872859955
0.42985549569129944 0.7633828520774841 -0.030359182506799698
0.42385560274124146 0.7542532086372375 -0.02502588741481304
0.49872609972953796 0.6313509941101074 -0.10954506695270538
0.45935994386672974 0.7541841268539429 -0.04088049754500389
0.4823913276195526 0.7541038990020752 -0.04662308096885681
0.5078203678131104 0.7551145553588867 -0.04782668501138687
0.4838828444480896 0.8322616815567017 -0.007309619802981615
0.4965134561061859 0.8179365396499634 -0.03668138012290001
0.5009323358535767 0.7968338131904602 -0.04354822263121605
0.5043515563011169 0.773362398147583 -0.04101428762078285
0.5067182779312134 0.7557445168495178 -0.03962957486510277
0.45849764347076416 0.7545336484909058 -0.03478935360908508
0.4531354606151581 0.7631711959838867 -0.036471638828516006
0.4461479187011719 0.7745063304901123 -0.03931402787566185
0.43976444005966187 0.7861362099647522 -0.035519424825906754
0.41974741220474243 0.706810712814331 -0.05464549735188484
0.14913985133171082 0.5896024107933044 0.1621827930212021
0.5466222167015076 0.6504358649253845 -0.08441976457834244
0.4409182369709015 0.7542363405227661 -0.028662165626883507
0.43604329228401184 0.7586046457290649 -0.029832400381565094
0.5074383020401001 0.6568878889083862 -0.06849062442779541
0.4597506523132324 0.6525601148605347 -0.054341234266757965
0.5039794445037842 0.6522846221923828 -0.06914304941892624
0.4122849106788635 0.558491587638855 -0.04936957731842995
0.36830735206604004 0.5765185952186584 -0.052335742861032486
0.4460650384426117 0.6236448884010315 -0.07380980253219604
0.27899158000946045 0.2728075385093689 -0.04247992858290672
0.30928850173950195 0.3104686737060547 -0.06608987599611282
0.33810877799987793 0.34586474299430847 -0.08364469558000565
0.4193616509437561 0.8013744354248047 -0.019894195720553398
0.4658539593219757 0.3630255460739136 -0.08278178423643112
0.45581284165382385 0.30665451288223267 -0.07844436913728714
0.4403897821903229 0.24432194232940674 -0.07054907828569412
0.3264276385307312 0.49255555868148804 -0.04333331063389778
0.24928681552410126 0.516667366027832 -0.021618381142616272
0.43878525495529175 0.48219001293182373 -0.02484867163002491
0.28336530923843384 0.441936731338501 -0.04340454190969467
0.4636714458465576 0.5270943641662598 -0.05506522208452225
0.48188984394073486 0.6159182786941528 -0.11293116956949234
0.21389718353748322 0.5345166325569153 -0.002915975172072649
0.27469879388809204 0.5369080305099487 -0.038082268089056015
0.3154689073562622 0.5482378602027893 -0.0494089312851429
0.36972033977508545 0.5448863506317139 -0.045593101531267166
0.4080262780189514 0.533875048160553 -0.04077938199043274
0.4375251829624176 0.5209506750106812 -0.039330653846263885
0.5085083246231079 0.49390968680381775 -0.0708569809794426
0.22157283127307892 0.5923659205436707 -0.005425167270004749
0.2552225589752197 0.43540579080581665 -0.039234891533851624
0.5402486324310303 0.6440860629081726 -0.11983221769332886
0.44956880807876587 0.5700652003288269 -0.058718156069517136
0.14086145162582397 0.4700133204460144 0.13056263327598572
0.4604935646057129 0.5061300992965698 -0.03815952688455582
0.43788212537765503 0.6244490146636963 -0.049079447984695435
0.30153292417526245 0.4655725657939911 -0.03129999339580536
0.4755224287509918 0.5989720225334167 -0.1050495058298111
0.16254374384880066 0.6541538238525391 0.16055810451507568
0.43709060549736023 0.4735233187675476 -0.021101612597703934
0.5039040446281433 0.584492564201355 -0.12330171465873718
0.2832346558570862 0.7984704971313477 0.04587816447019577
0.2690899968147278 0.8227067589759827 0.09151656925678253
0.17562849819660187 0.5924749374389648 0.07488842308521271
0.2412901669740677 0.7596354484558105 0.06109869107604027
0.190410777926445 0.42267274856567383 0.028720952570438385
0.4065086543560028 0.8877185583114624 0.01632595621049404
0.5372390747070312 0.6496925354003906 -0.08540894091129303
0.4234011471271515 0.5891421437263489 -0.05403284728527069
0.21277639269828796 0.4812701940536499 0.003229911904782057
0.3559918999671936 0.48326873779296875 -0.04596681147813797
0.377631276845932 0.48580214381217957 -0.04582824185490608
0.4234578609466553 0.7685443162918091 -0.02820424549281597
0.2264098823070526 0.64556485414505 0.009557276964187622
0.4488082528114319 0.9201621413230896 0.04095788300037384
0.3601607084274292 0.8845460414886475 0.05774020031094551
0.31920841336250305 0.8596746921539307 0.07143682986497879
0.5296580791473389 0.31107914447784424 -0.06208031252026558
0.5010426640510559 0.921135425567627 0.051584649831056595
0.39827781915664673 0.4838320016860962 -0.04011572524905205
0.4175243377685547 0.4786451458930969 -0.03130822628736496
0.43032339215278625 0.4754966199398041 -0.023166192695498466
0.22692103683948517 0.428594708442688 -0.02064189687371254
0.4157103896141052 0.46356916427612305 -0.038112182170152664
0.39339572191238403 0.46212196350097656 -0.048181045800447464
0.37354612350463867 0.4626932740211487 -0.05360918492078781
0.3529869616031647 0.46413952112197876 -0.05337023735046387
0.3383715748786926 0.4656144678592682 -0.048750631511211395
0.15251219272613525 0.40789902210235596 0.08753492683172226
0.34102094173431396 0.4788181781768799 -0.04265917092561722
0.5383590459823608 0.6774723529815674 -0.059911735355854034
0.44913962483406067 0.6907895803451538 -0.060336776077747345
0.4811728000640869 0.6359404921531677 -0.08564360439777374
0.5037798881530762 0.6807804107666016 -0.0678306370973587
0.5281035900115967 0.4501556158065796 -0.05685225501656532
0.3244503438472748 0.8340727090835571 0.038768425583839417
0.363477885723114 0.8612686395645142 0.029257670044898987
0.45630866289138794 0.9052293300628662 0.009585765190422535
0.22543010115623474 0.7798322439193726 0.12026391178369522
0.4309523403644562 0.46865779161453247 -0.028284871950745583
0.49385225772857666 0.5358047485351562 -0.08142398297786713
0.5098019242286682 0.906765341758728 0.020915605127811432
0.4031532406806946 0.9061959981918335 0.04316091910004616
0.1857215166091919 0.6515258550643921 0.07960164546966553
0.48124873638153076 0.7548706531524658 -0.039310477674007416
0.47621461749076843 0.7688396573066711 -0.04135742783546448
0.47064369916915894 0.7867061495780945 -0.044273607432842255
0.4654940962791443 0.8056923151016235 -0.03944955766201019
0.448018342256546 0.819851279258728 -0.019004076719284058
0.43709492683410645 0.7514469027519226 -0.03655535727739334
0.4312434196472168 0.7478618621826172 -0.039491087198257446
0.4256328046321869 0.7436796426773071 -0.04185754060745239
0.3960275948047638 0.7283003926277161 -0.043575599789619446
0.27546364068984985 0.6632646322250366 -0.02536708116531372
0.48632609844207764 0.508523166179657 -0.061214786022901535
0.4611383080482483 0.45131510496139526 -0.02999667264521122
0.4424329996109009 0.45581960678100586 -0.02832856960594654
0.44176483154296875 0.7542315721511841 -0.032336268573999405
0.2654862403869629 0.7256679534912109 0.015902988612651825
0.49118533730506897 0.45035260915756226 -0.05244171991944313
0.4295676350593567 0.8406701683998108 -0.005363475065678358
0.5481885671615601 0.5445970892906189 -0.11050286889076233
0.5171998143196106 0.523177444934845 -0.09217491745948792
0.5416353940963745 0.5181168913841248 -0.09038199484348297
0.47511839866638184 0.5763279795646667 -0.08341994881629944
0.5149872899055481 0.884708046913147 0.006280204281210899
0.5175700187683105 0.8572205305099487 0.004085083492100239
0.4736707806587219 0.85591721534729 -0.003073247615247965
0.3684016764163971 0.7897663116455078 -0.008424799889326096
0.41353267431259155 0.6456742882728577 -0.047244153916835785
0.3948938548564911 0.8186447620391846 -0.005649167113006115
0.34766173362731934 0.6426847577095032 -0.0535605326294899
0.38814952969551086 0.6730037927627563 -0.04844749718904495
0.3212619423866272 0.6852412819862366 -0.03873179107904434
0.4642161428928375 0.8828820586204529 -0.003376767272129655
0.45440343022346497 0.5906383991241455 -0.06991654634475708
0.3403570353984833 0.8082857728004456 0.010724657215178013
0.37675368785858154 0.8380336761474609 0.01100207306444645
0.3495257496833801 0.7557830214500427 -0.019190043210983276
0.23284567892551422 0.6904939413070679 0.025795908644795418
0.3079760670661926 0.7584086656570435 -0.002366685541346669
0.20419730246067047 0.7067594528198242 0.07845556735992432
0.36509692668914795 0.7078211307525635 -0.041675884276628494
0.4715142250061035 0.5524511337280273 -0.0691814050078392
0.49180594086647034 0.627296507358551 -0.11599886417388916
0.46967175602912903 0.6345011591911316 -0.09181910008192062
0.5086638331413269 0.6102807521820068 -0.1297004222869873
0.44146105647087097 0.4241742491722107 -0.04565506801009178
0.39996206760406494 0.404977411031723 -0.061265069991350174
0.362661212682724 0.4000987410545349 -0.06970800459384918
0.32774263620376587 0.4048910140991211 -0.06884309649467468
0.3004055619239807 0.41807985305786133 -0.05996190011501312
0.2761014699935913 0.47086766362190247 -0.02533307485282421
0.170244961977005 0.534665048122406 0.06334173679351807
0.3019897937774658 0.510896623134613 -0.036932602524757385
0.3322705626487732 0.5195618867874146 -0.04275945946574211
0.3699587881565094 0.52052903175354 -0.042610373347997665
0.4042295813560486 0.5144683718681335 -0.038374338299036026
0.4311356544494629 0.504728376865387 -0.030499009415507317
0.4499213397502899 0.495461106300354 -0.0279683917760849
0.14256590604782104 0.5291053652763367 0.15343497693538666
0.46665242314338684 0.6414400339126587 -0.0789514034986496
0.500521183013916 0.5597537159919739 -0.09919017553329468
0.5162025690078735 0.6286254525184631 -0.12772051990032196
0.5245960354804993 0.6411721706390381 -0.11253136396408081
0.5118283033370972 0.6328524351119995 -0.11621924489736557
0.47114795446395874 0.6489630937576294 -0.06659871339797974
0.5314963459968567 0.6430434584617615 -0.11754588782787323
0.5289216041564941 0.6487704515457153 -0.08777565509080887
0.4483162462711334 0.4732097387313843 -0.019912630319595337
0.4647195041179657 0.48012590408325195 -0.02777286432683468
0.4774000644683838 0.48494648933410645 -0.04020494222640991
0.32843494415283203 0.46688422560691833 -0.04222962632775307
0.3037477731704712 0.44595861434936523 -0.045012202113866806
0.5658777356147766 0.5479559302330017 -0.09361979365348816
0.6652435064315796 0.4748857915401459 0.08535390347242355
0.5647327899932861 0.6439598202705383 -0.07700356096029282
0.7099463939666748 0.3701211214065552 0.22558608651161194
0.6082193851470947 0.49491697549819946 0.037915606051683426
0.6297315955162048 0.4977931082248688 0.04827391356229782
0.6494286060333252 0.49696218967437744 0.06303458660840988
0.6717156171798706 0.48209261894226074 0.09384466707706451
0.5903457999229431 0.488328218460083 0.03188306838274002
0.6423822045326233 0.4179438352584839 0.0361756905913353
0.617412805557251 0.4226880669593811 0.02488102950155735
0.6645445227622986 0.4204937815666199 0.05352339521050453
0.6775208711624146 0.4306889772415161 0.0690540000796318
0.6863250732421875 0.49647876620292664 0.11244024336338043
0.5836039781570435 0.8485606908798218 0.05844670906662941
0.6710975766181946 0.4679298400878906 0.09660216420888901
0.7069486379623413 0.4791777729988098 0.24709999561309814
0.6990792751312256 0.4711146354675293 0.14525464177131653
0.6304340362548828 0.605683445930481 0.023349720984697342
0.5664669871330261 0.7036446332931519 -0.05262571573257446
0.5580977201461792 0.7437117099761963 -0.04114547371864319
0.5873731970787048 0.7151117324829102 -0.026384122669696808
0.5976144075393677 0.7293862104415894 0.0006653194432146847
0.5726591348648071 0.745381236076355 -0.022273773327469826
0.5824524164199829 0.748725414276123 0.0015415779780596495
0.6071533560752869 0.7684762477874756 0.05465169996023178
0.5746945142745972 0.6301474571228027 -0.1221485435962677
0.5802815556526184 0.6062264442443848 -0.12964403629302979
0.7039138674736023 0.3891448378562927 0.08808987587690353
0.5863479375839233 0.5425498485565186 0.0019119217758998275
0.604955792427063 0.6219066977500916 -0.043820686638355255
0.603542685508728 0.6081218719482422 -0.03645108640193939
0.6842396259307861 0.6000871062278748 0.08111639320850372
0.5743774175643921 0.5749275088310242 -0.11525052785873413
0.6684222221374512 0.36349064111709595 0.020220907405018806
0.6918497085571289 0.3694891035556793 0.05385422706604004
0.7060800790786743 0.32508665323257446 0.16434979438781738
0.5792719721794128 0.3979971408843994 -0.03608960658311844
0.5955728888511658 0.4348090589046478 0.024719828739762306
0.6224426031112671 0.7409147024154663 0.06378847360610962
0.644005298614502 0.7038273215293884 0.3220255970954895
0.5869951844215393 0.6365994811058044 -0.04052405431866646
0.5712669491767883 0.6452676057815552 -0.05062536522746086
0.6018807888031006 0.7571929693222046 0.05396825820207596
0.5965483784675598 0.756678581237793 0.042318496853113174
0.6989367008209229 0.3479404151439667 0.06845764070749283
0.600411593914032 0.6326069831848145 -0.030240649357438087
0.6332718133926392 0.3714609742164612 -0.011154175736010075
0.636640191078186 0.34776803851127625 -0.016608266159892082
0.6500192880630493 0.2647034227848053 0.028549129143357277
0.7059921026229858 0.34873953461647034 0.10997331142425537
0.6457011103630066 0.31368646025657654 0.0042046899907290936
0.7105217576026917 0.37560194730758667 0.11347764730453491
0.7127978205680847 0.38512343168258667 0.16586124897003174
0.5638394355773926 0.7247527241706848 -0.04953358322381973
0.5807947516441345 0.7314568758010864 -0.025445498526096344
0.5907186269760132 0.7394336462020874 -0.0012819962576031685
0.5808447599411011 0.641468346118927 -0.03802843764424324
0.599177360534668 0.7570737600326538 0.04724669083952904
0.5942724943161011 0.7646392583847046 0.030186155810952187
0.5937508344650269 0.756422758102417 0.04084669426083565
0.5861251354217529 0.628973126411438 -0.0758025124669075
0.5748966932296753 0.7552040815353394 0.005539575591683388
0.5653024911880493 0.754935622215271 -0.01199485082179308
0.5518125891685486 0.7553777694702148 -0.02844308502972126
0.548768937587738 0.8280283808708191 0.010721031576395035
0.559212863445282 0.8151131868362427 -0.01644635573029518
0.5602131485939026 0.794512152671814 -0.022359270602464676
0.5570700168609619 0.7722575068473816 -0.02001389116048813
0.5518392324447632 0.7556669116020203 -0.019807355478405952
0.5751374363899231 0.75494784116745 0.011841503903269768
0.5820322632789612 0.763221025466919 0.010311098769307137
0.5885976552963257 0.7733976244926453 0.009278928861021996
0.5929341316223145 0.7843393683433533 0.016292111948132515
0.6129850149154663 0.6982437968254089 0.012134404852986336
0.6698132157325745 0.5833897590637207 0.3568905293941498
0.5826804041862488 0.7552483081817627 0.029307633638381958
0.5888726115226746 0.7599568963050842 0.028483033180236816
0.5655108690261841 0.6550911664962769 -0.05062033608555794
0.5899350643157959 0.6474086046218872 -0.016274550929665565
0.5682108402252197 0.6504475474357605 -0.05160043388605118
0.6069447994232178 0.5564536452293396 0.02033550851047039
0.6418555974960327 0.5728952288627625 0.04133695363998413
0.6027030944824219 0.6190345287322998 -0.021255657076835632
0.6891318559646606 0.2891721725463867 0.09554413706064224
0.6858459711074829 0.32393577694892883 0.05666496232151985
0.6741864085197449 0.33971932530403137 0.02546020969748497
0.593097448348999 0.7900815606117249 0.040375012904405594
0.5870798826217651 0.36171671748161316 -0.04645304009318352
0.5947552919387817 0.31217560172080994 -0.03475255146622658
0.597388744354248 0.2517379820346832 -0.021903911605477333
0.6640201210975647 0.4919775724411011 0.08030633628368378
0.7033872604370117 0.5123348236083984 0.13517485558986664
0.5787355899810791 0.4816998839378357 0.03103267028927803
0.691653847694397 0.43711626529693604 0.10066453367471695
0.5740177631378174 0.5266850590705872 -0.013097602874040604
0.6003108620643616 0.6129931807518005 -0.07280240207910538
0.7120177745819092 0.5311064124107361 0.17426857352256775
0.6981371641159058 0.533255934715271 0.10913646966218948
0.6787164211273193 0.544564425945282 0.07548052817583084
0.6406227350234985 0.5410014986991882 0.04941645264625549
0.610973596572876 0.5299732089042664 0.031611714512109756
0.5895005464553833 0.5182296633720398 0.015074380673468113
0.5538091063499451 0.4941318929195404 -0.05331127718091011
0.7102590799331665 0.5843274593353271 0.17034056782722473
0.702051043510437 0.4287950098514557 0.11871223151683807
0.5624319314956665 0.6433215141296387 -0.11102626472711563
0.5882390737533569 0.568099319934845 -0.007955677807331085
0.6904888153076172 0.47411930561065674 0.3318895399570465
0.5741069316864014 0.5049249529838562 0.004216521978378296
0.5992740392684937 0.6197891235351562 0.003117420943453908
0.6798430681228638 0.464726984500885 0.10501890629529953
0.5971788763999939 0.5962883830070496 -0.06418461352586746
0.6594222784042358 0.641396701335907 0.34716716408729553
0.5767579078674316 0.4728486239910126 0.037204351276159286
0.5874170064926147 0.5828722715377808 -0.09379427134990692
0.6374576687812805 0.77438884973526 0.1754034459590912
0.6182734966278076 0.7964359521865845 0.22308950126171112
0.7002975940704346 0.5843804478645325 0.2672611474990845
0.6549519896507263 0.7379710674285889 0.21425478160381317
0.710750937461853 0.429293155670166 0.21405094861984253
0.5803169012069702 0.8693561553955078 0.07765264064073563
0.5549240708351135 0.6493808627128601 -0.0800836980342865
0.604163408279419 0.5859037637710571 0.008068878203630447
0.7074999213218689 0.474586546421051 0.17792122066020966
0.6476768851280212 0.4828301668167114 0.06279037892818451
0.6300305128097534 0.4839422106742859 0.05029831454157829
0.5986475348472595 0.7696361541748047 0.036669421941041946
0.6986181139945984 0.6334500312805176 0.17861637473106384
0.5415892004966736 0.9093232154846191 0.07452405244112015
0.5847197771072388 0.8602412939071655 0.14244221150875092
0.5997286438941956 0.8326729536056519 0.17809319496154785
0.6113401055335999 0.4813683032989502 0.041738733649253845
0.5936305522918701 0.4769112765789032 0.03870696201920509
0.5823041200637817 0.4746524393558502 0.039582494646310806
0.7086056470870972 0.4214644432067871 0.14933863282203674
0.5958353877067566 0.4614802300930023 0.03390805423259735
0.6151829957962036 0.45794570446014404 0.035825084894895554
0.6345628499984741 0.45742616057395935 0.04438875615596771
0.6519869565963745 0.4594714641571045 0.05811979994177818
0.6621565818786621 0.4628767967224121 0.07078728824853897
0.7050880789756775 0.4171392321586609 0.2853797674179077
0.6583776473999023 0.47930222749710083 0.0754832997918129
0.5982246398925781 0.6845781803131104 -0.009234179742634296
0.5897951126098633 0.6324357390403748 -0.050694264471530914
0.5671667456626892 0.6783445477485657 -0.04654748737812042
0.6171021461486816 0.8093006610870361 0.14357557892799377
0.5987080335617065 0.8380206823348999 0.11203542351722717
0.5521187782287598 0.8950240015983582 0.04265231266617775
0.6307796835899353 0.7564530968666077 0.27627816796302795
0.5828180313110352 0.46777716279029846 0.03593214228749275
0.570884644985199 0.5352384448051453 -0.052976686507463455
0.5673938989639282 0.8871614933013916 0.10544970631599426
0.6875180006027222 0.6382255554199219 0.26367542147636414
0.5656272172927856 0.7548828125 -0.004178981296718121
0.5723384022712708 0.7676407098770142 -0.004822582472115755
0.5778113007545471 0.7839866876602173 -0.005883293692022562
0.5800201296806335 0.802133321762085 0.0003377090615686029
0.5745611786842346 0.8111479878425598 0.024649713188409805
0.5898218154907227 0.752219021320343 0.023713987320661545
0.5966278314590454 0.7483965158462524 0.02653195895254612
0.6027840971946716 0.7432737350463867 0.028437331318855286
0.6214455962181091 0.7176394462585449 0.03893277421593666
0.6855159401893616 0.6513837575912476 0.11609230190515518
0.5635929703712463 0.5087347030639648 -0.0318780280649662
0.5674730539321899 0.45069384574890137 0.007990013808012009
0.5763582587242126 0.455716997385025 0.02590118907392025
0.5826510190963745 0.7555571794509888 0.02576558291912079
0.6680501699447632 0.708160400390625 0.1590297371149063
0.554963231086731 0.4487534165382385 -0.029973305761814117
0.5788654088973999 0.8281499743461609 0.04295514523983002
0.560433030128479 0.5229381322860718 -0.07708413898944855
0.5855591297149658 0.5746018290519714 -0.04591371491551399
0.5514545440673828 0.8493067622184753 0.019914671778678894
0.619030237197876 0.7737442255020142 0.07637667655944824
0.614669144153595 0.639450192451477 0.017499223351478577
0.5999962091445923 0.8030450940132141 0.061418548226356506
0.6591188907623291 0.6346302032470703 0.04707007110118866
0.631765604019165 0.6648913621902466 0.031788840889930725
0.6655200719833374 0.6733832359313965 0.07621369510889053
0.5551210045814514 0.8744104504585266 0.027253806591033936
0.5918087363243103 0.5879542827606201 -0.022941280156373978
0.6253578066825867 0.7874271273612976 0.10890448093414307
0.6034814119338989 0.818290114402771 0.08661127835512161
0.6371834874153137 0.7407021522521973 0.0833955630660057
0.6837332248687744 0.6748952269554138 0.1867370754480362
0.6508773565292358 0.7397284507751465 0.11716817319393158
0.6722275614738464 0.6888390779495239 0.25304529070854187
0.640221357345581 0.6969937682151794 0.0528218038380146
0.5788761973381042 0.551346480846405 -0.028735745698213577
0.5939909815788269 0.6243051886558533 -0.07949315011501312
0.5988773107528687 0.6302952170372009 -0.04995528981089592
0.5921688675880432 0.6080675721168518 -0.10084972530603409
0.5876167416572571 0.42256665229797363 0.006323154550045729
0.6239509582519531 0.4025226831436157 0.014267000369727612
0.6544132232666016 0.39722001552581787 0.029322616755962372
0.6772258877754211 0.40108829736709595 0.05156109482049942
0.6901590824127197 0.4133521020412445 0.07507308572530746
0.6887185573577881 0.46755534410476685 0.12011688947677612
0.7061194777488708 0.5317143797874451 0.26079756021499634
0.6795810461044312 0.5094497203826904 0.09596383571624756
0.6618030071258545 0.5173909068107605 0.07273618876934052
0.6349153518676758 0.5171664953231812 0.052186693996191025
0.6083148717880249 0.5107346773147583 0.036444392055273056
0.5880542993545532 0.5021753907203674 0.025941766798496246
0.5745689868927002 0.4939298629760742 0.018160132691264153
0.6772624850273132 0.5284903049468994 0.3533560037612915
0.5944396257400513 0.6369141936302185 -0.03794154152274132
0.5777344703674316 0.5586580038070679 -0.06995317339897156
0.58552086353302 0.6261492371559143 -0.10461851209402084
0.5694285035133362 0.6392223238945007 -0.09906557947397232
0.5808194279670715 0.63051837682724 -0.09246022999286652
0.5866377949714661 0.6444618701934814 -0.03229391947388649
0.5677086114883423 0.6416485905647278 -0.10661909729242325
0.5605554580688477 0.6476999521255493 -0.07848281413316727
0.5710595846176147 0.4733152687549591 0.02881140261888504
0.563854992389679 0.47950035333633423 0.00867411494255066
0.5618298649787903 0.48447656631469727 -0.010319817811250687
0.66764235496521 0.46557286381721497 0.0824781283736229
0.6833604574203491 0.44365501403808594 0.08778560906648636
0.37869495153427124 0.4697287082672119 -0.039647944271564484
0.40555548667907715 0.46914249658584595 -0.039647944271564484
0.3789014518260956 0.4472610354423523 -0.039647944271564484
0.3511973023414612 0.46987736225128174 -0.039647944271564484
0.37806469202041626 0.4918473958969116 -0.039647944271564484
0.6277495622634888 0.4686886668205261 0.055574990808963776
0.6492136716842651 0.4687551259994507 0.055574990808963776
0.6268026828765869 0.4480971097946167 0.055574990808963776
0.6060211658477783 0.468424916267395 0.055574990808963776
0.6286572813987732 0.4890053868293762 0.055574990808963776
