ply
format ascii 1.0
element vertex 478
property float x
property float y
property float z
end_header
0.4671555757522583 0.7220873832702637 -0.08473843336105347
0.4467298984527588 0.6282863020896912 -0.14326325058937073
0.46174710988998413 0.6595484614372253 -0.08495241403579712
0.44557440280914307 0.5418187379837036 -0.09174800664186478
0.447775661945343 0.5989639163017273 -0.1490580141544342
0.45572561025619507 0.5646748542785645 -0.13535310328006744
0.4803546369075775 0.48575693368911743 -0.056000594049692154
0.34511834383010864 0.47944265604019165 0.10420840233564377
0.48996829986572266 0.4194639325141907 -0.028819913044571877
0.4914815127849579 0.38329604268074036 -0.027644027024507523
0.5080320239067078 0.25899142026901245 0.01490690652281046
0.4679706394672394 0.7284923791885376 -0.08256814628839493
0.4705009162425995 0.7335851192474365 -0.07676795870065689
0.47410720586776733 0.7361096143722534 -0.0690450593829155
0.47147026658058167 0.7810825109481812 -0.05414774641394615
0.4692455232143402 0.7897809743881226 -0.0618843212723732
0.46781453490257263 0.8015751242637634 -0.06936004757881165
0.46844571828842163 0.8147305250167847 -0.06826800853013992
0.46831339597702026 0.8530369997024536 -0.051489949226379395
0.4508631229400635 0.6453929543495178 -0.132038414478302
0.4341422915458679 0.646373987197876 -0.09286417812108994
0.308807373046875 0.40167221426963806 0.26442191004753113
0.3981773853302002 0.5013889074325562 0.05662127211689949
0.37706685066223145 0.5019345283508301 0.06566694378852844
0.35791414976119995 0.5004182457923889 0.07935436069965363
0.3364782929420471 0.4899987578392029 0.1101050078868866
0.41685307025909424 0.49692875146865845 0.051610011607408524
0.37523511052131653 0.42805808782577515 0.06344737112522125
0.39956140518188477 0.43224555253982544 0.0546162985265255
0.3524433970451355 0.43176865577697754 0.07829196006059647
0.3377259373664856 0.4426472783088684 0.09213107824325562
0.3187255859375 0.5068210959434509 0.12545858323574066
0.38036683201789856 0.8847335577011108 0.005277086514979601
0.33954229950904846 0.4750097990036011 0.1158863976597786
0.28654947876930237 0.512836217880249 0.2613788843154907
0.3039177656173706 0.49173760414123535 0.16086797416210175
0.3574579358100891 0.6076890826225281 0.017179664224386215
0.43305689096450806 0.7171716094017029 -0.07093387842178345
0.44016265869140625 0.731260359287262 -0.06208452582359314
0.40750741958618164 0.7209182381629944 -0.04302151873707771
0.3915083706378937 0.7267218828201294 -0.009154456667602062
0.41860872507095337 0.7314300537109375 -0.038506098091602325
0.40325260162353516 0.7339160442352295 -0.008671141229569912
0.361084908246994 0.7737876176834106 0.0415644496679306
0.4277319014072418 0.6277302503585815 -0.13588233292102814
0.4262924790382385 0.5993490815162659 -0.13991881906986237
0.31654655933380127 0.41954997181892395 0.112771175801754
0.4164496660232544 0.5456159114837646 0.009105907753109932
0.38737165927886963 0.6198940873146057 -0.05621051788330078
0.389493852853775 0.6058716177940369 -0.046196099370718
0.29428696632385254 0.6033738851547241 0.07621871680021286
0.4354098439216614 0.5676226615905762 -0.11989712715148926
0.3609241843223572 0.386258602142334 0.051556844264268875
0.33401018381118774 0.39739641547203064 0.08225879073143005
0.32423466444015503 0.3508344888687134 0.21281619369983673
0.4472212791442871 0.4070565700531006 -0.005229345057159662
0.41975468397140503 0.44409599900245667 0.05410332605242729
0.34420228004455566 0.7380120158195496 0.05439829081296921
0.3045368790626526 0.7729302048683167 0.2845011353492737
0.4048753082752228 0.6373161673545837 -0.05422312021255493
0.4231776297092438 0.6467366218566895 -0.06732684373855591
0.375499427318573 0.7426754236221313 0.05073026940226555
0.3822749853134155 0.7434645891189575 0.04069226607680321
0.3284788727760315 0.38380542397499084 0.1007523164153099
0.3883137106895447 0.631149411201477 -0.04421554505825043
0.3971638083457947 0.38670614361763 0.021581562235951424
0.3957139253616333 0.36657243967056274 0.02000836469233036
0.3903355002403259 0.28001919388771057 0.0906522125005722
0.3228066563606262 0.3685694932937622 0.15085360407829285
0.39108049869537354 0.3240387439727783 0.055426280945539474
0.3101242780685425 0.41191697120666504 0.140537828207016
0.30586397647857666 0.4100327491760254 0.20020243525505066
0.43534910678863525 0.7254879474639893 -0.06827335804700851
0.41240859031677246 0.7269107103347778 -0.04105392098426819
0.3967885375022888 0.7306157946586609 -0.010848180390894413
0.41040462255477905 0.6422220468521118 -0.052853062748909
0.37881219387054443 0.7430877685546875 0.04510620981454849
0.38584375381469727 0.7613446712493896 0.024757178500294685
0.3853450417518616 0.7439804673194885 0.03893990069627762
0.4107666611671448 0.6304566860198975 -0.0889114961028099
0.4099871516227722 0.735778272151947 -0.00792224146425724
0.4249861538410187 0.7339301109313965 -0.03225027024745941
0.4458097219467163 0.7341943383216858 -0.05405799299478531
0.4307502508163452 0.8480802774429321 -0.03818231821060181
0.43343544006347656 0.8111390471458435 -0.05301756039261818
0.43416231870651245 0.7980244755744934 -0.05291419103741646
0.4380286633968353 0.7866002321243286 -0.04507007449865341
0.44363412261009216 0.7788662314414978 -0.03847242891788483
0.40845179557800293 0.7674917578697205 0.0035966550931334496
0.4020542502403259 0.7706361413002014 -0.00202635838650167
0.39491724967956543 0.7764447331428528 -0.005341346375644207
0.3902733325958252 0.7838221788406372 0.0007215257501229644
0.3628469705581665 0.6944876313209534 0.0038399186450988054
0.2992156744003296 0.6401804089546204 0.34463128447532654
0.45593684911727905 0.6534330248832703 -0.10134883970022202
0.39866310358047485 0.7588147521018982 0.026397908106446266
0.3917814791202545 0.7593869566917419 0.023300811648368835
0.4300590753555298 0.6566018462181091 -0.06983363628387451
0.39713016152381897 0.6463606953620911 -0.03232640027999878
0.4266238808631897 0.6519816517829895 -0.0694892480969429
0.39055901765823364 0.558953046798706 0.023934271186590195
0.34997519850730896 0.5735535621643066 0.04084808751940727
0.38707736134529114 0.6176813244819641 -0.03234395757317543
0.3495975434780121 0.30953162908554077 0.15175887942314148
0.35012176632881165 0.33913663029670715 0.10320757329463959
0.35741126537323 0.3681275248527527 0.062010928988456726
0.37671029567718506 0.8031802177429199 0.018557438626885414
0.44325926899909973 0.372123122215271 -0.008705203421413898
0.43891847133636475 0.319582462310791 0.019502222537994385
0.44088977575302124 0.26471588015556335 0.0433223694562912
0.3435191512107849 0.4968622922897339 0.09597250819206238
0.2972966432571411 0.525477409362793 0.14498738944530487
0.4297194182872772 0.4909570813179016 0.05206705257296562
0.3210257589817047 0.45552361011505127 0.12172918021678925
0.43320581316947937 0.5291813015937805 -0.003626522608101368
0.3973643183708191 0.6108603477478027 -0.08416036516427994
0.27474159002304077 0.5514721870422363 0.1793147474527359
0.3028900623321533 0.539889395236969 0.11597088724374771
0.3234635293483734 0.5468788743019104 0.08218236267566681
0.3628142476081848 0.5435843467712402 0.05682077631354332
0.39427658915519714 0.5345855951309204 0.04146245867013931
0.41822493076324463 0.5232374668121338 0.027292978018522263
0.46014365553855896 0.4929744601249695 -0.038074083626270294
0.26273593306541443 0.6022613048553467 0.1657893806695938
0.30930522084236145 0.4536539912223816 0.14032207429409027
0.4390592575073242 0.6441630721092224 -0.12655280530452728
0.40961116552352905 0.569485068321228 -0.007121962029486895
0.30206549167633057 0.519457221031189 0.3457035422325134
0.4362215995788574 0.5088845491409302 0.019407127052545547
0.38835078477859497 0.6198532581329346 -0.006247628014534712
0.3304828405380249 0.4758027195930481 0.12334376573562622
0.4016062021255493 0.593520998954773 -0.07236259430646896
0.29957324266433716 0.7049533128738403 0.3214986324310303
0.43276137113571167 0.4826216995716095 0.06117301434278488
0.4181709885597229 0.5777955651283264 -0.10016477853059769
0.31203141808509827 0.8212205171585083 0.13668103516101837
0.3272128999233246 0.8614509701728821 0.17232124507427216
0.2680080235004425 0.6231319904327393 0.2586950957775116
0.2901659309864044 0.7880553007125854 0.17756517231464386
0.29665279388427734 0.45869648456573486 0.2393689900636673
0.37957337498664856 0.913887619972229 0.014357523061335087
0.446084201335907 0.6522977352142334 -0.09707724303007126
0.387900710105896 0.5875384211540222 0.0053952825255692005
0.29246848821640015 0.49942803382873535 0.19267356395721436
0.3614322245121002 0.48429200053215027 0.08183442801237106
0.3779095411300659 0.4865283966064453 0.07002062350511551
0.3815288245677948 0.7640963792800903 0.030381444841623306
0.2609313130378723 0.6576442122459412 0.1642978936433792
0.41939714550971985 0.9549179077148438 -0.0020274969283491373
0.36862021684646606 0.9173895120620728 0.08073881268501282
0.3502616882324219 0.8940857648849487 0.12332477420568466
0.4988172948360443 0.3189934492111206 -0.006504340097308159
0.4660661816596985 0.9652467966079712 -0.02695438638329506
0.39577436447143555 0.48690295219421387 0.06248002499341965
0.413543164730072 0.4855206608772278 0.060730770230293274
0.4258504807949066 0.4844917058944702 0.06277913600206375
0.30128106474876404 0.4525326192378998 0.17151738703250885
0.41573894023895264 0.4681667983531952 0.06079684570431709
0.3977510929107666 0.4618256688117981 0.062326181679964066
0.3792567253112793 0.459301233291626 0.06969141960144043
0.3612006902694702 0.4616808295249939 0.08161719888448715
0.35006850957870483 0.46680545806884766 0.09283830970525742
0.3018862307071686 0.4550779461860657 0.3126120865345001
0.3514842092990875 0.48184025287628174 0.09420004487037659
0.46495088934898376 0.6775160431861877 -0.07903418689966202
0.38485532999038696 0.6814310550689697 -0.024042397737503052
0.40338027477264404 0.6334551572799683 -0.06337933242321014
0.4284667372703552 0.6763562560081482 -0.06580016762018204
0.4883963465690613 0.45413827896118164 -0.03290640935301781
0.3376932144165039 0.8561545014381409 0.09921925514936447
0.3585628867149353 0.8845793008804321 0.05810203775763512
0.4135056734085083 0.935903787612915 -0.027524756267666817
0.31340575218200684 0.8256396055221558 0.23014132678508759
0.4273691773414612 0.47653138637542725 0.06141214072704315
0.4383794069290161 0.5334762334823608 -0.046159252524375916
0.46223342418670654 0.945421040058136 -0.05096837505698204
0.38904890418052673 0.9382032155990601 0.035709358751773834
0.2690543234348297 0.6833078861236572 0.24333623051643372
0.42304694652557373 0.7742045521736145 -0.01802021451294422
0.4160448908805847 0.7798631191253662 -0.023675857111811638
0.41023898124694824 0.7893809676170349 -0.02758718840777874
0.4071303606033325 0.8013104200363159 -0.024049872532486916
0.3981175422668457 0.8292652368545532 -0.008768090046942234
0.39118295907974243 0.7381042838096619 0.019241001456975937
0.38521188497543335 0.7361457347869873 0.02299533784389496
0.3808453679084778 0.7337127923965454 0.02476157620549202
0.3477421998977661 0.7124012112617493 0.03424561396241188
0.27547669410705566 0.666010856628418 0.10224837809801102
0.44773754477500916 0.5095858573913574 -0.01914798840880394
0.4480481743812561 0.4596533179283142 0.035627540200948715
0.4363980293273926 0.46506014466285706 0.05317918583750725
0.39719918370246887 0.7390552759170532 0.019084010273218155
0.2829075753688812 0.7386835813522339 0.13424280285835266
0.46293872594833374 0.4547617435455322 -0.005564614199101925
0.389320433139801 0.855387806892395 -0.001258427044376731
0.46446725726127625 0.5378769636154175 -0.10794015973806381
0.45234984159469604 0.5188617706298828 -0.06770182400941849
0.4722418189048767 0.5131667852401733 -0.0803687646985054
0.41619759798049927 0.5730111598968506 -0.04752284288406372
0.46171140670776367 0.9165279269218445 -0.05934850499033928
0.4650557339191437 0.8824596405029297 -0.0555550791323185
0.42263513803482056 0.8762667179107666 -0.03651145100593567
0.3488193154335022 0.7897215485572815 0.05608075112104416
0.3702733516693115 0.6412798166275024 0.007240201812237501
0.36747026443481445 0.8265529870986938 0.029630465433001518
0.31771141290664673 0.6383125185966492 0.036495886743068695
0.347821444272995 0.6671907901763916 0.022867148742079735
0.3007427155971527 0.6822905540466309 0.06335161626338959
0.41406160593032837 0.9084959030151367 -0.03564568608999252
0.40384095907211304 0.5878986120223999 -0.027162225916981697
0.3366462290287018 0.8179138898849487 0.07721512764692307
0.3594604730606079 0.8525362014770508 0.04319992661476135
0.32935887575149536 0.7490900754928589 0.06783454120159149
0.2684383690357208 0.7072955965995789 0.16472050547599792
0.3067389726638794 0.7632077932357788 0.09479957818984985
0.2766052782535553 0.7397983074188232 0.22236047685146332
0.3306981325149536 0.6972834467887878 0.04360013082623482
0.4252009987831116 0.5516820549964905 -0.025011103600263596
0.403081476688385 0.6244571208953857 -0.09195917844772339
0.3932644724845886 0.6297135949134827 -0.06379541009664536
0.41010159254074097 0.604335606098175 -0.11186989396810532
0.4324561059474945 0.4327910542488098 0.03807349130511284
0.39867866039276123 0.4148561954498291 0.04600423946976662
0.36809301376342773 0.4112018644809723 0.05850774794816971
0.3433576822280884 0.4171012043952942 0.07794532179832458
0.3274543285369873 0.43152299523353577 0.09911072999238968
0.31906044483184814 0.4832567572593689 0.13719449937343597
0.2741946578025818 0.5674484372138977 0.26392921805381775
0.3253738582134247 0.51551353931427 0.10792302340269089
0.34323111176490784 0.5213399529457092 0.08478788286447525
0.37004971504211426 0.5216108560562134 0.06487952172756195
0.3974778950214386 0.5172755122184753 0.05129688233137131
0.4195718467235565 0.5100598931312561 0.042428310960531235
0.4349091649055481 0.5016476511955261 0.036279648542404175
0.30232295393943787 0.5797762870788574 0.3552224934101105
0.3956438899040222 0.6362293362617493 -0.052444394677877426
0.43009552359580994 0.554943859577179 -0.06966869533061981
0.41429591178894043 0.6254012584686279 -0.11777987331151962
0.42994070053100586 0.6409955620765686 -0.11405772715806961
0.4177103638648987 0.6318128108978271 -0.10588967800140381
0.4023386240005493 0.6440616250038147 -0.047950901091098785
0.43265536427497864 0.6428332328796387 -0.12210419028997421
0.4390257000923157 0.6503669619560242 -0.09485854208469391
0.4391542673110962 0.482618510723114 0.051977936178445816
0.4479522705078125 0.4869690239429474 0.03010108321905136
0.45108678936958313 0.48841479420661926 0.007942985743284225
0.34389129281044006 0.47116219997406006 0.10310635715723038
0.32969340682029724 0.4566730856895447 0.10872817784547806
0.4861716628074646 0.5425480604171753 -0.107661172747612
0.671940267086029 0.4867752492427826 -0.01137755997478962
0.4844123423099518 0.6483479738235474 -0.10515390336513519
0.8265909552574158 0.39850667119026184 0.08918002992868423
0.6017627716064453 0.5005229115486145 -0.017922690138220787
0.6260719299316406 0.5025091767311096 -0.023972410708665848
0.65159672498703 0.5038766860961914 -0.02434750646352768
0.6893178224563599 0.49839985370635986 -0.012355688028037548
0.5810486674308777 0.4962458610534668 -0.0070498730055987835
0.6404674053192139 0.43322524428367615 -0.03016670234501362
0.6118398904800415 0.43354320526123047 -0.01917204074561596
0.6683136820793152 0.44042009115219116 -0.029772011563181877
0.6873154640197754 0.4532417058944702 -0.024600911885499954
0.7170730829238892 0.5152902603149414 -0.006139217875897884
0.574428141117096 0.9010171890258789 -0.05076112225651741
0.6841210126876831 0.4849455654621124 -0.004893209785223007
0.830601692199707 0.5222523212432861 0.0821150466799736
0.7539194822311401 0.5011584758758545 0.013388385996222496
0.6223834753036499 0.6146823763847351 -0.060447581112384796
0.5095890760421753 0.7177731394767761 -0.09221888333559036
0.5120706558227539 0.7319862246513367 -0.0821809247136116
0.5559986233711243 0.7235866785049438 -0.08633044362068176
0.5908645987510681 0.7290830016136169 -0.06866033375263214
0.5508763194084167 0.7327703833580017 -0.07729190587997437
0.582841694355011 0.7352213859558105 -0.0600682757794857
0.6309353113174438 0.786361575126648 -0.034548718482255936
0.4693622887134552 0.6291059851646423 -0.14604759216308594
0.4729675352573395 0.600336492061615 -0.15214398503303528
0.7290412187576294 0.43246227502822876 -0.025242069736123085
0.566222071647644 0.5482032299041748 -0.04044989496469498
0.5541362762451172 0.624933123588562 -0.10303807258605957
0.5599358677864075 0.6103635430335999 -0.09456204622983932
0.7132086157798767 0.6144441962242126 -0.050694096833467484
0.4793815612792969 0.568423330783844 -0.13566993176937103
0.6574255228042603 0.39280813932418823 -0.04357795789837837
0.6977074146270752 0.4079102873802185 -0.03734872117638588
0.7857796549797058 0.34299328923225403 0.05644888058304787
0.541903018951416 0.40820246934890747 -0.03600935637950897
0.5875005722045898 0.4429376423358917 -0.005767792463302612
0.6570847630500793 0.7510141730308533 -0.037061046808958054
0.8145368695259094 0.7998647093772888 0.12000302225351334
0.5354034900665283 0.6418725848197937 -0.08906736224889755
0.5113763213157654 0.6498335003852844 -0.08467206358909607
0.6384543180465698 0.7418571710586548 -0.02907794713973999
0.6306427121162415 0.7428731918334961 -0.030227718874812126
0.7158798575401306 0.39185890555381775 -0.02692195028066635
0.5615028738975525 0.636767566204071 -0.09027408808469772
0.6065778136253357 0.39011844992637634 -0.04356156662106514
0.6114144325256348 0.3675416111946106 -0.04703957587480545
0.6558051109313965 0.2705632448196411 0.0017757011810317636
0.7497389912605286 0.3653980493545532 0.010052116587758064
0.6281092166900635 0.31864890456199646 -0.021739346906542778
0.7512193918228149 0.42180335521698 -0.007381184492260218
0.789129912853241 0.4108291268348694 0.03983960300683975
0.5106982588768005 0.7260010242462158 -0.08962289988994598
0.5528433322906494 0.7286581993103027 -0.0823960229754448
0.5864747166633606 0.7323479652404785 -0.06601582467556
0.530314564704895 0.646638035774231 -0.08122505247592926
0.6343218088150024 0.742339015007019 -0.02922734059393406
0.6124839782714844 0.7612975239753723 -0.038319606333971024
0.6270551085472107 0.7435259222984314 -0.02996939793229103
0.5114914774894714 0.6336128115653992 -0.12059023231267929
0.5803632140159607 0.7366945147514343 -0.05667823553085327
0.5491424798965454 0.7346816062927246 -0.06868963688611984
0.513671875 0.7347283959388733 -0.07461416721343994
0.5137141346931458 0.8534374237060547 -0.05824930965900421
0.5129384994506836 0.8124244213104248 -0.07512722164392471
0.5111316442489624 0.7992109060287476 -0.07584504038095474
0.5103276968002319 0.7874471545219421 -0.06771980971097946
0.5097696781158447 0.7795708179473877 -0.060088224709033966
0.576512336730957 0.7684930562973022 -0.04534466564655304
0.5807182788848877 0.7712873220443726 -0.050974320620298386
0.586174488067627 0.7769802212715149 -0.05598760023713112
0.5904594659805298 0.7843574285507202 -0.053392477333545685
0.6108949780464172 0.7042249441146851 -0.06351622194051743
0.8546203374862671 0.6588667035102844 0.16313885152339935
0.6012866497039795 0.7597000002861023 -0.03434038162231445
0.6066208481788635 0.7596905827522278 -0.037640731781721115
0.5024282932281494 0.6596376299858093 -0.08708789199590683
0.5572160482406616 0.652400553226471 -0.06928947567939758
0.5064815878868103 0.6550416350364685 -0.08623373508453369
0.5963980555534363 0.5631340742111206 -0.04269570857286453
0.6422151923179626 0.5799249410629272 -0.04977711662650108
0.5695284008979797 0.6229971051216125 -0.0824522152543068
0.7302682995796204 0.29907041788101196 0.02482319436967373
0.6977449059486389 0.33393117785453796 -0.009725093841552734
0.6686911582946777 0.37183281779289246 -0.03914480656385422
0.5993546843528748 0.8151310682296753 -0.04418920353055
0.549946129322052 0.3708142936229706 -0.042072735726833344
0.5647643208503723 0.31629982590675354 -0.02026965655386448
0.5845302939414978 0.25895214080810547 -0.0013185431016609073
0.6745262145996094 0.503092348575592 -0.019491737708449364
0.7488341927528381 0.5337703824043274 -0.0013053073780611157
0.5671203136444092 0.4909479320049286 -7.4287622737756465e-06
0.7185526490211487 0.4679802358150482 -0.011440024711191654
0.5453528761863708 0.5307241082191467 -0.04303792491555214
0.5286867022514343 0.6143574118614197 -0.12170501798391342
0.7913631200790405 0.5628174543380737 0.013850429095327854
0.725678026676178 0.5484821796417236 -0.021981360390782356
0.6872047185897827 0.5539239048957825 -0.03569817915558815
0.6336954236030579 0.5482416152954102 -0.03361169248819351
0.5954034328460693 0.5376843214035034 -0.027172818779945374
0.5672876834869385 0.5258589386940002 -0.023915430530905724
0.5048797130584717 0.4931589365005493 -0.05471688508987427
0.7891140580177307 0.6176370978355408 0.00013578232028521597
0.7444949150085449 0.4652482569217682 -0.005634654313325882
0.4646793007850647 0.645295262336731 -0.134653240442276
0.5609872937202454 0.5727697610855103 -0.05529235303401947
0.8620686531066895 0.5278701186180115 0.15776211023330688
0.5463269352912903 0.5113092660903931 -0.020291266962885857
0.5785547494888306 0.6255391836166382 -0.0566403828561306
0.7009269595146179 0.486392617225647 -0.0031558414921164513
0.5351625680923462 0.5968471169471741 -0.11063727736473083
0.8414576053619385 0.7282141447067261 0.1470961570739746
0.5689311027526855 0.4828904867172241 0.006879867520183325
0.5061291456222534 0.5798994302749634 -0.12803703546524048
0.7214841246604919 0.8498445749282837 0.011772453784942627
0.7257915139198303 0.8939875364303589 0.04698146507143974
0.832087516784668 0.6417708992958069 0.07874312251806259
0.7681610584259033 0.8164808750152588 0.031117791309952736
0.8125805854797363 0.46297746896743774 0.06767541915178299
0.5755643248558044 0.9327660799026489 -0.04546821117401123
0.4669050872325897 0.6529433727264404 -0.10206583887338638
0.5883700847625732 0.5923838019371033 -0.054619159549474716
0.7822219133377075 0.5075377225875854 0.030352504923939705
0.6449909806251526 0.48667263984680176 -0.01958964578807354
0.6248286366462708 0.4862300157546997 -0.019732937216758728
0.6179883480072021 0.7639930844306946 -0.03703444078564644
0.7896707653999329 0.6777486801147461 0.0033379127271473408
0.5211228728294373 0.9664257764816284 -0.035774920135736465
0.619815468788147 0.9428688287734985 -0.0013750893995165825
0.6677855253219604 0.9241895079612732 0.02062114328145981
0.6058028340339661 0.4853014647960663 -0.013986347243189812
0.5875185132026672 0.48411786556243896 -0.004813606385141611
0.5751930475234985 0.48401546478271484 0.004140540491789579
0.7707588076591492 0.46104052662849426 0.014116733334958553
0.5923136472702026 0.46704959869384766 -0.006520347204059362
0.6133816242218018 0.46106430888175964 -0.015951434150338173
0.6333035230636597 0.4612284302711487 -0.021412299945950508
0.6539095640182495 0.46681082248687744 -0.022124603390693665
0.667708158493042 0.4742633104324341 -0.018246471881866455
0.8505491018295288 0.45693111419677734 0.12829913198947906
0.6598382592201233 0.4868890047073364 -0.01604991778731346
0.5739052295684814 0.6887815594673157 -0.0749996155500412
0.532110869884491 0.6378046274185181 -0.09625536948442459
0.5090188384056091 0.6797555088996887 -0.08706138283014297
0.6708785891532898 0.8831531405448914 -0.00229860981926322
0.6248656511306763 0.9089338779449463 -0.02230309136211872
0.5196151733398438 0.9465488195419312 -0.060635972768068314
0.7734532356262207 0.8556541204452515 0.08237376064062119
0.5764151215553284 0.4766884446144104 0.0014663423644378781
0.5167428851127625 0.534583568572998 -0.0725865364074707
0.5713018774986267 0.9577073454856873 -0.02544454112648964
0.8244785070419312 0.7064714431762695 0.07049642503261566
0.5447822213172913 0.7750405073165894 -0.0551847442984581
0.5481714606285095 0.7806100845336914 -0.06202813237905502
0.5513373613357544 0.7901292443275452 -0.06802850216627121
0.5538651347160339 0.8020113110542297 -0.06617512553930283
0.5608089566230774 0.8387110233306885 -0.05512019619345665
0.6109470129013062 0.7385770082473755 -0.04447506368160248
0.6151160597801208 0.7367682456970215 -0.0461551696062088
0.6193913221359253 0.7347168326377869 -0.04823451489210129
0.6417545676231384 0.7238956689834595 -0.049867790192365646
0.7446864247322083 0.6836152672767639 -0.03591947630047798
0.5244758725166321 0.5103102326393127 -0.04677383229136467
0.5483145713806152 0.4578269422054291 0.0007430374389514327
0.5653285980224609 0.4636291265487671 0.003107965225353837
0.607310950756073 0.7397524118423462 -0.0419607013463974
0.753669261932373 0.7619726657867432 -0.0051952386274933815
0.5208109617233276 0.45438653230667114 -0.026198923587799072
0.5691972970962524 0.8687140941619873 -0.05135292559862137
0.4952659606933594 0.5193048715591431 -0.08187415450811386
0.5346904993057251 0.5758514404296875 -0.08276192098855972
0.5162832140922546 0.8837599754333496 -0.06063467636704445
0.64527827501297 0.805999755859375 -0.03111352026462555
0.6036407947540283 0.6486649513244629 -0.056862641125917435
0.6106445789337158 0.8424370288848877 -0.03937971591949463
0.6710330247879028 0.6494214534759521 -0.06389706581830978
0.6340042948722839 0.6769928336143494 -0.057579632848501205
0.7011968493461609 0.6977247595787048 -0.051897771656513214
0.5183563828468323 0.9178946018218994 -0.06699234992265701
0.5573413372039795 0.5915331840515137 -0.071592316031456
0.6634334921836853 0.8396238088607788 -0.02069118246436119
0.6197437047958374 0.8726509809494019 -0.03226390480995178
0.6731680631637573 0.7650901079177856 -0.0371219627559185
0.7849340438842773 0.7305352687835693 0.010162722319364548
0.7086783647537231 0.7848983407020569 -0.02413242869079113
0.8055983781814575 0.7659215331077576 0.05722827836871147
0.6645681858062744 0.70960533618927 -0.05270134285092354
0.5381660461425781 0.5538580417633057 -0.06285212934017181
0.5187546014785767 0.6279058456420898 -0.12613573670387268
0.5442277193069458 0.6346858739852905 -0.10337003320455551
0.5007656812667847 0.6068848967552185 -0.1390749216079712
0.5679047107696533 0.43266087770462036 -0.00968665350228548
0.6092057824134827 0.4179648160934448 -0.023903587833046913
0.646515429019928 0.41776108741760254 -0.03328118473291397
0.679273247718811 0.4271940588951111 -0.03350245952606201
0.7040601968765259 0.44401827454566956 -0.02568870224058628
0.7240550518035889 0.4935646653175354 0.002280086511746049
0.8340891599655151 0.5814701914787292 0.07990197092294693
0.6988089084625244 0.5233274698257446 -0.0162969883531332
0.6685419082641602 0.5264965891838074 -0.02371387742459774
0.6314144730567932 0.5242226123809814 -0.024526743218302727
0.5985252857208252 0.5181382894515991 -0.019160063937306404
0.5736069083213806 0.5105198621749878 -0.010564027354121208
0.5563179850578308 0.5019751787185669 -0.0067937797866761684
0.8604235649108887 0.5931971073150635 0.16791434586048126
0.5482520461082458 0.641420304775238 -0.09133438766002655
0.5098402500152588 0.5565316081047058 -0.09709642082452774
0.49257639050483704 0.6282327771186829 -0.1392730176448822
0.48238295316696167 0.6437339782714844 -0.12650147080421448
0.49714571237564087 0.6350505352020264 -0.12795665860176086
0.5443925857543945 0.6493029594421387 -0.08064774423837662
0.4745900630950928 0.6447364091873169 -0.13217045366764069
0.4767587184906006 0.651951253414154 -0.10351108014583588
0.5585175156593323 0.4823353588581085 0.006912791170179844
0.5432930588722229 0.48641979694366455 -0.0035674755927175283
0.5313407778739929 0.48977434635162354 -0.020053142681717873
0.6767207384109497 0.4800930619239807 -0.012987421825528145
0.7005929946899414 0.46842676401138306 -0.014590348117053509
0.39376336336135864 0.47198599576950073 0.07781883329153061
0.41677117347717285 0.4732997417449951 0.07781883329153061
0.39521491527557373 0.45029711723327637 0.07781883329153061
0.3706325888633728 0.4707683324813843 0.07781883329153061
0.39212507009506226 0.493307888507843 0.07781883329153061
0.6298264861106873 0.47462791204452515 -0.010949941352009773
0.6591901779174805 0.47647547721862793 -0.010949941352009773
0.6310740113258362 0.4507564902305603 -0.010949941352009773
0.6008719205856323 0.47257205843925476 -0.010949941352009773
0.628728449344635 0.4981398582458496 -0.010949941352009773
