ply
format ascii 1.0
element vertex 478
property float x
property float y
property float z
end_header
0.5106991529464722 0.7272000908851624 -0.06544283032417297
0.4627324342727661 0.6340965628623962 -0.13683542609214783
0.4724753797054291 0.6562673449516296 -0.07050888985395432
0.4520247280597687 0.5456326007843018 -0.10098198056221008
0.4625721871852875 0.6073923707008362 -0.1463533192873001
0.4670637845993042 0.5716923475265503 -0.1374252885580063
0.4819333553314209 0.4864598512649536 -0.07327116280794144
0.34199345111846924 0.4796881079673767 0.06463820487260818
0.4869970381259918 0.4325677156448364 -0.05834408849477768
0.48752662539482117 0.4017600119113922 -0.06452921032905579
0.4953879714012146 0.2801225185394287 -0.040435075759887695
0.5104472637176514 0.7344129681587219 -0.06123767048120499
0.5091457962989807 0.7412315011024475 -0.05278080701828003
0.5075367093086243 0.7456803321838379 -0.039740901440382004
0.5084695816040039 0.7451057434082031 -0.038053859025239944
0.5092077255249023 0.7542552351951599 -0.04079943522810936
0.5091100931167603 0.7647812366485596 -0.04716521129012108
0.5078166723251343 0.7756407856941223 -0.045164793729782104
0.47664570808410645 0.8099221587181091 -0.02343405969440937
0.4657059609889984 0.6467799544334412 -0.12323420494794846
0.4440678060054779 0.6442639827728271 -0.08421789854764938
0.2791491448879242 0.3946346640586853 0.19721481204032898
0.4009723365306854 0.49899405241012573 0.02768130600452423
0.3796994984149933 0.5013020634651184 0.03355351462960243
0.359414666891098 0.5008265972137451 0.04424401372671127
0.33366236090660095 0.4889141619205475 0.07040481269359589
0.41925203800201416 0.49328896403312683 0.024811353534460068
0.36622679233551025 0.43584010004997253 0.02170618437230587
0.39104539155960083 0.4375230669975281 0.01644643023610115
0.34423375129699707 0.44067490100860596 0.033845219761133194
0.3308272957801819 0.450069785118103 0.04705868288874626
0.31629839539527893 0.5054546594619751 0.08601583540439606
0.38901495933532715 0.8475017547607422 0.027780644595623016
0.3346291780471802 0.4740756154060364 0.07386448979377747
0.2650451958179474 0.49648404121398926 0.21244977414608002
0.29364538192749023 0.49137502908706665 0.11542032659053802
0.3663376569747925 0.6029597520828247 0.006911509670317173
0.4739862382411957 0.7220258712768555 -0.0563463531434536
0.47615164518356323 0.7394090294837952 -0.04292502626776695
0.43605008721351624 0.7252028584480286 -0.03392386436462402
0.4087372422218323 0.7298409342765808 -0.008575190789997578
0.44482800364494324 0.7382262945175171 -0.026446685194969177
0.41905999183654785 0.7380730509757996 -0.004220291972160339
0.3735697865486145 0.7572839856147766 0.037149835377931595
0.4417537450790405 0.6328637003898621 -0.13150155544281006
0.438639760017395 0.6071634888648987 -0.13962578773498535
0.30077213048934937 0.4337480664253235 0.057314660400152206
0.41850507259368896 0.5403976440429688 -0.007751417811959982
0.39471495151519775 0.6195018291473389 -0.05657515674829483
0.39653727412223816 0.6051560640335083 -0.04853955656290054
0.30495285987854004 0.5982486009597778 0.0536576509475708
0.4447591304779053 0.5741340517997742 -0.12457499653100967
0.34579306840896606 0.4062686562538147 -0.001656588981859386
0.31846630573272705 0.4161599576473236 0.025387795642018318
0.2918895184993744 0.35290616750717163 0.14003515243530273
0.4395044147968292 0.4233226180076599 -0.04097515344619751
0.4130825400352478 0.4464932680130005 0.0205459613353014
0.35543298721313477 0.7331393957138062 0.04712194576859474
0.288748174905777 0.7257823348045349 0.2845098376274109
0.41253989934921265 0.6346710920333862 -0.04985368251800537
0.4313657283782959 0.6431599259376526 -0.05832505598664284
0.3739999234676361 0.7387548685073853 0.04222729057073593
0.3813902735710144 0.7390382289886475 0.03275593742728233
0.30735355615615845 0.40305688977241516 0.04034765064716339
0.3955686688423157 0.6290261149406433 -0.04231429100036621
0.38512974977493286 0.40665432810783386 -0.02406657300889492
0.3800543546676636 0.3892367482185364 -0.029553785920143127
0.36555027961730957 0.29617297649383545 0.02036145143210888
0.2970591187477112 0.37752896547317505 0.08369617909193039
0.37320756912231445 0.34285083413124084 -0.006006776820868254
0.2893393933773041 0.425160676240921 0.08195216953754425
0.28189167380332947 0.4105580747127533 0.13625726103782654
0.47477036714553833 0.7316389679908752 -0.05210702121257782
0.4405754506587982 0.732164740562439 -0.030933355912566185
0.41390424966812134 0.7340683341026306 -0.008502134121954441
0.41848450899124146 0.6389026641845703 -0.047185420989990234
0.3777227997779846 0.738944947719574 0.036829035729169846
0.39376282691955566 0.7445765733718872 0.017873700708150864
0.38539719581604004 0.739159345626831 0.03116171434521675
0.42065805196762085 0.6298105120658875 -0.0872727558016777
0.423068106174469 0.7409093379974365 -1.4929532881069463e-05
0.44822973012924194 0.7421915531158447 -0.015803532674908638
0.47722411155700684 0.7441304922103882 -0.030313773080706596
0.44489791989326477 0.8070056438446045 -0.015977708622813225
0.47077447175979614 0.7734155058860779 -0.036666031926870346
0.4733366370201111 0.7626200914382935 -0.038053762167692184
0.47570663690567017 0.7520903944969177 -0.031055131927132607
0.4779340624809265 0.7437378168106079 -0.02847667597234249
0.4237273335456848 0.7411718368530273 0.001350250095129013
0.41895246505737305 0.7451233863830566 -0.0021961324382573366
0.41306138038635254 0.7504338026046753 -0.005351127125322819
0.4079442024230957 0.7562909722328186 4.23515439251787e-06
0.37706923484802246 0.6945100426673889 -0.0001882862125057727
0.2767355740070343 0.6037284731864929 0.3217519223690033
0.4689664840698242 0.6516707539558411 -0.08893921971321106
0.40409427881240845 0.7402517795562744 0.018794916570186615
0.3994291424751282 0.74226975440979 0.0168524868786335
0.4394892752170563 0.6533241868019104 -0.058634594082832336
0.40562373399734497 0.6433308124542236 -0.026119785383343697
0.43539655208587646 0.6484395265579224 -0.059478819370269775
0.3948080539703369 0.5543987154960632 0.006684897933155298
0.3568454384803772 0.5705189108848572 0.021127285435795784
0.39411699771881104 0.6153237819671631 -0.033091749995946884
0.3180938959121704 0.3191915452480316 0.07784414291381836
0.32554200291633606 0.3540552258491516 0.0376136340200901
0.3379126787185669 0.38977617025375366 0.004998494405299425
0.39171546697616577 0.7761273384094238 0.019440781325101852
0.4303686022758484 0.39369121193885803 -0.051576580852270126
0.42681825160980225 0.33914217352867126 -0.03576148301362991
0.42264068126678467 0.28423869609832764 -0.01976601779460907
0.3429896831512451 0.49690356850624084 0.05834359675645828
0.2951531410217285 0.5227496027946472 0.10565554350614548
0.4310365319252014 0.48743152618408203 0.026186469942331314
0.3119423985481262 0.4614127576351166 0.07313217967748642
0.43400922417640686 0.5246251821517944 -0.021054046228528023
0.40627598762512207 0.612910807132721 -0.08521639555692673
0.26677313446998596 0.5398129224777222 0.13993054628372192
0.3077213764190674 0.5381016135215759 0.08101391792297363
0.33336615562438965 0.5457251071929932 0.05218544602394104
0.37362274527549744 0.5409814119338989 0.03142961114645004
0.4037245810031891 0.5307857394218445 0.019334638491272926
0.4259048402309418 0.519517719745636 0.006497605703771114
0.4601556360721588 0.4926772117614746 -0.05770226940512657
0.2652469575405121 0.5897756218910217 0.1349927932024002
0.2958725094795227 0.46021878719329834 0.08842552453279495
0.45248180627822876 0.6454917192459106 -0.11926876753568649
0.4150961935520172 0.5657892823219299 -0.017378203570842743
0.27484244108200073 0.49549391865730286 0.29976901412010193
0.4420868456363678 0.5068137645721436 -0.0014434909680858254
0.395857572555542 0.6158807277679443 -0.006744265556335449
0.32562053203582764 0.47579425573349 0.08006931841373444
0.4093884229660034 0.5951724052429199 -0.07573125511407852
0.2792983949184418 0.6628919243812561 0.3098750412464142
0.43112075328826904 0.47950246930122375 0.03317629173398018
0.42625516653060913 0.5821723341941833 -0.10499776154756546
0.30632439255714417 0.7854883074760437 0.14252516627311707
0.316765159368515 0.815802276134491 0.18780596554279327
0.25936001539230347 0.5982868075370789 0.2299676388502121
0.28677818179130554 0.750714898109436 0.1785181313753128
0.2737743854522705 0.44966238737106323 0.1818915456533432
0.3829241693019867 0.8760714530944824 0.04411153122782707
0.457869291305542 0.6504485607147217 -0.0856856182217598
0.3945694863796234 0.5834787487983704 -0.003660335671156645
0.2782830595970154 0.4963993728160858 0.14560408890247345
0.36135298013687134 0.48646581172943115 0.04605387896299362
0.3789116144180298 0.48794814944267273 0.036428000777959824
0.3880431354045868 0.7472021579742432 0.023554828017950058
0.26779428124427795 0.6396549940109253 0.14422599971294403
0.42563045024871826 0.9163221120834351 0.042909637093544006
0.3631204664707184 0.8774752616882324 0.10863480716943741
0.34047383069992065 0.8517016172409058 0.1441308856010437
0.4910695552825928 0.3385208249092102 -0.05353660136461258
0.4785116910934448 0.9242566823959351 0.025728600099682808
0.3968445062637329 0.4864110052585602 0.031178779900074005
0.41408634185791016 0.4830746054649353 0.03112071380019188
0.425495982170105 0.4812735319137573 0.03391479328274727
0.2825942039489746 0.4572339653968811 0.11743412166833878
0.41050997376441956 0.46481645107269287 0.027683427557349205
0.3915040194988251 0.4592799246311188 0.025845210999250412
0.3730849623680115 0.458442747592926 0.030741028487682343
0.355310320854187 0.4619517922401428 0.04053911939263344
0.3448203206062317 0.4670732915401459 0.051291435956954956
0.2740972936153412 0.43934065103530884 0.25477251410484314
0.34988611936569214 0.48327237367630005 0.05623825266957283
0.4738715589046478 0.6768505573272705 -0.0632278174161911
0.3972945213317871 0.6814085245132446 -0.02144673652946949
0.41141870617866516 0.6314008235931396 -0.06055537238717079
0.4388645887374878 0.6765878200531006 -0.05470091477036476
0.4865121841430664 0.45849093794822693 -0.055588576942682266
0.33046430349349976 0.8203793168067932 0.11166607588529587
0.35549038648605347 0.8485177159309387 0.07944730669260025
0.422585129737854 0.8957018852233887 0.010746557265520096
0.3016861081123352 0.7770111560821533 0.23913247883319855
0.42440366744995117 0.47344499826431274 0.03077130764722824
0.4416683316230774 0.5329775214195251 -0.05992406979203224
0.4755675196647644 0.9031141996383667 -0.005149620119482279
0.3895670771598816 0.9000029563903809 0.0716533437371254
0.2638462781906128 0.6526083946228027 0.22628596425056458
0.44891369342803955 0.7421881556510925 -0.014172442257404327
0.4445408880710602 0.7487436532974243 -0.017341013997793198
0.44019103050231934 0.7569856643676758 -0.02147042751312256
0.4367259740829468 0.7665678262710571 -0.018252933397889137
0.4142254590988159 0.7937594056129456 0.00012072098616044968
0.39835113286972046 0.738326907157898 0.015592877753078938
0.39269694685935974 0.7363484501838684 0.017207248136401176
0.38777756690979004 0.7340739369392395 0.018117452040314674
0.36199772357940674 0.712087094783783 0.025179581716656685
0.2886584997177124 0.6523188352584839 0.08642563968896866
0.4476567506790161 0.5070434212684631 -0.03759259358048439
0.4444928765296936 0.4610789120197296 0.00843693595379591
0.4325982332229614 0.4644095003604889 0.022965801879763603
0.4040432572364807 0.7400004267692566 0.017841406166553497
0.2881801426410675 0.7135551571846008 0.12775757908821106
0.46019983291625977 0.4598795175552368 -0.030465811491012573
0.40249085426330566 0.8192681074142456 0.014654209837317467
0.4723719358444214 0.541955292224884 -0.11485598236322403
0.4555407166481018 0.5199990272521973 -0.0825255736708641
0.4770950675010681 0.5146941542625427 -0.09308354556560516
0.42270368337631226 0.5725197196006775 -0.05477352440357208
0.4745588004589081 0.873444676399231 -0.020156605169177055
0.4757494628429413 0.8390378355979919 -0.021265462040901184
0.4368146061897278 0.8349196910858154 -0.008794083259999752
0.3528476059436798 0.7689234614372253 0.054577313363552094
0.37767744064331055 0.635890007019043 0.003717629238963127
0.37570297718048096 0.7974105477333069 0.03596960008144379
0.33014315366744995 0.6315663456916809 0.024900365620851517
0.3576122522354126 0.6610147356987 0.014961419627070427
0.3119308352470398 0.6714008450508118 0.05288609489798546
0.4265768527984619 0.867340624332428 -0.003839182434603572
0.4105778932571411 0.5855994820594788 -0.032678961753845215
0.33454012870788574 0.7898191809654236 0.08157079666852951
0.3618064522743225 0.8203346729278564 0.05776754766702652
0.33429378271102905 0.7367569804191589 0.06166009604930878
0.2731640040874481 0.6828328371047974 0.1530507355928421
0.30969446897506714 0.7411637902259827 0.09034284204244614
0.2720867991447449 0.7036711573600769 0.21538086235523224
0.3406658172607422 0.6924006938934326 0.034183137118816376
0.42926034331321716 0.5490699410438538 -0.0371008925139904
0.41264858841896057 0.6251974105834961 -0.09171668440103531
0.40104588866233826 0.6286991834640503 -0.06154462322592735
0.420479953289032 0.6093321442604065 -0.11353471875190735
0.4259292185306549 0.44009894132614136 0.0038640445563942194
0.38912180066108704 0.4262372851371765 0.0038880757056176662
0.3577609658241272 0.42495837807655334 0.011268346570432186
0.3331851661205292 0.43127843737602234 0.027485553175210953
0.3177901804447174 0.4429032504558563 0.04777822270989418
0.3118746280670166 0.4830636978149414 0.09263929724693298
0.2593124806880951 0.5467864274978638 0.2240699678659439
0.32725393772125244 0.5144639015197754 0.07170076668262482
0.34809255599975586 0.5206568837165833 0.05142033472657204
0.37626343965530396 0.5196609497070312 0.03532477468252182
0.4031364321708679 0.5136524438858032 0.025907354429364204
0.4240758419036865 0.5056430101394653 0.018574183806777
0.4381997287273407 0.4979001581668854 0.014051591977477074
0.27727261185646057 0.5494175553321838 0.32027265429496765
0.4030817747116089 0.6340897083282471 -0.04888463392853737
0.43603551387786865 0.5567910671234131 -0.07859062403440475
0.4260709285736084 0.628351092338562 -0.11579052358865738
0.44109857082366943 0.6406623721122742 -0.10768503695726395
0.4285001754760742 0.6320455074310303 -0.10289321094751358
0.4107896089553833 0.6410349607467651 -0.04187124967575073
0.4449525773525238 0.6434761881828308 -0.11510825902223587
0.4497252106666565 0.6482787728309631 -0.0848991870880127
0.43839412927627563 0.48004552721977234 0.0264517143368721
0.44867587089538574 0.4848901033401489 0.007440880406647921
0.4537132978439331 0.48859700560569763 -0.0134449303150177
0.33899790048599243 0.4709160327911377 0.06119532138109207
0.3233325481414795 0.461187481880188 0.06390736997127533
0.49572324752807617 0.5456109046936035 -0.11058159917593002
0.6757113933563232 0.48305585980415344 -0.004281108267605305
0.4986792802810669 0.6450095772743225 -0.09164775907993317
0.8024448156356812 0.38790035247802734 0.09093433618545532
0.6058801412582397 0.5018046498298645 -0.01682494767010212
0.6292293071746826 0.5037577748298645 -0.01990363374352455
0.6536809206008911 0.5035192966461182 -0.01758948341012001
0.6898945569992065 0.49186524748802185 -0.002774997381493449
0.5864865779876709 0.4968792200088501 -0.010303075425326824
0.6381399631500244 0.43452006578445435 -0.03410720080137253
0.6117885708808899 0.4363311529159546 -0.027710292488336563
0.6640503406524658 0.4397696256637573 -0.03068382292985916
0.6825977563858032 0.45026063919067383 -0.022779017686843872
0.7139129042625427 0.5081305503845215 0.007047343533486128
0.583690881729126 0.856020450592041 -0.004775194451212883
0.6869040727615356 0.477189302444458 0.0015737891662865877
0.8158525228500366 0.4967741370201111 0.10440419614315033
0.7493935823440552 0.4927590489387512 0.02647228352725506
0.6213037967681885 0.6051076650619507 -0.03845394030213356
0.5450636744499207 0.7234845161437988 -0.06880591809749603
0.5387982726097107 0.7402945756912231 -0.05444559454917908
0.5756732821464539 0.7271342277526855 -0.05959172546863556
0.5956963896751404 0.7321726083755493 -0.04356716573238373
0.563797652721405 0.7395395040512085 -0.049004681408405304
0.5833902955055237 0.7397428750991821 -0.03400168567895889
0.6127516031265259 0.7640915513038635 -0.0071189021691679955
0.4865022897720337 0.6334764957427979 -0.13762955367565155
0.48957550525665283 0.6075090169906616 -0.14703457057476044
0.7173844575881958 0.4331706166267395 -0.026152029633522034
0.5686673521995544 0.5402365326881409 -0.03739253431558609
0.565506637096405 0.6213471293449402 -0.0847863256931305
0.5692670345306396 0.6066126227378845 -0.07768242061138153
0.7047614455223083 0.6018641591072083 -0.02140568196773529
0.4921976625919342 0.5741754174232483 -0.1340526044368744
0.6460644006729126 0.40260565280914307 -0.058816276490688324
0.6855647563934326 0.41370677947998047 -0.04656302183866501
0.7684658765792847 0.34431686997413635 0.044784173369407654
0.5374038219451904 0.4220743775367737 -0.059526145458221436
0.5897750854492188 0.44636136293411255 -0.015429274179041386
0.6359546780586243 0.7402280569076538 -0.005864808335900307
0.8051595687866211 0.7373848557472229 0.18560726940631866
0.5461060404777527 0.6364107728004456 -0.0705602690577507
0.522628664970398 0.6443069577217102 -0.0686856135725975
0.6187230348587036 0.7422152757644653 -0.004051396157592535
0.6123345494270325 0.7418844699859619 -0.008265598677098751
0.7023866772651672 0.3992444574832916 -0.036570243537425995
0.5698636770248413 0.6313809156417847 -0.0698685571551323
0.5974960327148438 0.4030308723449707 -0.0631636306643486
0.6000581383705139 0.38398802280426025 -0.0698808804154396
0.6491579413414001 0.28878164291381836 -0.03380826115608215
0.7414307594299316 0.3706927001476288 -0.001289141015149653
0.6270631551742554 0.3366692066192627 -0.05261797830462456
0.73905348777771 0.4231715798377991 -0.007354883477091789
0.7755234241485596 0.40580427646636963 0.03935176506638527
0.5428164601325989 0.732886791229248 -0.06454133987426758
0.5700055956840515 0.73397296667099 -0.055233150720596313
0.5897704362869263 0.7361414432525635 -0.040708232671022415
0.5402517318725586 0.6406822800636292 -0.06394951045513153
0.6154623627662659 0.7421057224273682 -0.006181931123137474
0.6038718819618225 0.7471198439598083 -0.018820781260728836
0.6088223457336426 0.74174565076828 -0.00869413185864687
0.5258685350418091 0.6308087706565857 -0.10643557459115982
0.5773842334747314 0.7423844933509827 -0.028300965204834938
0.557877779006958 0.7434303760528564 -0.0369555801153183
0.5346899032592773 0.7448408007621765 -0.04220261052250862
0.5145308971405029 0.809615969657898 -0.02719796448945999
0.5418508052825928 0.7743799686431885 -0.04915301129221916
0.541465163230896 0.7634706497192383 -0.05113319307565689
0.5390725135803223 0.7528523802757263 -0.04403633996844292
0.5352542400360107 0.7443897128105164 -0.04078114777803421
0.5773595571517944 0.7424015998840332 -0.02696494571864605
0.5834851861000061 0.7469513416290283 -0.03065471537411213
0.5894467830657959 0.7526137232780457 -0.03479932248592377
0.5939207077026367 0.7589261531829834 -0.03142498806118965
0.599466860294342 0.698819637298584 -0.04007570445537567
0.8359132409095764 0.6089316606521606 0.21179741621017456
0.5923075675964355 0.7419952154159546 -0.016434790566563606
0.598220705986023 0.7444828748703003 -0.018639909103512764
0.5122131705284119 0.6544937491416931 -0.06896097958087921
0.5620211958885193 0.6461391448974609 -0.04795512557029724
0.5172334313392639 0.6496148109436035 -0.06948810815811157
0.5967462658882141 0.5547593235969543 -0.032758679240942
0.6396268010139465 0.5720314979553223 -0.03235800564289093
0.5763247013092041 0.6173803210258484 -0.06304393708705902
0.7197964191436768 0.3100458085536957 0.0002569462521933019
0.6940677165985107 0.3465859591960907 -0.030614659190177917
0.6556621193885803 0.384529173374176 -0.05589934065937996
0.5863589644432068 0.7821927666664124 -0.016864512115716934
0.541642427444458 0.3900091350078583 -0.07168109714984894
0.5619145631790161 0.3359606862068176 -0.059804461896419525
0.5767906308174133 0.28004440665245056 -0.046885788440704346
0.676016628742218 0.5001239776611328 -0.010608124546706676
0.7447807788848877 0.5256526470184326 0.017605876550078392
0.5735906958580017 0.49198117852211 -0.005031933076679707
0.7121707201004028 0.46287837624549866 -0.007015653885900974
0.5487825870513916 0.524189293384552 -0.04479306936264038
0.5430958271026611 0.6140454411506653 -0.1079750508069992
0.7831543684005737 0.5421690344810486 0.04032587632536888
0.7205034494400024 0.5413626432418823 -0.0016919287154451013
0.6820274591445923 0.5484793782234192 -0.018447453156113625
0.6325156092643738 0.5438474416732788 -0.022369150072336197
0.598537027835846 0.5337831974029541 -0.021656444296240807
0.5730199217796326 0.5230544209480286 -0.024196011945605278
0.50826096534729 0.4921943247318268 -0.06763608008623123
0.7783670425415039 0.5947250127792358 0.03589581698179245
0.7365754842758179 0.46049487590789795 0.0002837246283888817
0.4805788993835449 0.6460208892822266 -0.12419893592596054
0.564785897731781 0.5660349726676941 -0.04602791368961334
0.8352630734443665 0.4945950508117676 0.186079740524292
0.5523297190666199 0.5108060240745544 -0.025312118232250214
0.5814540982246399 0.6180371642112732 -0.03650527074933052
0.6998534798622131 0.4783462882041931 0.004257936961948872
0.5470629930496216 0.5960575342178345 -0.0988532081246376
0.8272019624710083 0.6716213822364807 0.204870343208313
0.5758115649223328 0.4846576452255249 0.0008426291169598699
0.5192757248878479 0.582619845867157 -0.12175648659467697
0.7238904237747192 0.7987692356109619 0.06876397877931595
0.7308374047279358 0.830947995185852 0.11281894147396088
0.8179300427436829 0.6041802167892456 0.1219593808054924
0.7627646923065186 0.7629570364952087 0.09159040451049805
0.7967160940170288 0.4470975697040558 0.07849454134702682
0.5918230414390564 0.8863785266876221 0.008864189498126507
0.4808599650859833 0.6506803631782532 -0.08868904411792755
0.5899521708488464 0.5846247673034668 -0.038936641067266464
0.7797755599021912 0.49717286229133606 0.047730062156915665
0.648544430732727 0.4895913600921631 -0.0144580639898777
0.6278473138809204 0.4905374050140381 -0.017117124050855637
0.6086999177932739 0.7501733303070068 -0.01573088951408863
0.776319146156311 0.6469598412513733 0.0485181100666523
0.5387715697288513 0.9229139089584351 0.02326570451259613
0.6370789408683777 0.8905931711196899 0.059528905898332596
0.6813045740127563 0.866511344909668 0.08287128806114197
0.6092047691345215 0.4891197979450226 -0.014428929425776005
0.5921446681022644 0.4865230321884155 -0.007836705073714256
0.5811892747879028 0.48577219247817993 -0.0009480438893660903
0.7633500695228577 0.45558804273605347 0.02239147759974003
0.5974441170692444 0.46589136123657227 -0.012163033708930016
0.6173081994056702 0.4580766260623932 -0.020572958514094353
0.6369985938072205 0.4568372368812561 -0.023517949506640434
0.6574310660362244 0.4608435034751892 -0.02130410447716713
0.6708797812461853 0.4672100841999054 -0.015036504715681076
0.822932243347168 0.4352131485939026 0.14339002966880798
0.6637764573097229 0.4867376685142517 -0.009411264210939407
0.5708163976669312 0.6845650672912598 -0.05155863240361214
0.5441087484359741 0.6329855918884277 -0.0804351195693016
0.5141146183013916 0.6779789328575134 -0.06722113490104675
0.6812758445739746 0.833829939365387 0.05181528255343437
0.6388723254203796 0.8612622022628784 0.03193039819598198
0.536537766456604 0.9017277956008911 -0.0085098035633564
0.7706648111343384 0.7903280258178711 0.15043649077415466
0.5825477242469788 0.4775853157043457 -0.004813391715288162
0.5236488580703735 0.5327626466751099 -0.07589878886938095
0.5901634693145752 0.9105093479156494 0.0352528877556324
0.8105267286300659 0.661312997341156 0.12290686368942261
0.5582893490791321 0.7431936860084534 -0.03552678972482681
0.5641680955886841 0.7500288486480713 -0.03955958038568497
0.56858891248703 0.758516252040863 -0.04489452391862869
0.5712106823921204 0.7684775590896606 -0.04250188171863556
0.5539594888687134 0.7983602285385132 -0.026372963562607765
0.5995221138000488 0.7404749989509583 -0.021099621430039406
0.6052457690238953 0.7389568090438843 -0.022741001099348068
0.6102591156959534 0.736997663974762 -0.024252071976661682
0.62274169921875 0.717771053314209 -0.02419475093483925
0.7325047850608826 0.6588250398635864 0.005396448541432619
0.5280560851097107 0.5065551996231079 -0.05425439402461052
0.5516444444656372 0.4636688828468323 -0.012629733420908451
0.5706241130828857 0.4672287106513977 -0.007190515752881765
0.5929561257362366 0.7418506145477295 -0.017425134778022766
0.7429667115211487 0.7228931188583374 0.04610224440693855
0.5221931338310242 0.46255797147750854 -0.04291049763560295
0.57010817527771 0.8259828090667725 -0.014066163450479507
0.5021204352378845 0.5197951197624207 -0.09111109375953674
0.5424748063087463 0.5730483531951904 -0.07597201317548752
0.5222717523574829 0.8386982679367065 -0.022515729069709778
0.640852689743042 0.7775652408599854 0.004040601663291454
0.6039671301841736 0.6386458277702332 -0.03376561030745506
0.6087018251419067 0.8055879473686218 -0.003892058739438653
0.6650572419166565 0.6355855464935303 -0.033445730805397034
0.6286554336547852 0.6650347113609314 -0.032075539231300354
0.6924294233322144 0.6776706576347351 -0.014032574370503426
0.5307576656341553 0.8723183870315552 -0.021865956485271454
0.5629774928092957 0.5862618088722229 -0.05931177735328674
0.6677106022834778 0.8007773756980896 0.024552110582590103
0.6266671419143677 0.8307592272758484 0.013763774186372757
0.664332926273346 0.7450527548789978 0.0010216727387160063
0.7719104886054993 0.6917687654495239 0.0618501715362072
0.7035108804702759 0.7511645555496216 0.021199988201260567
0.7952280044555664 0.7143468260765076 0.1167123019695282
0.6527076363563538 0.6981489658355713 -0.021843144670128822
0.5438883304595947 0.5490999817848206 -0.05984903872013092
0.5335956811904907 0.6263558268547058 -0.11240337044000626
0.5562675595283508 0.6305689811706543 -0.08541776239871979
0.517208456993103 0.610233724117279 -0.1298789381980896
0.5677955746650696 0.44056975841522217 -0.024998754262924194
0.6049882173538208 0.4252680540084839 -0.03788652643561363
0.6394686102867126 0.42305248975753784 -0.04369139298796654
0.6707556843757629 0.42955002188682556 -0.039297040551900864
0.6956475973129272 0.44276198744773865 -0.02727232687175274
0.7207105755805969 0.48557817935943604 0.01166343130171299
0.8206510543823242 0.5496748685836792 0.11317484080791473
0.6963643431663513 0.517385721206665 -0.002893163589760661
0.6673324108123779 0.5230979919433594 -0.01336235087364912
0.632943868637085 0.52206951379776 -0.017905689775943756
0.6025487780570984 0.5164265632629395 -0.01613486371934414
0.5796402096748352 0.509242594242096 -0.013154389336705208
0.5629416704177856 0.5020294189453125 -0.011909253895282745
0.8374084234237671 0.5511422753334045 0.2068358063697815
0.5581461191177368 0.636241614818573 -0.07221462577581406
0.5190627574920654 0.5569075345993042 -0.09512626379728317
0.5095667243003845 0.6295934915542603 -0.1287546157836914
0.49804311990737915 0.6419658660888672 -0.11519402265548706
0.5126079320907593 0.6335064172744751 -0.11623873561620712
0.5519510507583618 0.643277108669281 -0.06140453740954399
0.49057796597480774 0.6443820595741272 -0.12124178558588028
0.49106311798095703 0.6488713622093201 -0.0900861918926239
0.5654308199882507 0.48475080728530884 -0.000579296494834125
0.5492936968803406 0.488823801279068 -0.01298795361071825
0.5362686514854431 0.4923698604106903 -0.030246201902627945
0.6794174313545227 0.47253483533859253 -0.008077127858996391
0.6963640451431274 0.46290987730026245 -0.009822312742471695
0.3805074989795685 0.47160524129867554 0.04216751456260681
0.40394800901412964 0.471310555934906 0.04216751456260681
0.3794962763786316 0.4529215693473816 0.04216751456260681
0.3568483591079712 0.471893846988678 0.04216751456260681
0.38119977712631226 0.49023985862731934 0.04216751456260681
0.6348434686660767 0.47447365522384644 -0.01072186790406704
0.6589551568031311 0.4748602509498596 -0.01072186790406704
0.6346576809883118 0.4537806510925293 -0.01072186790406704
0.6116753816604614 0.4741783142089844 -0.01072186790406704
0.6355488300323486 0.49514052271842957 -0.01072186790406704
