ply
format ascii 1.0
element vertex 478
property float x
property float y
property float z
end_header
0.5192155838012695 0.7393534183502197 -0.03534352779388428
0.5541417598724365 0.6921947002410889 -0.13010314106941223
0.5357497930526733 0.7032787799835205 -0.05946551635861397
0.523962140083313 0.5926375389099121 -0.12339352816343307
0.55633145570755 0.6655260324478149 -0.1434391289949417
0.5526343584060669 0.6254386305809021 -0.14143021404743195
0.5364071130752563 0.5222746133804321 -0.1012362539768219
0.3334158658981323 0.48059403896331787 -0.044270388782024384
0.5317428708076477 0.457766056060791 -0.09957142919301987
0.5327625870704651 0.4238739013671875 -0.11293568462133408
0.5285489559173584 0.27235689759254456 -0.12331672012805939
0.5181771516799927 0.7456062436103821 -0.029381418600678444
0.5162580013275146 0.7506591081619263 -0.021141791716217995
0.5139495730400085 0.7533048987388611 -0.008035939186811447
0.5124155879020691 0.7930494546890259 0.008312848396599293
0.5134267807006836 0.8043634295463562 0.007971485145390034
0.5131839513778687 0.8182089328765869 0.004612619988620281
0.5115847587585449 0.8332660794258118 0.01029230933636427
0.5118743181228638 0.8602699637413025 0.03347593545913696
0.5492892861366272 0.7025368213653564 -0.11521919816732407
0.5127682089805603 0.6965314745903015 -0.08556349575519562
0.18886390328407288 0.36104121804237366 0.012561121955513954
0.4049236476421356 0.5011106729507446 -0.04850650206208229
0.380743145942688 0.5029900074005127 -0.052372682839632034
0.3545242249965668 0.5034142136573792 -0.051943738013505936
0.31821441650390625 0.4887835383415222 -0.041063711047172546
0.42477503418922424 0.4974094033241272 -0.042690422385931015
0.3684939444065094 0.4492507576942444 -0.07771420478820801
0.39599481225013733 0.451909601688385 -0.07044102996587753
0.3426209092140198 0.4514591693878174 -0.07440067082643509
0.32454678416252136 0.45776504278182983 -0.06610444188117981
0.28964877128601074 0.5049623847007751 -0.029178256168961525
0.40594416856765747 0.8933260440826416 0.05644132196903229
0.3213387727737427 0.4756302833557129 -0.04002870246767998
0.17956632375717163 0.48191124200820923 0.05624225735664368
0.2541249096393585 0.4872558116912842 -0.01632305420935154
0.3829590082168579 0.6277378797531128 -0.046041976660490036
0.47966787219047546 0.732706606388092 -0.04161662980914116
0.4769454598426819 0.7463449239730835 -0.024182453751564026
0.43765830993652344 0.7331891059875488 -0.03198320046067238
0.40617483854293823 0.732576310634613 -0.011722473427653313
0.441331148147583 0.7422270178794861 -0.018117239698767662
0.41218042373657227 0.738972008228302 -0.00010215733345830813
0.3652746081352234 0.7789109349250793 0.03963974490761757
0.5312296152114868 0.6912024021148682 -0.1319768726825714
0.5299621820449829 0.6643326878547668 -0.14512693881988525
0.2897844910621643 0.4427509307861328 -0.07978539913892746
0.4447716474533081 0.5645689964294434 -0.05683104321360588
0.44646480679512024 0.6609113812446594 -0.08610551804304123
0.44336044788360596 0.6424049735069275 -0.08161847293376923
0.2936658263206482 0.6132261157035828 -0.03484497219324112
0.5281273126602173 0.6266637444496155 -0.13956041634082794
0.36587536334991455 0.4304494261741638 -0.11249689757823944
0.3234464228153229 0.43192970752716064 -0.10177645832300186
0.230831116437912 0.32163551449775696 -0.03935256972908974
0.47911325097084045 0.46071475744247437 -0.10461049526929855
0.41926515102386475 0.4594409763813019 -0.056139614433050156
0.3425191640853882 0.7474597692489624 0.030673323199152946
0.18939810991287231 0.7281296849250793 0.19001704454421997
0.4637618362903595 0.67856764793396 -0.06917116045951843
0.486807644367218 0.6873835325241089 -0.06327196955680847
0.3603697419166565 0.7317253351211548 0.035609420388936996
0.3671957850456238 0.7345073819160461 0.03319879621267319
0.30951017141342163 0.4143597483634949 -0.09704184532165527
0.43968406319618225 0.6653023362159729 -0.06936828792095184
0.41779881715774536 0.4396289587020874 -0.11386063694953918
0.41636568307876587 0.4188474416732788 -0.12538841366767883
0.3675490915775299 0.2758438289165497 -0.12004462629556656
0.2661673426628113 0.3646772503852844 -0.07187218964099884
0.3926748037338257 0.3393499553203583 -0.12362496554851532
0.2706807851791382 0.42715394496917725 -0.06603283435106277
0.22533316910266876 0.39529067277908325 -0.027971358969807625
0.4779844284057617 0.7404378652572632 -0.0349479578435421
0.43948450684547424 0.7380383610725403 -0.024811675772070885
0.4092214107513428 0.7359104156494141 -0.0070917378179728985
0.46813181042671204 0.6813105344772339 -0.061573054641485214
0.363935261964798 0.7331112623214722 0.03445294499397278
0.38432589173316956 0.7561143636703491 0.0289971474558115
0.37028002738952637 0.7359054684638977 0.033058106899261475
0.4885261654853821 0.6826611757278442 -0.10534252971410751
0.4145229458808899 0.7409352660179138 0.005836744327098131
0.44312533736228943 0.7447106242179871 -0.0055983345955610275
0.4764784872531891 0.749521017074585 -0.011751473881304264
0.46955928206443787 0.8565614223480225 0.02856859192252159
0.47202661633491516 0.8283967971801758 0.004848808515816927
0.4740047752857208 0.813475489616394 -0.00046892929822206497
0.47573328018188477 0.7998456954956055 0.003412633901461959
0.4771880805492401 0.7896976470947266 0.004116295836865902
0.4160311818122864 0.7686082720756531 0.01755799725651741
0.41278597712516785 0.7718167304992676 0.01651618257164955
0.40809160470962524 0.7780210971832275 0.015538344159722328
0.40443184971809387 0.7858719229698181 0.02042267471551895
0.3886456787586212 0.7186568975448608 -0.015653379261493683
0.15630480647087097 0.5867959856987 0.18127812445163727
0.543531596660614 0.7047770619392395 -0.08039196580648422
0.3943585157394409 0.7552919387817383 0.02777634933590889
0.3895411193370819 0.7549834847450256 0.02788614109158516
0.49587514996528625 0.6970855593681335 -0.058842338621616364
0.44327032566070557 0.6760496497154236 -0.04319881275296211
0.49172890186309814 0.6925290822982788 -0.062407221645116806
0.4152706563472748 0.5748710036277771 -0.05047290027141571
0.36767736077308655 0.5885515809059143 -0.04956718906760216
0.43409252166748047 0.6489027142524719 -0.06543438136577606
0.28867360949516296 0.29209986329078674 -0.08509568125009537
0.3203078508377075 0.34501510858535767 -0.10225944221019745
0.35913562774658203 0.4092654585838318 -0.11557810753583908
0.39265018701553345 0.8105248212814331 0.03542105853557587
0.4767351448535919 0.4304502606391907 -0.12267867475748062
0.4601175785064697 0.3412013649940491 -0.12819665670394897
0.4445326030254364 0.2701199948787689 -0.13155370950698853
0.3313530385494232 0.49823397397994995 -0.0471007376909256
0.25451135635375977 0.5216332077980042 -0.016476232558488846
0.43719571828842163 0.49368202686309814 -0.03906837850809097
0.29442185163497925 0.4651830196380615 -0.05218420922756195
0.4663879871368408 0.5524275302886963 -0.06616901606321335
0.4720403254032135 0.6615229249000549 -0.10958916693925858
0.21790868043899536 0.5402073264122009 0.008594394661486149
0.277590274810791 0.5413868427276611 -0.029802026227116585
0.31549105048179626 0.5539370775222778 -0.0419735386967659
0.36887985467910767 0.5511226654052734 -0.04465505853295326
0.40660351514816284 0.5412888526916504 -0.04407215863466263
0.4335867464542389 0.5323942303657532 -0.0483008474111557
0.5101291537284851 0.5269286632537842 -0.09599211812019348
0.21913067996501923 0.5949795842170715 0.016328714787960052
0.26947081089019775 0.4611504077911377 -0.048950403928756714
0.533921480178833 0.7017408609390259 -0.11685967445373535
0.4468576908111572 0.5946158170700073 -0.05957042798399925
0.15203505754470825 0.4647481441497803 0.12794718146324158
0.4558483362197876 0.5235586166381836 -0.05207350105047226
0.4267537593841553 0.6444284915924072 -0.03891736641526222
0.3085923194885254 0.47605618834495544 -0.0374196358025074
0.4682909846305847 0.6384016275405884 -0.10397899150848389
0.16652479767799377 0.6548984050750732 0.190608948469162
0.43382394313812256 0.485609769821167 -0.03646298497915268
0.4989900588989258 0.6310198307037354 -0.1272948682308197
0.2701158821582794 0.8128840327262878 0.10443034023046494
0.26385658979415894 0.8416265249252319 0.14857523143291473
0.17645981907844543 0.5959968566894531 0.09826968610286713
0.23036977648735046 0.7707111835479736 0.11310791969299316
0.19967752695083618 0.43316519260406494 0.018910007551312447
0.40004557371139526 0.923978328704834 0.074075847864151
0.5313678979873657 0.7034415006637573 -0.08069668710231781
0.4190206527709961 0.608540952205658 -0.04964763671159744
0.22273118793964386 0.48834484815597534 0.003121661953628063
0.36157578229904175 0.4868115484714508 -0.05139489471912384
0.38315844535827637 0.48768699169158936 -0.05270976573228836
0.37975987792015076 0.7582556009292603 0.031783923506736755
0.2170581817626953 0.6498420238494873 0.04133041948080063
0.4495052099227905 0.9642357230186462 0.09580016881227493
0.3567996621131897 0.917762041091919 0.11721866577863693
0.3139130771160126 0.8859759569168091 0.13133621215820312
0.5315278172492981 0.3448355495929718 -0.11938566714525223
0.5055400133132935 0.9678730964660645 0.10247857868671417
0.40169376134872437 0.4862154722213745 -0.04978935793042183
0.4194226562976837 0.4843822419643402 -0.04369101673364639
0.4298638701438904 0.4848201870918274 -0.037979986518621445
0.24434660375118256 0.45078909397125244 -0.0306453388184309
0.4131637215614319 0.4720098674297333 -0.05207507312297821
0.39240095019340515 0.46732059121131897 -0.0618736632168293
0.37122565507888794 0.46708154678344727 -0.06562401354312897
0.3503077030181885 0.46930211782455444 -0.06345291435718536
0.33671706914901733 0.4721387028694153 -0.0567588284611702
0.16385436058044434 0.4058302044868469 0.07304161787033081
0.34581220149993896 0.48413896560668945 -0.048178780823946
0.5299387574195862 0.716201663017273 -0.04578394815325737
0.4255512058734894 0.7108334898948669 -0.03365500271320343
0.4671920835971832 0.678409218788147 -0.08048806339502335
0.48708298802375793 0.714232861995697 -0.049953609704971313
0.5313386917114258 0.4859272837638855 -0.09151692688465118
0.3139527142047882 0.8545173406600952 0.10082268714904785
0.35512834787368774 0.8896429538726807 0.08990227431058884
0.45251354575157166 0.9456386566162109 0.06325912475585938
0.22387751936912537 0.7913824319839478 0.17008648812770844
0.427225798368454 0.4802013635635376 -0.04352584108710289
0.4937300682067871 0.5710849761962891 -0.09436246752738953
0.5091592669487 0.9500058889389038 0.07049928605556488
0.40116026997566223 0.9459444284439087 0.10150407999753952
0.18270626664161682 0.6569811105728149 0.11295261234045029
0.44505345821380615 0.7808679342269897 0.008697266690433025
0.4416719079017639 0.7878621220588684 0.007697402499616146
0.4385017156600952 0.7984180450439453 0.005965366959571838
0.4364449083805084 0.8117719292640686 0.011174753308296204
0.4265955686569214 0.8381080031394958 0.028635207563638687
0.38612794876098633 0.7361254692077637 0.016152912750840187
0.3828229308128357 0.7337590456008911 0.014287334866821766
0.37979626655578613 0.731359601020813 0.011613596230745316
0.35849982500076294 0.7297571301460266 0.00559178926050663
0.2591044306755066 0.6695156097412109 0.0040017408318817616
0.4889908730983734 0.5384860038757324 -0.07954846322536469
0.461184024810791 0.47807949781417847 -0.05172564461827278
0.4396461546421051 0.4752774238586426 -0.04666559398174286
0.38982418179512024 0.7380669116973877 0.02013126201927662
0.24654577672481537 0.7331482768058777 0.06064910814166069
0.4916272759437561 0.4860554337501526 -0.08044449985027313
0.41506701707839966 0.8626760244369507 0.043514419347047806
0.5470357537269592 0.5902627110481262 -0.12666277587413788
0.517162561416626 0.5615130662918091 -0.11193995922803879
0.5417913198471069 0.5575798749923706 -0.11339952051639557
0.4715573489665985 0.6105536222457886 -0.08685114234685898
0.5110760927200317 0.9217324256896973 0.05166742205619812
0.5111205577850342 0.8878408670425415 0.04330071434378624
0.46353572607040405 0.8838709592819214 0.04033580794930458
0.34588533639907837 0.7938479781150818 0.04977976530790329
0.39969348907470703 0.662222683429718 -0.03185271471738815
0.37691035866737366 0.8313367366790771 0.04966166615486145
0.3315560817718506 0.655949056148529 -0.03544620797038078
0.36740320920944214 0.6864482760429382 -0.021807748824357986
0.2993009686470032 0.6938908696174622 -0.005808730144053698
0.4573190212249756 0.9170908331871033 0.046433426439762115
0.4489087164402008 0.6182194948196411 -0.06792529672384262
0.3246052861213684 0.8205661773681641 0.07041755318641663
0.3642417788505554 0.8587315082550049 0.06913846731185913
0.3221314549446106 0.755673348903656 0.03391939029097557
0.21951431035995483 0.696677029132843 0.06568104773759842
0.28590160608291626 0.7651840448379517 0.0495566725730896
0.19851025938987732 0.7148491740226746 0.12202085554599762
0.3356367349624634 0.7113965749740601 -0.0036751669831573963
0.47058212757110596 0.5827818512916565 -0.07551498711109161
0.4811805784702301 0.6775844097137451 -0.11229847371578217
0.4549602270126343 0.6731811761856079 -0.08469151705503464
0.5010507106781006 0.6637935638427734 -0.13058103621006012
0.4447678327560425 0.46279218792915344 -0.06784176081418991
0.4061625897884369 0.4494100511074066 -0.08407546579837799
0.37007924914360046 0.4434802532196045 -0.09034058451652527
0.33713966608047485 0.44444739818573 -0.0860319659113884
0.3115198612213135 0.4516976475715637 -0.07395365834236145
0.28503239154815674 0.48231130838394165 -0.0304204523563385
0.17473113536834717 0.5382847785949707 0.07750418782234192
0.3067041337490082 0.5165712237358093 -0.03543547913432121
0.33601829409599304 0.5258191823959351 -0.0429476834833622
0.37333112955093384 0.5252822637557983 -0.045151833444833755
0.4059588611125946 0.5196511745452881 -0.04278252646327019
0.4299381673336029 0.5136698484420776 -0.04143258556723595
0.447353720664978 0.5091045498847961 -0.041334159672260284
0.15294313430786133 0.5242115259170532 0.161063551902771
0.45121559500694275 0.6744620203971863 -0.07086462527513504
0.4985583424568176 0.6003513336181641 -0.10745415091514587
0.5072532892227173 0.685858428478241 -0.12566784024238586
0.5152187347412109 0.6962528228759766 -0.10933145880699158
0.5020043849945068 0.6878373622894287 -0.11337493360042572
0.45485109090805054 0.6787005662918091 -0.05806912109255791
0.5234711766242981 0.6997940540313721 -0.11429322510957718
0.520768940448761 0.7011098861694336 -0.0831066146492958
0.44448429346084595 0.4887884855270386 -0.03669558838009834
0.4618394672870636 0.4993012845516205 -0.04630638286471367
0.4740927517414093 0.5086492300033569 -0.06118842959403992
0.32814693450927734 0.47436535358428955 -0.049830809235572815
0.31150853633880615 0.4655941128730774 -0.052711259573698044
0.5650926828384399 0.5923802256584167 -0.11180713027715683
0.6650927066802979 0.48305225372314453 0.039078786969184875
0.5706766247749329 0.6953158974647522 -0.07658558338880539
0.734660267829895 0.37296462059020996 0.1397780179977417
0.6021952033042908 0.5044412016868591 0.005323807243257761
0.6238441467285156 0.5062596797943115 0.012242453172802925
0.645132839679718 0.5063077807426453 0.022794414311647415
0.6718131303787231 0.49056103825569153 0.04726483300328255
0.585076093673706 0.5007051229476929 -0.00047239649575203657
0.6437163352966309 0.4488808810710907 -0.009438468143343925
0.6179059743881226 0.4511699676513672 -0.01669296994805336
0.6653611660003662 0.451874315738678 0.004335759673267603
0.6774975061416626 0.45873206853866577 0.0187122393399477
0.6876887679100037 0.506323516368866 0.0655469298362732
0.5911623239517212 0.8843612670898438 0.096169114112854
0.6728800535202026 0.4763333201408386 0.04727954789996147
0.7366616129875183 0.48635441064834595 0.1840289682149887
0.7084246873855591 0.48748236894607544 0.0896691232919693
0.6399737000465393 0.6274705529212952 0.00953296571969986
0.551813006401062 0.7322611808776855 -0.026316458359360695
0.5462310314178467 0.7460325956344604 -0.009766260161995888
0.5772106051445007 0.7306253910064697 -0.0008196549606509507
0.5941629409790039 0.7296527624130249 0.031286340206861496
0.5689104795455933 0.7413747310638428 0.009755910374224186
0.5860170722007751 0.7381325960159302 0.03704623878002167
0.6160991787910461 0.7751734852790833 0.094797283411026
0.5735598206520081 0.6899234056472778 -0.12458404898643494
0.577416181564331 0.6636223196983337 -0.13632875680923462
0.70816570520401 0.4421241283416748 0.020939577370882034
0.5914227366447449 0.5643287897109985 -0.020758796483278275
0.6150106191635132 0.65859454870224 -0.05252533778548241
0.6121556162834167 0.6408579349517822 -0.04693819582462311
0.7012712955474854 0.6122941374778748 0.05582265928387642
0.5725922584533691 0.6262680888175964 -0.12820996344089508
0.667317271232605 0.4293208122253418 -0.04246940463781357
0.693468451499939 0.43190163373947144 -0.013969369232654572
0.723037838935852 0.3345627784729004 0.07515794783830643
0.5739163756370544 0.4548202455043793 -0.08147687464952469
0.5950078368186951 0.45941561460494995 -0.012709281407296658
0.636427104473114 0.7437523007392883 0.09683646261692047
0.6917446255683899 0.717869758605957 0.30769556760787964
0.5986941456794739 0.6762402653694153 -0.04401358962059021
0.5807774066925049 0.6872942447662354 -0.05053716152906418
0.6190217137336731 0.730042576789856 0.09371919184923172
0.6122817993164062 0.7334792613983154 0.08498586714267731
0.7035046815872192 0.41438084840774536 -0.003372741863131523
0.6131813526153564 0.6638182997703552 -0.03628801181912422
0.6283121705055237 0.4355970025062561 -0.06561614573001862
0.6342278718948364 0.4162307381629944 -0.07589749246835709
0.6575414538383484 0.2857220768928528 -0.05493611469864845
0.7162927389144897 0.37284690141677856 0.031050000339746475
0.6473886370658875 0.34643661975860596 -0.067024365067482
0.7178213596343994 0.4275326132774353 0.041294701397418976
0.7302254438400269 0.40235787630081177 0.08805300295352936
0.5496141910552979 0.7401294708251953 -0.019737763330340385
0.5732623338699341 0.7364788055419922 0.004729202017188072
0.5905247926712036 0.73378986120224 0.032632533460855484
0.5934290885925293 0.679659903049469 -0.041290126740932465
0.6156976222991943 0.731707751750946 0.08865431696176529
0.6023362874984741 0.755058765411377 0.0750688686966896
0.6090600490570068 0.7352308034896851 0.0835079550743103
0.592725932598114 0.6799274682998657 -0.08243310451507568
0.5815831422805786 0.7412496209144592 0.04122757166624069
0.5645342469215393 0.7447328567504883 0.020751670002937317
0.5422517657279968 0.749532163143158 0.0031607127748429775
0.5454803109169006 0.8546251654624939 0.0431944914162159
0.5436891317367554 0.8277082443237305 0.020744342356920242
0.5443980097770691 0.8126636147499084 0.01632840372622013
0.5429158210754395 0.7990125417709351 0.01978745497763157
0.5396292209625244 0.7889213562011719 0.019747557118535042
0.5790022611618042 0.7679665088653564 0.053358517587184906
0.5834642648696899 0.7711107730865479 0.05243898555636406
0.5882239937782288 0.777219295501709 0.05255424976348877
0.5909876227378845 0.7851197123527527 0.05967279151082039
0.6231516003608704 0.7169146537780762 0.03288572281599045
0.7145546674728394 0.5869922637939453 0.311576247215271
0.5918684601783752 0.7546616196632385 0.07226503640413284
0.5974822640419006 0.7540954351425171 0.07248073816299438
0.5702799558639526 0.6975086331367493 -0.04617411643266678
0.6049092411994934 0.6754252314567566 -0.01693694293498993
0.5757668018341064 0.6929253935813904 -0.05008518323302269
0.6121225357055664 0.5746974349021912 -0.002394924173131585
0.6494373083114624 0.588580310344696 0.015388941392302513
0.6133689880371094 0.6478905081748962 -0.0295900646597147
0.700465977191925 0.3048546314239502 0.00838945247232914
0.6904441714286804 0.3534587621688843 -0.019375644624233246
0.6753875017166138 0.4090694785118103 -0.04140319675207138
0.5982257723808289 0.8067119121551514 0.08089631050825119
0.5842717289924622 0.42566928267478943 -0.09803888201713562
0.5960687398910522 0.34523364901542664 -0.09893372654914856
0.6027228832244873 0.2758643329143524 -0.09881887584924698
0.6620897054672241 0.5006893873214722 0.03632789105176926
0.7076220512390137 0.5223380327224731 0.08835919946432114
0.5748889446258545 0.49699175357818604 -0.001508768298663199
0.6947508454322815 0.46504995226860046 0.044179726392030716
0.5782036781311035 0.5520731210708618 -0.03739265352487564
0.6059342622756958 0.6593109965324402 -0.08238182216882706
0.7354554533958435 0.5410008430480957 0.12661269307136536
0.6963893175125122 0.5428400039672852 0.06904447823762894
0.6722007989883423 0.5558816194534302 0.04269050061702728
0.6324690580368042 0.5534785389900208 0.020168961957097054
0.6030797958374023 0.5438363552093506 0.005286579020321369
0.5834811925888062 0.5351729393005371 -0.011031311005353928
0.5559216737747192 0.5270153880119324 -0.08394178003072739
0.7382717132568359 0.5935889482498169 0.1339360624551773
0.7094957828521729 0.461214154958725 0.05670583248138428
0.5619791746139526 0.7008670568466187 -0.11097285151481628
0.5952383279800415 0.5943664312362671 -0.024762827903032303
0.727936863899231 0.4722529649734497 0.26362842321395874
0.5692782402038574 0.5259208083152771 -0.023265015333890915
0.6114382147789001 0.6439179182052612 -0.003281245008111
0.6808242797851562 0.4768404960632324 0.0539301298558712
0.6023715734481812 0.6369320154190063 -0.07628794759511948
0.7073118090629578 0.6496329307556152 0.3151974380016327
0.5753572583198547 0.48819729685783386 0.002683794591575861
0.5880988240242004 0.6299774646759033 -0.10718511790037155
0.670669674873352 0.7992331981658936 0.19261737167835236
0.6568975448608398 0.826330304145813 0.23786227405071259
0.7389488816261292 0.5940499305725098 0.22555091977119446
0.695094108581543 0.7583984732627869 0.21642526984214783
0.7348014116287231 0.43968069553375244 0.1420392245054245
0.5933435559272766 0.9127286672592163 0.11633627116680145
0.555331826210022 0.7031599283218384 -0.07701479643583298
0.6128225326538086 0.608481764793396 -0.006734453607350588
0.7210021018981934 0.488460510969162 0.11940454691648483
0.6436854004859924 0.4912859797477722 0.02177070453763008
0.6245902180671692 0.4922947883605957 0.011993634514510632
0.6059844493865967 0.7572062015533447 0.0810752883553505
0.7338916063308716 0.6452394127845764 0.15547481179237366
0.5532596111297607 0.9575579166412354 0.12011069804430008
0.6102866530418396 0.9041104316711426 0.17595349252223969
0.6314173936843872 0.8704602718353271 0.20467570424079895
0.606141984462738 0.4904719293117523 0.005370167549699545
0.5892641544342041 0.48818010091781616 0.0033871782943606377
0.5792098045349121 0.4882102906703949 0.004250843543559313
0.7201788425445557 0.4517945647239685 0.08303730189800262
0.5956806540489197 0.4716729521751404 -0.003290217136964202
0.6156010627746582 0.46499204635620117 -0.004929738584905863
0.636155366897583 0.46378713846206665 0.0007616642978973687
0.6542650461196899 0.4665687084197998 0.011979552917182446
0.6642280220985413 0.47092151641845703 0.023820197209715843
0.7372243404388428 0.41602423787117004 0.20621244609355927
0.6563706994056702 0.48777344822883606 0.03136107698082924
0.6057744026184082 0.7100261449813843 0.003446182468906045
0.6003870964050293 0.6755674481391907 -0.05678338557481766
0.5664732456207275 0.7135058045387268 -0.034405555576086044
0.6424481868743896 0.8400883674621582 0.1729191541671753
0.6185199618339539 0.8760968446731567 0.14693434536457062
0.5568134784698486 0.938989520072937 0.08644963800907135
0.6749632358551025 0.7779654264450073 0.2759065628051758
0.5820901989936829 0.48179906606674194 -0.00016008070087991655
0.5728926062583923 0.5708252191543579 -0.07501677423715591
0.58629310131073 0.9350267648696899 0.14504128694534302
0.730804443359375 0.6509957909584045 0.23532262444496155
0.5614569783210754 0.7801645398139954 0.03575698658823967
0.5661119222640991 0.78706955909729 0.03564270958304405
0.5692823529243469 0.797590970993042 0.03527626395225525
0.5704144239425659 0.8113726377487183 0.04150857776403427
0.5762342810630798 0.834989607334137 0.06249526888132095
0.6005364656448364 0.735458493232727 0.06240547075867653
0.6047000288963318 0.7321323156356812 0.06448029726743698
0.6081799864768982 0.7292193174362183 0.0644521713256836
0.6347037553787231 0.727288007736206 0.06635603308677673
0.7138549089431763 0.665422260761261 0.10254856944084167
0.5666241645812988 0.5385280251502991 -0.059240590780973434
0.5650413036346436 0.47804826498031616 -0.025874674320220947
0.5753440856933594 0.4766729176044464 -0.010256902314722538
0.5955846905708313 0.7384923100471497 0.0647367611527443
0.7031846046447754 0.7245651483535767 0.159450963139534
0.5525414943695068 0.484870970249176 -0.06496462970972061
0.5826943516731262 0.8565409183502197 0.07926730811595917
0.5609794855117798 0.5613539814949036 -0.10164196044206619
0.5896602272987366 0.6099124550819397 -0.061465393751859665
0.5492047071456909 0.8803151845932007 0.0571032352745533
0.6300229430198669 0.7870581746101379 0.11234641820192337
0.6263562440872192 0.6616623401641846 0.013973826542496681
0.6074169874191284 0.8241749405860901 0.09907568991184235
0.6744813919067383 0.6541045904159546 0.03649657219648361
0.642997145652771 0.6850408911705017 0.03618643060326576
0.6872106790542603 0.6899572610855103 0.0766395702958107
0.5552618503570557 0.9118989109992981 0.06820452213287354
0.5992685556411743 0.617598295211792 -0.036049824208021164
0.6432927846908569 0.8095295429229736 0.14032910764217377
0.6163026690483093 0.8478860855102539 0.1228264644742012
0.6528866291046143 0.7501858472824097 0.10933967679738998
0.7223944664001465 0.6892203092575073 0.17521968483924866
0.6766303777694702 0.7561635375022888 0.13459166884422302
0.7159708738327026 0.7052916884422302 0.23894162476062775
0.6554011106491089 0.7092239856719971 0.06595461070537567
0.5834247469902039 0.5824238657951355 -0.04809043928980827
0.6004780530929565 0.6745766401290894 -0.08757292479276657
0.6096451282501221 0.6704099178314209 -0.05625220760703087
0.5937563180923462 0.6618387699127197 -0.11071596294641495
0.584135890007019 0.45999234914779663 -0.03247217461466789
0.6213454604148865 0.446582168340683 -0.032616037875413895
0.6534823179244995 0.4431021809577942 -0.023319238796830177
0.6776950359344482 0.4455668330192566 -0.004912824369966984
0.6913459300994873 0.4525288939476013 0.01675877720117569
0.6926130652427673 0.4824998676776886 0.06683933734893799
0.7397032976150513 0.5398109555244446 0.208425834774971
0.6772263646125793 0.5184996128082275 0.05396424978971481
0.6566526293754578 0.52785325050354 0.03519998863339424
0.628152072429657 0.5277619361877441 0.019131479784846306
0.6015961170196533 0.5222617387771606 0.007945731282234192
0.5826818346977234 0.5165290832519531 -0.003206907771527767
0.5704424977302551 0.5116340517997742 -0.01021267008036375
0.718469500541687 0.5286560654640198 0.2964320778846741
0.6066986918449402 0.6723959445953369 -0.04287968948483467
0.578905463218689 0.5997557044029236 -0.08754235506057739
0.5881918668746948 0.6830353736877441 -0.11012505739927292
0.5736972093582153 0.6940988898277283 -0.10026348382234573
0.5857723355293274 0.6850167512893677 -0.09731190651655197
0.6005455851554871 0.6775782704353333 -0.034443389624357224
0.5694544911384583 0.69828861951828 -0.10698559135198593
0.5639024972915649 0.7001361846923828 -0.07674811780452728
0.5691367387771606 0.4914124011993408 -0.0041627902537584305
0.5611570477485657 0.5010135769844055 -0.0217696912586689
0.5584975481033325 0.510125994682312 -0.04067903384566307
0.66949462890625 0.47421717643737793 0.034114111214876175
0.6837116479873657 0.46607473492622375 0.03668409213423729
0.3668659031391144 0.4757120609283447 -0.04985293745994568
0.39146688580513 0.4756994843482971 -0.04985293745994568
0.3667682707309723 0.4546193778514862 -0.04985293745994568
0.3416355848312378 0.47588104009628296 -0.04985293745994568
0.366803914308548 0.4966569244861603 -0.04985293745994568
0.6210460662841797 0.47487351298332214 0.014341951347887516
0.6436421871185303 0.4749283492565155 0.014341951347887516
0.621382474899292 0.4544391632080078 0.014341951347887516
0.5982511639595032 0.4749225378036499 0.014341951347887516
0.6208028793334961 0.495395302772522 0.014341951347887516
