ply
format ascii 1.0
element vertex 478
property float x
property float y
property float z
end_header
0.5225824117660522 0.7374351620674133 -0.04740976542234421
0.5491941571235657 0.6694743633270264 -0.13483749330043793
0.5353835225105286 0.6836874485015869 -0.06721358746290207
0.5195668339729309 0.5739354491233826 -0.11849139630794525
0.5502784252166748 0.6423782110214233 -0.14625898003578186
0.5465285181999207 0.6038329601287842 -0.14121170341968536
0.5319870710372925 0.5076833963394165 -0.08979786187410355
0.33791863918304443 0.4840525984764099 -0.02367100678384304
0.5272460579872131 0.4459344148635864 -0.08080704510211945
0.5273833870887756 0.41220414638519287 -0.09060033410787582
0.5205602645874023 0.27211663126945496 -0.08592107892036438
0.5220526456832886 0.7430091500282288 -0.042142339050769806
0.5206257104873657 0.747504711151123 -0.034677617251873016
0.51905757188797 0.7501905560493469 -0.023740964010357857
0.519559383392334 0.7746943235397339 -0.01193762756884098
0.5209110975265503 0.7851499915122986 -0.015351497568190098
0.5210069417953491 0.7977704405784607 -0.021211780607700348
0.5200116634368896 0.8103995323181152 -0.01878904178738594
0.5218609571456909 0.8378860354423523 0.0005589097854681313
0.5454276204109192 0.6810047626495361 -0.12076180428266525
0.5105947852134705 0.6759876012802124 -0.09037303924560547
0.21510447561740875 0.37629979848861694 0.04911759868264198
0.40844932198524475 0.5002657771110535 -0.03243887424468994
0.38437941670417786 0.5020667910575867 -0.035581398755311966
0.3594428300857544 0.502448558807373 -0.034031327813863754
0.323636919260025 0.4928611218929291 -0.020949548110365868
0.4285774827003479 0.4966934323310852 -0.026681235060095787
0.3713333010673523 0.4451448917388916 -0.0548720583319664
0.39957183599472046 0.44672101736068726 -0.048391640186309814
0.3444184362888336 0.44934433698654175 -0.05108475312590599
0.32576870918273926 0.4579131007194519 -0.04289691895246506
0.29913973808288574 0.5070083141326904 -0.009623020887374878
0.4181332588195801 0.8796606063842773 0.026239201426506042
0.32670509815216064 0.48062843084335327 -0.01832996867597103
0.20497804880142212 0.49313294887542725 0.08053338527679443
0.26535600423812866 0.49217477440834045 0.006463663186877966
0.3863198161125183 0.61611008644104 -0.04258919134736061
0.48145589232444763 0.7327162623405457 -0.052311353385448456
0.4814227819442749 0.7443392276763916 -0.0362853966653347
0.44142553210258484 0.731613039970398 -0.0410296693444252
0.41290462017059326 0.7291907072067261 -0.018949205055832863
0.44735750555992126 0.7400496602058411 -0.02805706113576889
0.42111319303512573 0.7356430292129517 -0.008322061970829964
0.37090203166007996 0.7617863416671753 0.027877280488610268
0.5264360308647156 0.6686526536941528 -0.13593365252017975
0.5247532725334167 0.6416895985603333 -0.14719465374946594
0.2901722192764282 0.44241827726364136 -0.051795993000268936
0.4464927017688751 0.5547872185707092 -0.04723476991057396
0.443866103887558 0.6424156427383423 -0.0867515280842781
0.44122377038002014 0.6253451108932495 -0.08093629777431488
0.30154305696487427 0.6045019626617432 -0.0260675847530365
0.522748589515686 0.6057097911834717 -0.13828185200691223
0.35914987325668335 0.4182230234146118 -0.08470911532640457
0.31955695152282715 0.4265868663787842 -0.07307782769203186
0.25002747774124146 0.3336940109729767 0.0007830256363376975
0.4743693172931671 0.4364825487136841 -0.0832841768860817
0.4234084486961365 0.4545325040817261 -0.035509999841451645
0.34577518701553345 0.7303531765937805 0.023301757872104645
0.20448532700538635 0.7417747378349304 0.1876436024904251
0.46072813868522644 0.6590502262115479 -0.07161511480808258
0.4845123291015625 0.6680929660797119 -0.06798898428678513
0.37198472023010254 0.7243415117263794 0.02925051748752594
0.3798249363899231 0.7271080017089844 0.026477910578250885
0.3047345280647278 0.41177892684936523 -0.06606967002153397
0.43661588430404663 0.647948145866394 -0.07110553234815598
0.4104543924331665 0.4194493293762207 -0.08861582726240158
0.4067227840423584 0.40019893646240234 -0.0981748104095459
0.3706936240196228 0.28047508001327515 -0.07861955463886261
0.2809918522834778 0.36961600184440613 -0.03647491708397865
0.394339382648468 0.33772003650665283 -0.08901254087686539
0.27204805612564087 0.4306132197380066 -0.036371536552906036
0.2459813803434372 0.403144896030426 0.00554530369117856
0.48098599910736084 0.7392064929008484 -0.04620193690061569
0.44429582357406616 0.7360488176345825 -0.03432338312268257
0.41683945059776306 0.7324857711791992 -0.014885329641401768
0.46535366773605347 0.6622440218925476 -0.06469812989234924
0.37608399987220764 0.7257519960403442 0.027977462857961655
0.39572227001190186 0.7429828643798828 0.01852632686495781
0.3833577036857605 0.7285264730453491 0.026042019948363304
0.48487406969070435 0.6613012552261353 -0.10726896673440933
0.4250590205192566 0.7378406524658203 -0.003709043376147747
0.45062190294265747 0.7426321506500244 -0.017217930406332016
0.48243987560272217 0.7473377585411072 -0.025621935725212097
0.47927436232566833 0.835365891456604 -0.002137789037078619
0.4785240888595581 0.8056790828704834 -0.021771105006337166
0.4806355834007263 0.7933847308158875 -0.024219200015068054
0.48284438252449036 0.7809827327728271 -0.017743105068802834
0.4845466613769531 0.7717101573944092 -0.014097509905695915
0.42739832401275635 0.7524359226226807 0.005204328335821629
0.42322689294815063 0.7554380893707275 0.0019548500422388315
0.41751718521118164 0.7606552839279175 -0.0004079364298377186
0.41277655959129333 0.7667074799537659 0.004182502161711454
0.39000847935676575 0.7025227546691895 -0.01999969594180584
0.18014630675315857 0.6045051217079163 0.19384410977363586
0.541016697883606 0.6839600205421448 -0.0867268294095993
0.4076758623123169 0.7418617606163025 0.018755732104182243
0.40194135904312134 0.7419238686561584 0.017579104751348495
0.49430131912231445 0.6779066920280457 -0.0657663643360138
0.44101688265800476 0.6594817042350769 -0.04731723293662071
0.48977136611938477 0.6732361912727356 -0.06798961013555527
0.41747429966926575 0.565643310546875 -0.041602928191423416
0.3723486661911011 0.5790888071060181 -0.04068612679839134
0.43184396624565125 0.6326995491981506 -0.06556122750043869
0.300015926361084 0.3006373941898346 -0.0435236394405365
0.32878658175468445 0.3468678593635559 -0.06655703485012054
0.350270539522171 0.3996405601501465 -0.0852280929684639
0.399793416261673 0.7921954393386841 0.018269052729010582
0.4678700268268585 0.40503910183906555 -0.09839797765016556
0.4570094048976898 0.33687958121299744 -0.09565544873476028
0.44151198863983154 0.27212977409362793 -0.09203656017780304
0.3372463881969452 0.49931997060775757 -0.02800479717552662
0.2678525745868683 0.5226407647132874 0.0024503828026354313
0.44184619188308716 0.49235063791275024 -0.022727927193045616
0.29755789041519165 0.46771883964538574 -0.02773534134030342
0.4673076570034027 0.5416562557220459 -0.05591091886162758
0.46913978457450867 0.6413669586181641 -0.110113225877285
0.2359904944896698 0.5427528619766235 0.026545381173491478
0.28951236605644226 0.5382132530212402 -0.013520094566047192
0.3261636197566986 0.5472730994224548 -0.027947992086410522
0.3775753676891327 0.544999361038208 -0.032291390001773834
0.4143199920654297 0.5365339517593384 -0.0322146862745285
0.44132792949676514 0.5270107984542847 -0.036140356212854385
0.5074266195297241 0.5133256912231445 -0.08382678031921387
0.23379947245121002 0.5943763256072998 0.028836406767368317
0.27513980865478516 0.46438339352607727 -0.022672850638628006
0.5307137370109558 0.6801923513412476 -0.12187131494283676
0.447551965713501 0.5821903944015503 -0.05351346358656883
0.18205907940864563 0.48360639810562134 0.15312756597995758
0.46241500973701477 0.5157510042190552 -0.039092231541872025
0.42504367232322693 0.6297792792320251 -0.03890514746308327
0.31246528029441833 0.48141926527023315 -0.015376986935734749
0.4658324122428894 0.6201652884483337 -0.10280320793390274
0.1862020194530487 0.6713548302650452 0.19605635106563568
0.4403386116027832 0.4844101667404175 -0.018578700721263885
0.49554067850112915 0.6114428639411926 -0.12586566805839539
0.28128582239151 0.8102858066558838 0.09127305448055267
0.2776799201965332 0.8447558283805847 0.13239635527133942
0.19710278511047363 0.6044108867645264 0.11107955873012543
0.24084600806236267 0.7728241682052612 0.10573717206716537
0.22393512725830078 0.4431462287902832 0.0484224297106266
0.41409313678741455 0.9109198451042175 0.040862515568733215
0.5290223956108093 0.682841420173645 -0.08665572851896286
0.420149564743042 0.5967240333557129 -0.04506254568696022
0.23926205933094025 0.49552783370018005 0.0264794509857893
0.36414727568626404 0.4870355725288391 -0.03244909644126892
0.38497960567474365 0.48722392320632935 -0.03455067053437233
0.39021047949790955 0.7445783019065857 0.021622834727168083
0.22854550182819366 0.6491830348968506 0.04783237725496292
0.4651484489440918 0.9475858211517334 0.053483858704566956
0.3732089400291443 0.9108309745788574 0.08754963427782059
0.32940614223480225 0.8838012218475342 0.10841459035873413
0.5246338844299316 0.33876487612724304 -0.08939500153064728
0.5188589692115784 0.9494611024856567 0.05714207515120506
0.4044622480869293 0.4861612319946289 -0.0321369506418705
0.4225195348262787 0.4848443865776062 -0.026200179010629654
0.43450966477394104 0.4848998785018921 -0.020181860774755478
0.25301921367645264 0.45770058035850525 -0.0032419608905911446
0.41802430152893066 0.4713252782821655 -0.03218263387680054
0.3970441222190857 0.46638864278793335 -0.04093606397509575
0.3767654299736023 0.46584993600845337 -0.044007644057273865
0.35587385296821594 0.4691166281700134 -0.04155890271067619
0.3418814241886139 0.47392046451568604 -0.034962233155965805
0.19392085075378418 0.42316359281539917 0.10452799499034882
0.3493492007255554 0.48579269647598267 -0.02824288234114647
0.5317937731742859 0.6987206935882568 -0.05533621460199356
0.4260777235031128 0.694257915019989 -0.0393160842359066
0.46402740478515625 0.658201277256012 -0.08207404613494873
0.4881402552127838 0.6967746615409851 -0.058670543134212494
0.5273796319961548 0.4743903577327728 -0.07612739503383636
0.3271561861038208 0.8484402298927307 0.08097928762435913
0.3686966598033905 0.880643367767334 0.06316808611154556
0.46652132272720337 0.9290388822555542 0.024496616795659065
0.23713502287864685 0.8002032041549683 0.16097892820835114
0.43312957882881165 0.47911718487739563 -0.024616073817014694
0.4920129179954529 0.5559730529785156 -0.0861385390162468
0.5217445492744446 0.9313774108886719 0.028910895809531212
0.4177345633506775 0.9337411522865295 0.06486295163631439
0.199427992105484 0.6646495461463928 0.11923824995756149
0.4536476731300354 0.7634133100509644 -0.00664270855486393
0.449867308139801 0.7696348428726196 -0.010264981538057327
0.4457337558269501 0.7787907719612122 -0.013791821897029877
0.4427253305912018 0.7895478010177612 -0.009865466505289078
0.43517228960990906 0.8183133006095886 0.005285041406750679
0.39858686923980713 0.7312710285186768 0.009400390088558197
0.39371100068092346 0.7287228107452393 0.008183222264051437
0.38956257700920105 0.7261844873428345 0.005908037535846233
0.3600904941558838 0.7130621671676636 0.001551310415379703
0.26647713780403137 0.6631998419761658 0.007413371931761503
0.48817238211631775 0.5262118577957153 -0.06808876991271973
0.4641573131084442 0.4693131744861603 -0.03285897523164749
0.4448160231113434 0.4710116386413574 -0.027297493070364
0.40349629521369934 0.7335103750228882 0.012528563849627972
0.25418657064437866 0.7297534942626953 0.057002149522304535
0.4917651414871216 0.4708646535873413 -0.06344912201166153
0.42557451128959656 0.8468408584594727 0.016464268788695335
0.5414559245109558 0.5708453059196472 -0.12269453704357147
0.5135949850082397 0.5451048612594604 -0.1031268760561943
0.5368382334709167 0.5404462814331055 -0.10532943904399872
0.4706963002681732 0.5947325229644775 -0.08260088413953781
0.5230569839477539 0.9028993248939514 0.012166114524006844
0.5223122239112854 0.8677009344100952 0.006474952679127455
0.4745886027812958 0.865620493888855 0.005823219660669565
0.3550890386104584 0.780258297920227 0.03627605363726616
0.40044307708740234 0.6485109329223633 -0.03251192718744278
0.3873218595981598 0.8173540234565735 0.029335033148527145
0.33640825748443604 0.6443100571632385 -0.0336531326174736
0.37022092938423157 0.6727393269538879 -0.022909365594387054
0.304519921541214 0.6830987334251404 -0.006604527123272419
0.4697340130805969 0.9004430174827576 0.009645270183682442
0.4482229948043823 0.6035588383674622 -0.06472503393888474
0.33622437715530396 0.8104287385940552 0.0542331226170063
0.37623119354248047 0.8472920656204224 0.04520851746201515
0.329091340303421 0.7422503232955933 0.025834959000349045
0.22924858331680298 0.6967461109161377 0.06678467243909836
0.2943654954433441 0.7565469741821289 0.04165992885828018
0.21180954575538635 0.7212052345275879 0.12164051830768585
0.3389134407043457 0.6969836950302124 -0.006208076141774654
0.4704500138759613 0.5691443085670471 -0.0683855414390564
0.47768324613571167 0.6563256978988647 -0.11367534846067429
0.4521527886390686 0.653658390045166 -0.08654078841209412
0.49688267707824707 0.6422585248947144 -0.13146743178367615
0.4455554187297821 0.4504420757293701 -0.046150390058755875
0.4044051170349121 0.43767058849334717 -0.06005676090717316
0.3673761785030365 0.4353609085083008 -0.06548196077346802
0.33499422669410706 0.4402775764465332 -0.060745321214199066
0.3109492063522339 0.45106011629104614 -0.04848676919937134
0.29230189323425293 0.4872407913208008 -0.007952488958835602
0.19865378737449646 0.5481576323509216 0.09626295417547226
0.31559962034225464 0.516235888004303 -0.017554104328155518
0.34446415305137634 0.5224087238311768 -0.026602568104863167
0.37992382049560547 0.5221112966537476 -0.03032984957098961
0.41171950101852417 0.5173379182815552 -0.028849530965089798
0.43598082661628723 0.5112667083740234 -0.027246486395597458
0.4533770978450775 0.5049515962600708 -0.027013370767235756
0.1800771951675415 0.5428631901741028 0.18043923377990723
0.44821083545684814 0.6558600664138794 -0.07318931818008423
0.4959684908390045 0.582991361618042 -0.10250464081764221
0.5031272768974304 0.6636194586753845 -0.1284005492925644
0.5125020742416382 0.6749337911605835 -0.1137382984161377
0.4985485076904297 0.6661012172698975 -0.11617494374513626
0.4522334635257721 0.6608414053916931 -0.061569150537252426
0.5205108523368835 0.6782618165016174 -0.11911911517381668
0.5185083150863647 0.6804855465888977 -0.08844278752803802
0.450259268283844 0.48583877086639404 -0.01968487538397312
0.46706005930900574 0.4927958846092224 -0.0306297205388546
0.47842833399772644 0.498349130153656 -0.0469670407474041
0.33337822556495667 0.4776737093925476 -0.02807239443063736
0.3130541443824768 0.4682011008262634 -0.02984924055635929
0.5600385665893555 0.5732635259628296 -0.10884224623441696
0.664862871170044 0.4791691303253174 0.04704410582780838
0.5672120451927185 0.6745140552520752 -0.08283178508281708
0.7280615568161011 0.3784371316432953 0.15975219011306763
0.6068339347839355 0.49775052070617676 0.01345610897988081
0.6271659135818481 0.4990423023700714 0.019440757110714912
0.647295355796814 0.4990164041519165 0.029479078948497772
0.6732832193374634 0.4874701499938965 0.054202526807785034
0.5899648070335388 0.4945525527000427 0.009411095641553402
0.6427498459815979 0.44181257486343384 0.0026167433243244886
0.6182239055633545 0.4433535933494568 -0.0029887233395129442
0.6640870571136475 0.44565609097480774 0.015149637125432491
0.6766535639762878 0.4535173177719116 0.028573010116815567
0.6902808547019958 0.5011361837387085 0.07151945680379868
0.6053658127784729 0.8700357675552368 0.06051500886678696
0.6727098226547241 0.4746760129928589 0.05573202669620514
0.7348597645759583 0.4886758625507355 0.19075748324394226
0.712348997592926 0.4835793972015381 0.09713401645421982
0.6451176404953003 0.6133175492286682 0.004780381452292204
0.557380735874176 0.7305020093917847 -0.039436087012290955
0.5516964197158813 0.7424483299255371 -0.02405049093067646
0.5834870338439941 0.7270379662513733 -0.014702383428812027
0.5999934673309326 0.7241566777229309 0.01736743189394474
0.5748301148414612 0.736748456954956 -0.004516515415161848
0.5907893776893616 0.7323179244995117 0.023118766024708748
0.6343861818313599 0.7559390068054199 0.07465331256389618
0.56914222240448 0.6674023866653442 -0.12976570427417755
0.572147011756897 0.6407493948936462 -0.1398429423570633
0.7069206237792969 0.434343159198761 0.03347153961658478
0.5910207033157349 0.5532340407371521 -0.01675157994031906
0.6165598630905151 0.6401472091674805 -0.05844208970665932
0.6141887903213501 0.6235977411270142 -0.05171899497509003
0.7084723711013794 0.5993097424507141 0.05203257501125336
0.5669278502464294 0.6049511432647705 -0.1288108080625534
0.6632636189460754 0.4153011441230774 -0.02536892518401146
0.690333902835846 0.42144858837127686 0.0012265101540833712
0.7168059349060059 0.3372727632522583 0.09985940158367157
0.5693625807762146 0.43401503562927246 -0.06358823925256729
0.5965969562530518 0.4517013132572174 0.0012339885579422116
0.6556819081306458 0.7242738008499146 0.07943625003099442
0.7033475637435913 0.7246030569076538 0.29166388511657715
0.6000257134437561 0.6569411158561707 -0.05046488717198372
0.580621063709259 0.6675751209259033 -0.05726056918501854
0.6229843497276306 0.7212492227554321 0.07845211774110794
0.616047739982605 0.7245441675186157 0.07034128159284592
0.700682520866394 0.4045397639274597 0.013122214004397392
0.6165316104888916 0.6461443305015564 -0.043231382966041565
0.6236549019813538 0.4168667793273926 -0.04782639443874359
0.6279672384262085 0.39718708395957947 -0.05632413551211357
0.6468156576156616 0.28406041860580444 -0.02288939245045185
0.7109673023223877 0.3687872886657715 0.05079641193151474
0.6386297345161438 0.3383006751537323 -0.041345011442899704
0.7167351245880127 0.42058587074279785 0.05491945147514343
0.7247334718704224 0.401532918214798 0.10432020574808121
0.5551648139953613 0.7371983528137207 -0.033349040895700455
0.5793266296386719 0.7321920990943909 -0.009359856136143208
0.595823347568512 0.7281741499900818 0.018742555752396584
0.5946733951568604 0.6606043577194214 -0.047586195170879364
0.6194138526916504 0.7229121923446655 0.07382289320230484
0.6077775955200195 0.7403586506843567 0.05759650468826294
0.6127039790153503 0.7261391282081604 0.06879323720932007
0.5906648635864258 0.658866822719574 -0.08805008977651596
0.585726261138916 0.735429048538208 0.02626643516123295
0.5699847936630249 0.7401354312896729 0.005047559272497892
0.5478416681289673 0.7458468079566956 -0.013056544587016106
0.5580421686172485 0.8330571055412292 0.010271118953824043
0.5547570586204529 0.8044033050537109 -0.008138599805533886
0.5541667342185974 0.7918121218681335 -0.009923013858497143
0.5513182878494263 0.7793800234794617 -0.0038217585533857346
0.5473752021789551 0.7700656056404114 -0.000849070493131876
0.584212064743042 0.7499059438705444 0.035455457866191864
0.5898892283439636 0.7530244588851929 0.03231910616159439
0.5960890054702759 0.7583020925521851 0.030972331762313843
0.6003373265266418 0.7645694613456726 0.03752833604812622
0.6360848546028137 0.6992394924163818 0.021051857620477676
0.7172271013259888 0.5952211618423462 0.3089074194431305
0.595775306224823 0.7394763231277466 0.0563875176012516
0.6019976139068604 0.7393932938575745 0.055328045040369034
0.5710291862487793 0.6777222752571106 -0.055144209414720535
0.6082724332809448 0.6581556797027588 -0.02516639046370983
0.5758671760559082 0.6730293035507202 -0.0576481856405735
0.6142563223838806 0.5636973977088928 -0.00049477448919788
0.6535099148750305 0.5761940479278564 0.015299688093364239
0.6170430183410645 0.6311821341514587 -0.03532449156045914
0.6923674941062927 0.3048191964626312 0.036899883300065994
0.6840754151344299 0.3466600775718689 0.003291958011686802
0.6704181432723999 0.3952299654483795 -0.022563684731721878
0.6150239706039429 0.7866305708885193 0.056802235543727875
0.5768445730209351 0.4023662209510803 -0.07733867317438126
0.5871241092681885 0.3374466598033905 -0.07106367498636246
0.5916363596916199 0.2742948532104492 -0.06413017958402634
0.6636723875999451 0.4950857162475586 0.04291132092475891
0.7117135524749756 0.5158854722976685 0.09242822974920273
0.5793558955192566 0.49100586771965027 0.009395882487297058
0.695218026638031 0.4603230655193329 0.054047904908657074
0.5761953592300415 0.5402458906173706 -0.031570322811603546
0.6044696569442749 0.6391187310218811 -0.08729369193315506
0.7361499071121216 0.5365731716156006 0.1282920092344284
0.6997445225715637 0.5341437458992004 0.07118920981884003
0.6755770444869995 0.5452789664268494 0.04460704326629639
0.6364181637763977 0.5437314510345459 0.023407116532325745
0.6071401834487915 0.5352374315261841 0.010069210082292557
0.5862315893173218 0.5264941453933716 -0.004489351529628038
0.5518836975097656 0.5127331614494324 -0.07354293763637543
0.7425775527954102 0.5867430567741394 0.13037371635437012
0.7107008695602417 0.4556198716163635 0.06703313440084457
0.5583166480064392 0.6792321801185608 -0.11691029369831085
0.5958437323570251 0.5808671116828918 -0.024184277281165123
0.7247034311294556 0.48080307245254517 0.272092342376709
0.5707695484161377 0.5162565112113953 -0.014683183282613754
0.615999698638916 0.6284996271133423 -0.008744863793253899
0.6819062232971191 0.47512784600257874 0.06235378980636597
0.6012756824493408 0.6183590888977051 -0.07955801486968994
0.7133145332336426 0.6578332781791687 0.3062794804573059
0.5794625878334045 0.4826301336288452 0.014918776229023933
0.5842434167861938 0.609906792640686 -0.10905713587999344
0.6866008639335632 0.7925077676773071 0.16715098917484283
0.6711292266845703 0.8235909342765808 0.21087227761745453
0.7416068315505981 0.5946498513221741 0.2213781177997589
0.7108609676361084 0.7556004524230957 0.19482409954071045
0.7297348380088806 0.4409617781639099 0.15394045412540436
0.6064460277557373 0.8990733623504639 0.0773496925830841
0.5523549318313599 0.6823728680610657 -0.08355169743299484
0.6161596775054932 0.5950731635093689 -0.008651955053210258
0.7267695069313049 0.4853908121585846 0.12619319558143616
0.6446290612220764 0.4842112064361572 0.029703881591558456
0.6272180080413818 0.48489660024642944 0.020469531416893005
0.6125164031982422 0.7417953014373779 0.06334841251373291
0.7426502704620361 0.6389738917350769 0.14646120369434357
0.5655515193939209 0.9403790831565857 0.07476941496133804
0.6224489212036133 0.8940937519073486 0.13888023793697357
0.644546389579773 0.8638656139373779 0.17255908250808716
0.6101895570755005 0.4836907684803009 0.014962885528802872
0.5941190123558044 0.48238545656204224 0.014289400540292263
0.5840218663215637 0.4828616976737976 0.01611563190817833
0.7223626375198364 0.447465181350708 0.09367329627275467
0.5987696051597595 0.4678104519844055 0.009178205393254757
0.6174114346504211 0.46238604187965393 0.00727800652384758
0.63581782579422 0.46198827028274536 0.01192524004727602
0.6527684330940247 0.4652032256126404 0.022048525512218475
0.6629202365875244 0.46952152252197266 0.033140625804662704
0.7303404808044434 0.4233127236366272 0.22104617953300476
0.6564248204231262 0.48197707533836365 0.03927929699420929
0.6143531203269958 0.6923380494117737 -0.008097613230347633
0.6006594896316528 0.6557680368423462 -0.06214442104101181
0.570346474647522 0.6958028078079224 -0.04558248072862625
0.6570138931274414 0.8314273953437805 0.14286772906780243
0.6319893598556519 0.8652139902114868 0.11221511662006378
0.5696789622306824 0.9224088191986084 0.04466896876692772
0.6892066597938538 0.780371367931366 0.25422194600105286
0.5856494903564453 0.4767014980316162 0.012362130917608738
0.5694918036460876 0.5549453496932983 -0.06997549533843994
0.5982745885848999 0.9211611747741699 0.10293062776327133
0.736997663974762 0.6518064737319946 0.22508619725704193
0.5685214996337891 0.7608964443206787 0.01629255898296833
0.574059009552002 0.7673746943473816 0.013452916406095028
0.5789563655853271 0.7767711877822876 0.011178671382367611
0.5819517374038696 0.7880732417106628 0.01594841480255127
0.5912294387817383 0.8139094114303589 0.03401203081011772
0.6039430499076843 0.7284050583839417 0.04861440137028694
0.6088468432426453 0.7251589894294739 0.050686001777648926
0.6129295825958252 0.7221495509147644 0.05065005645155907
0.6521168947219849 0.7086002826690674 0.053037840873003006
0.7262670993804932 0.6545753479003906 0.09227574616670609
0.5632222890853882 0.525327205657959 -0.050868526101112366
0.5660677552223206 0.46791988611221313 -0.011391711421310902
0.5778392553329468 0.4693920612335205 0.00356686650775373
0.598521888256073 0.7314482927322388 0.050292402505874634
0.7194191217422485 0.7168223857879639 0.14210724830627441
0.5507794618606567 0.4708693325519562 -0.05064965784549713
0.5975722074508667 0.8396247029304504 0.04700562730431557
0.5562958717346191 0.5444070100784302 -0.0945175364613533
0.5882302522659302 0.5934889912605286 -0.06122685223817825
0.5625907778739929 0.8616924285888672 0.020336637273430824
0.6459437608718872 0.7711554765701294 0.08950626850128174
0.632635235786438 0.6462388634681702 0.006251892540603876
0.622688889503479 0.8084695935249329 0.07136471569538116
0.6841059327125549 0.6392322182655334 0.027871256694197655
0.6533883213996887 0.6689790487289429 0.026158947497606277
0.7013886570930481 0.6756386160850525 0.06390005350112915
0.5688522458076477 0.895124077796936 0.028587037697434425
0.6004419922828674 0.6023363471031189 -0.037876926362514496
0.6582943201065063 0.7970849871635437 0.11402462422847748
0.6306165456771851 0.8348843455314636 0.09121976792812347
0.6694601774215698 0.733871340751648 0.09014096856117249
0.7350984811782837 0.6841359734535217 0.16134557127952576
0.6929366588592529 0.7440559267997742 0.11446654051542282
0.7270171642303467 0.705784797668457 0.22254110872745514
0.6709811091423035 0.6919491291046143 0.052904825657606125
0.5815404057502747 0.5679476857185364 -0.04532582685351372
0.5984309911727905 0.6536315679550171 -0.09289208054542542
0.6106975078582764 0.651209831237793 -0.06263983994722366
0.589870810508728 0.6401268243789673 -0.11480274796485901
0.5837578177452087 0.44766902923583984 -0.01667775772511959
0.6199926137924194 0.43465161323547363 -0.016706252470612526
0.6512821316719055 0.43285804986953735 -0.008577498607337475
0.6754298210144043 0.4369529187679291 0.008001790381968021
0.6900429725646973 0.445834219455719 0.02824985235929489
0.6951348781585693 0.47954878211021423 0.07501328736543655
0.7401323318481445 0.5411843061447144 0.2093883603811264
0.679830014705658 0.5118974447250366 0.058892831206321716
0.6595464944839478 0.5192579030990601 0.04015173763036728
0.6319617033004761 0.5194928646087646 0.024589691311120987
0.6060216426849365 0.5149114727973938 0.014418232254683971
0.5865989923477173 0.5095574259757996 0.005273400340229273
0.5734201669692993 0.5040363669395447 -0.0005618547438643873
0.7188947200775146 0.5372158885002136 0.2993308901786804
0.6090827584266663 0.6537661552429199 -0.049653153866529465
0.5750128626823425 0.5817736387252808 -0.08590919524431229
0.5844981670379639 0.6609311699867249 -0.11534801870584488
0.5699628591537476 0.6727249026298523 -0.10607321560382843
0.5825709104537964 0.6634206771850586 -0.10268884897232056
0.6029533743858337 0.6593620181083679 -0.04170575737953186
0.5658469796180725 0.6766076683998108 -0.11294997483491898
0.5607489347457886 0.6792795062065125 -0.08308828622102737
0.5727212429046631 0.48493555188179016 0.008050253614783287
0.5631528496742249 0.49245762825012207 -0.009906955994665623
0.5587073564529419 0.499306321144104 -0.029617074877023697
0.6687582731246948 0.4726366102695465 0.04309937730431557
0.6838308572769165 0.462286114692688 0.04568742588162422
0.37389466166496277 0.4761015772819519 -0.03004232980310917
0.39780738949775696 0.475810170173645 -0.03004232980310917
0.3743090331554413 0.45595771074295044 -0.03004232980310917
0.3495352268218994 0.47638967633247375 -0.03004232980310917
0.3733295202255249 0.4960803687572479 -0.03004232980310917
0.6272294521331787 0.4727957844734192 0.02447172813117504
0.649554431438446 0.47242116928100586 0.02447172813117504
0.6266258955001831 0.45345374941825867 0.02447172813117504
0.6047707796096802 0.473049134016037 0.02447172813117504
0.6279469728469849 0.49202296137809753 0.02447172813117504
