ply
format ascii 1.0
element vertex 478
property float x
property float y
property float z
end_header
0.4824399948120117 0.7189822196960449 -0.0455111525952816
0.46945515275001526 0.6418427228927612 -0.11621037870645523
0.481334388256073 0.6613055467605591 -0.053760040551424026
0.4581744074821472 0.5592249035835266 -0.0945909172296524
0.4678574204444885 0.6181807518005371 -0.12723024189472198
0.47080132365226746 0.5849334001541138 -0.12321976572275162
0.4833219349384308 0.5001891851425171 -0.07815751433372498
0.3437759280204773 0.48354828357696533 0.04217790439724922
0.48706844449043274 0.43670791387557983 -0.07309122383594513
0.48637688159942627 0.40515565872192383 -0.0838061049580574
0.489079087972641 0.2813604772090912 -0.08299675583839417
0.4827776551246643 0.7271150350570679 -0.04083341732621193
0.484037309885025 0.7346814274787903 -0.032165560871362686
0.4859674572944641 0.7396700382232666 -0.019864186644554138
0.48622483015060425 0.7401328086853027 -0.015514594502747059
0.4852103590965271 0.7534881830215454 -0.0158547330647707
0.4849337637424469 0.7689636945724487 -0.017702741548419
0.4857805669307709 0.7842616438865662 -0.010893437080085278
0.49449265003204346 0.8113007545471191 0.015788564458489418
0.47301387786865234 0.6526247262954712 -0.10294399410486221
0.4574727714061737 0.6498419642448425 -0.0678957924246788
0.29915177822113037 0.3796496093273163 0.14333346486091614
0.40928104519844055 0.5046684741973877 0.010168997570872307
0.3881954550743103 0.5086784362792969 0.0163130946457386
0.36767709255218506 0.5081250667572021 0.026424869894981384
0.340664267539978 0.48742496967315674 0.04909934848546982
0.42567339539527893 0.4983513355255127 0.007082987576723099
0.36659717559814453 0.43007469177246094 0.0007392342668026686
0.39313650131225586 0.43335986137390137 -0.00574169447645545
0.3445085287094116 0.43512654304504395 0.012895459309220314
0.3323647379875183 0.44561147689819336 0.0250565055757761
0.33086225390434265 0.50057053565979 0.06476505100727081
0.4253031611442566 0.832688570022583 0.06627774238586426
0.33642578125 0.47124600410461426 0.050066374242305756
0.29530924558639526 0.48095980286598206 0.17473746836185455
0.31199389696121216 0.4769430160522461 0.08873548358678818
0.3902784585952759 0.6071159243583679 0.00766471354290843
0.4585082530975342 0.7119498252868652 -0.03732726722955704
0.4632127285003662 0.7317982912063599 -0.023516690358519554
0.4388253688812256 0.7151532173156738 -0.016430895775556564
0.42562273144721985 0.7188364267349243 0.006828430108726025
0.4468756914138794 0.72971111536026 -0.009044152684509754
0.4343317747116089 0.7284811735153198 0.011144520714879036
0.406838983297348 0.7521366477012634 0.056813180446624756
0.4527917206287384 0.6401339173316956 -0.11137855052947998
0.44835948944091797 0.6176608800888062 -0.12100517749786377
0.3097093999385834 0.4245224595069885 0.03183590620756149
0.4317069947719574 0.5468515157699585 -0.0138985775411129
0.41954272985458374 0.6269439458847046 -0.04629642516374588
0.4202122092247009 0.6132919788360596 -0.040891241282224655
0.33524230122566223 0.5993976593017578 0.04872587323188782
0.4521671235561371 0.5867086052894592 -0.11153481155633926
0.34497350454330444 0.40706533193588257 -0.023123325780034065
0.3215259909629822 0.4115164279937744 0.0023505310527980328
0.3106062412261963 0.34262457489967346 0.08739404380321503
0.4356410801410675 0.43029487133026123 -0.05827230215072632
0.4160054326057434 0.4456319808959961 -0.002340272068977356
0.3918030560016632 0.7272822260856628 0.06084057316184044
0.34120988845825195 0.690194308757782 0.27369579672813416
0.4348903298377991 0.6409101486206055 -0.039104487746953964
0.44947192072868347 0.6495688557624817 -0.04431716725230217
0.40897586941719055 0.7248252630233765 0.05501806363463402
0.41417986154556274 0.7264196872711182 0.046026673167943954
0.31355178356170654 0.395036518573761 0.01218746230006218
0.42188721895217896 0.635925829410553 -0.032458044588565826
0.38073456287384033 0.411035418510437 -0.0439690537750721
0.3761534094810486 0.3935578465461731 -0.0516912005841732
0.3734131455421448 0.2946490943431854 -0.02595352567732334
0.31607604026794434 0.37151262164115906 0.044376861304044724
0.3814511299133301 0.3446030616760254 -0.04082122817635536
0.30184510350227356 0.40973928570747375 0.051145609468221664
0.30277788639068604 0.4003341495990753 0.09444226324558258
0.4600164592266083 0.7230660915374756 -0.032656557857990265
0.44249239563941956 0.7228721976280212 -0.013400498777627945
0.4295743703842163 0.7236806750297546 0.0071556176990270615
0.4399079382419586 0.645368218421936 -0.03590668737888336
0.41157570481300354 0.7256563305854797 0.04991757869720459
0.4190700054168701 0.7345600724220276 0.035856012254953384
0.4169061779975891 0.7272639870643616 0.04480701684951782
0.43836307525634766 0.6356803774833679 -0.07292316108942032
0.43867260217666626 0.7322710752487183 0.015448186546564102
0.45115384459495544 0.7346112728118896 0.0011420740047469735
0.4669035077095032 0.737267255783081 -0.011602910235524178
0.4671085774898529 0.8073538541793823 0.022103529423475266
0.46004605293273926 0.780243992805481 -0.0037582588847726583
0.46033912897109985 0.764891505241394 -0.009334499947726727
0.4629093110561371 0.7497113943099976 -0.007308708503842354
0.46679267287254333 0.7376720905303955 -0.007244898471981287
0.4381791353225708 0.7321978807449341 0.0188823863863945
0.4329179525375366 0.7373133897781372 0.017812039703130722
0.42767080664634705 0.7443493604660034 0.017245478928089142
0.42400985956192017 0.7524816393852234 0.023809047415852547
0.40775102376937866 0.6933695077896118 0.012364010326564312
0.3162769675254822 0.573114275932312 0.28655117750167847
0.47672855854034424 0.6570160388946533 -0.07144390046596527
0.42875736951828003 0.7299497723579407 0.034405142068862915
0.4235951900482178 0.7320548295974731 0.03405536338686943
0.45599284768104553 0.658958911895752 -0.0427679605782032
0.4301392138004303 0.6492242217063904 -0.01633591391146183
0.45270636677742004 0.6544508337974548 -0.04451294615864754
0.4123331308364868 0.5591287612915039 0.001124794245697558
0.3788851499557495 0.5743834376335144 0.016491567716002464
0.4197254776954651 0.6224755048751831 -0.026085490360856056
0.3333468735218048 0.3138447403907776 0.028427327051758766
0.34094876050949097 0.3521517515182495 0.0003850850625894964
0.3381064534187317 0.38893064856529236 -0.0214006919413805
0.42208459973335266 0.7734878063201904 0.04558906331658363
0.4263225197792053 0.40148109197616577 -0.07173877954483032
0.42853888869285583 0.3430859446525574 -0.06869062036275864
0.4232727289199829 0.28474515676498413 -0.06337044388055801
0.35020124912261963 0.5012013912200928 0.039117034524679184
0.3140683174133301 0.5146896839141846 0.08421620726585388
0.435314416885376 0.49301883578300476 0.007337097078561783
0.32044512033462524 0.45351892709732056 0.04842304065823555
0.4437354803085327 0.5329108238220215 -0.02724641188979149
0.4258089065551758 0.6206418871879578 -0.07252942770719528
0.2986782193183899 0.5311853885650635 0.11755698174238205
0.3248436450958252 0.5367976427078247 0.06478649377822876
0.3477572798728943 0.5503778457641602 0.03978918865323067
0.3849828839302063 0.5473312139511108 0.021177155897021294
0.41231608390808105 0.5373643636703491 0.008766350336372852
0.43090081214904785 0.5281623601913452 -0.00403681630268693
0.4646235704421997 0.5051122307777405 -0.06380561739206314
0.3011917173862457 0.5815010070800781 0.12021426111459732
0.3091433048248291 0.44717955589294434 0.06148184463381767
0.46294158697128296 0.6513025164604187 -0.09928727149963379
0.43126559257507324 0.5729169249534607 -0.01927814818918705
0.30207815766334534 0.47156745195388794 0.2482973337173462
0.4443545341491699 0.5189703106880188 -0.013199045322835445
0.4208354353904724 0.6219594478607178 -0.0035376818850636482
0.33119210600852966 0.47020453214645386 0.0559663288295269
0.42759495973587036 0.6039735674858093 -0.0661928728222847
0.32683300971984863 0.6295334696769714 0.28637266159057617
0.4349769353866577 0.48426127433776855 0.011626741848886013
0.43837660551071167 0.5928913950920105 -0.09315325319766998
0.3606165945529938 0.7627652883529663 0.1560918241739273
0.3720720112323761 0.7823501229286194 0.20071426033973694
0.2995700538158417 0.5788137912750244 0.2057470977306366
0.3410308361053467 0.7268093228340149 0.18322212994098663
0.29759636521339417 0.4370471239089966 0.14062803983688354
0.42505794763565063 0.8531969785690308 0.08550678938627243
0.4681561589241028 0.6557582020759583 -0.06847862899303436
0.41539210081100464 0.5889279842376709 -0.004706214182078838
0.3010549545288086 0.4756169617176056 0.11564956605434418
0.3660401701927185 0.49765583872795105 0.02593129500746727
0.3858291804790497 0.4980278015136719 0.0172785185277462
0.4153898358345032 0.7376102805137634 0.041691552847623825
0.3100120425224304 0.6279195547103882 0.13564234972000122
0.46216854453086853 0.8877989053726196 0.08959126472473145
0.4130987524986267 0.8443982601165771 0.140190988779068
0.3946709930896759 0.818271279335022 0.16693070530891418
0.4867117404937744 0.342651903629303 -0.08552338182926178
0.5039301514625549 0.8971006870269775 0.07505429536104202
0.4044032692909241 0.4936872124671936 0.012055380269885063
0.4213199019432068 0.488140732049942 0.011250438168644905
0.4313216805458069 0.48574239015579224 0.012959765270352364
0.30025243759155273 0.43706008791923523 0.08604530990123749
0.414741575717926 0.4604994058609009 0.005580707918852568
0.39455926418304443 0.4498724043369293 0.004460859578102827
0.373144268989563 0.44800305366516113 0.00944475643336773
0.35391348600387573 0.45281922817230225 0.01905834674835205
0.34382742643356323 0.4605518877506256 0.028957361355423927
0.29597190022468567 0.4205373525619507 0.20022962987422943
0.35258448123931885 0.49204570055007935 0.035056985914707184
0.4836544990539551 0.6803910732269287 -0.04560573771595955
0.42394816875457764 0.6832209229469299 -0.007171268574893475
0.4331955015659332 0.6376316547393799 -0.04958132654428482
0.4561716616153717 0.6801871061325073 -0.03706168755888939
0.4872027039527893 0.4667614996433258 -0.06715758144855499
0.382818341255188 0.796448826789856 0.13508149981498718
0.40320447087287903 0.8242241144180298 0.11216314136981964
0.456559419631958 0.8759878873825073 0.05940352752804756
0.3562275767326355 0.7421161532402039 0.24105966091156006
0.4284953773021698 0.4754849374294281 0.008975349366664886
0.45002835988998413 0.5445078015327454 -0.06080279499292374
0.499826580286026 0.8853166103363037 0.0459040030837059
0.4338642358779907 0.8689170479774475 0.11181975901126862
0.3098873496055603 0.629922091960907 0.21077708899974823
0.45073091983795166 0.7348502278327942 0.005163305439054966
0.44540444016456604 0.7438309788703918 0.004557453095912933
0.4413146376609802 0.7554028034210205 0.0040323855355381966
0.43911218643188477 0.7692667841911316 0.009999176487326622
0.4413709342479706 0.7928727865219116 0.032602373510599136
0.42423874139785767 0.7274335026741028 0.029897021129727364
0.4196740388870239 0.7246448993682861 0.03122764080762863
0.41610318422317505 0.7218167781829834 0.03162853419780731
0.3963979482650757 0.7084465622901917 0.036506302654743195
0.3285435438156128 0.6469005942344666 0.08569645136594772
0.4543108642101288 0.5175255537033081 -0.044133786112070084
0.4451826810836792 0.4683377742767334 -0.012191428802907467
0.4346867799758911 0.4685240685939789 0.0008017294458113611
0.4292207956314087 0.7303199768066406 0.03230585157871246
0.3375043272972107 0.699527382850647 0.13134633004665375
0.4597601890563965 0.47186124324798584 -0.04533050209283829
0.4330595135688782 0.8115726113319397 0.05089134722948074
0.47525420784950256 0.5563614368438721 -0.10737157613039017
0.4609934687614441 0.5337877869606018 -0.08248090744018555
0.47930458188056946 0.5295624732971191 -0.09231556206941605
0.43673473596572876 0.581652820110321 -0.05144399031996727
0.4971299171447754 0.8639732003211975 0.02904760092496872
0.4959383010864258 0.8360497951507568 0.023289356380701065
0.4619811177253723 0.8299939632415771 0.03405145928263664
0.3918270468711853 0.7595760226249695 0.07476961612701416
0.4047275185585022 0.6397252678871155 0.009095441550016403
0.41086119413375854 0.7880586981773376 0.06482736766338348
0.36087897419929504 0.6335223317146301 0.02817203849554062
0.3879019021987915 0.6621579527854919 0.022721698507666588
0.3507392406463623 0.6686321496963501 0.0574040450155735
0.45638900995254517 0.855741024017334 0.04272611439228058
0.4293648600578308 0.5930740237236023 -0.030053364112973213
0.3808458745479584 0.7746570706367493 0.10291744023561478
0.4031513035297394 0.8043667078018188 0.08830276131629944
0.3752238154411316 0.7288001775741577 0.07510624825954437
0.32129523158073425 0.6671075820922852 0.14978882670402527
0.35717326402664185 0.7294277548789978 0.10148464143276215
0.3232051134109497 0.6787601709365845 0.20940682291984558
0.3768373131752014 0.689934492111206 0.04332032799720764
0.4410097599029541 0.558262825012207 -0.03862573206424713
0.4314606189727783 0.6316745281219482 -0.07744216918945312
0.42509204149246216 0.6353010535240173 -0.049746137112379074
0.4350458085536957 0.6180442571640015 -0.09703648090362549
0.4253423511981964 0.4438639283180237 -0.018517766147851944
0.38843148946762085 0.4266546964645386 -0.01801047846674919
0.35695528984069824 0.42381221055984497 -0.009767753072082996
0.3343361020088196 0.42834192514419556 0.006237492430955172
0.32221823930740356 0.43817198276519775 0.024868588894605637
0.3237850069999695 0.4739082455635071 0.06791401654481888
0.29452595114707947 0.5293653607368469 0.19271600246429443
0.34028032422065735 0.5143067836761475 0.05303425341844559
0.3603605329990387 0.5248734951019287 0.03580216318368912
0.3870096206665039 0.5250580310821533 0.02141776867210865
0.4119526743888855 0.5185782313346863 0.01125300396233797
0.42979541420936584 0.5112439393997192 0.003916563466191292
0.4414069950580597 0.5057179927825928 -0.001438904320821166
0.30990007519721985 0.5211882591247559 0.2751000225543976
0.4277800917625427 0.6406784057617188 -0.03803788125514984
0.44549599289894104 0.5682685375213623 -0.07377930730581284
0.4409552216529846 0.6350929141044617 -0.0980127602815628
0.4543839991092682 0.6461895108222961 -0.08937680721282959
0.44400689005851746 0.6378823518753052 -0.08639655262231827
0.43419232964515686 0.6474725008010864 -0.030851449817419052
0.45719584822654724 0.6492254734039307 -0.09564592689275742
0.4619867503643036 0.6537204384803772 -0.06816079467535019
0.4407860040664673 0.4864029586315155 0.006119676865637302
0.44998425245285034 0.49447518587112427 -0.009609585627913475
0.45427191257476807 0.5024733543395996 -0.025927044451236725
0.3390982151031494 0.4664762616157532 0.03832266107201576
0.32775458693504333 0.45620882511138916 0.040624167770147324
0.4961014688014984 0.5594896078109741 -0.10393920540809631
0.6749134659767151 0.48346656560897827 -0.02520699054002762
0.4992341995239258 0.6512148976325989 -0.07513196766376495
0.7807397842407227 0.37169018387794495 0.03997514769434929
0.6003662347793579 0.5057733654975891 -0.03288962319493294
0.6253415942192078 0.5084965229034424 -0.03541209548711777
0.6500341892242432 0.5073902010917664 -0.03373301774263382
0.6850281953811646 0.4895206093788147 -0.022436270490288734
0.5792558789253235 0.4998904764652252 -0.02677137963473797
0.6371728181838989 0.4284665286540985 -0.05431560426950455
0.6068149209022522 0.4312916398048401 -0.04918092116713524
0.6649104356765747 0.43404990434646606 -0.050758007913827896
0.6832382082939148 0.44512659311294556 -0.04368430748581886
0.7054582834243774 0.5030040144920349 -0.011598150245845318
0.5897552967071533 0.8424072861671448 0.03534405678510666
0.685508668422699 0.4732573628425598 -0.020658114925026894
0.7910436391830444 0.48013412952423096 0.06909649819135666
0.7352667450904846 0.48078638315200806 0.002269592136144638
0.611721396446228 0.6105864644050598 -0.03504803776741028
0.5110672116279602 0.7137024402618408 -0.04888668656349182
0.5110139846801758 0.733237624168396 -0.034036558121442795
0.5415328145027161 0.719763994216919 -0.04036858305335045
0.5635840892791748 0.7244170308113098 -0.02609049715101719
0.5359259843826294 0.732689619064331 -0.029855230823159218
0.5565565228462219 0.7324824333190918 -0.01658238098025322
0.6091578006744385 0.7604197263717651 0.014795301482081413
0.48871272802352905 0.6413216590881348 -0.11731654405593872
0.4908345639705658 0.6184557676315308 -0.12819504737854004
0.7128006219863892 0.426311194896698 -0.050195202231407166
0.5638540387153625 0.5478674173355103 -0.042174965143203735
0.5535990595817566 0.6304380893707275 -0.07322602719068527
0.5580485463142395 0.6161147952079773 -0.06866808235645294
0.6891154646873474 0.6049740314483643 -0.022298946976661682
0.4927607476711273 0.5870441794395447 -0.12064667046070099
0.6468974351882935 0.4013185501098633 -0.07884687930345535
0.6847503185272217 0.4100455045700073 -0.06813199073076248
0.7473379373550415 0.33291998505592346 -0.005919684190303087
0.5359440445899963 0.4228983521461487 -0.07608786225318909
0.5820064544677734 0.44361042976379395 -0.037593141198158264
0.6262571215629578 0.7357413172721863 0.010596247389912605
0.7753040790557861 0.701647937297821 0.1796208620071411
0.5363640189170837 0.6443151831626892 -0.05942358076572418
0.5181094408035278 0.6512629985809326 -0.0545116625726223
0.5945656895637512 0.7298959493637085 0.010974593460559845
0.5888150334358215 0.7310750484466553 0.007155943661928177
0.6979852914810181 0.3932415843009949 -0.06361919641494751
0.5570114850997925 0.6395189762115479 -0.05870315805077553
0.5985259413719177 0.4027286171913147 -0.08227463066577911
0.6005387902259827 0.3828791081905365 -0.09144704043865204
0.631136953830719 0.2868068218231201 -0.07916411012411118
0.7220588326454163 0.36241239309310913 -0.03991352394223213
0.6123898029327393 0.337223619222641 -0.08709806948900223
0.7294528484344482 0.41187387704849243 -0.036767493933439255
0.7552617788314819 0.39332062005996704 -0.001224434468895197
0.5112481117248535 0.7246527075767517 -0.04409122094511986
0.5386180877685547 0.7266485095024109 -0.035868603736162186
0.5600290298461914 0.7285112142562866 -0.022840721532702446
0.5316813588142395 0.6483780741691589 -0.051998887211084366
0.5915213823318481 0.7305182814598083 0.009033611975610256
0.5784718990325928 0.7384534478187561 0.001102552399970591
0.5857300162315369 0.7316778898239136 0.006979749072343111
0.5206505060195923 0.6385124921798706 -0.09137017279863358
0.5540735125541687 0.735480010509491 -0.010971528477966785
0.5337381362915039 0.736762523651123 -0.018517397344112396
0.5109853148460388 0.7383363246917725 -0.022559767588973045
0.5281078815460205 0.8102408647537231 0.011701737530529499
0.5162265300750732 0.7821418046951294 -0.015217923559248447
0.514314591884613 0.7666614055633545 -0.021359799429774284
0.5126103162765503 0.7512277364730835 -0.019103815779089928
0.5111927390098572 0.7389267683029175 -0.018311159685254097
0.5542981028556824 0.7354645729064941 -0.007586737163364887
0.5584460496902466 0.7405665516853333 -0.00884074717760086
0.5629451274871826 0.7476354837417603 -0.010108431801199913
0.5667352080345154 0.7557429671287537 -0.005495424848049879
0.5903959274291992 0.6988565921783447 -0.025362391024827957
0.8069677352905273 0.5775638818740845 0.18137551844120026
0.5697903037071228 0.733818531036377 0.001193465432152152
0.5739840269088745 0.7359400987625122 0.0004923160304315388
0.5113956928253174 0.6602349877357483 -0.05265919864177704
0.5515614748001099 0.6527368426322937 -0.036917995661497116
0.5144851207733154 0.6559176445007324 -0.054329074919223785
0.5892910957336426 0.5609525442123413 -0.036079127341508865
0.6296077966690063 0.5776466131210327 -0.033761002123355865
0.5641278624534607 0.6256197094917297 -0.054571472108364105
0.6989374756813049 0.30377617478370667 -0.04796869680285454
0.676030158996582 0.34250354766845703 -0.06736087799072266
0.6543071866035461 0.38180696964263916 -0.08111743628978729
0.5878391265869141 0.780720055103302 0.011217784136533737
0.5401826500892639 0.3891066908836365 -0.09123562276363373
0.5516268014907837 0.3394048810005188 -0.09264596551656723
0.5634006857872009 0.2804240882396698 -0.09016355127096176
0.672186553478241 0.5015315413475037 -0.02835628017783165
0.7349776029586792 0.518195629119873 -0.0009982045739889145
0.5654847621917725 0.4943738579750061 -0.022960880771279335
0.7068936824798584 0.45562031865119934 -0.03011290729045868
0.5458540320396423 0.5334605574607849 -0.04999407008290291
0.5359917283058167 0.6233943700790405 -0.09437640756368637
0.7605953216552734 0.5344437956809998 0.021092699840664864
0.7157484292984009 0.5391733050346375 -0.014883538708090782
0.6812461614608765 0.551837682723999 -0.027595922350883484
0.6315709352493286 0.5495869517326355 -0.029599562287330627
0.5962451696395874 0.5396867394447327 -0.029870091006159782
0.5703023672103882 0.5294613838195801 -0.03335711732506752
0.5074969530105591 0.5050100088119507 -0.07338901609182358
0.7547081708908081 0.5876277685165405 0.02460344508290291
0.7265148758888245 0.45003631711006165 -0.02522154338657856
0.4848368763923645 0.6521183252334595 -0.10406321287155151
0.5586485862731934 0.5741497278213501 -0.04654030501842499
0.8111840486526489 0.4692966043949127 0.13956332206726074
0.5496383309364319 0.5181888937950134 -0.035988159477710724
0.5696936249732971 0.6250934600830078 -0.0312788225710392
0.6953169703483582 0.47298464179039 -0.017982807010412216
0.5402126908302307 0.6060371994972229 -0.08839568495750427
0.7957305908203125 0.6375282406806946 0.18581175804138184
0.5663561820983887 0.48547202348709106 -0.019829465076327324
0.5168474912643433 0.5940613150596619 -0.10935764759778976
0.7029299736022949 0.7773473858833313 0.08494321256875992
0.7101786136627197 0.7975589036941528 0.1296367198228836
0.789641261100769 0.5841651558876038 0.10060623288154602
0.7365033626556396 0.7397786974906921 0.09927103668451309
0.774562418460846 0.4328169822692871 0.038853298872709274
0.5959146022796631 0.8644739389419556 0.05183830484747887
0.4857657253742218 0.6561707258224487 -0.07144203782081604
0.581397533416748 0.5911241769790649 -0.038127459585666656
0.7603617906570435 0.4811716675758362 0.02020801045000553
0.6472367644309998 0.4951605498790741 -0.03292161226272583
0.6248611807823181 0.4961296021938324 -0.03469669446349144
0.5827512145042419 0.7415785193443298 0.004311800003051758
0.7501375675201416 0.6360979080200195 0.04375336319208145
0.5533025860786438 0.894577145576477 0.07145947962999344
0.6325245499610901 0.8581894636154175 0.09374117851257324
0.6682515740394592 0.8337274789810181 0.10888016223907471
0.604218602180481 0.4931846261024475 -0.03219784423708916
0.5844484567642212 0.48894041776657104 -0.026581889018416405
0.5718838572502136 0.4872415363788605 -0.02097298577427864
0.746597409248352 0.44004112482070923 -0.007217856124043465
0.5893682241439819 0.4618579149246216 -0.033751677721738815
0.6114386320114136 0.4511951208114624 -0.04125864431262016
0.6346016526222229 0.449451744556427 -0.04407836124300957
0.6575042009353638 0.4542413353919983 -0.04185835272073746
0.6714808940887451 0.4620581269264221 -0.03609195724129677
0.8002211451530457 0.41485726833343506 0.09299413114786148
0.6632559895515442 0.4902021586894989 -0.029111409559845924
0.5637175440788269 0.6872155070304871 -0.03572090342640877
0.5347152352333069 0.6410980224609375 -0.06863057613372803
0.5158635377883911 0.6821238398551941 -0.04901197552680969
0.6677446961402893 0.8116567134857178 0.07727701216936111
0.6337672472000122 0.8384319543838501 0.06644085794687271
0.5511353015899658 0.8825370669364929 0.04133864864706993
0.7452269196510315 0.7555695176124573 0.1564476639032364
0.5734927654266357 0.4767853319644928 -0.0259979497641325
0.5218921303749084 0.5448742508888245 -0.07630946487188339
0.5947251319885254 0.8799031376838684 0.07763058692216873
0.7805599570274353 0.6383755803108215 0.11034311354160309
0.533972442150116 0.7371439933776855 -0.014515618793666363
0.5376649498939514 0.7463158369064331 -0.0159992054104805
0.5410215854644775 0.7579970955848694 -0.017523622140288353
0.5436578989028931 0.771695613861084 -0.012301312759518623
0.5610952973365784 0.7980626225471497 0.0077155958861112595
0.573825478553772 0.7316998839378357 -0.004926844034343958
0.5776114463806152 0.7294367551803589 -0.006814050488173962
0.5811581015586853 0.7272509932518005 -0.008820120245218277
0.6121938228607178 0.7153546214103699 -0.010363311506807804
0.7111314535140991 0.6547800898551941 0.008317038416862488
0.5264157056808472 0.5177088379859924 -0.06026143208146095
0.5444822311401367 0.46537497639656067 -0.03331869840621948
0.5619204044342041 0.46734917163848877 -0.028723808005452156
0.5699466466903687 0.7340408563613892 -0.0009087825892493129
0.7186586260795593 0.710099995136261 0.05291067063808441
0.5184120535850525 0.46689367294311523 -0.05750224366784096
0.5775012969970703 0.8193061351776123 0.02373138628900051
0.5018991827964783 0.533899188041687 -0.09084463864564896
0.5384456515312195 0.5830683708190918 -0.07178682088851929
0.5375143885612488 0.8342169523239136 0.02119389735162258
0.6334272623062134 0.7701403498649597 0.026844516396522522
0.592309832572937 0.6435786485671997 -0.02631448209285736
0.6087919473648071 0.7979440689086914 0.026945538818836212
0.6516073942184448 0.6391479969024658 -0.026887549087405205
0.6169142723083496 0.6674358248710632 -0.02196185290813446
0.6747159361839294 0.6763556003570557 -0.005892218556255102
0.5459944605827332 0.8613345623016357 0.02576075866818428
0.5553162693977356 0.5947830677032471 -0.05540730804204941
0.6563612222671509 0.7877440452575684 0.048046309500932693
0.6240646243095398 0.8166757225990295 0.04623088985681534
0.6512234210968018 0.7387626767158508 0.017505621537566185
0.7443495988845825 0.6768400073051453 0.0621027834713459
0.6848189830780029 0.7411046028137207 0.03513175994157791
0.7656983137130737 0.6896467804908752 0.11392822861671448
0.6384168863296509 0.6969631910324097 -0.010004873387515545
0.5403738021850586 0.5591580867767334 -0.06040587276220322
0.5272169709205627 0.6348080039024353 -0.09734945744276047
0.545206606388092 0.6390259861946106 -0.07257387787103653
0.5141113996505737 0.6200944185256958 -0.11342497915029526
0.5622355937957764 0.44031837582588196 -0.04740194231271744
0.6028233170509338 0.4233153462409973 -0.059361230581998825
0.6404180526733398 0.4206361472606659 -0.06328573822975159
0.6719006299972534 0.42633938789367676 -0.05911383405327797
0.6944326758384705 0.43795716762542725 -0.04862137883901596
0.7115970253944397 0.4775409698486328 -0.010986654087901115
0.794055163860321 0.5316511988639832 0.08465229719877243
0.6906543970108032 0.5162211060523987 -0.01888568140566349
0.6633597016334534 0.5256238579750061 -0.026519637554883957
0.6290711164474487 0.5263724327087402 -0.029574785381555557
0.5976873636245728 0.5205360651016235 -0.028955237939953804
0.5738731622695923 0.5131434202194214 -0.02647124044597149
0.5568331480026245 0.5062709450721741 -0.02624182589352131
0.8115435838699341 0.5221768021583557 0.16663342714309692
0.5467056632041931 0.6442558169364929 -0.060280706733465195
0.517503559589386 0.568989098072052 -0.08980891108512878
0.5074461102485657 0.6375861763954163 -0.11059781908988953
0.4986231327056885 0.6482450366020203 -0.09668952226638794
0.5100096464157104 0.6406325697898865 -0.09932523220777512
0.5420924425125122 0.6506713628768921 -0.049453966319561005
0.4927383363246918 0.6506423950195312 -0.10155841708183289
0.4935052990913391 0.6546893119812012 -0.0732194185256958
0.5568868517875671 0.48671388626098633 -0.020241858437657356
0.5427456498146057 0.4931258261203766 -0.029226461425423622
0.5327939391136169 0.4995402693748474 -0.04206234961748123
0.6793660521507263 0.4681329131126404 -0.029497414827346802
0.6942738890647888 0.45741865038871765 -0.0317990779876709
0.3875158727169037 0.4730309247970581 0.020825214684009552
0.41250693798065186 0.47165608406066895 0.020825214684009552
0.3868817090988159 0.44903796911239624 0.020825214684009552
0.3625800609588623 0.4744948744773865 0.020825214684009552
0.3881087899208069 0.4971277117729187 0.020825214684009552
0.6334081888198853 0.4709043502807617 -0.030919460579752922
0.6601245403289795 0.4709385931491852 -0.030919460579752922
0.6322916150093079 0.44722265005111694 -0.030919460579752922
0.6066074967384338 0.4709109961986542 -0.030919460579752922
0.6345213651657104 0.49486231803894043 -0.030919460579752922
