ply
format ascii 1.0
element vertex 478
property float x
property float y
property float z
end_header
0.5185464024543762 0.7063289284706116 -0.07334330677986145
0.5425328016281128 0.6357830762863159 -0.13770923018455505
0.5322473645210266 0.6595783829689026 -0.07702969759702682
0.5142055153846741 0.5525310039520264 -0.10641273111104965
0.5429964661598206 0.6094885468482971 -0.14518257975578308
0.5392394065856934 0.5761973857879639 -0.1342308670282364
0.5263399481773376 0.49609118700027466 -0.06483525037765503
0.336122989654541 0.4871845245361328 0.00027502470766194165
0.5226449966430664 0.4359961152076721 -0.044898271560668945
0.5227476358413696 0.40211358666419983 -0.04782824218273163
0.5157507061958313 0.2746034860610962 -0.017570961266756058
0.5181401371955872 0.7127971649169922 -0.07052963227033615
0.5172322392463684 0.7184682488441467 -0.06389109790325165
0.516273558139801 0.7216610908508301 -0.0546148307621479
0.5165592432022095 0.7699428200721741 -0.04172712564468384
0.5168247818946838 0.7785815000534058 -0.04723360762000084
0.5164891481399536 0.7898589968681335 -0.05346584692597389
0.5156258344650269 0.8037583231925964 -0.05104992166161537
0.5230656862258911 0.8298212289810181 -0.03172226622700691
0.5395253896713257 0.6496917009353638 -0.12570300698280334
0.5119720101356506 0.6490266919136047 -0.09646360576152802
0.21264737844467163 0.3904695510864258 0.09910685569047928
0.4033263623714447 0.5067446231842041 -0.012764105573296547
0.3795093894004822 0.5088862180709839 -0.015900908038020134
0.35592782497406006 0.5080949664115906 -0.013643178157508373
0.32319962978363037 0.4958150386810303 0.001561080338433385
0.42392903566360474 0.5018036365509033 -0.0055371541529893875
0.37254276871681213 0.4360797107219696 -0.02608429081737995
0.4004027843475342 0.43970102071762085 -0.019198108464479446
0.3452000021934509 0.4405251741409302 -0.022556491196155548
0.3261067271232605 0.45104238390922546 -0.01507367193698883
0.2996431589126587 0.5106617212295532 0.010725181549787521
0.42556309700012207 0.8706223964691162 -0.018605850636959076
0.3263779580593109 0.48108983039855957 0.0071463934145867825
0.2066744565963745 0.505306601524353 0.10601571202278137
0.26813387870788574 0.49385613203048706 0.03125130385160446
0.3908720910549164 0.6106746196746826 -0.043312232941389084
0.4811097979545593 0.7013987302780151 -0.07691355794668198
0.4809699058532715 0.7157090902328491 -0.06562869995832443
0.4436958134174347 0.704883873462677 -0.06728094816207886
0.4175291955471039 0.7089401483535767 -0.04809404909610748
0.44982048869132996 0.7145025134086609 -0.05831722915172577
0.42553409934043884 0.7149781584739685 -0.040285058319568634
0.38506072759628296 0.7658228874206543 -0.009183562360703945
0.5219117999076843 0.6354184746742249 -0.13865141570568085
0.5196790099143982 0.6097384691238403 -0.14594002068042755
0.29208242893218994 0.4305657148361206 -0.0144216138869524
0.4461987316608429 0.550176739692688 -0.03530802205204964
0.45061394572257996 0.6258207559585571 -0.08951905369758606
0.44677677750587463 0.6117385029792786 -0.08183644711971283
0.3069649040699005 0.6054902076721191 -0.025454401969909668
0.5172202587127686 0.5787919163703918 -0.1314433217048645
0.3605339825153351 0.4027291536331177 -0.04304458200931549
0.321784108877182 0.41147440671920776 -0.03183267265558243
0.24812963604927063 0.3424780070781708 0.05847349762916565
0.47034844756126404 0.42767274379730225 -0.04613875970244408
0.423225462436676 0.4512929916381836 -0.007774002384394407
0.362695574760437 0.7343950867652893 -0.009790709242224693
0.22571754455566406 0.7565174698829651 0.16300418972969055
0.46835389733314514 0.640967845916748 -0.07675626873970032
0.48958620429039 0.6483600735664368 -0.0748889148235321
0.38531726598739624 0.7174933552742004 -0.005500295665115118
0.3919340968132019 0.7188066840171814 -0.008682020008563995
0.30707359313964844 0.39620426297187805 -0.021489659324288368
0.4449024498462677 0.6354899406433105 -0.07607625424861908
0.40939316153526306 0.4064944088459015 -0.04833013564348221
0.40708115696907043 0.38697367906570435 -0.053529854863882065
0.36983680725097656 0.28206464648246765 -0.013088426552712917
0.278475284576416 0.3689412474632263 0.014075092040002346
0.39253416657447815 0.33150190114974976 -0.03322800248861313
0.2739796042442322 0.419869989156723 0.004172884859144688
0.24347861111164093 0.40774863958358765 0.05073389410972595
0.480571448802948 0.7093982100486755 -0.07366915792226791
0.4468420147895813 0.7101382613182068 -0.06333857029676437
0.42158472537994385 0.7121416926383972 -0.045942556113004684
0.4730508029460907 0.6451348662376404 -0.07014529407024384
0.3886905610561371 0.7180853486061096 -0.006911233998835087
0.4045518636703491 0.7377079725265503 -0.01758776232600212
0.3949020504951477 0.7196263074874878 -0.00886005349457264
0.48766621947288513 0.635042130947113 -0.10967889428138733
0.42901113629341125 0.7166785597801208 -0.03664447367191315
0.45279598236083984 0.7168833613395691 -0.049080051481723785
0.48217421770095825 0.7190364599227905 -0.05665283277630806
0.4833678901195526 0.8282634615898132 -0.03510886803269386
0.47782355546951294 0.7992370128631592 -0.05447709560394287
0.47978702187538147 0.7856574058532715 -0.05642056465148926
0.48172518610954285 0.7743380069732666 -0.04954227805137634
0.4836801588535309 0.7666105628013611 -0.0439702607691288
0.4316577613353729 0.7482150197029114 -0.026836039498448372
0.4281138777732849 0.7504215240478516 -0.03144384175539017
0.4232558012008667 0.7555976510047913 -0.03537251055240631
0.4196389317512512 0.7627830505371094 -0.03177720308303833
0.4016660749912262 0.6959128379821777 -0.042989376932382584
0.19091758131980896 0.6251407265663147 0.19777235388755798
0.5361155271530151 0.6553686261177063 -0.09429553896188736
0.4145984351634979 0.7370111346244812 -0.014853999949991703
0.4096391499042511 0.736463189125061 -0.017473572865128517
0.4970567226409912 0.6576022505760193 -0.07574378699064255
0.45004409551620483 0.6489351987838745 -0.05541989952325821
0.4936487674713135 0.6531051397323608 -0.07601939886808395
0.4171687364578247 0.5631709694862366 -0.0328885093331337
0.37327784299850464 0.5773938894271851 -0.03388398513197899
0.43868812918663025 0.622138261795044 -0.06865335255861282
0.2992221415042877 0.3051570653915405 0.018517807126045227
0.326434463262558 0.3422514796257019 -0.012914522551000118
0.3525540828704834 0.3840613067150116 -0.03951861336827278
0.41081884503364563 0.7917823791503906 -0.019355235621333122
0.46558094024658203 0.3954598009586334 -0.05500297248363495
0.45413991808891296 0.33147764205932617 -0.03965674340724945
0.4392889738082886 0.27345961332321167 -0.02506043016910553
0.3351685404777527 0.5039563179016113 -0.0066914926283061504
0.2705306112766266 0.527513861656189 0.019634909927845
0.4381723403930664 0.4967212677001953 -0.00038420100463554263
0.2995240092277527 0.463388055562973 0.001488891546614468
0.46614816784858704 0.5346377491950989 -0.04091249406337738
0.47189217805862427 0.6178064942359924 -0.11059746146202087
0.2391018569469452 0.5490848422050476 0.04025302082300186
0.2903648614883423 0.5435200929641724 -0.0008199000149033964
0.3256757855415344 0.5516663789749146 -0.017417680472135544
0.3750756084918976 0.5481328368186951 -0.020755061879754066
0.41036462783813477 0.5389862060546875 -0.019269872456789017
0.4370476305484772 0.5284361839294434 -0.02065899781882763
0.5030756592750549 0.502107560634613 -0.06004341319203377
0.2412290722131729 0.6009735465049744 0.03162093460559845
0.2779653072357178 0.4599577486515045 0.008932138793170452
0.527085542678833 0.6489003896713257 -0.12682843208312988
0.4494313895702362 0.5742256045341492 -0.04727330803871155
0.18298450112342834 0.5049316883087158 0.1817934811115265
0.45816144347190857 0.5161311030387878 -0.020545154809951782
0.43219754099845886 0.6229565143585205 -0.04285718500614166
0.3131897449493408 0.48159700632095337 0.01016735564917326
0.46805500984191895 0.6008719205856323 -0.10074246674776077
0.20291391015052795 0.6897822618484497 0.18623296916484833
0.43799105286598206 0.48890918493270874 0.005775763187557459
0.4933980405330658 0.5874215960502625 -0.12087325006723404
0.3017875552177429 0.8110713958740234 0.05272126942873001
0.2998204827308655 0.8468214869499207 0.09000200778245926
0.20712965726852417 0.6161616444587708 0.11370285600423813
0.2623130679130554 0.7778260111808777 0.074216328561306
0.22309669852256775 0.45278409123420715 0.08486907184123993
0.4228006601333618 0.8987990617752075 -0.009085986763238907
0.5264338850975037 0.6544525623321533 -0.09409939497709274
0.4235173165798187 0.591209352016449 -0.04252082109451294
0.24212446808815002 0.49898624420166016 0.05117601901292801
0.3601456880569458 0.4940604269504547 -0.010277560912072659
0.38025668263435364 0.49524563550949097 -0.012789235450327396
0.4003783166408539 0.740310788154602 -0.015064877457916737
0.24184328317642212 0.6554526090621948 0.038757141679525375
0.4705612063407898 0.933926522731781 -0.0003632598672993481
0.3871214985847473 0.9023336172103882 0.037994906306266785
0.347804993391037 0.8797886371612549 0.06154344975948334
0.5198923349380493 0.3350534737110138 -0.033523570746183395
0.520904541015625 0.9361672401428223 0.0026568586472421885
0.3997664153575897 0.49362093210220337 -0.009845203720033169
0.41828101873397827 0.4909853935241699 -0.0030784907285124063
0.43123576045036316 0.49023324251174927 0.004004035610705614
0.2554587721824646 0.4549376368522644 0.03033272549510002
0.4152451455593109 0.4707960784435272 -0.006231863982975483
0.39472782611846924 0.46275538206100464 -0.014045994728803635
0.3749217092990875 0.46119898557662964 -0.017075469717383385
0.35441237688064575 0.46502530574798584 -0.014822715893387794
0.3410756289958954 0.4713301658630371 -0.008907351642847061
0.19236207008361816 0.4416131377220154 0.14522477984428406
0.3462173640727997 0.49096807837486267 -0.005144791677594185
0.5299017429351807 0.6771310567855835 -0.06984822452068329
0.4346363842487335 0.6831862926483154 -0.05688829720020294
0.4707808196544647 0.6376639008522034 -0.08519267290830612
0.4911489188671112 0.6776590347290039 -0.07371892035007477
0.5224674940109253 0.46601444482803345 -0.04541707783937454
0.3436838984489441 0.8452590107917786 0.036272596567869186
0.38231360912323 0.8723330497741699 0.015184987336397171
0.4708390235900879 0.9153594970703125 -0.027056928724050522
0.2599002718925476 0.8091560006141663 0.12623551487922668
0.4308205842971802 0.4819539189338684 0.0007568573346361518
0.4893254339694977 0.5413504242897034 -0.07161157578229904
0.5234394669532776 0.917504608631134 -0.023476025089621544
0.4272478222846985 0.9215273857116699 0.01286401692777872
0.2149505764245987 0.6754893064498901 0.10948695242404938
0.45550337433815 0.7587218284606934 -0.03744857758283615
0.4516182243824005 0.7640249133110046 -0.04273444041609764
0.44824033975601196 0.7727543711662292 -0.047463126480579376
0.44574400782585144 0.7846615314483643 -0.04463282227516174
0.44312721490859985 0.8139270544052124 -0.030772937461733818
0.40563616156578064 0.7164542078971863 -0.023877432569861412
0.4016454815864563 0.714690625667572 -0.02481478452682495
0.39821657538414 0.7127455472946167 -0.02627168782055378
0.37518900632858276 0.7121652960777283 -0.026249125599861145
0.27971628308296204 0.6655176877975464 -0.0039188009686768055
0.48530733585357666 0.5166075825691223 -0.0484742745757103
0.4604780673980713 0.4694173336029053 -0.005507093388587236
0.4426709711551666 0.4723091125488281 -0.000328829133650288
0.40970030426979065 0.7176615595817566 -0.021402619779109955
0.2734649181365967 0.7333102226257324 0.032493073493242264
0.48799067735671997 0.4681975543498993 -0.034431714564561844
0.4333328902721405 0.8411010503768921 -0.02307894080877304
0.5346912145614624 0.5489284992218018 -0.10992564260959625
0.5087831020355225 0.5286797881126404 -0.08462885022163391
0.5305947065353394 0.5236564874649048 -0.08608263731002808
0.4709891378879547 0.579815685749054 -0.0762142464518547
0.5246819257736206 0.8912002444267273 -0.03460261970758438
0.5239112973213196 0.8586837649345398 -0.03335832804441452
0.4783933758735657 0.8573190569877625 -0.034318577498197556
0.3689073920249939 0.7816749811172485 -0.00147988589014858
0.4085293114185333 0.643022358417511 -0.039693914353847504
0.3983791172504425 0.8155657052993774 -0.010473146103322506
0.34490251541137695 0.6403101682662964 -0.03992928937077522
0.3798784017562866 0.6679988503456116 -0.03640034794807434
0.3178643584251404 0.682043194770813 -0.022413333877921104
0.4733025133609772 0.8894082307815552 -0.036655548959970474
0.4514039158821106 0.5929319262504578 -0.06196189671754837
0.3509562611579895 0.8090973496437073 0.013864900916814804
0.38829073309898376 0.8416892886161804 0.0011102244025096297
0.3451217710971832 0.7445013523101807 -0.005964037496596575
0.2468215823173523 0.7026140093803406 0.04831724241375923
0.31270939111709595 0.7577286958694458 0.010689170099794865
0.23114778101444244 0.7299483418464661 0.09993819892406464
0.3528038263320923 0.6966331005096436 -0.02677071839570999
0.4701114594936371 0.5577123761177063 -0.05821262672543526
0.48055094480514526 0.6302482485771179 -0.11511106044054031
0.4592844545841217 0.6348671317100525 -0.09049396216869354
0.49559223651885986 0.6131979823112488 -0.1303529143333435
0.4433487057685852 0.44625064730644226 -0.015424885787069798
0.4047684669494629 0.42852509021759033 -0.026215441524982452
0.3689369559288025 0.42418259382247925 -0.031325310468673706
0.3370593190193176 0.42946869134902954 -0.027367182075977325
0.31299057602882385 0.44232964515686035 -0.01617453806102276
0.29391059279441833 0.4877352714538574 0.017406277358531952
0.20369493961334229 0.5602014660835266 0.11022328585386276
0.31484755873680115 0.5203838348388672 0.00017151047359220684
0.34214550256729126 0.5269020795822144 -0.009911668486893177
0.3759767413139343 0.5267730951309204 -0.014349517412483692
0.4069214165210724 0.5217257738113403 -0.01274167001247406
0.43110695481300354 0.5145056843757629 -0.00878805574029684
0.4485383629798889 0.5072528719902039 -0.007345968391746283
0.18516412377357483 0.5647006034851074 0.19754628837108612
0.4563170373439789 0.6404316425323486 -0.07829868793487549
0.4929237961769104 0.563874363899231 -0.09292271733283997
0.5023212432861328 0.6325036287307739 -0.13022205233573914
0.512512743473053 0.6453701853752136 -0.1182367131114006
0.4995805025100708 0.6370336413383484 -0.11870837211608887
0.46070149540901184 0.6469995379447937 -0.06818100810050964
0.5186774134635925 0.6474878787994385 -0.12404055893421173
0.5180938839912415 0.6528644561767578 -0.09522814303636551
0.4475901424884796 0.4892851710319519 0.004328257869929075
0.4626978039741516 0.4943116307258606 -0.0074820490553975105
0.47424232959747314 0.4979539215564728 -0.024146584793925285
0.3331250548362732 0.4764043688774109 -0.002231781603768468
0.3139130771160126 0.4643559455871582 -0.002989219967275858
0.5529183745384216 0.5527606010437012 -0.0966472253203392
0.6656709313392639 0.48533016443252563 0.07109697163105011
0.5569141507148743 0.648601233959198 -0.08889121562242508
0.730907142162323 0.4014942944049835 0.21053609251976013
0.6099668741226196 0.5078526139259338 0.03302739933133125
0.6310941576957703 0.508516788482666 0.039158910512924194
0.6508541703224182 0.5070326328277588 0.05006708204746246
0.67452472448349 0.4952850341796875 0.07671327888965607
0.5914604663848877 0.5035214424133301 0.030373459681868553
0.6393052935600281 0.4391946792602539 0.031303633004426956
0.6146410703659058 0.4425915479660034 0.02582305110991001
0.6619073152542114 0.4431321620941162 0.04377708211541176
0.675810694694519 0.45304161310195923 0.056506410241127014
0.6932542324066162 0.5110036730766296 0.09173732995986938
0.6060800552368164 0.8629807829856873 0.015210012905299664
0.6721136569976807 0.48031848669052124 0.08119235932826996
0.743370771408081 0.5094708800315857 0.21654334664344788
0.7150205969810486 0.4954599142074585 0.12202256172895432
0.6404334902763367 0.6111007928848267 0.003950170241296291
0.5540462732315063 0.7019239664077759 -0.06395196914672852
0.5509940981864929 0.716269850730896 -0.05351348593831062
0.58619225025177 0.705598771572113 -0.040931932628154755
0.60735684633255 0.7101001143455505 -0.012142326682806015
0.5779516696929932 0.7156606912612915 -0.03500805422663689
0.5983766317367554 0.7168288230895996 -0.009345230646431446
0.6309975981712341 0.7607187032699585 0.03636281192302704
0.5608147978782654 0.6351427435874939 -0.1324041485786438
0.5637206435203552 0.6097564697265625 -0.1385313868522644
0.7056547999382019 0.4329531192779541 0.07043243944644928
0.5873806476593018 0.5514480471611023 -0.00471268268302083
0.6052480340003967 0.6253888010978699 -0.06084514781832695
0.6045867204666138 0.6116946339607239 -0.05224611610174179
0.7071210741996765 0.6057274341583252 0.052238430827856064
0.5588620901107788 0.5788751244544983 -0.12186700850725174
0.6587885618209839 0.40421342849731445 0.014961685054004192
0.6870160102844238 0.4137989580631256 0.041321124881505966
0.7149880528450012 0.355312705039978 0.15782248973846436
0.5653268098831177 0.4284069538116455 -0.027487823739647865
0.5933123826980591 0.453876256942749 0.028778329491615295
0.6496720910072327 0.7296789884567261 0.04495676979422569
0.7105472087860107 0.7489545345306396 0.2681092917919159
0.5873541235923767 0.6403266787528992 -0.05535564199090004
0.5692245364189148 0.6482378244400024 -0.0641271248459816
0.6336951851844788 0.7206593155860901 0.042366065084934235
0.6270887851715088 0.7220521569252014 0.033927544951438904
0.6972925662994385 0.39903566241264343 0.05672731623053551
0.6048949956893921 0.6348040103912354 -0.04793811962008476
0.619134783744812 0.40699106454849243 -0.00875015277415514
0.622848629951477 0.3871988356113434 -0.012637373059988022
0.6396939754486084 0.29253891110420227 0.04287399724125862
0.7076472043991089 0.37873318791389465 0.10063383728265762
0.6318491697311401 0.3400159776210785 0.013945386745035648
0.7160019874572754 0.4235387444496155 0.09508822113275528
0.7254133224487305 0.41579878330230713 0.14932896196842194
0.5532378554344177 0.7099506855010986 -0.060783177614212036
0.5822985768318176 0.7111403346061707 -0.03843296319246292
0.6032313704490662 0.7135460376739502 -0.012710616923868656
0.581898033618927 0.6443654894828796 -0.05278921127319336
0.6304527521133423 0.7213008403778076 0.037596795707941055
0.6168782114982605 0.7404751777648926 0.020411891862750053
0.6242142915725708 0.7227783203125 0.032539524137973785
0.5794833898544312 0.6346958875656128 -0.09023410081863403
0.5936809778213501 0.71877121925354 -0.007219557184726
0.5735552310943604 0.7183009386062622 -0.02708609402179718
0.5479333400726318 0.7196812033653259 -0.0442521870136261
0.5579993724822998 0.8259915709495544 -0.023306891322135925
0.5515190362930298 0.799709141254425 -0.041176047176122665
0.5511846542358398 0.7859368920326233 -0.04250708594918251
0.5497273802757263 0.7747014164924622 -0.035835254937410355
0.5471316576004028 0.7670726180076599 -0.030943481251597404
0.5921076536178589 0.7502355575561523 0.00280336057767272
0.5964237451553345 0.7524518370628357 -0.0017322044586762786
0.6013575196266174 0.7575997710227966 -0.004672595299780369
0.6045381426811218 0.7647309303283691 0.0007891516434028745
0.6288809776306152 0.6933647990226746 -0.0023841066285967827
0.7293850183486938 0.6248266100883484 0.3139130771160126
0.6063233613967896 0.7396732568740845 0.021767565980553627
0.6119095087051392 0.7392396330833435 0.01926535554230213
0.5625278949737549 0.657335638999939 -0.06515076756477356
0.5962638258934021 0.6481277942657471 -0.03296023979783058
0.5657422542572021 0.6530157327651978 -0.06559962779283524
0.6121547222137451 0.564358651638031 0.008227200247347355
0.6520017385482788 0.578633189201355 0.021634604781866074
0.6074734926223755 0.6219670176506042 -0.038012146949768066
0.6868091821670532 0.3180767595767975 0.09905838221311569
0.6780824065208435 0.35256582498550415 0.05629453808069229
0.6655316352844238 0.385433554649353 0.022141817957162857
0.6132113337516785 0.7865394353866577 0.018257977440953255
0.5724155902862549 0.3954360783100128 -0.03484366834163666
0.5810561180114746 0.3361537754535675 -0.015325144864618778
0.5849968194961548 0.2794469892978668 0.003002437297254801
0.6662368774414062 0.5029582977294922 0.06437350809574127
0.7155390977859497 0.5276785492897034 0.10964733362197876
0.5790309309959412 0.49834147095680237 0.03160249814391136
0.695554792881012 0.46453672647476196 0.08331464976072311
0.5717381238937378 0.5358512997627258 -0.016654420644044876
0.5938733816146851 0.6177786588668823 -0.08744298666715622
0.7413875460624695 0.5513653755187988 0.14214150607585907
0.7038996815681458 0.5433065891265869 0.08417802304029465
0.6790432929992676 0.5516549348831177 0.055171407759189606
0.6390749216079712 0.5493106842041016 0.034817252308130264
0.6084348559379578 0.5407187342643738 0.0229001734405756
0.5852366089820862 0.5302327275276184 0.010911763645708561
0.5462118983268738 0.5028496980667114 -0.04996763542294502
0.7457130551338196 0.6010014414787292 0.13341514766216278
0.711311399936676 0.46204277873039246 0.09878750145435333
0.5507373809814453 0.648618221282959 -0.12181355059146881
0.5900471210479736 0.5750619769096375 -0.017540324479341507
0.7367796897888184 0.5104830861091614 0.3019004762172699
0.5682018399238586 0.5174106359481812 0.0037721411790698767
0.607202410697937 0.6228252053260803 -0.012222127988934517
0.6819093823432922 0.4818164110183716 0.0878533273935318
0.5918765068054199 0.6011128425598145 -0.07712240517139435
0.723160982131958 0.6858803629875183 0.29793742299079895
0.5776121020317078 0.4899387061595917 0.039066772907972336
0.5756698846817017 0.5875747203826904 -0.1037699282169342
0.6855838894844055 0.7995468378067017 0.12887749075889587
0.6723610162734985 0.8328198194503784 0.169805645942688
0.7488011717796326 0.614986002445221 0.22464697062969208
0.7115662693977356 0.7680497765541077 0.16390013694763184
0.7344064712524414 0.45940935611724854 0.19070249795913696
0.6063109636306763 0.8894626498222351 0.02712903916835785
0.5452938079833984 0.654396653175354 -0.09102411568164825
0.6109782457351685 0.5919362902641296 -0.005772087257355452
0.7312055826187134 0.5007742643356323 0.15116631984710693
0.6480339169502258 0.4918020963668823 0.051925111562013626
0.6311397552490234 0.4941960275173187 0.04229200631380081
0.6206446886062622 0.7430416345596313 0.0254273172467947
0.7434722185134888 0.6526223421096802 0.13768598437309265
0.5655030608177185 0.9279392957687378 0.020719023421406746
0.6215227842330933 0.8892311453819275 0.08984822779893875
0.6443852186203003 0.8651553988456726 0.12655512988567352
0.6133159399032593 0.4940502345561981 0.03716040402650833
0.5958663821220398 0.49247312545776367 0.03710166737437248
0.5839513540267944 0.4917823076248169 0.03991121053695679
0.7239233255386353 0.4583136737346649 0.12716297805309296
0.5972949266433716 0.47383975982666016 0.03497247025370598
0.6156524419784546 0.46693557500839233 0.03406205400824547
0.6339731812477112 0.46496984362602234 0.038944076746702194
0.6514390110969543 0.4677131474018097 0.04886168986558914
0.6619197130203247 0.47275280952453613 0.05925846844911575
0.737563967704773 0.45040640234947205 0.2629183828830719
0.6586711406707764 0.48853692412376404 0.0624309666454792
0.6068931818008423 0.6817312240600586 -0.025931645184755325
0.5881286263465881 0.6371070146560669 -0.06501176208257675
0.5644210577011108 0.6770860552787781 -0.06076351925730705
0.6564185619354248 0.8332411050796509 0.0981200635433197
0.631502628326416 0.8607495427131653 0.06406337022781372
0.5704704523086548 0.9101370573043823 -0.00719377351924777
0.6932196021080017 0.7980319261550903 0.22083057463169098
0.5839360952377319 0.48329484462738037 0.03745036572217941
0.5632467269897461 0.5421210527420044 -0.05532240495085716
0.5972892045974731 0.9111037850379944 0.051140330731868744
0.7421761751174927 0.6712899208068848 0.21624089777469635
0.572098433971405 0.7598963379859924 -0.014849427156150341
0.5765491127967834 0.7651594877243042 -0.019406180828809738
0.5799227952957153 0.7738232016563416 -0.0229287538677454
0.5817882418632507 0.7858092784881592 -0.019343176856637
0.5901013612747192 0.8094664812088013 -0.002975578885525465
0.6154283285140991 0.7189613580703735 0.01434875838458538
0.6197319030761719 0.7169955372810364 0.016686225309967995
0.6233780980110168 0.7148564457893372 0.017575955018401146
0.6450330018997192 0.7086595892906189 0.024320602416992188
0.7239528298377991 0.6626774072647095 0.08050571382045746
0.558031439781189 0.5178260207176208 -0.03153800591826439
0.5633343458175659 0.47011125087738037 0.016032567247748375
0.5751649141311646 0.4739166796207428 0.030385462567210197
0.6107980608940125 0.7202990055084229 0.015356173738837242
0.7165597677230835 0.7266385555267334 0.11763638257980347
0.546720564365387 0.4686732292175293 -0.021762829273939133
0.5982546806335449 0.8349204659461975 0.006728991866111755
0.5498598217964172 0.5290854573249817 -0.07597863674163818
0.5810003876686096 0.5804327726364136 -0.05441553145647049
0.5640371441841125 0.853793203830719 -0.02019374631345272
0.6439549326896667 0.7753005623817444 0.050661440938711166
0.6247702836990356 0.6423745155334473 -0.0008212832035496831
0.6224637031555176 0.8085647821426392 0.030712032690644264
0.6793667674064636 0.6393800377845764 0.020921338349580765
0.6470919847488403 0.6665464043617249 0.012218480929732323
0.6961917877197266 0.6789783239364624 0.0471627302467823
0.5703633427619934 0.8850427269935608 -0.01812169887125492
0.5930734872817993 0.5934811234474182 -0.03465069830417633
0.6567615866661072 0.8000555038452148 0.07292907685041428
0.6304622292518616 0.8324674963951111 0.04666472226381302
0.6651315689086914 0.7394160628318787 0.05702735856175423
0.7345349788665771 0.6974036693572998 0.14325304329395294
0.6889975070953369 0.7502862811088562 0.08274198323488235
0.7304235696792603 0.7231698036193848 0.2016228884458542
0.6647450923919678 0.6939481496810913 0.03123440220952034
0.5754663944244385 0.558664858341217 -0.03485196828842163
0.5871900320053101 0.629845142364502 -0.09410542249679565
0.5984575748443604 0.6342897415161133 -0.06634622812271118
0.5800642371177673 0.6129727363586426 -0.1135258600115776
0.580230712890625 0.44672906398773193 0.013952389359474182
0.6160328388214111 0.42941784858703613 0.016434041783213615
0.6475135087966919 0.42604899406433105 0.024767128750681877
0.6726720333099365 0.4317805767059326 0.04087844491004944
0.6888191103935242 0.4442444443702698 0.06038296967744827
0.6964032053947449 0.48854416608810425 0.10043653845787048
0.7489290237426758 0.5617914199829102 0.22358089685440063
0.6830579042434692 0.5204966068267822 0.07659901678562164
0.6630828976631165 0.526978611946106 0.056706059724092484
0.6354027986526489 0.52763831615448 0.04052748903632164
0.6082823276519775 0.523331880569458 0.030506178736686707
0.58675616979599 0.5165793895721436 0.023682426661252975
0.5720168948173523 0.5088662505149841 0.019037075340747833
0.7323182821273804 0.5674744248390198 0.3172755539417267
0.5968255400657654 0.6396247744560242 -0.05449763312935829
0.567852795124054 0.5642969608306885 -0.07602216303348541
0.5744425058364868 0.6317682266235352 -0.11705899983644485
0.5601828098297119 0.6446839570999146 -0.11050872504711151
0.5720236301422119 0.6364487409591675 -0.10508264601230621
0.5904517769813538 0.6461549401283264 -0.04811497777700424
0.5571553707122803 0.6469764709472656 -0.11779557168483734
0.5519978404045105 0.6524868011474609 -0.08984680473804474
0.5706416964530945 0.49067047238349915 0.03199353069067001
0.5605291128158569 0.49550795555114746 0.013155307620763779
0.5553069114685059 0.49872615933418274 -0.007078584749251604
0.6677594184875488 0.4767999053001404 0.06894604861736298
0.6837323307991028 0.4654104709625244 0.07273977249860764
0.37386834621429443 0.4795369505882263 -0.005405773874372244
0.3987395167350769 0.4793340861797333 -0.005405773874372244
0.37376993894577026 0.4579054117202759 -0.005405773874372244
0.3483647108078003 0.47981446981430054 -0.005405773874372244
0.3737744688987732 0.5011111497879028 -0.005405773874372244
0.6230219602584839 0.48043516278266907 0.04904203861951828
0.6461628675460815 0.4795617461204529 0.04904203861951828
0.6224154829978943 0.46015608310699463 0.04904203861951828
0.6000580787658691 0.4810754656791687 0.04904203861951828
0.6238894462585449 0.5007532835006714 0.04904203861951828
