ply
format ascii 1.0
element vertex 478
property float x
property float y
property float z
end_header
0.48700255155563354 0.6763735413551331 -0.0697413980960846
0.4660356938838959 0.6198104619979858 -0.14120127260684967
0.4762483835220337 0.6376070976257324 -0.07905703783035278
0.45503848791122437 0.5428352355957031 -0.10027480870485306
0.4656277596950531 0.5955513119697571 -0.148960143327713
0.4695056676864624 0.5645220279693604 -0.13816039264202118
0.4830250144004822 0.4918972849845886 -0.06884866952896118
0.34094834327697754 0.48917150497436523 0.06922823935747147
0.4874504506587982 0.44678157567977905 -0.048404987901449203
0.4877030551433563 0.41807055473327637 -0.051194433122873306
0.49514174461364746 0.29897794127464294 -0.020674077793955803
0.48710906505584717 0.6860542297363281 -0.06630171835422516
0.4877075254917145 0.696327805519104 -0.060065895318984985
0.4887043237686157 0.7031864523887634 -0.05068030208349228
0.4885546565055847 0.7114591002464294 -0.038580019026994705
0.4878847599029541 0.7226415872573853 -0.04455605521798134
0.4874190390110016 0.7358028888702393 -0.0528334304690361
0.4877294898033142 0.7497026324272156 -0.053242363035678864
0.48668479919433594 0.7788764834403992 -0.03829183802008629
0.46913284063339233 0.6318886280059814 -0.12886109948158264
0.44771653413772583 0.6294729113578796 -0.09139576554298401
0.27397337555885315 0.41472238302230835 0.20572830736637115
0.40062910318374634 0.5001142621040344 0.03238030895590782
0.38007640838623047 0.5019566416740417 0.03803461045026779
0.3595694899559021 0.502782940864563 0.048405349254608154
0.33083194494247437 0.49736109375953674 0.07452961802482605
0.41775697469711304 0.4967181980609894 0.02969149686396122
0.36636218428611755 0.4593207836151123 0.029405681416392326
0.3900158107280731 0.4599456787109375 0.02500956691801548
0.3448530435562134 0.4630403518676758 0.04117986932396889
0.33103692531585693 0.4699351191520691 0.053971290588378906
0.31348854303359985 0.5094723701477051 0.0891716256737709
0.3977411389350891 0.8179168105125427 0.012252026237547398
0.33255282044410706 0.48805302381515503 0.07895589619874954
0.2630246877670288 0.5091125965118408 0.2134610116481781
0.2898982763290405 0.500959575176239 0.11896882951259613
0.3631907105445862 0.5893818140029907 0.0025494492147117853
0.4474670886993408 0.6693876385688782 -0.06108378246426582
0.4516575336456299 0.6930840015411377 -0.049523692578077316
0.41188955307006836 0.6724684238433838 -0.037495553493499756
0.38905662298202515 0.6758503317832947 -0.007013114634901285
0.42243093252182007 0.6896783113479614 -0.0300122257322073
0.40072816610336304 0.6873649954795837 -0.003360168542712927
0.36788833141326904 0.7159801721572876 0.040938470512628555
0.4456479549407959 0.6193200349807739 -0.1359381526708603
0.443094402551651 0.5955190658569336 -0.14240483939647675
0.3003811240196228 0.4595715403556824 0.06565777212381363
0.4193122684955597 0.5390803217887878 -0.006305905058979988
0.39362794160842896 0.6039711833000183 -0.06316693872213364
0.3953055441379547 0.5910666584968567 -0.0543142668902874
0.29764509201049805 0.58320552110672 0.05054973065853119
0.4484313726425171 0.5669279098510742 -0.1258297711610794
0.3507139980792999 0.43993693590164185 0.010094808414578438
0.32052719593048096 0.4465582072734833 0.03601512312889099
0.28888189792633057 0.3745100498199463 0.15329521894454956
0.4439772367477417 0.45182597637176514 -0.030864359810948372
0.41093796491622925 0.46518564224243164 0.028586696833372116
0.34590113162994385 0.6884886026382446 0.05024843290448189
0.2878652513027191 0.7222081422805786 0.264660507440567
0.411666601896286 0.6181840300559998 -0.05739576742053032
0.4321795403957367 0.6257780194282532 -0.06653126329183578
0.36153852939605713 0.6815410852432251 0.04939838498830795
0.3685627579689026 0.6832680702209473 0.041365936398506165
0.30909299850463867 0.43513885140419006 0.05196570232510567
0.39279478788375854 0.6104996204376221 -0.049889326095581055
0.3918384313583374 0.4404764771461487 -0.012679955922067165
0.38680604100227356 0.42422258853912354 -0.01686861552298069
0.36617085337638855 0.3167618215084076 0.03931247442960739
0.29867756366729736 0.3981139063835144 0.09701420366764069
0.3767366111278534 0.3613775074481964 0.010637053288519382
0.2882995009422302 0.45130637288093567 0.09036267548799515
0.2814481854438782 0.4300851821899414 0.14576399326324463
0.448530912399292 0.6820478439331055 -0.05695129185914993
0.4168672561645508 0.6814550161361694 -0.03377607837319374
0.3945693373680115 0.6816517114639282 -0.006901341024786234
0.41728833317756653 0.6212489008903503 -0.05504227802157402
0.3650591969490051 0.6823746562004089 0.04491433873772621
0.37942177057266235 0.694894552230835 0.026743484660983086
0.3721640706062317 0.6843074560165405 0.03986967355012894
0.422900915145874 0.6171718835830688 -0.09318939596414566
0.4063105583190918 0.6917018294334412 -0.001244053361006081
0.42805567383766174 0.6956059336662292 -0.022032953798770905
0.4557623565196991 0.7000436782836914 -0.04001380875706673
0.4499126970767975 0.7758538722991943 -0.02906021662056446
0.44892966747283936 0.7455322742462158 -0.04272599145770073
0.44985437393188477 0.731767475605011 -0.041806187480688095
0.45259228348731995 0.7186667323112488 -0.03289394825696945
0.4561225473880768 0.7085137367248535 -0.027552779763936996
0.40692389011383057 0.6974320411682129 0.007986347191035748
0.4018009901046753 0.7014964818954468 0.0029409911949187517
0.39585691690444946 0.7075285315513611 -0.0006830740603618324
0.3916897177696228 0.7147373557090759 0.004397165030241013
0.36748364567756653 0.6595218181610107 0.0010590162128210068
0.2723926901817322 0.6117832064628601 0.3093739151954651
0.47255218029022217 0.6358413696289062 -0.09656795114278793
0.39112192392349243 0.6917420625686646 0.02811412140727043
0.3851574957370758 0.6929318308830261 0.025516556575894356
0.44066962599754333 0.6338691711425781 -0.0673539862036705
0.40172278881073 0.6212964653968811 -0.0345613993704319
0.43648308515548706 0.6300538778305054 -0.0680079236626625
0.39404207468032837 0.5493318438529968 0.006505670491605997
0.3544180989265442 0.5604376792907715 0.01930813491344452
0.39138227701187134 0.5988845229148865 -0.039701197296381
0.3175497055053711 0.3409733772277832 0.0950424075126648
0.3289404511451721 0.37442630529403687 0.05292903631925583
0.3429146111011505 0.4245952367782593 0.017858806997537613
0.38885194063186646 0.7397819757461548 0.02015492506325245
0.4356376528739929 0.4266461730003357 -0.03845306485891342
0.4286979138851166 0.35590577125549316 -0.018244193866848946
0.4230252504348755 0.3037339448928833 -0.00016032652638386935
0.34180963039398193 0.5013359189033508 0.062269177287817
0.2914695143699646 0.5229822993278503 0.10724934190511703
0.4285050630569458 0.49261748790740967 0.031037287786602974
0.3096418082714081 0.4791170358657837 0.08014314621686935
0.43583381175994873 0.5263540148735046 -0.018580682575702667
0.40809398889541626 0.6004937887191772 -0.09051234275102615
0.2663567066192627 0.5419475436210632 0.13957567512989044
0.3055141270160675 0.5329453349113464 0.0820782408118248
0.3322582244873047 0.537721574306488 0.05366102233529091
0.37312451004981995 0.5346477031707764 0.0331319235265255
0.4035390615463257 0.5273703932762146 0.021639356389641762
0.42551901936531067 0.5189416408538818 0.009632382541894913
0.4622344672679901 0.49816763401031494 -0.05357227846980095
0.2604224681854248 0.5829615592956543 0.1314503252506256
0.2936320900917053 0.47833406925201416 0.09500283747911453
0.45626014471054077 0.6310257911682129 -0.12495575100183487
0.4141616225242615 0.5595807433128357 -0.01903774030506611
0.26852577924728394 0.5100938081741333 0.29703572392463684
0.44130173325538635 0.5088203549385071 0.002480617957189679
0.39166563749313354 0.598568320274353 -0.013049645349383354
0.32206839323043823 0.48941564559936523 0.08530861884355545
0.4105883538722992 0.5843557715415955 -0.08003905415534973
0.2770399749279022 0.66609126329422 0.29325246810913086
0.42746224999427795 0.486664354801178 0.03869900107383728
0.42973053455352783 0.5740298628807068 -0.10752081871032715
0.3109780251979828 0.7626989483833313 0.12951287627220154
0.32519203424453735 0.7962836623191833 0.1674443483352661
0.2567816972732544 0.6007682681083679 0.22216449677944183
0.28526076674461365 0.7357908487319946 0.16357702016830444
0.2723366320133209 0.466106116771698 0.1872302144765854
0.39593783020973206 0.8462849855422974 0.02375119924545288
0.4616909325122833 0.634993851184845 -0.09336110204458237
0.39207136631011963 0.573115885257721 -0.007026731502264738
0.2743509113788605 0.5055906772613525 0.14806698262691498
0.36186105012893677 0.48967939615249634 0.050607431679964066
0.3796418607234955 0.4893956482410431 0.041180673986673355
0.37480664253234863 0.6975581645965576 0.03167613223195076
0.25878119468688965 0.6294139623641968 0.1367347538471222
0.44005247950553894 0.882317066192627 0.015629980713129044
0.37879547476768494 0.8488895893096924 0.08644939959049225
0.354338139295578 0.8262991309165955 0.1241476982831955
0.49099040031433105 0.35444146394729614 -0.03631789609789848
0.4892616868019104 0.8890160918235779 -0.001998231979086995
0.3966268301010132 0.4884848892688751 0.03613360598683357
0.41258323192596436 0.4873284101486206 0.0363016240298748
0.42266038060188293 0.48707684874534607 0.039268217980861664
0.28014907240867615 0.4750750660896301 0.12317835539579391
0.4087074100971222 0.4798211455345154 0.03444380685687065
0.391027569770813 0.4778691530227661 0.03270673751831055
0.37408316135406494 0.4779333174228668 0.03730757161974907
0.3568915128707886 0.48042207956314087 0.04684088006615639
0.34524014592170715 0.48378074169158936 0.05722092092037201
0.26791802048683167 0.4568403363227844 0.257780522108078
0.3498535752296448 0.48947998881340027 0.060735829174518585
0.4788022041320801 0.6501847505569458 -0.07063540816307068
0.3914324641227722 0.6502395868301392 -0.025426233187317848
0.41132912039756775 0.6165207028388977 -0.06734103709459305
0.4395647943019867 0.6488381624221802 -0.061611730605363846
0.4871882498264313 0.46874430775642395 -0.04900656268000603
0.3411595821380615 0.7936199903488159 0.09835415333509445
0.3682405948638916 0.8198773860931396 0.06257917732000351
0.43509960174560547 0.8635811805725098 -0.011806348338723183
0.30438870191574097 0.7655620574951172 0.21773920953273773
0.42126333713531494 0.48349642753601074 0.037017013877630234
0.44404137134552 0.5327873229980469 -0.05812443420290947
0.48586130142211914 0.8697113990783691 -0.027888672426342964
0.40525370836257935 0.8684091567993164 0.04679315164685249
0.26018136739730835 0.650907039642334 0.21436432003974915
0.42874690890312195 0.7033118605613708 -0.010684153065085411
0.4235714375972748 0.7109032869338989 -0.01566261239349842
0.4192219376564026 0.7209043502807617 -0.020473184064030647
0.41664066910743713 0.7331341505050659 -0.01803596317768097
0.41477295756340027 0.7611649036407471 -0.004576851148158312
0.3836342990398407 0.6851772665977478 0.021030137315392494
0.3777506947517395 0.6819514632225037 0.023465968668460846
0.37305766344070435 0.6787059307098389 0.024155795574188232
0.34989115595817566 0.6710940003395081 0.029658107087016106
0.27694612741470337 0.6354978084564209 0.0799097940325737
0.4499911963939667 0.5111082792282104 -0.03419339656829834
0.4428306221961975 0.47440212965011597 0.015531360171735287
0.42987558245658875 0.47653263807296753 0.030152641236782074
0.38998639583587646 0.6882606744766235 0.021976500749588013
0.28008243441581726 0.6947317123413086 0.11797022074460983
0.4604758620262146 0.4739379286766052 -0.024195663630962372
0.40672001242637634 0.787850558757782 0.0036777653731405735
0.47426697611808777 0.5394216179847717 -0.11367803812026978
0.45835500955581665 0.5213059782981873 -0.07957270741462708
0.47860175371170044 0.5163436532020569 -0.08987531065940857
0.4234873950481415 0.5655782222747803 -0.05683239549398422
0.4847958981990814 0.8416674137115479 -0.03941350430250168
0.4857410192489624 0.8080581426620483 -0.038914669305086136
0.4436768591403961 0.8044499158859253 -0.02523188665509224
0.3551866412162781 0.7319700121879578 0.05387156456708908
0.37442803382873535 0.6155118346214294 -0.0016665493603795767
0.37963277101516724 0.763296902179718 0.030928539112210274
0.3227084279060364 0.6135166883468628 0.019670629873871803
0.35208386182785034 0.6364814043045044 0.01274952944368124
0.3029238283634186 0.648293673992157 0.04800460487604141
0.4362368583679199 0.8367270231246948 -0.022698337212204933
0.4091801643371582 0.5754936933517456 -0.03637687861919403
0.3417336046695709 0.758670449256897 0.07468077540397644
0.3706859350204468 0.7896822690963745 0.046124543994665146
0.331996351480484 0.6993921399116516 0.06057022139430046
0.2641936242580414 0.6702389121055603 0.14286811649799347
0.3078809976577759 0.7130582332611084 0.08485601097345352
0.2689819037914276 0.6971345543861389 0.20058640837669373
0.332173228263855 0.6586375832557678 0.03348395973443985
0.43027183413505554 0.5464444160461426 -0.03690442070364952
0.4148632884025574 0.6125335097312927 -0.09720274806022644
0.40030550956726074 0.6129229664802551 -0.06868103891611099
0.42442381381988525 0.5981844663619995 -0.11749670654535294
0.4259891211986542 0.46165189146995544 0.013271577656269073
0.39083242416381836 0.4525168538093567 0.0144583685323596
0.3597043454647064 0.451201468706131 0.02162354439496994
0.3343586027622223 0.4558538794517517 0.037236232310533524
0.31707391142845154 0.4652016758918762 0.05675487220287323
0.308018296957016 0.4949106276035309 0.09747278690338135
0.2577078640460968 0.5545758008956909 0.2209208905696869
0.32534971833229065 0.5153743028640747 0.07459044456481934
0.34757378697395325 0.518669605255127 0.05487513914704323
0.3760739862918854 0.5176297426223755 0.039011187851428986
0.40269187092781067 0.5133162140846252 0.02980343997478485
0.4229446053504944 0.5076439380645752 0.02283848635852337
0.43638327717781067 0.5016569495201111 0.018449287861585617
0.2715235948562622 0.5609187483787537 0.31283849477767944
0.4012351930141449 0.6160644888877869 -0.056584686040878296
0.43870580196380615 0.5527158975601196 -0.07911783456802368
0.4299202561378479 0.6160351037979126 -0.12051030248403549
0.44494789838790894 0.6271190047264099 -0.11356548219919205
0.43173226714134216 0.6197120547294617 -0.10828859359025955
0.4079102575778961 0.6210975050926208 -0.05011503025889397
0.4488377869129181 0.6294724941253662 -0.12091352790594101
0.4535352885723114 0.633060872554779 -0.09230153262615204
0.43519890308380127 0.48713192343711853 0.03164839744567871
0.44624751806259155 0.49144744873046875 0.01244240254163742
0.4524793028831482 0.494492769241333 -0.008923305198550224
0.33808255195617676 0.4862700402736664 0.06671448051929474
0.32161444425582886 0.4787743389606476 0.07015830278396606
0.4961519241333008 0.5422618389129639 -0.1097087487578392
0.6674279570579529 0.48481377959251404 0.001587530947290361
0.5017503499984741 0.6288963556289673 -0.09871300309896469
0.7981431484222412 0.4047129154205322 0.10265526920557022
0.6014719009399414 0.4970981776714325 -0.01138482429087162
0.6246627569198608 0.4984244406223297 -0.014540554955601692
0.6483714580535889 0.49891412258148193 -0.012358013540506363
0.6823196411132812 0.49291712045669556 0.002803838811814785
0.5816050171852112 0.4938536286354065 -0.004794709384441376
0.6355962157249451 0.44955307245254517 -0.025673437863588333
0.6088734269142151 0.45061665773391724 -0.01855490542948246
0.6613849997520447 0.4536372423171997 -0.02232309617102146
0.6788082122802734 0.4616761803627014 -0.014624870382249355
0.7077394723892212 0.5051589608192444 0.012033810839056969
0.589756965637207 0.8228845000267029 -0.020049095153808594
0.6782207489013672 0.48265424370765686 0.008118211291730404
0.8051432371139526 0.5033503174781799 0.10844269394874573
0.7411935329437256 0.4945859909057617 0.03238149732351303
0.6260256767272949 0.5872151255607605 -0.042602162808179855
0.5299661159515381 0.6707959175109863 -0.07361967116594315
0.5281540155410767 0.6944776773452759 -0.06131243705749512
0.5721665620803833 0.6760909557342529 -0.06300827860832214
0.6002950072288513 0.6808407306671143 -0.0418243408203125
0.5626697540283203 0.6926634311676025 -0.052788637578487396
0.5893456935882568 0.6916337609291077 -0.033294424414634705
0.633367657661438 0.7159067392349243 -0.0030924074817448854
0.4889732003211975 0.6189911961555481 -0.14195209741592407
0.4910581707954407 0.5950801968574524 -0.1496659517288208
0.7146776914596558 0.44846999645233154 -0.015851955860853195
0.5674018859863281 0.5369946360588074 -0.035625159740448
0.5694863796234131 0.6026473641395569 -0.09088926762342453
0.5722074508666992 0.5895008444786072 -0.08290717005729675
0.7101286053657532 0.5799725651741028 -0.02339383400976658
0.49317991733551025 0.5663581490516663 -0.13511522114276886
0.6457501649856567 0.4241322875022888 -0.046174392104148865
0.6844605803489685 0.432861864566803 -0.0346456840634346
0.7639828324317932 0.36328965425491333 0.06090499460697174
0.5377821922302246 0.4396824836730957 -0.049221936613321304
0.5861415266990662 0.45748937129974365 -0.006852115970104933
0.6584993600845337 0.6875921487808228 -0.002367570297792554
0.7902204394340515 0.7250640988349915 0.16834838688373566
0.5515091419219971 0.6171256303787231 -0.07785633206367493
0.5276352763175964 0.6249082684516907 -0.07676805555820465
0.6365317702293396 0.6885897517204285 0.0034455175045877695
0.6294068694114685 0.6898086071014404 0.0005482282140292227
0.6999640464782715 0.42092573642730713 -0.023396074771881104
0.5756052732467651 0.6092664003372192 -0.07706531882286072
0.5971213579177856 0.42503660917282104 -0.051200833171606064
0.6004593968391418 0.4087707996368408 -0.0565173365175724
0.6447163820266724 0.3079822063446045 -0.013572869822382927
0.7342278957366943 0.388790488243103 0.014064649119973183
0.6209838390350342 0.35405683517456055 -0.03499194234609604
0.7339576482772827 0.4401875138282776 0.0032381871715188026
0.7684049606323242 0.42200714349746704 0.05140101909637451
0.5297239422798157 0.6834145188331604 -0.06955020129680634
0.5675877332687378 0.6847808957099915 -0.05809079110622406
0.5949715375900269 0.6862465739250183 -0.03911105915904045
0.546366274356842 0.6203519701957703 -0.07161969691514969
0.6328617334365845 0.6891884207725525 0.0021632073912769556
0.6144021153450012 0.6999563574790955 -0.009728468954563141
0.6256344318389893 0.6905050873756409 0.000229464698350057
0.5287011861801147 0.6160241961479187 -0.1119387075304985
0.5843814015388489 0.6955520510673523 -0.029628288000822067
0.5578279495239258 0.6982334852218628 -0.04333530366420746
0.5259692072868347 0.7012634873390198 -0.05203121900558472
0.5284240245819092 0.7769001722335815 -0.040687140077352524
0.5298855900764465 0.7464160323143005 -0.05562664195895195
0.5283068418502808 0.7326209545135498 -0.05530950799584389
0.5265781879425049 0.7195744514465332 -0.046233709901571274
0.5246405601501465 0.709438145160675 -0.04022615775465965
0.5829257369041443 0.7006007432937622 -0.02039862796664238
0.5877326726913452 0.7046824097633362 -0.025572633370757103
0.5932662487030029 0.7107216119766235 -0.030175570398569107
0.5973905920982361 0.7177082300186157 -0.027036987245082855
0.6190236806869507 0.6584928035736084 -0.03835764899849892
0.820820152759552 0.6101554036140442 0.2029627412557602
0.6029393076896667 0.6962547302246094 -0.006954801734536886
0.6086006760597229 0.6977449059486389 -0.009747817181050777
0.5178593397140503 0.6335035562515259 -0.0775420144200325
0.5701342821121216 0.6205446124076843 -0.056260380893945694
0.5223925709724426 0.6294711828231812 -0.07792408764362335
0.596714198589325 0.5468614101409912 -0.032560233026742935
0.641543984413147 0.557506263256073 -0.033490996807813644
0.580898642539978 0.5974608659744263 -0.06927932798862457
0.7145869135856628 0.32981768250465393 0.019658463075757027
0.6867063641548157 0.36536216735839844 -0.013823924586176872
0.6544175744056702 0.4087912142276764 -0.041944459080696106
0.6054765582084656 0.7407634258270264 -0.016080940142273903
0.5436757206916809 0.4131450951099396 -0.058230143040418625
0.5586857795715332 0.35179418325424194 -0.04180324077606201
0.574472963809967 0.29863378405570984 -0.02669740654528141
0.6693529486656189 0.4974532723426819 -0.005376756191253662
0.7381031513214111 0.5184091329574585 0.021514803171157837
0.5682645440101624 0.4900767207145691 0.00034547504037618637
0.707195520401001 0.47164517641067505 0.001819448545575142
0.5469607710838318 0.524574339389801 -0.04200031980872154
0.5450221300125122 0.5992539525032043 -0.11279401928186417
0.7742717266082764 0.537427544593811 0.04268333315849304
0.7168484926223755 0.5297479033470154 0.0013813734985888004
0.6813051104545593 0.5349543690681458 -0.015454025939106941
0.6318299174308777 0.532311737537384 -0.01986718364059925
0.5962558388710022 0.5251542925834656 -0.018734699115157127
0.5698316693305969 0.5168028473854065 -0.020652050152420998
0.5078991055488586 0.4971420168876648 -0.06337646394968033
0.7745451927185059 0.5797348618507385 0.03467988222837448
0.7304636836051941 0.46989309787750244 0.00912526249885559
0.48348888754844666 0.6308573484420776 -0.12980008125305176
0.5659637451171875 0.5577552318572998 -0.047357864677906036
0.8262295722961426 0.5039137601852417 0.1865718811750412
0.5493757724761963 0.5067098140716553 -0.021048730239272118
0.5871651768684387 0.5971507430076599 -0.04265182465314865
0.6920861005783081 0.48382216691970825 0.011076027527451515
0.5482588410377502 0.5830443501472473 -0.10272012650966644
0.8106540441513062 0.6668265461921692 0.19152766466140747
0.5700380206108093 0.48403021693229675 0.006890620104968548
0.5195582509040833 0.5731592178344727 -0.12400497496128082
0.7197291851043701 0.7686858177185059 0.05723118782043457
0.7193412184715271 0.8048703670501709 0.09443134069442749
0.8063290119171143 0.598414957523346 0.11699632555246353
0.7584245204925537 0.7394665479660034 0.07853931933641434
0.7884957790374756 0.4588263928890228 0.0865444615483284
0.5933317542076111 0.8531635999679565 -0.01092477049678564
0.4841693639755249 0.6347341537475586 -0.09633634984493256
0.5927925705909729 0.5711118578910828 -0.042090438306331635
0.7685543894767761 0.49879756569862366 0.052788253873586655
0.6427636742591858 0.4862019717693329 -0.008835062384605408
0.6235079765319824 0.48620840907096863 -0.011442061513662338
0.6194208860397339 0.7027391195297241 -0.007302536629140377
0.7772835493087769 0.6279680132865906 0.04286900535225868
0.5431107878684998 0.8870647549629211 -0.004146743565797806
0.631145179271698 0.857986330986023 0.03835739940404892
0.6716817617416382 0.8359752893447876 0.0642586499452591
0.6052637100219727 0.4854602813720703 -0.008672812022268772
0.5876061320304871 0.48447269201278687 -0.001997559331357479
0.5757846236228943 0.484557181596756 0.005036130081862211
0.7541109323501587 0.4660627543926239 0.030570071190595627
0.5928093194961548 0.47338661551475525 -0.0049476237036287785
0.6127679944038391 0.46931135654449463 -0.013140521012246609
0.6315770745277405 0.4689640402793884 -0.01621168479323387
0.6508120894432068 0.47196680307388306 -0.014074602164328098
0.6636215448379517 0.47638848423957825 -0.008020789362490177
0.817337155342102 0.4483765959739685 0.1496373414993286
0.6565459966659546 0.48565176129341125 -0.00379124260507524
0.5851464867591858 0.6494377851486206 -0.055255226790905
0.5488157868385315 0.6154438257217407 -0.08681915700435638
0.5231958627700806 0.6486058831214905 -0.07418317347764969
0.6764272451400757 0.8010337352752686 0.03965998813509941
0.6361055970191956 0.8279029130935669 0.015993913635611534
0.5419265627861023 0.8676040172576904 -0.030998602509498596
0.757605791091919 0.7708912491798401 0.1313110589981079
0.5773261785507202 0.47973310947418213 0.0019046706147491932
0.5229675769805908 0.5316097736358643 -0.07383468002080917
0.5891005992889404 0.8759872913360596 0.01090907771140337
0.8006575107574463 0.6504499316215515 0.11349822580814362
0.5562971234321594 0.7052146196365356 -0.03236767649650574
0.5605557560920715 0.7127178311347961 -0.03812433406710625
0.5643485188484192 0.7226141691207886 -0.04417359083890915
0.5670932531356812 0.7344774007797241 -0.04252270981669426
0.5712465047836304 0.7623541355133057 -0.03136671334505081
0.6116639375686646 0.6905100345611572 -0.015635531395673752
0.6170617938041687 0.6876941323280334 -0.01637333072721958
0.6217389702796936 0.6847707629203796 -0.017921743914484978
0.6465942859649658 0.6698287725448608 -0.019130045548081398
0.7412850260734558 0.634063184261322 -0.00022080708004068583
0.5265897512435913 0.5097452998161316 -0.050658512860536575
0.5478631854057312 0.4691430330276489 -0.005219745449721813
0.5654215216636658 0.4716898202896118 0.00045897610834799707
0.605595052242279 0.6931563019752502 -0.013342499732971191
0.7490888833999634 0.6958482265472412 0.03744257614016533
0.5213446021080017 0.4687119722366333 -0.03655606508255005
0.5812326669692993 0.7911152839660645 -0.02517184428870678
0.5018498301506042 0.5205578207969666 -0.08798747509717941
0.5434044003486633 0.5643718838691711 -0.07766073197126389
0.5334097146987915 0.8065272569656372 -0.039054665714502335
0.6495424509048462 0.7339028716087341 0.0037333478685468435
0.6105608940124512 0.6140577793121338 -0.039035867899656296
0.617959201335907 0.766329288482666 -0.008798182010650635
0.6744875907897949 0.6115806698799133 -0.03843715786933899
0.6399312615394592 0.6351941823959351 -0.033961448818445206
0.7039368152618408 0.647517204284668 -0.018529344350099564
0.5390102863311768 0.8397759199142456 -0.040786731988191605
0.5652167797088623 0.5738077759742737 -0.06259840726852417
0.6687459945678711 0.7631999850273132 0.018415015190839767
0.6293395757675171 0.7950838804244995 0.0027048462070524693
0.6755572557449341 0.6999219059944153 0.0003415885439608246
0.7743108868598938 0.6703020334243774 0.05312427505850792
0.7093844413757324 0.715359091758728 0.0165228433907032
0.7869212031364441 0.698363184928894 0.10406578332185745
0.6689309477806091 0.6575524806976318 -0.022237040102481842
0.5436651110649109 0.5449671149253845 -0.0593210831284523
0.5362015962600708 0.611339271068573 -0.11747471243143082
0.560870349407196 0.6117433905601501 -0.09213318675756454
0.5181577801704407 0.5973662734031677 -0.13352817296981812
0.5649058818817139 0.4530184864997864 -0.01504941750317812
0.6032470464706421 0.4417659044265747 -0.026653530076146126
0.6382437348365784 0.4399449825286865 -0.03243265673518181
0.669264554977417 0.44517722725868225 -0.028358297422528267
0.6929327249526978 0.45564353466033936 -0.016718752682209015
0.7132846117019653 0.48931390047073364 0.018317265436053276
0.8083152770996094 0.550385594367981 0.11309248208999634
0.6912637948989868 0.5117418766021729 0.0017040454549714923
0.663783609867096 0.5152578949928284 -0.008713016286492348
0.6296384334564209 0.5144702196121216 -0.01340908370912075
0.5987937450408936 0.51043301820755 -0.011645538732409477
0.5749655365943909 0.5050632357597351 -0.008433851413428783
0.5581611394882202 0.49915945529937744 -0.007081891875714064
0.8250432014465332 0.5567407011985779 0.20251084864139557
0.5638562440872192 0.6149593591690063 -0.07962595671415329
0.5191196203231812 0.5516998767852783 -0.09536563605070114
0.5114450454711914 0.6154716610908508 -0.13325265049934387
0.5005233287811279 0.6269363760948181 -0.12092430144548416
0.5151085257530212 0.6191713809967041 -0.12137533724308014
0.5592602491378784 0.6202417612075806 -0.06942424178123474
0.4932893216609955 0.629195511341095 -0.1269330084323883
0.49421262741088867 0.6327028274536133 -0.09744619578123093
0.5598626136779785 0.4843708872795105 0.0050926823168993
0.544961154460907 0.4885881841182709 -0.007657921873033047
0.5339075922966003 0.4917853772640228 -0.025554154068231583
0.6716001033782959 0.4798586666584015 -0.0013536694459617138
0.6911215782165527 0.47177237272262573 -0.002227991819381714
0.38183489441871643 0.4835371673107147 0.047710120677948
0.40389078855514526 0.4831501543521881 0.047710120677948
0.38188737630844116 0.4668871760368347 0.047710120677948
0.35966503620147705 0.4839746654033661 0.047710120677948
0.3816738426685333 0.5001541972160339 0.047710120677948
0.6346047520637512 0.47708964347839355 -0.0043094041757285595
0.6590527296066284 0.47766876220703125 -0.0043094041757285595
0.6356588006019592 0.46025997400283813 -0.0043094041757285595
0.610646665096283 0.4764038622379303 -0.0043094041757285595
0.6336910724639893 0.4937916696071625 -0.0043094041757285595
