ply
format ascii 1.0
element vertex 478
property float x
property float y
property float z
end_header
0.4973968267440796 0.7043548822402954 -0.07814336568117142
0.5158056616783142 0.6139689087867737 -0.13021981716156006
0.5089249014854431 0.6408216953277588 -0.06991062313318253
0.49297046661376953 0.5354936718940735 -0.09581399708986282
0.5171725749969482 0.5895249247550964 -0.13730278611183167
0.516236424446106 0.5580614805221558 -0.12566570937633514
0.5114796161651611 0.48232150077819824 -0.05540966987609863
0.3352780342102051 0.4795147776603699 0.02107398770749569
0.511195182800293 0.4302828907966614 -0.036782022565603256
0.5121254920959473 0.4000336825847626 -0.039545971900224686
0.5124797821044922 0.28503626585006714 -0.00025582368834875524
0.49745309352874756 0.7128618359565735 -0.07562975585460663
0.4975716173648834 0.7217826247215271 -0.06719351559877396
0.4980301260948181 0.7276477217674255 -0.05395336449146271
0.49770236015319824 0.7517924308776855 -0.05516398698091507
0.4973561763763428 0.759587824344635 -0.05735018849372864
0.4969029426574707 0.7696077823638916 -0.06257100403308868
0.4966990053653717 0.7810670733451843 -0.059043075889348984
0.5013093948364258 0.8025728464126587 -0.0346556231379509
0.5135063529014587 0.6270660758018494 -0.11826641857624054
0.48836618661880493 0.6271815896034241 -0.08702694624662399
0.22103852033615112 0.3895820081233978 0.13370247185230255
0.398857057094574 0.4965922236442566 0.002539109205827117
0.3748258352279663 0.4992917776107788 0.0009447502670809627
0.35173606872558594 0.49923303723335266 0.004874329082667828
0.3220423460006714 0.49024027585983276 0.02213447540998459
0.42037370800971985 0.49078798294067383 0.007615029811859131
0.37070778012275696 0.4331696033477783 -0.007999985478818417
0.3978530764579773 0.4342760443687439 -0.003898719558492303
0.3447161018848419 0.4389571249485016 -0.0035281789023429155
0.3266889452934265 0.449499249458313 0.00464122649282217
0.2967803478240967 0.5062349438667297 0.03116440773010254
0.40521353483200073 0.8401517271995544 -0.020931560546159744
0.32675570249557495 0.4754471182823181 0.027768637984991074
0.207863450050354 0.49352383613586426 0.13333357870578766
0.2660562992095947 0.493648886680603 0.05386799946427345
0.3844683766365051 0.6009067893028259 -0.02752366103231907
0.47115156054496765 0.7010481953620911 -0.07781558483839035
0.47442442178726196 0.7224424481391907 -0.06705530732870102
0.44606122374534607 0.7129251956939697 -0.06837830692529678
0.43037065863609314 0.725853443145752 -0.055829569697380066
0.4552454948425293 0.727073073387146 -0.0617411807179451
0.440700888633728 0.7337656021118164 -0.049384936690330505
0.3947932720184326 0.766679584980011 -0.025659332051873207
0.4951142966747284 0.6131923794746399 -0.1298382580280304
0.49276524782180786 0.5900812745094299 -0.1365291327238083
0.2932906150817871 0.43629220128059387 0.008222842589020729
0.4324093461036682 0.5371637344360352 -0.02357390522956848
0.4340934753417969 0.6110371351242065 -0.07470327615737915
0.4312758445739746 0.5987234115600586 -0.06684110313653946
0.3097892105579376 0.6009141802787781 -0.007303392980247736
0.4931986927986145 0.5606905817985535 -0.12072579562664032
0.36043599247932434 0.4042660892009735 -0.02638319320976734
0.32260990142822266 0.41632968187332153 -0.012338850647211075
0.2540097236633301 0.34683769941329956 0.09088295698165894
0.46773529052734375 0.4214613139629364 -0.034654468297958374
0.4209024906158447 0.4430127739906311 0.006146043073385954
0.3787975013256073 0.7452455759048462 -0.02031892165541649
0.22341306507587433 0.7260589599609375 0.1827785223722458
0.4521278738975525 0.6241582036018372 -0.06350596249103546
0.4709155261516571 0.6310091614723206 -0.06490681320428848
0.414265513420105 0.7490367293357849 -0.022903461009263992
0.4198586344718933 0.7482502460479736 -0.028598949313163757
0.3084428906440735 0.40391191840171814 7.055334572214633e-05
0.43212389945983887 0.6234523057937622 -0.06160161644220352
0.40889695286750793 0.4041617810726166 -0.03372545540332794
0.40591007471084595 0.38538458943367004 -0.03732676059007645
0.36763960123062134 0.29270774126052856 0.012805942445993423
0.278141587972641 0.37274232506752014 0.03856272995471954
0.3851899206638336 0.3390202224254608 -0.01395732443779707
0.27601858973503113 0.4284029006958008 0.029445312917232513
0.24531732499599457 0.4065250754356384 0.0784512385725975
0.47206911444664 0.7125757932662964 -0.07579901814460754
0.4503977298736572 0.7205620408058167 -0.06676121801137924
0.43511223793029785 0.7299848794937134 -0.05498124286532402
0.45756879448890686 0.6290822625160217 -0.058340270072221756
0.41708385944366455 0.7486931085586548 -0.025960639119148254
0.42551684379577637 0.7533883452415466 -0.039652880281209946
0.4227677285671234 0.7477363348007202 -0.02923823893070221
0.46575528383255005 0.6134645342826843 -0.09700711816549301
0.4452684819698334 0.7357723116874695 -0.04379644989967346
0.4593368172645569 0.7307500839233398 -0.05026380345225334
0.47713708877563477 0.728057324886322 -0.05481371656060219
0.4704110026359558 0.8011618852615356 -0.0377533957362175
0.46983858942985535 0.7791203260421753 -0.06172405183315277
0.4712444543838501 0.7676540613174438 -0.06463946402072906
0.4735320806503296 0.7580407857894897 -0.0586848258972168
0.4762214720249176 0.750914454460144 -0.05607013776898384
0.4450016915798187 0.7495212554931641 -0.044776540249586105
0.4406735599040985 0.7526282668113708 -0.04809105396270752
0.4354136884212494 0.7576714754104614 -0.05241750553250313
0.4313162565231323 0.7638646364212036 -0.04939739406108856
0.4084022641181946 0.695244550704956 -0.04728274419903755
0.1943981945514679 0.6026450395584106 0.22588664293289185
0.511189877986908 0.6333642601966858 -0.08652304112911224
0.4349631667137146 0.7490845322608948 -0.03634733706712723
0.4303191006183624 0.7508576512336731 -0.03884867951273918
0.4783589839935303 0.6408265829086304 -0.06670460850000381
0.44027459621429443 0.6391416788101196 -0.04319600388407707
0.474783331155777 0.6359295845031738 -0.0662994533777237
0.40628254413604736 0.552546501159668 -0.01921975240111351
0.3669206500053406 0.5705593228340149 -0.017792165279388428
0.42633727192878723 0.6109391450881958 -0.0537630058825016
0.3010646104812622 0.31354692578315735 0.04682978615164757
0.3231457471847534 0.3494446575641632 0.009290068410336971
0.352546751499176 0.3870941400527954 -0.02036137878894806
0.41413408517837524 0.7799826264381409 -0.03448619693517685
0.46288684010505676 0.3900662660598755 -0.04293951019644737
0.4458436071872711 0.337830513715744 -0.02422162890434265
0.43557029962539673 0.2843809425830841 -0.002982076955959201
0.3326069116592407 0.49658259749412537 0.013289865106344223
0.2662923336029053 0.5243068337440491 0.04129122570157051
0.4352572560310364 0.48491817712783813 0.012826467864215374
0.2994190752506256 0.4630388021469116 0.021943718194961548
0.45081475377082825 0.520413339138031 -0.03006843291223049
0.4505269229412079 0.5998021960258484 -0.09681633114814758
0.23582404851913452 0.5390927195549011 0.06315416097640991
0.2848381996154785 0.5382119417190552 0.019345112144947052
0.31808269023895264 0.5445577502250671 1.9279419575468637e-05
0.3663308620452881 0.5395452976226807 -0.005995871964842081
0.40165698528289795 0.5290300250053406 -0.006415709853172302
0.4288471043109894 0.5171136856079102 -0.009393996559083462
0.48713716864585876 0.4877837300300598 -0.049250997602939606
0.2426326870918274 0.591916561126709 0.05289539694786072
0.27731823921203613 0.4623866379261017 0.03183169290423393
0.5010968446731567 0.6261392831802368 -0.11833542585372925
0.43586382269859314 0.5612674355506897 -0.03396609053015709
0.19186264276504517 0.49343055486679077 0.215836763381958
0.4504123032093048 0.5035424828529358 -0.009895398281514645
0.42299583554267883 0.6134815812110901 -0.028799820691347122
0.3136979043483734 0.477764755487442 0.030616432428359985
0.44832175970077515 0.5851681232452393 -0.08673951029777527
0.20377668738365173 0.6626696586608887 0.21053431928157806
0.4360494613647461 0.47720855474472046 0.019641226157546043
0.4702865183353424 0.5699455142021179 -0.10845725238323212
0.28982675075531006 0.7864367961883545 0.05748137831687927
0.2827143669128418 0.8145059943199158 0.09850124269723892
0.2079111635684967 0.5977064967155457 0.13843943178653717
0.25850173830986023 0.751356840133667 0.08650311082601547
0.2249494343996048 0.44590145349502563 0.11322777718305588
0.39530453085899353 0.8662875890731812 -0.008909857831895351
0.5015552043914795 0.6321777701377869 -0.08567089587450027
0.41343098878860474 0.5807750225067139 -0.02776835300028324
0.24072319269180298 0.5004411935806274 0.07618185877799988
0.3571253716945648 0.48413705825805664 0.008863197639584541
0.3764858841896057 0.484992653131485 0.004899112042039633
0.4212554097175598 0.7566925287246704 -0.036515239626169205
0.24819263815879822 0.6416336894035339 0.058194924145936966
0.4402720630168915 0.9019078016281128 0.0019372005481272936
0.35706275701522827 0.8694756031036377 0.04122001305222511
0.3218412399291992 0.8473474979400635 0.06562422960996628
0.5124052166938782 0.34085845947265625 -0.021724959835410118
0.4965352714061737 0.9058668613433838 0.0009176970925182104
0.39637893438339233 0.4832625389099121 0.0062508005648851395
0.4157538414001465 0.4802106022834778 0.011697014793753624
0.4290057420730591 0.47891765832901 0.018068982288241386
0.2561866044998169 0.46021512150764465 0.05577469617128372
0.4135837256908417 0.46207553148269653 0.009312890470027924
0.3928740322589874 0.45674002170562744 0.0027223967481404543
0.3736640512943268 0.4565834105014801 0.0013019600883126259
0.35377272963523865 0.46105822920799255 0.004573614802211523
0.3409659266471863 0.4670645296573639 0.011225754395127296
0.20157688856124878 0.4356297254562378 0.18056760728359222
0.3443332314491272 0.4818919897079468 0.015082054771482944
0.5075597167015076 0.6638815402984619 -0.06647894531488419
0.43085339665412903 0.6777300834655762 -0.0538385845720768
0.4528566598892212 0.6190402507781982 -0.07221534848213196
0.47610995173454285 0.6659080982208252 -0.06861376017332077
0.5102896690368652 0.45611798763275146 -0.03581753373146057
0.32219821214675903 0.8190156817436218 0.03534416854381561
0.35653913021087646 0.8433297872543335 0.014331582002341747
0.44288402795791626 0.8826286792755127 -0.027769500389695168
0.2512829601764679 0.7768887281417847 0.14148381352424622
0.42899903655052185 0.47087541222572327 0.01517677865922451
0.47092360258102417 0.5257749557495117 -0.06078691780567169
0.4993342161178589 0.8864995837211609 -0.027920259162783623
0.3958090543746948 0.8885018825531006 0.016110844910144806
0.21600443124771118 0.652596652507782 0.13198620080947876
0.45873549580574036 0.7499191761016846 -0.05150147154927254
0.4545157849788666 0.7551560401916504 -0.055049702525138855
0.45051512122154236 0.7628384828567505 -0.059981368482112885
0.4476175904273987 0.7725969552993774 -0.05778852105140686
0.43918219208717346 0.7920286655426025 -0.04095258191227913
0.42940351366996765 0.7409670352935791 -0.03906260430812836
0.4241503179073334 0.7396115064620972 -0.04032384231686592
0.4199652671813965 0.7376018762588501 -0.04059043154120445
0.3908514678478241 0.7189899682998657 -0.035417843610048294
0.2890244424343109 0.6545402407646179 0.012706500478088856
0.4693266749382019 0.5020753145217896 -0.03773792088031769
0.458050012588501 0.45808839797973633 0.0064689405262470245
0.44092270731925964 0.46121007204055786 0.012615242041647434
0.4343775510787964 0.7414484620094299 -0.03548109903931618
0.2798497676849365 0.7155888080596924 0.044515855610370636
0.4814054071903229 0.4560603201389313 -0.022481245920062065
0.421214759349823 0.8156039714813232 -0.028477977961301804
0.5145488977432251 0.5318345427513123 -0.1012362688779831
0.4896601140499115 0.5124799609184265 -0.07440481334924698
0.5129937529563904 0.5074295997619629 -0.07730843871831894
0.4535059928894043 0.5648599863052368 -0.06340380012989044
0.5006840825080872 0.8598713874816895 -0.03989485651254654
0.5010194778442383 0.8291733264923096 -0.036558832973241806
0.4606204032897949 0.8271490931510925 -0.03638429194688797
0.36394810676574707 0.7754151821136475 -0.012294331565499306
0.40183690190315247 0.634528398513794 -0.02764987014234066
0.3890197277069092 0.7990699410438538 -0.020354939624667168
0.34712669253349304 0.6315513253211975 -0.024309583008289337
0.38048964738845825 0.6612796783447266 -0.030440665781497955
0.3251063823699951 0.6738571524620056 -0.010720476508140564
0.4499293863773346 0.8565354943275452 -0.038554318249225616
0.4372168481349945 0.5800322890281677 -0.04813935235142708
0.3366929292678833 0.7923330664634705 0.008991813287138939
0.3696790337562561 0.8183560371398926 -0.00303101958706975
0.3478180170059204 0.745419442653656 -0.009718353860080242
0.2536565363407135 0.6842118501663208 0.06512273848056793
0.31198251247406006 0.7457006573677063 0.013010496273636818
0.2299197018146515 0.7035588026046753 0.11858662962913513
0.3621506690979004 0.6982394456863403 -0.024895532056689262
0.45361313223838806 0.5429751873016357 -0.046411801129579544
0.45864519476890564 0.609596848487854 -0.10198143869638443
0.4422144293785095 0.6182175278663635 -0.07666783034801483
0.47038713097572327 0.5933694839477539 -0.1186440959572792
0.44195452332496643 0.4379528760910034 -0.0031015092972666025
0.4030109643936157 0.42412465810775757 -0.012628660537302494
0.36748477816581726 0.4227117896080017 -0.01603900082409382
0.33648931980133057 0.42981284856796265 -0.010314392857253551
0.3133109211921692 0.443168044090271 0.002332499949261546
0.29295480251312256 0.48584747314453125 0.03831718489527702
0.20374637842178345 0.5446434617042542 0.1361984759569168
0.3111186623573303 0.5144224166870117 0.019692279398441315
0.3363373875617981 0.5191296339035034 0.006999567151069641
0.36934956908226013 0.5179468989372253 0.0003654317697510123
0.40055349469184875 0.5118044018745422 0.0009140060865320265
0.4257298707962036 0.5036085247993469 0.0028794852551072836
0.4439764618873596 0.4955201745033264 0.004068553447723389
0.19160345196723938 0.5477672219276428 0.22936691343784332
0.4417503774166107 0.6261371970176697 -0.06462886929512024
0.4726032614707947 0.5473499894142151 -0.0809919610619545
0.47684744000434875 0.6100679636001587 -0.11954745650291443
0.48795902729034424 0.6225662231445312 -0.10898185521364212
0.47594907879829407 0.614423394203186 -0.10777074098587036
0.448228657245636 0.6341129541397095 -0.05579359829425812
0.49318113923072815 0.6245682239532471 -0.11527235060930252
0.4936790466308594 0.6307361125946045 -0.08635008335113525
0.4452797472476959 0.47721242904663086 0.017425699159502983
0.45875734090805054 0.48192790150642395 0.00407537491992116
0.4672282040119171 0.48461607098579407 -0.013389651663601398
0.33335745334625244 0.471458375453949 0.018196452409029007
0.31454768776893616 0.46205461025238037 0.01736021414399147
0.5341241955757141 0.5362692475318909 -0.08977649360895157
0.6623920798301697 0.48379606008529663 0.06434699892997742
0.5322917699813843 0.6285751461982727 -0.08239471167325974
0.7410523891448975 0.40280821919441223 0.20069614052772522
0.6028653979301453 0.49940210580825806 0.030619997531175613
0.6228587627410889 0.5025163292884827 0.0346025675535202
0.6429157257080078 0.5039817094802856 0.04375080391764641
0.6712405681610107 0.49451005458831787 0.06801459193229675
0.5862524509429932 0.4935637414455414 0.029735859483480453
0.6355606913566589 0.4384600520133972 0.02735866978764534
0.6115724444389343 0.439312219619751 0.02397044003009796
0.6576244831085205 0.44414329528808594 0.03729885071516037
0.6716890335083008 0.45440030097961426 0.04863393306732178
0.687686026096344 0.5126216411590576 0.08072397112846375
0.587490439414978 0.8396921157836914 -0.0007009677356109023
0.6708152890205383 0.47888439893722534 0.07311813533306122
0.7469609975814819 0.5047807693481445 0.20118121802806854
0.7130334377288818 0.5001621246337891 0.10964521765708923
0.6153232455253601 0.6063357591629028 0.000729433901142329
0.5253102779388428 0.7005251049995422 -0.07055135816335678
0.5226079225540161 0.7220168709754944 -0.06031806766986847
0.5542241334915161 0.711698055267334 -0.0533892922103405
0.5730434656143188 0.7240073680877686 -0.035417042672634125
0.5451309680938721 0.7258090376853943 -0.048823121935129166
0.5628924369812012 0.7315890789031982 -0.03217723220586777
0.5986644625663757 0.7708793878555298 0.0002655984426382929
0.5350173115730286 0.6139423847198486 -0.12598742544651031
0.5397205352783203 0.5909314155578613 -0.13196273148059845
0.6985554099082947 0.44380444288253784 0.06055360287427902
0.572729229927063 0.5404636859893799 -0.004849505145102739
0.5803074836730957 0.6142874360084534 -0.05729730427265167
0.5813259482383728 0.6019871234893799 -0.04889720678329468
0.6780009269714355 0.6090277433395386 0.03969830647110939
0.5374467968940735 0.5614628195762634 -0.11489010602235794
0.6469695568084717 0.4130851626396179 0.010067323222756386
0.6774342060089111 0.42476001381874084 0.033106960356235504
0.724501371383667 0.36038005352020264 0.15085144340991974
0.5534010529518127 0.4270919859409332 -0.022617150098085403
0.5909358859062195 0.4476139545440674 0.028724322095513344
0.6144962310791016 0.7507193088531494 0.011310026049613953
0.7127381563186646 0.7310264706611633 0.2448349893093109
0.5613633394241333 0.6270670890808105 -0.0505017451941967
0.5441480875015259 0.633336067199707 -0.058379970490932465
0.5949171781539917 0.7459941506385803 0.004253634251654148
0.5893648862838745 0.744992196559906 -0.004827019292861223
0.6888089179992676 0.41223663091659546 0.04851929843425751
0.5784665942192078 0.6268294453620911 -0.044602490961551666
0.6062318086624146 0.41204017400741577 -0.008688874542713165
0.610381543636322 0.393424928188324 -0.011676383204758167
0.6421844959259033 0.3025808036327362 0.04709731042385101
0.7112734317779541 0.38364851474761963 0.09210819751024246
0.6289997100830078 0.34675732254981995 0.015479867346584797
0.7113431692123413 0.43577349185943604 0.08548073470592499
0.7297444939613342 0.41758206486701965 0.13902829587459564
0.5245561599731445 0.7121437191963196 -0.06857021898031235
0.5496673583984375 0.7194247841835022 -0.05277080461382866
0.5682021379470825 0.7279465198516846 -0.03630541265010834
0.5551989674568176 0.6317797303199768 -0.047813404351472855
0.5920555591583252 0.7455461621284485 -0.0009309244924224913
0.5809921622276306 0.7512087821960449 -0.018693670630455017
0.5865938067436218 0.7444714903831482 -0.0061470880173146725
0.554602324962616 0.6160246133804321 -0.08507835865020752
0.5585649013519287 0.733326256275177 -0.027539169415831566
0.5411900877952576 0.729349672794342 -0.03812961280345917
0.5206893086433411 0.7275307178497314 -0.04802243411540985
0.5300955772399902 0.8019444346427917 -0.031281977891922
0.5246495604515076 0.779263973236084 -0.05476875975728035
0.5237075686454773 0.7677635550498962 -0.05738444998860359
0.5223457217216492 0.7579770088195801 -0.05156022310256958
0.5205198526382446 0.7508195042610168 -0.049233946949243546
0.5582134127616882 0.7477093935012817 -0.02859523892402649
0.5622708201408386 0.7511559128761292 -0.03198983147740364
0.5669877529144287 0.7565793395042419 -0.03574596717953682
0.5706334114074707 0.7631227374076843 -0.03164483606815338
0.5932830572128296 0.6998343467712402 -0.023927848786115646
0.7352666854858398 0.6120433211326599 0.29511427879333496
0.5715724229812622 0.7465578317642212 -0.016153758391737938
0.5761271715164185 0.7484309673309326 -0.018693674355745316
0.5373488664627075 0.6428070664405823 -0.0603107325732708
0.5677865743637085 0.6424893736839294 -0.029695190489292145
0.5407091975212097 0.6381997466087341 -0.060001373291015625
0.5946462750434875 0.5569823980331421 0.005687196739017963
0.6302036643028259 0.5767395496368408 0.01584077626466751
0.5829671621322632 0.6144552230834961 -0.03529790788888931
0.6937645673751831 0.3262307047843933 0.09574010968208313
0.6793808937072754 0.35948890447616577 0.05220916122198105
0.6544020771980286 0.39606842398643494 0.017977425828576088
0.5814610719680786 0.7825447916984558 -0.01344215590506792
0.561023473739624 0.3961297869682312 -0.029932543635368347
0.5749797821044922 0.3422392010688782 -0.008931677788496017
0.5839675068855286 0.290071576833725 0.014388425275683403
0.6605374813079834 0.5018020868301392 0.056592907756567
0.7100749015808105 0.5312507748603821 0.0964512825012207
0.575158953666687 0.487636536359787 0.032540176063776016
0.691670835018158 0.46872109174728394 0.07226268947124481
0.5584532022476196 0.5229635834693909 -0.01511094719171524
0.5697472095489502 0.602660059928894 -0.08266185969114304
0.7331923246383667 0.5493006110191345 0.12569978833198547
0.6935907006263733 0.5462605953216553 0.07127847522497177
0.6648924350738525 0.5526703000068665 0.04419461637735367
0.6244285702705383 0.5459994673728943 0.027713268995285034
0.5956279039382935 0.5339325666427612 0.019267957657575607
0.5741966366767883 0.5214667916297913 0.009972888976335526
0.5327633619308472 0.48880839347839355 -0.042946409434080124
0.7266619205474854 0.6015025973320007 0.11517298221588135
0.7078889012336731 0.4693538546562195 0.08703234046697617
0.5251912474632263 0.6267111897468567 -0.11520837247371674
0.5712423920631409 0.5644487142562866 -0.01600475236773491
0.7461891174316406 0.5048094987869263 0.2877938151359558
0.5579134225845337 0.5075531601905823 0.005189899820834398
0.5822771191596985 0.6172470450401306 -0.01051500253379345
0.6801666021347046 0.4817669093608856 0.0783296599984169
0.5697828531265259 0.5878623723983765 -0.07234315574169159
0.7270714044570923 0.6700547337532043 0.27709922194480896
0.5763018131256104 0.47948724031448364 0.040204454213380814
0.5548649430274963 0.571643590927124 -0.097989022731781
0.6794602274894714 0.7885797619819641 0.10392019897699356
0.6757307648658752 0.8151962161064148 0.14606499671936035
0.7417646646499634 0.6069037914276123 0.20616622269153595
0.7017329335212708 0.7556493878364563 0.14111247658729553
0.738909125328064 0.45731988549232483 0.17806372046470642
0.5941041111946106 0.864725649356842 0.013232245109975338
0.5206122398376465 0.6328059434890747 -0.08378107845783234
0.5893052816390991 0.584962010383606 -0.005760380066931248
0.7316043376922607 0.5064605474472046 0.13750812411308289
0.6414464712142944 0.48809635639190674 0.04696270450949669
0.6240904331207275 0.4877185821533203 0.038632024079561234
0.58521568775177 0.7547788023948669 -0.013953207060694695
0.7186143398284912 0.6502229571342468 0.11830650269985199
0.5495197772979736 0.9004883170127869 0.014012389816343784
0.6193638443946838 0.8670346736907959 0.07170464843511581
0.6471326351165771 0.8457728624343872 0.10418009757995605
0.6075389385223389 0.48547473549842834 0.03514256700873375
0.5921393036842346 0.482465922832489 0.03641881048679352
0.5816625356674194 0.4812610447406769 0.04022228345274925
0.7231603860855103 0.4665941298007965 0.11521066725254059
0.5955614447593689 0.46459850668907166 0.03473939374089241
0.6130803823471069 0.45864883065223694 0.03236953541636467
0.630752682685852 0.4578086733818054 0.035794638097286224
0.648475170135498 0.46215495467185974 0.043674904853105545
0.6594023704528809 0.46878212690353394 0.053014904260635376
0.7474836111068726 0.44824665784835815 0.25110262632369995
0.6535859704017639 0.4863930940628052 0.056366197764873505
0.5757745504379272 0.6815077662467957 -0.03590201213955879
0.5625645518302917 0.6220492720603943 -0.05991419404745102
0.5378987789154053 0.6678421497344971 -0.06115474924445152
0.6535611748695374 0.8189407587051392 0.0729917362332344
0.6257613897323608 0.8420621156692505 0.044099535793066025
0.5526334047317505 0.8815388679504395 -0.015631163492798805
0.6953672766685486 0.7796390056610107 0.19727207720279694
0.5826321244239807 0.473421186208725 0.03783119097352028
0.547333300113678 0.5274366140365601 -0.05068210884928703
0.5882319211959839 0.8861286044120789 0.03849600628018379
0.7325495481491089 0.6603631973266602 0.1969980001449585
0.5408125519752502 0.7490168809890747 -0.039348017424345016
0.5444377064704895 0.7544482350349426 -0.04259968549013138
0.5476619601249695 0.7624185681343079 -0.0469479076564312
0.5499106049537659 0.7725014090538025 -0.044261347502470016
0.5589465498924255 0.7935651540756226 -0.025718946009874344
0.5778971910476685 0.7380843162536621 -0.017771631479263306
0.582797646522522 0.7368818521499634 -0.0170101560652256
0.5869975686073303 0.7350468635559082 -0.015722544863820076
0.606418788433075 0.7243859767913818 -0.006220830604434013
0.6898036599159241 0.6624611616134644 0.06344648450613022
0.5452385544776917 0.5039910078048706 -0.027221014723181725
0.5577414631843567 0.4614880084991455 0.019704148173332214
0.5726915597915649 0.4645247161388397 0.03162548691034317
0.5731499791145325 0.7384045124053955 -0.015082919970154762
0.6919056177139282 0.7215674519538879 0.09585441648960114
0.5364680290222168 0.4602811336517334 -0.014710030518472195
0.5737658739089966 0.8161600232124329 -0.011290229856967926
0.5338795185089111 0.5133349895477295 -0.06902068108320236
0.5614410638809204 0.5674156546592712 -0.05016709119081497
0.5389217734336853 0.8272058963775635 -0.028009068220853806
0.6248926520347595 0.7782241702079773 0.017934227362275124
0.5994867086410522 0.6388856768608093 -0.004715516231954098
0.602016806602478 0.8004134893417358 0.0033682887442409992
0.6469722986221313 0.6381413340568542 0.012039064429700375
0.6176029443740845 0.6663950085639954 -0.0018497789278626442
0.6623516082763672 0.6803692579269409 0.030676506459712982
0.548468291759491 0.8560609817504883 -0.027332007884979248
0.572242259979248 0.5831542611122131 -0.031686607748270035
0.6461299657821655 0.7936906814575195 0.04415269196033478
0.6177903413772583 0.8183776140213013 0.024028876796364784
0.6411544680595398 0.750006377696991 0.0270228311419487
0.7114576101303101 0.6915688514709473 0.12260384112596512
0.6683766841888428 0.7499871253967285 0.055999431759119034
0.7213199138641357 0.7097871899604797 0.18047213554382324
0.6317734718322754 0.7038761377334595 0.00890766829252243
0.5587652325630188 0.5454403162002563 -0.03208472579717636
0.562221884727478 0.6122304201126099 -0.08910676091909409
0.5727160573005676 0.6213660836219788 -0.06199132278561592
0.5565809011459351 0.5951369404792786 -0.1083221286535263
0.5738919377326965 0.4426412582397461 0.015134756453335285
0.6085473895072937 0.4301888942718506 0.014092468656599522
0.6397315263748169 0.4291921854019165 0.018970804288983345
0.6654596328735352 0.43628400564193726 0.03203406557440758
0.6830830574035645 0.4493561387062073 0.04962373152375221
0.6939694881439209 0.4910949170589447 0.08934322744607925
0.7475782036781311 0.5550515651702881 0.205720454454422
0.6751958131790161 0.5211197733879089 0.06640525907278061
0.652635395526886 0.5257277488708496 0.04771306738257408
0.6246103644371033 0.5229156613349915 0.0338604636490345
0.5988760590553284 0.5155758857727051 0.02728063054382801
0.5792275667190552 0.5070695281028748 0.0228531863540411
0.5652416348457336 0.4986214339733124 0.020353000611066818
0.7400984168052673 0.5583129525184631 0.30071884393692017
0.5704251527786255 0.6292281746864319 -0.05024932324886322
0.5493445992469788 0.548926830291748 -0.0706607848405838
0.5495713949203491 0.6116050481796265 -0.1113375574350357
0.5352868437767029 0.6238963603973389 -0.1041693463921547
0.5471455454826355 0.6164167523384094 -0.09935647994279861
0.562512993812561 0.6370571851730347 -0.043673451989889145
0.5319367051124573 0.6256151795387268 -0.11136990040540695
0.5275205969810486 0.6317639946937561 -0.08305106312036514
0.5679090023040771 0.479966402053833 0.034522753208875656
0.5543747544288635 0.48489615321159363 0.016877293586730957
0.5457351803779602 0.4883559048175812 -0.0027231161948293447
0.6657718420028687 0.4741840064525604 0.06182068586349487
0.6804861426353455 0.46688634157180786 0.06381071358919144
0.37646955251693726 0.46834832429885864 0.012240929529070854
0.4016144573688507 0.46825698018074036 0.012240929529070854
0.37663954496383667 0.4491376280784607 0.012240929529070854
0.3508516550064087 0.46839267015457153 0.012240929529070854
0.3760875463485718 0.48745590448379517 0.012240929529070854
0.6319979429244995 0.47130677103996277 0.04566621407866478
0.6537184119224548 0.47289538383483887 0.04566621407866478
0.6340986490249634 0.4525131583213806 0.04566621407866478
0.610302209854126 0.4696953296661377 0.04566621407866478
0.629988431930542 0.49029916524887085 0.04566621407866478
