ply
format ascii 1.0
element vertex 478
property float x
property float y
property float z
end_header
0.5195319056510925 0.7180907726287842 -0.07484634220600128
0.5592473149299622 0.6395223140716553 -0.12710832059383392
0.5424056053161621 0.6675116419792175 -0.07206613570451736
0.525947093963623 0.5546130537986755 -0.0981297492980957
0.5600147247314453 0.6126118898391724 -0.13330140709877014
0.5538886189460754 0.5787703990936279 -0.12184324860572815
0.5334376096725464 0.4965166747570038 -0.05266256630420685
0.3492150902748108 0.48498043417930603 -0.018085813149809837
0.5268491506576538 0.4270467758178711 -0.03125002607703209
0.5268067717552185 0.3915645480155945 -0.03194146603345871
0.5162323117256165 0.27697595953941345 0.0010146328713744879
0.5189347267150879 0.7259187698364258 -0.07255534082651138
0.5177161693572998 0.7337154150009155 -0.066069595515728
0.5163846015930176 0.7385754585266113 -0.05699169263243675
0.515198290348053 0.7852228879928589 -0.04751702398061752
0.5156350135803223 0.7962350845336914 -0.0524739995598793
0.5152543187141418 0.8096972107887268 -0.05781162530183792
0.5144772529602051 0.8231977224349976 -0.05508387088775635
0.5291000604629517 0.8459885120391846 -0.03570447862148285
0.5541360378265381 0.6543759107589722 -0.11631841212511063
0.5237599611282349 0.6554080247879028 -0.0917041227221489
0.19511209428310394 0.389266699552536 0.06653698533773422
0.41263633966445923 0.5054447650909424 -0.02257872372865677
0.3913627862930298 0.5063402652740479 -0.028456056490540504
0.36841094493865967 0.5058314800262451 -0.02895202673971653
0.3317662477493286 0.4961591362953186 -0.01878202334046364
0.4302167594432831 0.5012811422348022 -0.012029604986310005
0.3881421983242035 0.4295612573623657 -0.036388032138347626
0.41247469186782837 0.4327516257762909 -0.025933794677257538
0.3623172640800476 0.4348893463611603 -0.03627866879105568
0.3420504927635193 0.4468122720718384 -0.031516872346401215
0.30457091331481934 0.513337254524231 -0.012902742251753807
0.42883336544036865 0.8838355541229248 -0.03777329623699188
0.3377803564071655 0.48052307963371277 -0.012674089521169662
0.18961232900619507 0.5056397318840027 0.06702645123004913
0.2662889361381531 0.49798551201820374 0.00390668073669076
0.39885371923446655 0.6183339953422546 -0.054890651255846024
0.48292890191078186 0.712639331817627 -0.08159679174423218
0.48364126682281494 0.7322973012924194 -0.07152696698904037
0.44455742835998535 0.7202903032302856 -0.07743579149246216
0.41793689131736755 0.7301070690155029 -0.06468354910612106
0.4532116651535034 0.7338980436325073 -0.0691026821732521
0.42899495363235474 0.7382382154464722 -0.05623152107000351
0.3935055434703827 0.7878003120422363 -0.03473930060863495
0.5383831858634949 0.6392374038696289 -0.13000290095806122
0.5361487865447998 0.6130654215812683 -0.136408731341362
0.3031458556652069 0.42815595865249634 -0.0332871712744236
0.450228750705719 0.5535094738006592 -0.03944292291998863
0.4613966941833496 0.6332719922065735 -0.09133801609277725
0.4562675356864929 0.6189643740653992 -0.08424345403909683
0.3145540654659271 0.6138022541999817 -0.04912080988287926
0.5314804911613464 0.5814924836158752 -0.12243306636810303
0.3807227611541748 0.39231398701667786 -0.04957021772861481
0.3389893174171448 0.4050530195236206 -0.04429212212562561
0.23791491985321045 0.34035488963127136 0.03413432464003563
0.48348739743232727 0.4174565076828003 -0.0392533540725708
0.43162107467651367 0.4447195529937744 -0.012939837761223316
0.3731086850166321 0.757632315158844 -0.0371578074991703
0.200228750705719 0.7661063075065613 0.11278556287288666
0.47831058502197266 0.6490457057952881 -0.07779533416032791
0.49929356575012207 0.6569077968597412 -0.07263479381799698
0.38800206780433655 0.7531680464744568 -0.03236047178506851
0.3950878977775574 0.7530056834220886 -0.03395586088299751
0.3203691840171814 0.38984549045562744 -0.035830993205308914
0.45449140667915344 0.6449620127677917 -0.07910840958356857
0.42892324924468994 0.39425837993621826 -0.04812302812933922
0.4264768064022064 0.3728316128253937 -0.052090853452682495
0.3693673312664032 0.28107568621635437 -0.015401283279061317
0.2751021087169647 0.36450842022895813 -0.0043188221752643585
0.3946664035320282 0.32693713903427124 -0.032388120889663696
0.2788527011871338 0.41888120770454407 -0.017316807061433792
0.23474031686782837 0.40470603108406067 0.02454267628490925
0.48263686895370483 0.7233748435974121 -0.07927893847227097
0.44871458411216736 0.7277775406837463 -0.0742209404706955
0.4233540892601013 0.734565258026123 -0.062232568860054016
0.4825453758239746 0.6540421843528748 -0.07004501670598984
0.3915327787399292 0.7531222701072693 -0.032763876020908356
0.40375056862831116 0.7697461843490601 -0.04090246558189392
0.398446261882782 0.752975583076477 -0.033688731491565704
0.5001107454299927 0.6405428647994995 -0.10708238929510117
0.43356993794441223 0.7403286695480347 -0.05216113105416298
0.4571911692619324 0.7374404072761536 -0.059909917414188385
0.4850306510925293 0.7371982336044312 -0.06292451173067093
0.4910549819469452 0.8449496626853943 -0.04309884086251259
0.4754214286804199 0.8206222653388977 -0.0627472996711731
0.47792497277259827 0.8070241212844849 -0.06511137634515762
0.4810217022895813 0.7934434413909912 -0.05913424491882324
0.484266072511673 0.7834296226501465 -0.05387052521109581
0.43374374508857727 0.7730443477630615 -0.04513292759656906
0.42792651057243347 0.777459979057312 -0.049381740391254425
0.42062729597091675 0.7844870090484619 -0.05366600677371025
0.414970338344574 0.7923374176025391 -0.05121474340558052
0.41376587748527527 0.7121984958648682 -0.05977711081504822
0.16084906458854675 0.6290591359138489 0.14636202156543732
0.548433780670166 0.6612756848335266 -0.08752765506505966
0.41670575737953186 0.7653620839118958 -0.037372276186943054
0.4102526307106018 0.7670583724975586 -0.040075670927762985
0.5070841908454895 0.6668939590454102 -0.07429549098014832
0.4584527909755707 0.660534679889679 -0.05889475718140602
0.5035439133644104 0.6620412468910217 -0.07380711287260056
0.4219464063644409 0.5677860975265503 -0.04128213971853256
0.3800911009311676 0.5836858153343201 -0.04753353074193001
0.4474937915802002 0.6308799386024475 -0.07275640219449997
0.2946081757545471 0.3028653860092163 0.00439374428242445
0.3265298306941986 0.33731597661972046 -0.02232418954372406
0.37083810567855835 0.3726612627506256 -0.04650452733039856
0.419059693813324 0.8111055493354797 -0.04086511582136154
0.48032817244529724 0.38139569759368896 -0.04636851325631142
0.4573523998260498 0.3291025757789612 -0.029995303601026535
0.4402848184108734 0.27429279685020447 -0.01618243008852005
0.34614822268486023 0.5029453039169312 -0.02487732283771038
0.27123337984085083 0.5328227281570435 -0.008433003909885883
0.44258391857147217 0.4958571195602417 -0.005518946796655655
0.30789899826049805 0.46260133385658264 -0.02008739672601223
0.4703502655029297 0.5369248986244202 -0.04185337945818901
0.4844099283218384 0.6229663491249084 -0.10873362421989441
0.23216526210308075 0.5522851943969727 0.005830526351928711
0.2981937825679779 0.5486428141593933 -0.02662893757224083
0.3391159474849701 0.5558743476867676 -0.03838356211781502
0.38922834396362305 0.5514721274375916 -0.035014260560274124
0.4223136305809021 0.5414347052574158 -0.02866864763200283
0.4473333954811096 0.5294894576072693 -0.02556305006146431
0.5099703669548035 0.5024197101593018 -0.05204553157091141
0.23759639263153076 0.6073063611984253 -0.004515355918556452
0.2814648151397705 0.46072256565093994 -0.015028349123895168
0.5416985154151917 0.6536954045295715 -0.11899617314338684
0.45519915223121643 0.5791114568710327 -0.05118424445390701
0.1542637050151825 0.5060086846351624 0.13577783107757568
0.46743568778038025 0.5151394605636597 -0.022204898297786713
0.4393180012702942 0.6324912905693054 -0.049321454018354416
0.3213651478290558 0.48179858922958374 -0.011374327354133129
0.47878098487854004 0.6059382557868958 -0.09929077327251434
0.17414143681526184 0.6957977414131165 0.1346943974494934
0.44061359763145447 0.48782095313072205 -1.1393733075237833e-05
0.5060332417488098 0.5909047722816467 -0.11536082625389099
0.29391419887542725 0.8253843784332275 0.014035145752131939
0.2833560109138489 0.8621466755867004 0.04941089078783989
0.19033996760845184 0.620356023311615 0.06928408145904541
0.2518168091773987 0.7895712852478027 0.0317014642059803
0.20910881459712982 0.4513629674911499 0.05194928124547005
0.42321595549583435 0.9121026992797852 -0.030463390052318573
0.5387767553329468 0.6603780388832092 -0.08835450559854507
0.42973172664642334 0.5978591442108154 -0.04981432110071182
0.233075812458992 0.5049463510513306 0.01942652277648449
0.37497633695602417 0.48900365829467773 -0.02516988292336464
0.39343345165252686 0.49042755365371704 -0.025014927610754967
0.3981117606163025 0.7730050086975098 -0.03950092941522598
0.2392478734254837 0.6630954146385193 0.0011475218925625086
0.47212302684783936 0.9482942223548889 -0.014106913469731808
0.37910279631614685 0.9180909395217896 0.010436676442623138
0.3355124592781067 0.8958110809326172 0.027490446344017982
0.5226776599884033 0.33420640230178833 -0.015502920374274254
0.5254559516906738 0.9492641687393188 -0.0042055221274495125
0.4099104702472687 0.4905954599380493 -0.019409747794270515
0.42442336678504944 0.48963654041290283 -0.010783161036670208
0.4346209168434143 0.4892270565032959 -0.002561013214290142
0.2516992390155792 0.45759811997413635 0.0031796563416719437
0.4242636561393738 0.46684086322784424 -0.013421915471553802
0.407853901386261 0.45780110359191895 -0.022426627576351166
0.3908349871635437 0.4560149013996124 -0.02785695716738701
0.3708854913711548 0.4605770409107208 -0.028663381934165955
0.35643723607063293 0.4680752754211426 -0.02515963651239872
0.1683732569217682 0.4413941502571106 0.10537604987621307
0.36083513498306274 0.4871629476547241 -0.022165967151522636
0.5391764640808105 0.687859058380127 -0.06725190579891205
0.44552046060562134 0.6974847912788391 -0.06673789024353027
0.4815208911895752 0.644672155380249 -0.08471067994832993
0.501891016960144 0.6894007921218872 -0.07512836903333664
0.5270828008651733 0.46307551860809326 -0.03313998132944107
0.33700039982795715 0.860257089138031 0.002422540681436658
0.37821337580680847 0.8869441747665405 -0.012645836919546127
0.47511428594589233 0.9281983375549316 -0.041474848985672
0.23893021047115326 0.8222198486328125 0.08043224364519119
0.43560871481895447 0.4797836244106293 -0.00553977070376277
0.4972814619541168 0.5436461567878723 -0.06759657710790634
0.5297757387161255 0.9291942119598389 -0.031647197902202606
0.4244031310081482 0.9366168975830078 -0.007928644306957722
0.19837304949760437 0.6815974116325378 0.06426406651735306
0.45727166533470154 0.7792965769767761 -0.051683783531188965
0.45140746235847473 0.7868850827217102 -0.056782618165016174
0.44574177265167236 0.7978184223175049 -0.061707742512226105
0.4416812062263489 0.8103229403495789 -0.05946817621588707
0.45146429538726807 0.8314523696899414 -0.04651552438735962
0.4088647663593292 0.7444049715995789 -0.04477779567241669
0.40325498580932617 0.7427796125411987 -0.046958450227975845
0.3984215557575226 0.7404081225395203 -0.048896148800849915
0.3880491554737091 0.7319937348365784 -0.04968300461769104
0.2858591079711914 0.6746870279312134 -0.033628564327955246
0.49061962962150574 0.5178404450416565 -0.04502921178936958
0.46601685881614685 0.4644404649734497 -0.005364900454878807
0.4473632276058197 0.46800315380096436 -0.004012464080005884
0.4138219952583313 0.7451672554016113 -0.04201257601380348
0.2737274169921875 0.7445533275604248 -0.0037943117786198854
0.49537402391433716 0.46213752031326294 -0.028169196099042892
0.4387998878955841 0.8562674522399902 -0.03997381404042244
0.5466203689575195 0.5508665442466736 -0.09802209585905075
0.5179275274276733 0.53010094165802 -0.07595650106668472
0.5401355624198914 0.5249563455581665 -0.07421498745679855
0.4795833230018616 0.584196150302887 -0.07523700594902039
0.5316435694694519 0.9026513695716858 -0.04109163582324982
0.5303376913070679 0.8718619346618652 -0.038360804319381714
0.4853728711605072 0.8712873458862305 -0.04411425441503525
0.3716857135295868 0.8005756139755249 -0.029140008613467216
0.4155624210834503 0.6539444327354431 -0.04998662322759628
0.40145042538642883 0.8325913548469543 -0.03339198976755142
0.35580888390541077 0.6495121717453003 -0.057950571179389954
0.3893893361091614 0.6802211403846741 -0.05279463157057762
0.3277337849140167 0.6935043931007385 -0.04747553914785385
0.47955194115638733 0.9017869830131531 -0.04903838038444519
0.4586081802845001 0.5989104509353638 -0.06454230099916458
0.34931138157844543 0.8253343105316162 -0.017058877274394035
0.3879028558731079 0.8566286563873291 -0.02407672256231308
0.3507191240787506 0.7636446952819824 -0.03508671745657921
0.24329276382923126 0.7115076184272766 0.009348619729280472
0.31444817781448364 0.7728084921836853 -0.021922575309872627
0.21600207686424255 0.7383685111999512 0.05428322032094002
0.36346882581710815 0.7129471898078918 -0.04928414896130562
0.47665467858314514 0.5611482858657837 -0.058550212532281876
0.49346792697906494 0.6355517506599426 -0.11248614639043808
0.4703684449195862 0.6422774195671082 -0.09103992581367493
0.5101218223571777 0.6171559691429138 -0.12461792677640915
0.4530247449874878 0.43816325068473816 -0.016706425696611404
0.4193388521671295 0.41906410455703735 -0.03072713315486908
0.38676682114601135 0.41520389914512634 -0.039976831525564194
0.35474666953086853 0.42232054471969604 -0.040672704577445984
0.3273409605026245 0.438154935836792 -0.03361320123076439
0.29743194580078125 0.49007731676101685 -0.006477316375821829
0.18656863272190094 0.5622432231903076 0.06735815852880478
0.32347559928894043 0.5225873589515686 -0.021665148437023163
0.35357198119163513 0.5279394388198853 -0.027887163683772087
0.3876419961452484 0.5273563265800476 -0.027879562228918076
0.4165577292442322 0.5224351286888123 -0.022599827498197556
0.438371866941452 0.5150831341743469 -0.014254671521484852
0.45459285378456116 0.506929337978363 -0.010612696409225464
0.15511035919189453 0.5670350790023804 0.14792631566524506
0.46632736921310425 0.6493715047836304 -0.07974060624837875
0.5033513903617859 0.5667446851730347 -0.0885036513209343
0.517159104347229 0.6369624137878418 -0.12418824434280396
0.5258777737617493 0.6509712934494019 -0.1117333248257637
0.5130265951156616 0.6422558426856995 -0.1137341558933258
0.4699348211288452 0.6573286652565002 -0.06947575509548187
0.5328832864761353 0.6525761485099792 -0.11675671488046646
0.5300960540771484 0.6591870784759521 -0.09001187235116959
0.45118385553359985 0.48756688833236694 0.0007478994666598737
0.4678643047809601 0.49208304286003113 -0.00776998745277524
0.48227545619010925 0.49452441930770874 -0.02173677459359169
0.34691011905670166 0.4744604229927063 -0.020231718197464943
0.32578715682029724 0.4624660611152649 -0.022374670952558517
0.5637311935424805 0.5550927519798279 -0.08268121629953384
0.655726969242096 0.481036901473999 0.09462245553731918
0.5674313306808472 0.6553703546524048 -0.07978066056966782
0.6986562013626099 0.4074418544769287 0.24242401123046875
0.602302074432373 0.501846432685852 0.05009831115603447
0.6228117346763611 0.5027385354042053 0.05899199843406677
0.6416364908218384 0.5036424398422241 0.07214410603046417
0.6623721122741699 0.4936061501502991 0.10070927441120148
0.5848618149757385 0.49873629212379456 0.045069701969623566
0.6329185366630554 0.4328152537345886 0.054488129913806915
0.608434796333313 0.4356120526790619 0.045477550476789474
0.6540863513946533 0.43752363324165344 0.06896165758371353
0.6662780046463013 0.44881191849708557 0.08218131214380264
0.6778134107589722 0.5138612389564514 0.11597110331058502
0.6057556867599487 0.8745023012161255 0.01600143313407898
0.6614507436752319 0.4771331548690796 0.10524361580610275
0.7097363471984863 0.5154975056648254 0.24350322782993317
0.6899107098579407 0.4984305202960968 0.14848405122756958
0.6340082883834839 0.6209168434143066 0.01943478174507618
0.5528579950332642 0.7137962579727173 -0.061608199030160904
0.5475818514823914 0.7331655025482178 -0.052940573543310165
0.5827777981758118 0.7215714454650879 -0.03654532507061958
0.6017144918441772 0.7318331003189087 -0.008807198144495487
0.5716294646263123 0.735548734664917 -0.03309472277760506
0.589539647102356 0.7406649589538574 -0.008503577671945095
0.6192834973335266 0.7842170596122742 0.03647459298372269
0.5761191844940186 0.6393490433692932 -0.12004450708627701
0.579653799533844 0.6134976744651794 -0.12456679344177246
0.6878068447113037 0.4326677918434143 0.10188709199428558
0.5859750509262085 0.5560014247894287 0.008728415705263615
0.6091119647026062 0.634239912033081 -0.0460536926984787
0.6074856519699097 0.6203375458717346 -0.03752100467681885
0.6898945569992065 0.6177135705947876 0.07390204817056656
0.5723202228546143 0.5819565653800964 -0.10718638449907303
0.6511186957359314 0.39999958872795105 0.04344070702791214
0.6745801568031311 0.4113599956035614 0.07274526357650757
0.6889058947563171 0.3602326214313507 0.19138474762439728
0.5684416890144348 0.4195222854614258 -0.009198863990604877
0.5872855186462402 0.44650423526763916 0.044897083193063736
0.6346439719200134 0.7553433179855347 0.04861927032470703
0.6768643260002136 0.7589789032936096 0.27786508202552795
0.5914666056632996 0.6495141983032227 -0.044037092477083206
0.5755650997161865 0.6573503613471985 -0.05574357509613037
0.621877133846283 0.7558761835098267 0.04219444841146469
0.6146748065948486 0.7558668851852417 0.032057024538517
0.680155873298645 0.3969680070877075 0.08918583393096924
0.606277585029602 0.6456829905509949 -0.034688252955675125
0.6172676086425781 0.40018922090530396 0.015346945263445377
0.6206378936767578 0.37930911779403687 0.0134678203612566
0.628617525100708 0.29652154445648193 0.07382358610630035
0.6879615783691406 0.3799157738685608 0.13393239676952362
0.6264880895614624 0.338813841342926 0.043331410735845566
0.6936051845550537 0.4237073063850403 0.12762242555618286
0.6990635395050049 0.41889679431915283 0.18171726167201996
0.55104660987854 0.7244446277618408 -0.05933927372097969
0.577485203742981 0.7293748259544373 -0.03561893850564957
0.596126139163971 0.7365968823432922 -0.010745689272880554
0.5858927369117737 0.6541202068328857 -0.042687252163887024
0.6182982325553894 0.7559338212013245 0.03642287850379944
0.6087629795074463 0.7713833451271057 0.017897002398967743
0.6109806299209595 0.7559124231338501 0.030454671010375023
0.5883306264877319 0.6412938833236694 -0.07633620500564575
0.5836015939712524 0.7429916262626648 -0.006808396428823471
0.5662079453468323 0.7391327619552612 -0.026136035099625587
0.5438084602355957 0.7380213737487793 -0.043961454182863235
0.5602093935012817 0.8426439166069031 -0.0247803945094347
0.5500761270523071 0.8204392790794373 -0.042405590415000916
0.5491111278533936 0.8068434000015259 -0.04389771446585655
0.5466322302818298 0.7933976650238037 -0.03820829838514328
0.5427760481834412 0.7835147380828857 -0.033968523144721985
0.5828037261962891 0.7743302583694458 0.000493400264531374
0.5891754627227783 0.7783613204956055 -0.0037067076191306114
0.5962278842926025 0.7850061058998108 -0.006408280692994595
0.601188600063324 0.7924505472183228 -0.0008150970097631216
0.6215068697929382 0.7116165161132812 0.0037909280508756638
0.6893360614776611 0.631966769695282 0.3297508656978607
0.5957086682319641 0.7672977447509766 0.019192852079868317
0.6025431752204895 0.7688652873039246 0.016666971147060394
0.5694670081138611 0.6669681072235107 -0.05769960582256317
0.5966866612434387 0.6605780124664307 -0.02348804846405983
0.572536826133728 0.6623820662498474 -0.057488370686769485
0.6074208617210388 0.5707340836524963 0.023441018536686897
0.6428503394126892 0.5874865651130676 0.040231648832559586
0.6081606149673462 0.6321946978569031 -0.024493273347616196
0.6679151058197021 0.3222830891609192 0.1321946084499359
0.6653901934623718 0.3523024320602417 0.08848655968904495
0.6554235816001892 0.38071706891059875 0.05218420922756195
0.6057044863700867 0.8065605163574219 0.01775350421667099
0.5759783983230591 0.3842508792877197 -0.013637159019708633
0.5801670551300049 0.33565130829811096 0.00913182646036148
0.5801007747650146 0.28314009308815 0.02858642302453518
0.6554064154624939 0.5007206797599792 0.08780789375305176
0.696327269077301 0.5343862771987915 0.1348121166229248
0.5732830762863159 0.493924081325531 0.04525165632367134
0.6796540021896362 0.4632006287574768 0.11030025780200958
0.5726883411407471 0.5389932990074158 -0.0035199173726141453
0.6020807027816772 0.6241565346717834 -0.07214246690273285
0.7166649103164673 0.5592532753944397 0.16814842820167542
0.6920822858810425 0.5517205595970154 0.10824623703956604
0.6733888983726501 0.5604410171508789 0.07654362171888351
0.635984480381012 0.5551766157150269 0.052914902567863464
0.6067161560058594 0.5438948273658752 0.03792853280901909
0.5856214761734009 0.532231330871582 0.02425367757678032
0.5516117215156555 0.5034832954406738 -0.035990286618471146
0.7210229635238647 0.6116189956665039 0.1573980301618576
0.6898397207260132 0.46288570761680603 0.12798748910427094
0.5646021366119385 0.6535829901695251 -0.11102525144815445
0.5902565717697144 0.5811582803726196 -0.0045293825678527355
0.6958597898483276 0.5170117616653442 0.3253043591976166
0.5703878998756409 0.518001139163971 0.01629965379834175
0.6055017113685608 0.6338515281677246 -0.0012168007669970393
0.6688194274902344 0.4796687364578247 0.11242840439081192
0.5985631942749023 0.6072869300842285 -0.06202824413776398
0.6855267882347107 0.6935292482376099 0.3106782138347626
0.5706478357315063 0.4848538041114807 0.052946120500564575
0.5863365530967712 0.5917371511459351 -0.08830913156270981
0.6692177057266235 0.8134069442749023 0.13490469753742218
0.6556817293167114 0.8461764454841614 0.17453409731388092
0.7164465188980103 0.6233261227607727 0.24572087824344635
0.6875172257423401 0.780712366104126 0.17396540939807892
0.7038697004318237 0.46426481008529663 0.22048036754131317
0.6073351502418518 0.8999196290969849 0.027251869440078735
0.5571154356002808 0.6604955196380615 -0.08348128944635391
0.6077051162719727 0.6002334952354431 0.00788680836558342
0.6983072757720947 0.5055869221687317 0.17874668538570404
0.6390945315361023 0.4843917489051819 0.07379215955734253
0.6225727200508118 0.48517727851867676 0.06253079324960709
0.6138982176780701 0.7743985652923584 0.02342178300023079
0.7168949246406555 0.6639028191566467 0.1579093486070633
0.5701083540916443 0.9399010539054871 0.019223051145672798
0.6187210083007812 0.9011359810829163 0.09187249094247818
0.636110782623291 0.8777484893798828 0.1294553130865097
0.6048614382743835 0.4851997494697571 0.05525042489171028
0.5877869725227356 0.4850853979587555 0.053175706416368484
0.5764203071594238 0.48582977056503296 0.05465860292315483
0.6958973407745361 0.46044421195983887 0.15741285681724548
0.5889835953712463 0.4684975743293762 0.052027974277734756
0.6070626974105835 0.46063634753227234 0.05375650152564049
0.6261099576950073 0.4579058885574341 0.06091422960162163
0.6435832977294922 0.4610428810119629 0.07241719961166382
0.653393566608429 0.467488169670105 0.08310004323720932
0.7005195617675781 0.45684579014778137 0.290962278842926
0.6491498351097107 0.482984721660614 0.08535148203372955
0.6051706075668335 0.6973170638084412 -0.01831737533211708
0.5933675765991211 0.6452812552452087 -0.052834801375865936
0.5702539682388306 0.6894469857215881 -0.054993897676467896
0.6475074887275696 0.8462384343147278 0.1005903035402298
0.6277614235877991 0.8723741173744202 0.06504128128290176
0.5758312344551086 0.921273946762085 -0.009779082611203194
0.6674432158470154 0.8105047941207886 0.22854721546173096
0.576675295829773 0.47845977544784546 0.0527748242020607
0.5692368149757385 0.5449804067611694 -0.041925206780433655
0.5989965796470642 0.9226155281066895 0.05245957896113396
0.7106249928474426 0.6805543899536133 0.23362892866134644
0.5651814937591553 0.7798629999160767 -0.016939843073487282
0.5711913108825684 0.7871596217155457 -0.020963069051504135
0.5764478445053101 0.7977699041366577 -0.024110350757837296
0.579636812210083 0.810022234916687 -0.020456485450267792
0.5872740745544434 0.8271004557609558 -0.003417931031435728
0.6037048101425171 0.7473151683807373 0.014310997910797596
0.6097844839096069 0.7454465627670288 0.017389828339219093
0.6149752140045166 0.7428352236747742 0.019353460520505905
0.6321973204612732 0.7309249043464661 0.02950531616806984
0.7012372016906738 0.6752877235412598 0.09970292448997498
0.5613211393356323 0.519641637802124 -0.01824072375893593
0.5603792667388916 0.4640350937843323 0.02845706231892109
0.5695995688438416 0.46742403507232666 0.04464728757739067
0.597842812538147 0.748420238494873 0.01475821528583765
0.6930478811264038 0.7401117086410522 0.13089966773986816
0.5499089956283569 0.4630281627178192 -0.008273615501821041
0.5961096286773682 0.8493099808692932 0.007069270592182875
0.5582735538482666 0.5307528376579285 -0.06224512308835983
0.5858128666877747 0.5857205986976624 -0.04101262986660004
0.5671138763427734 0.8671696186065674 -0.021653421223163605
0.6349363327026367 0.7948321104049683 0.052735790610313416
0.620573878288269 0.6549369096755981 0.010962190106511116
0.6169965267181396 0.8252426981925964 0.031403835862874985
0.6662130951881409 0.6513745188713074 0.03794288635253906
0.6385138034820557 0.6808323264122009 0.02349446527659893
0.6784912943840027 0.6932424306869507 0.06215626373887062
0.5749778151512146 0.89638352394104 -0.019413981586694717
0.5946460962295532 0.6007194519042969 -0.021586768329143524
0.6481620073318481 0.8156610727310181 0.07628899812698364
0.6262452006340027 0.8458015322685242 0.04796413332223892
0.6520095467567444 0.7602665424346924 0.0638408213853836
0.7078379392623901 0.709153413772583 0.15964142978191376
0.6728866100311279 0.7666435241699219 0.09167391061782837
0.7013543844223022 0.733712375164032 0.21562504768371582
0.6507998704910278 0.7127154469490051 0.0415668785572052
0.578653872013092 0.5629307627677917 -0.02174653857946396
0.5958979725837708 0.6362934708595276 -0.07922613620758057
0.6028800010681152 0.6430008411407471 -0.052869945764541626
0.592583179473877 0.6176781058311462 -0.09797199070453644
0.5775943398475647 0.43901070952415466 0.029705382883548737
0.6120132803916931 0.4229159653186798 0.037208192050457
0.6418509483337402 0.4206032156944275 0.04954415559768677
0.6643726825714111 0.42719268798828125 0.06831192970275879
0.677030622959137 0.4412956237792969 0.08853289484977722
0.6779658794403076 0.48932403326034546 0.12581537663936615
0.7159743309020996 0.5689710378646851 0.2481536865234375
0.6715164184570312 0.5236147046089172 0.09963827580213547
0.6547578573226929 0.5295882821083069 0.07786218822002411
0.6288797855377197 0.5276368856430054 0.059091389179229736
0.602910578250885 0.5218204259872437 0.04582666605710983
0.5830300450325012 0.5150927305221558 0.0371733121573925
0.5697482228279114 0.5073007941246033 0.031119778752326965
0.6908186078071594 0.5742982625961304 0.3368839621543884
0.5996530055999756 0.6498493552207947 -0.04218596592545509
0.5760536789894104 0.5677734613418579 -0.061881519854068756
0.5872704982757568 0.6368697881698608 -0.1032036542892456
0.5718880891799927 0.6505026817321777 -0.09952950477600098
0.5829492807388306 0.6423491835594177 -0.0921243280172348
0.5925872325897217 0.6573619842529297 -0.037909965962171555
0.5699982047080994 0.6523557901382446 -0.10691800713539124
0.5631377696990967 0.6589716076850891 -0.08152133971452713
0.5652648210525513 0.48585575819015503 0.04463166370987892
0.5587790608406067 0.4924241900444031 0.02482561580836773
0.557945728302002 0.4968794286251068 0.005318362265825272
0.6583974361419678 0.4727236330509186 0.09304723143577576
0.6716992855072021 0.4623052477836609 0.09815717488527298
0.39429497718811035 0.47508543729782104 -0.01744849979877472
0.41530799865722656 0.47509998083114624 -0.01744849979877472
0.3926924467086792 0.4548425078392029 -0.01744849979877472
0.3717995285987854 0.4749130308628082 -0.01744849979877472
0.3954732418060303 0.495367169380188 -0.01744849979877472
0.624510645866394 0.47139233350753784 0.06910058856010437
0.643378734588623 0.47085148096084595 0.06910058856010437
0.6235417127609253 0.45143961906433105 0.06910058856010437
0.6049311757087708 0.47190043330192566 0.06910058856010437
0.6250690817832947 0.4912620484828949 0.06910058856010437
