ply
format ascii 1.0
element vertex 478
property float x
property float y
property float z
end_header
0.46628257632255554 0.7235329747200012 -0.05230996012687683
0.4703071713447571 0.6201052665710449 -0.11540662497282028
0.4813043475151062 0.6393689513206482 -0.055189743638038635
0.45727041363716125 0.5410400629043579 -0.08963891118764877
0.4683274030685425 0.597599983215332 -0.12512439489364624
0.4708053469657898 0.5656278729438782 -0.11938454955816269
0.4816237986087799 0.482546329498291 -0.07105764746665955
0.3487741947174072 0.46961161494255066 0.05101687088608742
0.48368316888809204 0.4189656376838684 -0.06406381726264954
0.4822182059288025 0.3871687948703766 -0.07291477173566818
0.48216918110847473 0.2626778483390808 -0.062987320125103
0.46854913234710693 0.7328168153762817 -0.04841422662138939
0.4730738699436188 0.740711510181427 -0.039705969393253326
0.4785896837711334 0.7457996606826782 -0.02528950199484825
0.479488343000412 0.7463601231575012 -0.019538814201951027
0.4789394736289978 0.758345365524292 -0.01767338067293167
0.47981908917427063 0.7724436521530151 -0.01962164044380188
0.4840793013572693 0.7853865623474121 -0.01250660140067339
0.49506187438964844 0.7943923473358154 0.013678072020411491
0.474100261926651 0.6305205821990967 -0.10288958251476288
0.45903468132019043 0.6290702819824219 -0.06809180974960327
0.28449341654777527 0.3644748032093048 0.16290847957134247
0.408023476600647 0.4802609980106354 0.01662142388522625
0.38805603981018066 0.48458585143089294 0.023077256977558136
0.36844301223754883 0.4866786003112793 0.033576782792806625
0.34156662225723267 0.4776802062988281 0.05736814811825752
0.42448103427886963 0.47375088930130005 0.013507146388292313
0.37377166748046875 0.4298131763935089 0.009141209535300732
0.3969009816646576 0.42998623847961426 0.0024183462373912334
0.35344570875167847 0.43424370884895325 0.02169400453567505
0.3409411907196045 0.442510724067688 0.03428621590137482
0.32756307721138 0.49196720123291016 0.07227122038602829
0.42930370569229126 0.8110186457633972 0.05743953213095665
0.34123358130455017 0.46689462661743164 0.05934108793735504
0.2857990264892578 0.4655607044696808 0.18477322161197662
0.3082039952278137 0.4757727086544037 0.09791680425405502
0.39064472913742065 0.592199444770813 0.009476618841290474
0.4479562044143677 0.7186732292175293 -0.043561749160289764
0.45895010232925415 0.7400802373886108 -0.03163580223917961
0.4363429844379425 0.724254310131073 -0.024463990703225136
0.4314993619918823 0.732551097869873 -0.005094014108181
0.449500173330307 0.7406718134880066 -0.01917363703250885
0.4431898593902588 0.742304801940918 -0.002170455874875188
0.41295427083969116 0.7463353276252747 0.04018532484769821
0.45395606756210327 0.6193321347236633 -0.11031680554151535
0.4489701986312866 0.5980712175369263 -0.11863984912633896
0.3149176239967346 0.42738643288612366 0.04429258406162262
0.4291691184043884 0.5311954021453857 -0.009804920293390751
0.420730322599411 0.6099429130554199 -0.04450313374400139
0.42080551385879517 0.5968505144119263 -0.03857812285423279
0.33613455295562744 0.5877953767776489 0.05048878863453865
0.45220959186553955 0.5679154396057129 -0.10754555463790894
0.35608258843421936 0.4050281345844269 -0.011220777407288551
0.33063703775405884 0.4131242632865906 0.015032337047159672
0.2945817708969116 0.32719916105270386 0.10846083611249924
0.44259437918663025 0.4167605936527252 -0.04816948249936104
0.41731205582618713 0.43550369143486023 0.005411430727690458
0.3991292119026184 0.7253283262252808 0.04628531634807587
0.3396082818508148 0.6708017587661743 0.2691914141178131
0.4369620382785797 0.6225277185440063 -0.038275718688964844
0.4515937566757202 0.6297914981842041 -0.04477512836456299
0.4311414062976837 0.7470996379852295 0.03766588121652603
0.43508511781692505 0.7462542057037354 0.028043853119015694
0.3219601511955261 0.3983229100704193 0.02666008472442627
0.42405998706817627 0.6192802786827087 -0.03148111701011658
0.39239102602005005 0.4040961265563965 -0.032815732061862946
0.38772788643836975 0.3855530917644501 -0.039011839777231216
0.36041194200515747 0.27779537439346313 -0.004900696687400341
0.302797794342041 0.3573886752128601 0.061156705021858215
0.37108463048934937 0.32846778631210327 -0.024523155763745308
0.3056340217590332 0.4150116741657257 0.06527572125196457
0.2901131510734558 0.38628774881362915 0.11004846543073654
0.45232248306274414 0.7312197089195251 -0.04024422913789749
0.4420986771583557 0.7336408495903015 -0.0229459460824728
0.4365040361881256 0.7377905249595642 -0.005770015995949507
0.4425325393676758 0.6266565918922424 -0.035505976527929306
0.43308231234550476 0.746878981590271 0.032052911818027496
0.4363305866718292 0.7508847713470459 0.018767984583973885
0.43709880113601685 0.7455445528030396 0.02697768248617649
0.4394874572753906 0.6164023280143738 -0.07128531485795975
0.44944101572036743 0.7446537613868713 0.002913349773734808
0.4562967121601105 0.7446864247322083 -0.00797431543469429
0.46553412079811096 0.7452075481414795 -0.018180448561906815
0.4699997305870056 0.7907347679138184 0.017986629158258438
0.4635688364505768 0.7824651598930359 -0.007434507366269827
0.46090584993362427 0.7696060538291931 -0.013087493367493153
0.46229255199432373 0.7565205693244934 -0.010743288323283195
0.46593543887138367 0.7460081577301025 -0.012578187510371208
0.4492552578449249 0.7452049255371094 0.006826510652899742
0.44473546743392944 0.7502010464668274 0.006517281290143728
0.44055771827697754 0.7564740180969238 0.0049888454377651215
0.43827465176582336 0.7634861469268799 0.01034559216350317
0.41262876987457275 0.6830028891563416 0.002074224641546607
0.3124769330024719 0.5554348826408386 0.29222801327705383
0.477731853723526 0.6347390413284302 -0.07224106043577194
0.44399943947792053 0.7450686097145081 0.018129415810108185
0.43987536430358887 0.7479718923568726 0.017791837453842163
0.457242876291275 0.6385685801506042 -0.04390468820929527
0.43349939584732056 0.6323798298835754 -0.016460081562399864
0.4544695019721985 0.6343173980712891 -0.0451815202832222
0.40984612703323364 0.5447015762329102 0.00467416737228632
0.37740620970726013 0.5614007711410522 0.01985868066549301
0.42089319229125977 0.6063913106918335 -0.024542342871427536
0.31758660078048706 0.2978113889694214 0.04943714663386345
0.3278168737888336 0.337285578250885 0.017173489555716515
0.3493443727493286 0.38681936264038086 -0.0075552985072135925
0.4271911382675171 0.7621157169342041 0.030772196128964424
0.43448352813720703 0.3868429660797119 -0.0598936527967453
0.4208388030529022 0.32644689083099365 -0.053166463971138
0.4131903052330017 0.2670721411705017 -0.04290769621729851
0.35160738229751587 0.48428595066070557 0.0467824824154377
0.3079673647880554 0.5079606771469116 0.09103710949420929
0.4347222149372101 0.467702180147171 0.014015854336321354
0.3235737681388855 0.4513368606567383 0.05874563753604889
0.4413282573223114 0.5166113972663879 -0.022458577528595924
0.42646077275276184 0.6027418375015259 -0.0700640082359314
0.29324525594711304 0.5183017253875732 0.12371509522199631
0.3187785744667053 0.5256008505821228 0.0701790302991867
0.3420860469341278 0.5350300073623657 0.04405118152499199
0.38012462854385376 0.529723048210144 0.025250013917684555
0.4083685576915741 0.5179992914199829 0.01296148356050253
0.428382009267807 0.5064338445663452 0.0006189036066643894
0.46259966492652893 0.48795270919799805 -0.056936293840408325
0.2999781370162964 0.5694367289543152 0.12322701513767242
0.31025955080986023 0.4481869041919708 0.07240771502256393
0.46388909220695496 0.6298742890357971 -0.09906049817800522
0.4301561117172241 0.5565844774246216 -0.016118505969643593
0.2932285964488983 0.45491352677345276 0.26228317618370056
0.4430590867996216 0.4941862225532532 -0.007733362261205912
0.422506183385849 0.6062538027763367 -0.0025723783764988184
0.33345505595207214 0.4656327962875366 0.06542444229125977
0.4278506636619568 0.5865864753723145 -0.06312469393014908
0.3237304091453552 0.6107386946678162 0.2875213623046875
0.4344935715198517 0.45991742610931396 0.018875833600759506
0.4384017884731293 0.5747847557067871 -0.08948586881160736
0.35988956689834595 0.7455434799194336 0.146780863404274
0.3696005940437317 0.7622285485267639 0.19087383151054382
0.2964581549167633 0.5633312463760376 0.2091696411371231
0.34163129329681396 0.709560751914978 0.17647019028663635
0.2864110469818115 0.4220660328865051 0.15374426543712616
0.4270516633987427 0.8311830759048462 0.0765065923333168
0.4693191647529602 0.633864164352417 -0.0692007765173912
0.4147821068763733 0.5734843015670776 -0.002223963849246502
0.2956660985946655 0.4780404269695282 0.12516015768051147
0.3697718381881714 0.47144651412963867 0.03372881934046745
0.38748109340667725 0.4699258506298065 0.024596618488430977
0.4336496591567993 0.754517674446106 0.02399940975010395
0.3114412724971771 0.6148887872695923 0.13494573533535004
0.4645925462245941 0.8662425875663757 0.08164436370134354
0.41154569387435913 0.8228353261947632 0.1299721598625183
0.39131850004196167 0.7972732186317444 0.15608736872673035
0.48153960704803467 0.32525378465652466 -0.0705689936876297
0.5085074305534363 0.8752274513244629 0.0672234520316124
0.40426772832870483 0.4664248824119568 0.019091468304395676
0.4199659824371338 0.46213215589523315 0.018246421590447426
0.4298269748687744 0.4604603350162506 0.02012067660689354
0.2999333143234253 0.4412198066711426 0.0977974534034729
0.41683220863342285 0.45827776193618774 0.0131369698792696
0.39920878410339355 0.461069256067276 0.012171943672001362
0.3817139267921448 0.46357524394989014 0.017631586641073227
0.36441558599472046 0.4655454158782959 0.027689682319760323
0.35316869616508484 0.46679461002349854 0.03782788664102554
0.28376272320747375 0.40460848808288574 0.2177145779132843
0.35755354166030884 0.4708482027053833 0.043354351073503494
0.4828111529350281 0.6591635942459106 -0.04871706664562225
0.4264032244682312 0.6689091324806213 -0.013416924513876438
0.4346986413002014 0.6190571784973145 -0.04827132076025009
0.4565163254737854 0.6611016988754272 -0.04032940790057182
0.48480331897735596 0.44884395599365234 -0.0591740608215332
0.3811584413051605 0.7780661582946777 0.12366902828216553
0.4030154347419739 0.8039871454238892 0.10152198374271393
0.45934560894966125 0.852875292301178 0.05140369385480881
0.3549383878707886 0.722383975982666 0.2331492155790329
0.4286026656627655 0.4583675265312195 0.016364624723792076
0.44855594635009766 0.5271217823028564 -0.055663883686065674
0.5028607249259949 0.8618636131286621 0.038099467754364014
0.43438705801963806 0.847211480140686 0.10302729904651642
0.3088204264640808 0.6138473749160767 0.2106880396604538
0.456267774105072 0.745496928691864 -0.0030822381377220154
0.451588898897171 0.7533950209617615 -0.002405517967417836
0.44855087995529175 0.7631738781929016 -0.004125676583498716
0.44828131794929504 0.7745068073272705 0.0006132257403805852
0.4454455077648163 0.7783128023147583 0.021872034296393394
0.43887847661972046 0.7440503239631653 0.013550126925110817
0.43386316299438477 0.7423549294471741 0.014786886982619762
0.4298381805419922 0.7396461963653564 0.01601678505539894
0.40376657247543335 0.7030429244041443 0.023465756326913834
0.3322823643684387 0.6340712308883667 0.0836726650595665
0.4520530104637146 0.500605046749115 -0.03834756091237068
0.44717538356781006 0.4463638365268707 -0.004909229930490255
0.4360319972038269 0.44808897376060486 0.00827185157686472
0.4438466727733612 0.7447000741958618 0.016041481867432594
0.3405604362487793 0.6851894855499268 0.12588045001029968
0.4613751769065857 0.44820985198020935 -0.03751089796423912
0.4371231198310852 0.7927939891815186 0.04105065390467644
0.4745892882347107 0.5377448201179504 -0.10244841873645782
0.45956695079803467 0.5161325931549072 -0.07648834586143494
0.47809353470802307 0.5113725662231445 -0.08633945882320404
0.4359724223613739 0.5643666386604309 -0.04778015613555908
0.49926596879959106 0.8402520418167114 0.02334757335484028
0.4970717430114746 0.8153785467147827 0.019874628633260727
0.46570664644241333 0.8094534277915955 0.02916349284350872
0.3943093717098236 0.749125599861145 0.06042565032839775
0.40689513087272644 0.624415397644043 0.007825767621397972
0.4136035442352295 0.7727640271186829 0.051613982766866684
0.3639264404773712 0.6201745271682739 0.028021907433867455
0.3914157748222351 0.6488558053970337 0.017140015959739685
0.3554362952709198 0.6563250422477722 0.05356995761394501
0.46033817529678345 0.8322314620018005 0.036368463188409805
0.4291064143180847 0.5764647722244263 -0.02732117474079132
0.38113147020339966 0.7597845792770386 0.09063823521137238
0.4046311378479004 0.7862314581871033 0.0772567093372345
0.3788338303565979 0.7213137149810791 0.06318189203739166
0.32325777411460876 0.652908980846405 0.1463996022939682
0.359297513961792 0.7171289920806885 0.09218115359544754
0.3230965733528137 0.6616871356964111 0.20551380515098572
0.38265836238861084 0.6810920834541321 0.034612949937582016
0.4396117031574249 0.541235089302063 -0.03448008373379707
0.43249502778053284 0.6128610968589783 -0.0753629133105278
0.4265332818031311 0.6175036430358887 -0.04840816557407379
0.43583038449287415 0.5991839170455933 -0.09467529505491257
0.4295976161956787 0.4296860992908478 -0.010172460228204727
0.3952178955078125 0.41976359486579895 -0.008717969059944153
0.36582839488983154 0.41968098282814026 -2.861078428395558e-05
0.34298670291900635 0.42537981271743774 0.01647430658340454
0.32877054810523987 0.4357573390007019 0.0356791615486145
0.3227483034133911 0.4707508981227875 0.07716067880392075
0.2882625162601471 0.5139189958572388 0.19929777085781097
0.33710020780563354 0.5019819736480713 0.059626590460538864
0.357066810131073 0.5078436732292175 0.041561953723430634
0.38370710611343384 0.5053811073303223 0.026713548228144646
0.40888118743896484 0.4976460039615631 0.01652495004236698
0.4279654026031494 0.48898845911026 0.009386836551129818
0.44066208600997925 0.48158401250839233 0.004325720481574535
0.3040333688259125 0.5042946934700012 0.2850404381752014
0.42994391918182373 0.6231808066368103 -0.03713170439004898
0.44459834694862366 0.5504863262176514 -0.06936618685722351
0.44198209047317505 0.61539626121521 -0.09644424170255661
0.4555431604385376 0.6256185173988342 -0.08895464986562729
0.4451400637626648 0.618169903755188 -0.08504275977611542
0.4372643828392029 0.6296912431716919 -0.030621755868196487
0.4582558274269104 0.6282451152801514 -0.09536007791757584
0.4633481204509735 0.6324834227561951 -0.06862327456474304
0.44125205278396606 0.46076157689094543 0.013119018636643887
0.4504002332687378 0.4690214991569519 -0.003148606512695551
0.45419201254844666 0.47604700922966003 -0.019645152613520622
0.34625253081321716 0.46725228428840637 0.047428861260414124
0.3329083323478699 0.4522625803947449 0.05031087249517441
0.4954049587249756 0.5404245257377625 -0.09946145117282867
0.6752886772155762 0.46485835313796997 -0.02029864676296711
0.5004885196685791 0.628703773021698 -0.07570145279169083
0.7889643907546997 0.34807130694389343 0.052482619881629944
0.5988368988037109 0.4809476435184479 -0.02900848351418972
0.6225821375846863 0.48609113693237305 -0.03183995187282562
0.6476859450340271 0.48584529757499695 -0.030153218656778336
0.6874696016311646 0.46852022409439087 -0.018272968009114265
0.5802342295646667 0.4705088138580322 -0.022465258836746216
0.6357935667037964 0.4187166392803192 -0.04866651073098183
0.6096924543380737 0.42087599635124207 -0.042904332280159
0.6614384651184082 0.42103898525238037 -0.045291587710380554
0.679512619972229 0.4280328154563904 -0.0381259024143219
0.7076493501663208 0.4808342456817627 -0.008862126618623734
0.5862306356430054 0.8171249628067017 0.02587219700217247
0.687353253364563 0.4583389461040497 -0.015566346235573292
0.7978211045265198 0.4551461338996887 0.07313326746225357
0.7417775988578796 0.4563545882701874 0.006124785635620356
0.6071112155914307 0.5902692675590515 -0.035071566700935364
0.48910439014434814 0.717411994934082 -0.05496319755911827
0.49437016248703003 0.7388904094696045 -0.04187433049082756
0.5179681777954102 0.7239403128623962 -0.04832065477967262
0.5415334701538086 0.7300438284873962 -0.03724481165409088
0.5168863534927368 0.7385968565940857 -0.03940146788954735
0.5372527241706848 0.7390351295471191 -0.02877410314977169
0.5950149297714233 0.7490108013153076 -0.0002937670215032995
0.48924171924591064 0.6190775036811829 -0.11668692529201508
0.49098271131515503 0.5976196527481079 -0.12624946236610413
0.7178843021392822 0.39900121092796326 -0.04241979122161865
0.562338650226593 0.5285690426826477 -0.03980346396565437
0.5520373582839966 0.6093413233757019 -0.07309757173061371
0.5560581684112549 0.5958709120750427 -0.06808901578187943
0.6834365725517273 0.584708571434021 -0.02436591312289238
0.49261829257011414 0.5673048496246338 -0.11716874688863754
0.6493507027626038 0.3823590576648712 -0.0706992894411087
0.687808632850647 0.38692888617515564 -0.06002381816506386
0.7529324293136597 0.3102031350135803 0.008943593129515648
0.5392675399780273 0.4063849449157715 -0.06737831234931946
0.587949275970459 0.4284117817878723 -0.03135941922664642
0.6093295812606812 0.7271631956100464 -0.0027375698555260897
0.7771952152252197 0.6735123991966248 0.1673833131790161
0.5350421071052551 0.6223567724227905 -0.059763796627521515
0.5175488591194153 0.6296209096908569 -0.05544712767004967
0.5768138766288757 0.7406625747680664 -0.004454894922673702
0.5706655383110046 0.7409231066703796 -0.008709711022675037
0.7045459747314453 0.3670443296432495 -0.053483836352825165
0.5545163154602051 0.6190732717514038 -0.05922172591090202
0.6011852622032166 0.3871992230415344 -0.07362700253725052
0.603559136390686 0.36763620376586914 -0.08125023543834686
0.6319254636764526 0.26563212275505066 -0.0619548074901104
0.7257161140441895 0.34187081456184387 -0.027401622384786606
0.6129252314567566 0.3178437352180481 -0.07347970455884933
0.7382076382637024 0.38319364190101624 -0.027555257081985474
0.7607471346855164 0.3712416887283325 0.009442934766411781
0.4911574721336365 0.729835569858551 -0.05155925825238228
0.5165618062019348 0.7320410013198853 -0.04511602967977524
0.5388422608375549 0.7347248792648315 -0.03492789342999458
0.5302832722663879 0.6266567707061768 -0.05264105275273323
0.5734490752220154 0.7409571409225464 -0.006677630823105574
0.5629162192344666 0.7467755079269409 -0.013956445269286633
0.5680292248725891 0.7408787608146667 -0.008677169680595398
0.5212259292602539 0.6155834197998047 -0.09094055742025375
0.5374969840049744 0.741154670715332 -0.02218809351325035
0.5180976390838623 0.7420281171798706 -0.026809167116880417
0.49790114164352417 0.7437903881072998 -0.028640354052186012
0.5245267748832703 0.7922551035881042 0.008356863632798195
0.5096179246902466 0.7837624549865723 -0.018109263852238655
0.5047360062599182 0.7700842618942261 -0.024177763611078262
0.5015150308609009 0.7557699680328369 -0.021866081282496452
0.4995132386684418 0.7445886135101318 -0.022979354485869408
0.5392401218414307 0.7413867712020874 -0.018165718764066696
0.5440044403076172 0.7468641400337219 -0.01857321709394455
0.549565851688385 0.7542368173599243 -0.020710723474621773
0.5553351044654846 0.7620457410812378 -0.017409443855285645
0.5784778594970703 0.6837856769561768 -0.03531273826956749
0.8129916191101074 0.5509869456291199 0.17850615084171295
0.5542488694190979 0.740538477897644 -0.01319988165050745
0.5579233169555664 0.7435522079467773 -0.013708123005926609
0.5106632709503174 0.6387966275215149 -0.05421096086502075
0.5486918091773987 0.6328791975975037 -0.038182053714990616
0.5139452219009399 0.6343859434127808 -0.05549319088459015
0.587637186050415 0.5417530536651611 -0.034856006503105164
0.626295804977417 0.558258056640625 -0.03330719843506813
0.561254620552063 0.6058129072189331 -0.05466911196708679
0.7026849389076233 0.28183838725090027 -0.03179902955889702
0.6786909103393555 0.32292667031288147 -0.05409125238656998
0.658822774887085 0.36148685216903687 -0.07090545445680618
0.5768789052963257 0.7652918100357056 -0.0019960454665124416
0.5435653924942017 0.376120924949646 -0.08107257634401321
0.5497400164604187 0.3209419250488281 -0.07853783667087555
0.5608261227607727 0.26030293107032776 -0.07157918065786362
0.6719312071800232 0.47970330715179443 -0.02449013665318489
0.7356200218200684 0.49517351388931274 0.0006841194117441773
0.5690168142318726 0.4627143442630768 -0.017992770299315453
0.7092188596725464 0.43251603841781616 -0.02452419139444828
0.5442734956741333 0.514175534248352 -0.04659368842840195
0.535712480545044 0.6017422676086426 -0.09339238703250885
0.7632819414138794 0.5116296410560608 0.02141674980521202
0.7111170887947083 0.5180630683898926 -0.01437302865087986
0.6731874346733093 0.5319084525108337 -0.027399666607379913
0.6250207424163818 0.5278531908988953 -0.02888577990233898
0.5923013091087341 0.515510082244873 -0.028284987434744835
0.5683029890060425 0.503890335559845 -0.030592452734708786
0.5057422518730164 0.48670125007629395 -0.06708557158708572
0.7536020874977112 0.5653512477874756 0.02184419520199299
0.7327042818069458 0.42454802989959717 -0.01926933042705059
0.4858372211456299 0.6297177076339722 -0.10417090356349945
0.556586503982544 0.5546179413795471 -0.044863343238830566
0.8205904960632324 0.44368696212768555 0.14558292925357819
0.5488649010658264 0.49253222346305847 -0.03220057860016823
0.5659885406494141 0.6056549549102783 -0.031866468489170074
0.6987460255622864 0.4517258405685425 -0.013146770186722279
0.539336085319519 0.5853831768035889 -0.0867580994963646
0.8006051778793335 0.6097944974899292 0.1782861053943634
0.5715484619140625 0.4559336304664612 -0.014281129464507103
0.5163172483444214 0.573848307132721 -0.10662125796079636
0.6992573142051697 0.7518118619918823 0.07248767465353012
0.7116086483001709 0.7710902690887451 0.11435417085886002
0.7927024960517883 0.5584409832954407 0.09779324382543564
0.731986403465271 0.7127974629402161 0.08818748593330383
0.7816853523254395 0.40899696946144104 0.046636857092380524
0.5966923236846924 0.838951826095581 0.04150034487247467
0.486960232257843 0.6336660385131836 -0.07236616313457489
0.5784839391708374 0.5715388059616089 -0.03730456531047821
0.7702282667160034 0.45535728335380554 0.02413865551352501
0.6446769833564758 0.474201500415802 -0.028706124052405357
0.6222834587097168 0.47457218170166016 -0.03057505562901497
0.5686484575271606 0.750127911567688 -0.011376393027603626
0.7459747791290283 0.6126120686531067 0.03798734396696091
0.5585908889770508 0.871482253074646 0.06265954673290253
0.6376977562904358 0.8332809209823608 0.08053925633430481
0.6721323728561401 0.8080374598503113 0.09396892040967941
0.6029831171035767 0.4693616032600403 -0.027813637629151344
0.5860199928283691 0.46079787611961365 -0.02187587134540081
0.5761463642120361 0.45682770013809204 -0.01574482023715973
0.7574465274810791 0.41257986426353455 -0.0005707200616598129
0.5897707343101501 0.45979318022727966 -0.028104860335588455
0.609968364238739 0.46776771545410156 -0.03578576818108559
0.6307492852210999 0.4715571403503418 -0.038541316986083984
0.6525296568870544 0.46936121582984924 -0.036467600613832474
0.6677114367485046 0.46531105041503906 -0.03074292466044426
0.8103502988815308 0.39012250304222107 0.10277905315160751
0.661768913269043 0.46999579668045044 -0.024555984884500504
0.5568119287490845 0.6693194508552551 -0.04197787120938301
0.5340525507926941 0.6186164617538452 -0.06848915666341782
0.5128307938575745 0.66133052110672 -0.052337437868118286
0.6666704416275024 0.7865442633628845 0.06375260651111603
0.6338281035423279 0.8132604956626892 0.05425893887877464
0.5527888536453247 0.857394278049469 0.03262992575764656
0.7456964254379272 0.728154182434082 0.14200359582901
0.5773296356201172 0.45602917671203613 -0.020343227311968803
0.5206304788589478 0.5256227850914001 -0.0720694437623024
0.6001608967781067 0.8557747602462769 0.06680876016616821
0.7815175652503967 0.6116332411766052 0.10429338365793228
0.519916296005249 0.7428337335586548 -0.021746601909399033
0.5244776606559753 0.7515298128128052 -0.021817795932292938
0.5292001366615295 0.7628278732299805 -0.02439369075000286
0.5346522927284241 0.7752844095230103 -0.02041461132466793
0.5538274645805359 0.7809019088745117 -0.001351345214061439
0.5556125640869141 0.739697277545929 -0.019511397927999496
0.5588926672935486 0.7375640869140625 -0.021504156291484833
0.5621758103370667 0.7348899245262146 -0.02294773794710636
0.5957470536231995 0.7042811512947083 -0.022557703778147697
0.702869176864624 0.6325133442878723 0.0032253761310130358
0.52485191822052 0.4987412095069885 -0.05542773753404617
0.5500677227973938 0.44155192375183105 -0.026760276407003403
0.5677449107170105 0.4428657293319702 -0.022459881380200386
0.5532461404800415 0.7410310506820679 -0.015244646929204464
0.7101413607597351 0.6862038969993591 0.044287752360105515
0.5206760168075562 0.44611069560050964 -0.050154175609350204
0.5714664459228516 0.797365665435791 0.014454875141382217
0.5007137656211853 0.5151971578598022 -0.08526953309774399
0.5371043682098389 0.5631603598594666 -0.06936302036046982
0.5341800451278687 0.8119781017303467 0.016315605491399765
0.6241768002510071 0.7536473870277405 0.013316874392330647
0.5871700644493103 0.623866856098175 -0.02860289067029953
0.6016494631767273 0.7780469655990601 0.014493575319647789
0.6431707143783569 0.6185917258262634 -0.028776634484529495
0.6076326370239258 0.6487048864364624 -0.02793530561029911
0.663907527923584 0.6560413837432861 -0.01107145007699728
0.5443481206893921 0.8357914090156555 0.019047608599066734
0.5532223582267761 0.5749928951263428 -0.054198864847421646
0.6513173580169678 0.7661912441253662 0.03512851893901825
0.6202495098114014 0.7934635877609253 0.03468991816043854
0.6395304203033447 0.7243632078170776 0.0060602170415222645
0.7386213541030884 0.6522865891456604 0.054290540516376495
0.6761370897293091 0.720574140548706 0.024729683995246887
0.7641316652297974 0.6620324850082397 0.1047232523560524
0.6246578693389893 0.6819114685058594 -0.018300365656614304
0.5388272404670715 0.5395001769065857 -0.05754045024514198
0.5274705290794373 0.6121368408203125 -0.09664314240217209
0.5440212488174438 0.6171422004699707 -0.07269693166017532
0.5141934156417847 0.5985140800476074 -0.11193722486495972
0.5679745078086853 0.42165565490722656 -0.04017283022403717
0.6057433485984802 0.40821361541748047 -0.052209097892045975
0.6398526430130005 0.4046272039413452 -0.05690198019146919
0.6702883243560791 0.4074587821960449 -0.05301506444811821
0.6941341757774353 0.41602152585983276 -0.04242071136832237
0.7167405486106873 0.45387300848960876 -0.006737828254699707
0.7991639375686646 0.5062142014503479 0.0851229578256607
0.6903184652328491 0.4944818615913391 -0.01663341000676155
0.6606658101081848 0.5044753551483154 -0.024553999304771423
0.6261172890663147 0.5039920210838318 -0.027506016194820404
0.5963035821914673 0.4958497881889343 -0.026249144226312637
0.5743200778961182 0.48509955406188965 -0.02301114797592163
0.5588521957397461 0.47740280628204346 -0.022115834057331085
0.8189705014228821 0.4963793158531189 0.1686045229434967
0.5447883605957031 0.6230711936950684 -0.060734521597623825
0.516708254814148 0.5493953227996826 -0.08626798540353775
0.5079947113990784 0.6149669289588928 -0.10988690704107285
0.49984416365623474 0.6255748867988586 -0.09678053110837936
0.5107927322387695 0.6177992224693298 -0.09889008849859238
0.5398721098899841 0.6298969984054565 -0.05028633773326874
0.493910014629364 0.6280404329299927 -0.10171669721603394
0.4947776794433594 0.6321980357170105 -0.07399073243141174
0.5622316002845764 0.4555996060371399 -0.014518838375806808
0.5463835000991821 0.465537428855896 -0.02395782805979252
0.5336682200431824 0.4752318859100342 -0.036984995007514954
0.6781362891197205 0.46172139048576355 -0.024306707084178925
0.6939687728881836 0.43704137206077576 -0.026348361745476723
0.38592779636383057 0.46630895137786865 0.028788981959223747
0.40590471029281616 0.46468502283096313 0.028788981959223747
0.3847777843475342 0.44852587580680847 0.028788981959223747
0.36600109934806824 0.46776628494262695 0.028788981959223747
0.3868657052516937 0.48370474576950073 0.028788981959223747
0.6129365563392639 0.467258095741272 -0.025856876745820045
0.6300687789916992 0.46755677461624146 -0.025856876745820045
0.6117005944252014 0.4483177661895752 -0.025856876745820045
0.5967611074447632 0.46648699045181274 -0.025856876745820045
0.6139520406723022 0.4858018457889557 -0.025856876745820045
