ply
format ascii 1.0
element vertex 478
property float x
property float y
property float z
end_header
0.5026616454124451 0.7385455369949341 -0.033451661467552185
0.49951478838920593 0.6849468350410461 -0.1326000690460205
0.49907955527305603 0.6975377202033997 -0.05882710590958595
0.47772282361984253 0.5830608606338501 -0.12190990895032883
0.49950528144836426 0.6578762531280518 -0.14716453850269318
0.4993843138217926 0.616719126701355 -0.14631634950637817
0.4990616738796234 0.5111098885536194 -0.10743646323680878
0.3292275667190552 0.4711528420448303 -0.004629700910300016
0.49809497594833374 0.4483010768890381 -0.10954921692609787
0.4976429045200348 0.4141140580177307 -0.12577901780605316
0.497305691242218 0.2558811604976654 -0.13960272073745728
0.5027706623077393 0.7455434799194336 -0.02665853127837181
0.5029478073120117 0.7519434094429016 -0.01752900704741478
0.5031571388244629 0.7556146383285522 -0.003843104001134634
0.5003942847251892 0.8156726956367493 0.0091096805408597
0.5011301636695862 0.8281410336494446 0.00890362448990345
0.5016523599624634 0.8426871299743652 0.005920110270380974
0.5019304752349854 0.8574790954589844 0.012296116910874844
0.4981434643268585 0.8632232546806335 0.037628527730703354
0.4996585547924042 0.6952686309814453 -0.11669687926769257
0.4703276455402374 0.6877157688140869 -0.08084028214216232
0.23436036705970764 0.35305851697921753 0.07253444939851761
0.39953136444091797 0.49311506748199463 -0.024215783923864365
0.37398552894592285 0.4944983124732971 -0.022195279598236084
0.3489680886268616 0.4935913681983948 -0.01622573286294937
0.31833696365356445 0.48038920760154724 0.0019186491845175624
0.42086344957351685 0.48888859152793884 -0.024398526176810265
0.35843387246131897 0.4368916153907776 -0.04810868948698044
0.387317955493927 0.4391500949859619 -0.04876082390546799
0.3326190710067749 0.43964773416519165 -0.03895636275410652
0.3165445923805237 0.4465472102165222 -0.02697625569999218
0.295513391494751 0.49540314078330994 0.018120000138878822
0.4037601053714752 0.8929957151412964 0.08807995915412903
0.32006293535232544 0.46689411997795105 0.001446176553145051
0.22420260310173035 0.47268229722976685 0.12261079251766205
0.2675440311431885 0.478052020072937 0.036609817296266556
0.36656543612480164 0.6197509169578552 -0.015900054946541786
0.460321843624115 0.7316911816596985 -0.031782399863004684
0.46237677335739136 0.746834397315979 -0.012768424116075039
0.42024850845336914 0.7286885976791382 -0.01244103629142046
0.3918805718421936 0.7257357239723206 0.015468128956854343
0.42814990878105164 0.7404788732528687 0.001072125742211938
0.4014258086681366 0.7350429892539978 0.025090185925364494
0.36632511019706726 0.7764066457748413 0.0769687369465828
0.4774903357028961 0.6828727126121521 -0.13050249218940735
0.4743824005126953 0.656229555606842 -0.14416362345218658
0.27842214703559875 0.42673441767692566 -0.03419429436326027
0.4238661527633667 0.5540611743927002 -0.03981976956129074
0.4095166325569153 0.6510007381439209 -0.06907474994659424
0.4091169834136963 0.6326706409454346 -0.06413067877292633
0.2927364706993103 0.6046465039253235 0.01521286740899086
0.47596296668052673 0.6178511381149292 -0.13802537322044373
0.33524835109710693 0.4084325432777405 -0.08546224981546402
0.3008009195327759 0.41341787576675415 -0.06453780084848404
0.25552788376808167 0.31338271498680115 0.010872271843254566
0.44897669553756714 0.4344569444656372 -0.10253144055604935
0.4129194915294647 0.44702404737472534 -0.03943907469511032
0.34390580654144287 0.7436360120773315 0.07331191748380661
0.24923807382583618 0.7197380661964417 0.2675401568412781
0.42730575799942017 0.6686012148857117 -0.05573014169931412
0.4496954679489136 0.679665744304657 -0.05579785257577896
0.351154088973999 0.7236511707305908 0.0740252286195755
0.35891881585121155 0.7274002432823181 0.06768567115068436
0.28825128078460693 0.39619606733322144 -0.057635705918073654
0.4064326882362366 0.6566622853279114 -0.05195368453860283
0.38423672318458557 0.413494348526001 -0.09877421706914902
0.3788107633590698 0.3926329016685486 -0.11117339879274368
0.3525907099246979 0.2651636600494385 -0.10042350739240646
0.27268651127815247 0.35393619537353516 -0.02825309708714485
0.3685147166252136 0.3289710283279419 -0.10826310515403748
0.2656857371330261 0.4132434129714966 -0.017551032826304436
0.24928018450737 0.38422128558158875 0.025172961875796318
0.460676908493042 0.7398361563682556 -0.024192657321691513
0.4239483177661896 0.7349113821983337 -0.005362822208553553
0.39639726281166077 0.7305475473403931 0.019024372100830078
0.4325466752052307 0.6724093556404114 -0.05025535821914673
0.3551139831542969 0.7255010604858398 0.07045840471982956
0.3729826807975769 0.7576841711997986 0.05952979251742363
0.362305223941803 0.7293958067893982 0.06665519624948502
0.44493135809898376 0.6711288690567017 -0.09467804431915283
0.40593215823173523 0.7380918860435486 0.03041861392557621
0.43224430084228516 0.7442455291748047 0.013354041613638401
0.4646146297454834 0.7508901357650757 0.0005334139568731189
0.4583565294742584 0.8585359454154968 0.040974125266075134
0.4567405581474304 0.8507675528526306 0.01561666838824749
0.45795536041259766 0.8365541696548462 0.00998988002538681
0.4605240225791931 0.8220233917236328 0.013299633748829365
0.4637737572193146 0.8112571835517883 0.013536075130105019
0.40662193298339844 0.7793178558349609 0.040112096816301346
0.4010632634162903 0.7825629711151123 0.03915194422006607
0.3940032422542572 0.7884822487831116 0.0392472967505455
0.3891690969467163 0.7953730225563049 0.04623497650027275
0.3757631182670593 0.7148771286010742 0.013654888607561588
0.22596359252929688 0.5786715745925903 0.25933924317359924
0.4994738698005676 0.6976828575134277 -0.08014824241399765
0.38704314827919006 0.758313000202179 0.05684441700577736
0.3797520101070404 0.7573444247245789 0.057167790830135345
0.45960190892219543 0.6907805800437927 -0.0515611469745636
0.4134308695793152 0.6692280769348145 -0.028418466448783875
0.45486658811569214 0.685547947883606 -0.05517053231596947
0.39815205335617065 0.5647792816162109 -0.026006484404206276
0.35556572675704956 0.5793614983558655 -0.015086772851645947
0.40347641706466675 0.640066385269165 -0.04656088352203369
0.2928978502750397 0.28305086493492126 -0.048698123544454575
0.3107391595840454 0.3340948224067688 -0.0712781623005867
0.32656699419021606 0.3874360918998718 -0.08748996257781982
0.3905365467071533 0.8090857863426208 0.06692680716514587
0.44006913900375366 0.4021998643875122 -0.12224189937114716
0.4286273419857025 0.32917138934135437 -0.12829150259494781
0.41842812299728394 0.25683361291885376 -0.1302143633365631
0.32931190729141235 0.48865559697151184 -0.006630542688071728
0.2681282162666321 0.5110488533973694 0.03751128539443016
0.4339592158794403 0.4841640591621399 -0.02340279519557953
0.29158756136894226 0.45343145728111267 -0.006673503201454878
0.4417416453361511 0.5416023135185242 -0.05401052534580231
0.4288513958454132 0.6510570049285889 -0.0971079170703888
0.24184945225715637 0.530468225479126 0.0713900625705719
0.28352928161621094 0.5298874378204346 0.021733349189162254
0.31383365392684937 0.5420887470245361 0.002066583139821887
0.3620021343231201 0.5411836504936218 -0.011484364047646523
0.39840346574783325 0.5325167775154114 -0.01983553357422352
0.4245809316635132 0.5228947401046753 -0.0312097929418087
0.47506970167160034 0.5160516500473022 -0.09524722397327423
0.24081677198410034 0.5855898857116699 0.08202294260263443
0.27160710096359253 0.44918033480644226 0.001578512485139072
0.4853614270687103 0.6937606334686279 -0.11512181162834167
0.42192181944847107 0.5846882462501526 -0.04229993000626564
0.22084364295005798 0.4565812647342682 0.19983845949172974
0.4440059959888458 0.5118899345397949 -0.040373340249061584
0.4010331928730011 0.6360671520233154 -0.019336950033903122
0.3086948096752167 0.467786967754364 0.006410073954612017
0.4283094108104706 0.6285480856895447 -0.09144987165927887
0.23244935274124146 0.6469253301620483 0.2692906856536865
0.43287187814712524 0.4753955006599426 -0.02034497633576393
0.45246565341949463 0.6217186450958252 -0.12018493562936783
0.29707616567611694 0.8047322034835815 0.16525568068027496
0.30462026596069336 0.8318074941635132 0.21093855798244476
0.22229242324829102 0.5868483781814575 0.17194178700447083
0.2657180726528168 0.7621208429336548 0.18188992142677307
0.23610803484916687 0.4232185482978821 0.0791769027709961
0.40077492594718933 0.9226271510124207 0.10953810811042786
0.4875693917274475 0.6960772275924683 -0.07852458208799362
0.398176372051239 0.5995432734489441 -0.027081292122602463
0.24910953640937805 0.47984999418258667 0.06222981587052345
0.35295718908309937 0.4771139919757843 -0.017084261402487755
0.37449920177459717 0.47886765003204346 -0.022990858182311058
0.36731091141700745 0.7587578892707825 0.06482168287038803
0.24109849333763123 0.6410673260688782 0.10884352773427963
0.4475339353084564 0.9651928544044495 0.11862622201442719
0.3739044964313507 0.9122412204742432 0.16046592593193054
0.3424120247364044 0.8777283430099487 0.18362903594970703
0.4974662959575653 0.33042478561401367 -0.13535182178020477
0.5000661611557007 0.9725809097290039 0.11238998174667358
0.39578914642333984 0.47797197103500366 -0.025249306112527847
0.41553741693496704 0.47600650787353516 -0.02332780696451664
0.4276638925075531 0.4756981432437897 -0.020155861973762512
0.2564927935600281 0.4412890374660492 0.02405300736427307
0.4100843369960785 0.4630642831325531 -0.03187232092022896
0.3877708315849304 0.45918381214141846 -0.03788549825549126
0.3661171793937683 0.4586547613143921 -0.03651825711131096
0.3454790711402893 0.4606749415397644 -0.029286785051226616
0.33277034759521484 0.4635911285877228 -0.019550833851099014
0.223741352558136 0.3979331851005554 0.13940034806728363
0.3389696478843689 0.4741526246070862 -0.010419674217700958
0.49860936403274536 0.7141081094741821 -0.04509252682328224
0.40393251180648804 0.7071620225906372 -0.012036414816975594
0.42851126194000244 0.6674778461456299 -0.06827797740697861
0.4568415582180023 0.7111800312995911 -0.041076891124248505
0.4986819922924042 0.47542595863342285 -0.09912746399641037
0.333084374666214 0.8479108214378357 0.15323735773563385
0.36588260531425476 0.8851746320724487 0.1340080350637436
0.44549235701560974 0.9479944109916687 0.08821064978837967
0.2751283049583435 0.7821082472801208 0.24198678135871887
0.42540884017944336 0.4699223041534424 -0.025600148364901543
0.4580456614494324 0.5607258081436157 -0.08793541043996811
0.49930253624916077 0.956099271774292 0.08300022780895233
0.407301664352417 0.9437030553817749 0.13516683876514435
0.2282697856426239 0.6480061411857605 0.18774327635765076
0.43298110365867615 0.7985956072807312 0.025103215128183365
0.427171528339386 0.8056984543800354 0.024639714509248734
0.42197251319885254 0.8166548013687134 0.024202032014727592
0.4191024601459503 0.829448938369751 0.03092498704791069
0.41972818970680237 0.8382664322853088 0.05259326845407486
0.37687575817108154 0.7303254008293152 0.04711490124464035
0.3723961114883423 0.7269952297210693 0.04725651443004608
0.36832350492477417 0.7235420942306519 0.045671943575143814
0.3537226617336273 0.7261080741882324 0.043217066675424576
0.2691096067428589 0.6615097522735596 0.062113143503665924
0.4590819478034973 0.5276501774787903 -0.07307589054107666
0.4509360194206238 0.46313345432281494 -0.043761685490608215
0.4358387887477875 0.4633294343948364 -0.03312810882925987
0.38161343336105347 0.7331326007843018 0.05046622455120087
0.26810556650161743 0.7253615856170654 0.12328419089317322
0.46899276971817017 0.4677462577819824 -0.07895853370428085
0.41175317764282227 0.862598717212677 0.07088758051395416
0.49930962920188904 0.5806003212928772 -0.13179202377796173
0.4762341380119324 0.5511170029640198 -0.1116560772061348
0.49918246269226074 0.5470522046089172 -0.1189088225364685
0.43745774030685425 0.6006906628608704 -0.07553083449602127
0.4990517497062683 0.9276435375213623 0.06139632314443588
0.4986209571361542 0.8924490213394165 0.050180722028017044
0.45396026968955994 0.8864786028862 0.05656744912266731
0.3515594005584717 0.7902852296829224 0.09209474176168442
0.38004931807518005 0.6553276777267456 -0.0061015477403998375
0.3794441223144531 0.8294121623039246 0.08509016036987305
0.3229621648788452 0.6484900712966919 0.005118199158459902
0.35543888807296753 0.6805377006530762 0.011865707114338875
0.30008208751678467 0.6868560910224915 0.042970702052116394
0.4479864835739136 0.9200389385223389 0.06788328289985657
0.41988620162010193 0.6084938645362854 -0.05204901471734047
0.336174875497818 0.8152076005935669 0.11885087937116623
0.36999011039733887 0.8555019497871399 0.10908441990613937
0.32752323150634766 0.750906229019165 0.08211275935173035
0.24713441729545593 0.6884735822677612 0.13353508710861206
0.2995675206184387 0.7582767605781555 0.10429456830024719
0.24160131812095642 0.7062593102455139 0.1969882994890213
0.33262449502944946 0.706466019153595 0.038204535841941833
0.44065403938293457 0.5724694728851318 -0.06344462931156158
0.43693098425865173 0.6661993265151978 -0.10102754086256027
0.41702020168304443 0.6628034710884094 -0.07012370228767395
0.4508832097053528 0.654056191444397 -0.12280306965112686
0.4304575026035309 0.4441976845264435 -0.056398484855890274
0.38680145144462585 0.4300616681575775 -0.06478134542703629
0.3491990566253662 0.42651814222335815 -0.06290007382631302
0.31899261474609375 0.42946726083755493 -0.05052906274795532
0.2997591197490692 0.43805447220802307 -0.03270673751831055
0.2903516888618469 0.47321224212646484 0.017038214951753616
0.22079253196716309 0.5292116403579712 0.14911726117134094
0.308784544467926 0.5065715909004211 0.009359420277178288
0.3333905339241028 0.5152186155319214 -0.003998761065304279
0.36756858229637146 0.516155481338501 -0.013761293143033981
0.40002232789993286 0.5113683342933655 -0.018972573801875114
0.4247484505176544 0.5050348043441772 -0.024570884183049202
0.4412826597690582 0.49901914596557617 -0.02849806658923626
0.2235400676727295 0.5158548355102539 0.23712420463562012
0.416159063577652 0.6652005910873413 -0.056004125624895096
0.457415372133255 0.5906643867492676 -0.10036327689886093
0.4574999213218689 0.6752769351005554 -0.11971833556890488
0.47018134593963623 0.6864593625068665 -0.10569913685321808
0.4564613103866577 0.6766579747200012 -0.10652859508991241
0.421804279088974 0.6709741353988647 -0.04501250013709068
0.4763858914375305 0.690959095954895 -0.11175835877656937
0.47786644101142883 0.6929373741149902 -0.0795750617980957
0.44177913665771484 0.47793644666671753 -0.02408812753856182
0.4539259970188141 0.4871853291988373 -0.03785717859864235
0.4587734639644623 0.4945816695690155 -0.054858990013599396
0.32537347078323364 0.4656864404678345 -0.010480893775820732
0.30661216378211975 0.4550153315067291 -0.010647743940353394
0.5205919146537781 0.5828865170478821 -0.1225258857011795
0.6717483401298523 0.47655433416366577 -0.009973831474781036
0.5287564396858215 0.6875336170196533 -0.0812462791800499
0.7625448107719421 0.35131701827049255 0.06691824644804001
0.6013487577438354 0.4980658292770386 -0.02740563079714775
0.6245335936546326 0.49965426325798035 -0.026088012382388115
0.6486437916755676 0.4990507960319519 -0.02084030583500862
0.6821736693382263 0.48307597637176514 -0.003707688534632325
0.5827556848526001 0.4944332540035248 -0.02694285847246647
0.6431502103805542 0.4372667670249939 -0.05255807936191559
0.6155944466590881 0.4404674470424652 -0.05221236124634743
0.668097972869873 0.4398873448371887 -0.04402780160307884
0.6835836172103882 0.447325736284256 -0.03255853429436684
0.7022000551223755 0.49678662419319153 0.012302783317863941
0.5943124294281006 0.8937029838562012 0.08610287308692932
0.6822717189788818 0.46955621242523193 -0.004146098624914885
0.7751429080963135 0.4719095528125763 0.11405500769615173
0.7302024364471436 0.4763520658016205 0.029842721298336983
0.6301652193069458 0.6195774078369141 -0.01853838562965393
0.5430072546005249 0.732201337814331 -0.03235417976975441
0.5411837100982666 0.7472671866416931 -0.01328565739095211
0.5794340968132019 0.7293322086334229 -0.013634942471981049
0.6045340299606323 0.7264193296432495 0.013903532177209854
0.5723345875740051 0.7409864068031311 2.9026117772446014e-05
0.5957049131393433 0.7359542846679688 0.023902932181954384
0.6295759081840515 0.7767609357833862 0.07475847005844116
0.5215962529182434 0.6827367544174194 -0.13088618218898773
0.5240779519081116 0.6559878587722778 -0.144695445895195
0.7176085114479065 0.42417967319488525 -0.040888138115406036
0.574219822883606 0.5533849000930786 -0.041658710688352585
0.5885158181190491 0.6507745385169983 -0.07074689120054245
0.5887325406074524 0.6323511600494385 -0.06595463305711746
0.7038307189941406 0.6041865944862366 0.010248644277453423
0.5226539373397827 0.6175556778907776 -0.13865120708942413
0.6616098880767822 0.4087860584259033 -0.09006325155496597
0.6951513290405273 0.4120774567127228 -0.0704592689871788
0.7399721145629883 0.3116568624973297 0.005614321678876877
0.5526542663574219 0.43931132555007935 -0.10395647585391998
0.5917050242424011 0.45033174753189087 -0.042217858135700226
0.6514402627944946 0.7437646389007568 0.0708177238702774
0.7513945698738098 0.7196003794670105 0.2637917995452881
0.5707544088363647 0.6685079336166382 -0.05699046328663826
0.5486283898353577 0.6798096299171448 -0.0563453771173954
0.6388720870018005 0.7242280840873718 0.07194408774375916
0.6304781436920166 0.7282642722129822 0.0660366490483284
0.7080351710319519 0.3926810026168823 -0.06404874473810196
0.5912196040153503 0.6567848920822144 -0.0534452423453331
0.6151280999183655 0.4162442088127136 -0.10197122395038605
0.619205117225647 0.3951857089996338 -0.11435694247484207
0.6429004073143005 0.2639087736606598 -0.10375836491584778
0.7239155173301697 0.35214707255363464 -0.03531390428543091
0.6271122694015503 0.32781657576560974 -0.1121109127998352
0.7313377261161804 0.40831732749938965 -0.0247237216681242
0.7484205365180969 0.3827267289161682 0.017285475507378578
0.542612612247467 0.7403421401977539 -0.024813620373606682
0.5760982632637024 0.7354578375816345 -0.006558772176504135
0.6004229187965393 0.7311748266220093 0.017581624910235405
0.5653133988380432 0.6724649667739868 -0.05118938162922859
0.634563684463501 0.7262004613876343 0.06870665401220322
0.6185381412506104 0.7576068639755249 0.05808626860380173
0.6265093088150024 0.7302418351173401 0.06516598165035248
0.5541746616363525 0.670884370803833 -0.09579627960920334
0.5915400981903076 0.7389453649520874 0.0292977187782526
0.5685310363769531 0.7446020841598511 0.012505517341196537
0.539260745048523 0.7512365579605103 6.198039773153141e-05
0.538069486618042 0.858943521976471 0.040313471108675
0.5444815158843994 0.8508819937705994 0.014967303723096848
0.542732834815979 0.8364205956459045 0.009369080886244774
0.5393164157867432 0.8215519189834595 0.012633760459721088
0.5349740386009216 0.810666561126709 0.012890615500509739
0.5871086120605469 0.7790549993515015 0.039001889526844025
0.5933294296264648 0.7821668982505798 0.03807767480611801
0.6007298827171326 0.7882464528083801 0.03812422975897789
0.6058769226074219 0.795295238494873 0.04497490078210831
0.6196144819259644 0.7151709794998169 0.011818583123385906
0.7755026817321777 0.5786692500114441 0.254786878824234
0.6045066714286804 0.7585357427597046 0.05558229610323906
0.6116560697555542 0.7573586702346802 0.05583996698260307
0.5385382771492004 0.6911832094192505 -0.05206632986664772
0.5841435194015503 0.669538676738739 -0.02955406904220581
0.5434771776199341 0.6858720779418945 -0.05567162111401558
0.5995579361915588 0.5642334818840027 -0.028418803587555885
0.6415967345237732 0.5790372490882874 -0.018510280176997185
0.5941855907440186 0.6400091648101807 -0.04833774268627167
0.7026204466819763 0.2814492881298065 -0.053137924522161484
0.685238242149353 0.33244818449020386 -0.07694379985332489
0.6699340343475342 0.38679760694503784 -0.0924995094537735
0.6054726839065552 0.8097814321517944 0.06512607634067535
0.5600352883338928 0.4068893492221832 -0.1239050105214119
0.5668764114379883 0.3286746144294739 -0.1302618384361267
0.5769751071929932 0.25627410411834717 -0.13185827434062958
0.6696139574050903 0.4933914542198181 -0.011876055039465427
0.7280737161636353 0.5113446712493896 0.0309462733566761
0.5716878771781921 0.49075406789779663 -0.02574888803064823
0.70670485496521 0.4530505836009979 -0.012999555096030235
0.5564752817153931 0.5408728122711182 -0.055587757378816605
0.5696691274642944 0.6507304310798645 -0.09847892820835114
0.7563899755477905 0.5298072099685669 0.06391552090644836
0.7112111449241638 0.5319209694862366 0.01571408472955227
0.6800917387008667 0.5451034903526306 -0.002892871852964163
0.6329372525215149 0.5442540645599365 -0.015161811374127865
0.5985962152481079 0.5359015464782715 -0.022542038932442665
0.5747063159942627 0.5276584625244141 -0.03321770951151848
0.5227864980697632 0.5157327651977539 -0.09596170485019684
0.7570074200630188 0.5851714611053467 0.07464718818664551
0.7258305549621582 0.4471273422241211 -0.005354663822799921
0.5137325525283813 0.6936599612236023 -0.11547514796257019
0.5759292244911194 0.5841377377510071 -0.043982867151498795
0.7799181938171387 0.45575886964797974 0.19459670782089233
0.5567969679832458 0.518423318862915 -0.042050302028656006
0.5965117812156677 0.636001706123352 -0.020976874977350235
0.6926417350769043 0.46878522634506226 0.0005333172739483416
0.5700311660766602 0.6279671788215637 -0.09287133067846298
0.7686233520507812 0.646848738193512 0.26497769355773926
0.5739860534667969 0.48231008648872375 -0.022726206108927727
0.5457913279533386 0.6212528347969055 -0.12128664553165436
0.7006948590278625 0.8046215176582336 0.16002397239208221
0.6951956748962402 0.8318238258361816 0.208219975233078
0.7772058844566345 0.5862289667129517 0.16366644203662872
0.7320057153701782 0.7613843083381653 0.1755801886320114
0.7623220682144165 0.4220470190048218 0.07082729786634445
0.5978745222091675 0.9234954118728638 0.1072176843881607
0.5114839673042297 0.6960428953170776 -0.07866480201482773
0.599180281162262 0.5991840958595276 -0.029205402359366417
0.7504514455795288 0.4762710928916931 0.05463847517967224
0.6456225514411926 0.48487502336502075 -0.021662652492523193
0.6246457695960999 0.4858718812465668 -0.02700340561568737
0.6243652105331421 0.75870680809021 0.06311493366956711
0.7561098337173462 0.6405705213546753 0.10201212763786316
0.5527937412261963 0.9658073782920837 0.11822942644357681
0.6268138289451599 0.9131448864936829 0.1587957888841629
0.6581000089645386 0.8784013986587524 0.1815692037343979
0.6056694388389587 0.4840691089630127 -0.02864297665655613
0.5882773399353027 0.481980562210083 -0.026233304291963577
0.5779778957366943 0.4821569323539734 -0.022734379395842552
0.7424330115318298 0.43653324246406555 0.016680901870131493
0.595991849899292 0.46563011407852173 -0.035019006580114365
0.6170150637626648 0.45893582701683044 -0.04155237227678299
0.6379650831222534 0.45786052942276 -0.04087430238723755
0.6578643321990967 0.46040403842926025 -0.0342290997505188
0.6699424982070923 0.4644046127796173 -0.024803876876831055
0.7749100923538208 0.39627891778945923 0.13392862677574158
0.660546600818634 0.48128965497016907 -0.01541738398373127
0.5924641489982605 0.7074605226516724 -0.013268201611936092
0.5697006583213806 0.6673170924186707 -0.06942000985145569
0.5402824878692627 0.711481511592865 -0.04158944636583328
0.665065348148346 0.848487138748169 0.14919638633728027
0.6325075030326843 0.8860141038894653 0.13086117804050446
0.5529949069023132 0.9486086368560791 0.08685910701751709
0.7252669334411621 0.7816929817199707 0.23877695202827454
0.5812182426452637 0.47589540481567383 -0.028298217803239822
0.5400466322898865 0.5603002309799194 -0.08902092278003693
0.5933564901351929 0.9446103572845459 0.1338856816291809
0.7705073356628418 0.6473400592803955 0.18007409572601318
0.5634827613830566 0.7979809641838074 0.024243829771876335
0.5700679421424866 0.8051755428314209 0.023708323016762733
0.5760179758071899 0.8163111209869385 0.023181011900305748
0.5795536041259766 0.8293457627296448 0.0298374705016613
0.5764538049697876 0.8388776779174805 0.051276590675115585
0.6153785586357117 0.7314157485961914 0.04556560143828392
0.6201860904693604 0.7278100848197937 0.045534294098615646
0.624667763710022 0.7244157791137695 0.04377657547593117
0.6412872672080994 0.7263237237930298 0.04097395017743111
0.7270347476005554 0.661035418510437 0.05670986324548721
0.5390516519546509 0.5271879434585571 -0.07427483052015305
0.5547692179679871 0.4695003628730774 -0.045357853174209595
0.5707395672798157 0.4694192111492157 -0.03528726100921631
0.6106932163238525 0.7342691421508789 0.04917788505554199
0.7286028861999512 0.7246806621551514 0.11768757551908493
0.531740128993988 0.4751753807067871 -0.07979531586170197
0.5852830410003662 0.8632425665855408 0.06918253004550934
0.521877110004425 0.550815999507904 -0.11223900318145752
0.5605931282043457 0.6003484129905701 -0.07685547322034836
0.5432626605033875 0.8868880271911621 0.05567969009280205
0.644601583480835 0.7907568216323853 0.08941483497619629
0.6168198585510254 0.6552281379699707 -0.008023951202630997
0.6172910332679749 0.8299852609634399 0.08281834423542023
0.6728872060775757 0.6482571363449097 0.0017524411669000983
0.6404074430465698 0.6805775165557861 0.009532934986054897
0.6957517862319946 0.6867283582687378 0.03912199288606644
0.5499545931816101 0.9206281900405884 0.06659667938947678
0.5780436992645264 0.6080445647239685 -0.05364151671528816
0.6611955761909485 0.8156452178955078 0.11534681916236877
0.6276511549949646 0.8561334609985352 0.10641860216856003
0.66819167137146 0.7512641549110413 0.07891888171434402
0.7499766945838928 0.6876938939094543 0.1271870732307434
0.696782648563385 0.7581132650375366 0.1000455766916275
0.7567156553268433 0.7054975628852844 0.18979114294052124
0.6628401875495911 0.7066996693611145 0.03542450815439224
0.5573882460594177 0.572007417678833 -0.06484822183847427
0.5619579553604126 0.665899395942688 -0.10228845477104187
0.5810539722442627 0.6626641750335693 -0.07152482867240906
0.5477553606033325 0.6536905169487 -0.12396524101495743
0.5742813348770142 0.44902583956718445 -0.05864258483052254
0.6143141984939575 0.4327060878276825 -0.06813748925924301
0.6498500108718872 0.4277716279029846 -0.06722021102905273
0.6787557005882263 0.43005502223968506 -0.05584777891635895
0.6978898644447327 0.43819743394851685 -0.03867044299840927
0.7084841728210449 0.47269678115844727 0.010801437310874462
0.778499186038971 0.5285719633102417 0.14055754244327545
0.6880999803543091 0.5093588829040527 0.0038742139004170895
0.6622848510742188 0.518880307674408 -0.008718983270227909
0.629097580909729 0.5198168158531189 -0.01753876358270645
0.5991591811180115 0.515181303024292 -0.021890312433242798
0.5775185227394104 0.5096966028213501 -0.02674248442053795
0.5626772046089172 0.504696249961853 -0.030313139781355858
0.7780753970146179 0.5155354142189026 0.23228007555007935
0.5815726518630981 0.6651661992073059 -0.05731096863746643
0.5408024191856384 0.5903280377388 -0.10144246369600296
0.541370689868927 0.6749576926231384 -0.12056517601013184
0.5289227962493896 0.6864040493965149 -0.10618285834789276
0.5426583886146545 0.6764969229698181 -0.10733973979949951
0.5759100914001465 0.6711118817329407 -0.046003393828868866
0.5226868391036987 0.6908226013183594 -0.11211377382278442
0.5211229920387268 0.6927425265312195 -0.07986698299646378
0.5651631355285645 0.4850693941116333 -0.02602090686559677
0.5511108040809631 0.49379822611808777 -0.03926844149827957
0.5426732301712036 0.5022966265678406 -0.05615348741412163
0.6771954894065857 0.4675183892250061 -0.015957310795783997
0.6933476328849792 0.45587751269340515 -0.01645287312567234
0.36882615089416504 0.4654850959777832 -0.02087193913757801
0.39417576789855957 0.466056764125824 -0.02087193913757801
0.36929988861083984 0.4459473192691803 -0.02087193913757801
0.3437466025352478 0.4648970663547516 -0.02087193913757801
0.3682960271835327 0.48495280742645264 -0.02087193913757801
0.6331291794776917 0.4681979715824127 -0.024954650551080704
0.658685028553009 0.4678111672401428 -0.024954650551080704
0.631858766078949 0.4450555443763733 -0.024954650551080704
0.6074743270874023 0.46835747361183167 -0.024954650551080704
0.6343889236450195 0.4912039339542389 -0.024954650551080704
