ply
format ascii 1.0
element vertex 478
property float x
property float y
property float z
end_header
0.4682729244232178 0.6707042455673218 -0.09646990895271301
0.45838457345962524 0.5920979976654053 -0.14366589486598969
0.46871647238731384 0.6250216960906982 -0.0916760116815567
0.4497973918914795 0.5194007754325867 -0.08630659431219101
0.45876652002334595 0.5658717751502991 -0.14644086360931396
0.4638201892375946 0.5370630621910095 -0.129449263215065
0.4796823263168335 0.4726736545562744 -0.040816232562065125
0.3388952612876892 0.4823630452156067 0.0942242369055748
0.48604488372802734 0.42493826150894165 -0.005852936301380396
0.48739033937454224 0.3965005576610565 0.0009904872858896852
0.49668335914611816 0.3052437901496887 0.061788950115442276
0.46910929679870605 0.679514467716217 -0.09516023844480515
0.4711591303348541 0.6887933611869812 -0.09060338884592056
0.4737662374973297 0.6939740180969238 -0.08482202887535095
0.47723162174224854 0.7820049524307251 -0.06675112992525101
0.47674253582954407 0.7915961146354675 -0.07627193629741669
0.4771459996700287 0.8040769100189209 -0.08497603237628937
0.47873011231422424 0.8176404237747192 -0.08477518707513809
0.47589319944381714 0.8347426652908325 -0.07195286452770233
0.4613597095012665 0.6089993119239807 -0.13416831195354462
0.4418983459472656 0.61253821849823 -0.09875492006540298
0.2976113557815552 0.43967926502227783 0.2503199279308319
0.396121084690094 0.49630987644195557 0.05524292215704918
0.37563350796699524 0.49966275691986084 0.06024434044957161
0.3561203181743622 0.5002238750457764 0.07025560736656189
0.33099013566970825 0.4909234046936035 0.09657825529575348
0.4135420024394989 0.4899362325668335 0.05329437553882599
0.36385807394981384 0.43231451511383057 0.06397777795791626
0.3881251811981201 0.433179646730423 0.06039253994822502
0.3421471416950226 0.438791960477829 0.07374972850084305
0.3286265730857849 0.45034539699554443 0.08440926671028137
0.3147076964378357 0.5066036581993103 0.10669824481010437
0.3775985836982727 0.8595970869064331 -0.028591057285666466
0.33181697130203247 0.4771692752838135 0.10444758832454681
0.2728320360183716 0.5305558443069458 0.22878876328468323
0.2935568690299988 0.4945366382598877 0.13960251212120056
0.3562493324279785 0.5885524153709412 0.00036563168396241963
0.4250136613845825 0.6662781834602356 -0.08622024208307266
0.43282172083854675 0.6880557537078857 -0.07933000475168228
0.3865641951560974 0.6748855113983154 -0.06278342008590698
0.3635929822921753 0.6878686547279358 -0.031344808638095856
0.40285468101501465 0.691565990447998 -0.0585300587117672
0.38185349106788635 0.6988319158554077 -0.03058781661093235
0.3506239056587219 0.7543073296546936 0.012230603955686092
0.43807682394981384 0.592898428440094 -0.13821382820606232
0.4356701374053955 0.5678160786628723 -0.1397436112165451
0.30289173126220703 0.43375468254089355 0.10244778543710709
0.41242122650146484 0.5309567451477051 0.005615104455500841
0.38586387038230896 0.592816174030304 -0.06663532555103302
0.38649940490722656 0.5810999870300293 -0.05560684949159622
0.2957500219345093 0.5901347398757935 0.047342438250780106
0.44205230474472046 0.5409430265426636 -0.11732017248868942
0.3466242551803589 0.4011871814727783 0.05529244616627693
0.32031041383743286 0.41354578733444214 0.0781983956694603
0.3137078583240509 0.39428290724754333 0.21128664910793304
0.4353927671909332 0.41116437315940857 0.011986987665295601
0.4093341827392578 0.4421736001968384 0.06213755905628204
0.33368510007858276 0.7176648378372192 0.024013683199882507
0.2871722877025604 0.7618721723556519 0.2164931446313858
0.4048289656639099 0.607689619064331 -0.06384971737861633
0.42550528049468994 0.6155505776405334 -0.07623197883367538
0.3461485803127289 0.7217735052108765 0.02291066385805607
0.35548651218414307 0.7224400639533997 0.015149865299463272
0.3102114796638489 0.402621865272522 0.0974746122956276
0.3853595554828644 0.6045302152633667 -0.056467123329639435
0.3835744857788086 0.39833971858024597 0.03282803297042847
0.3795667886734009 0.38211458921432495 0.034136440604925156
0.3832252025604248 0.3272809386253357 0.11613737046718597
0.31506800651550293 0.4035259485244751 0.14921779930591583
0.38699787855148315 0.3574390411376953 0.07621823251247406
0.29210522770881653 0.4275348484516144 0.1295127421617508
0.2974492609500885 0.44137346744537354 0.18892636895179749
0.4275260865688324 0.6777735352516174 -0.08441920578479767
0.394262433052063 0.6839559674263 -0.060883816331624985
0.3720346689224243 0.6936606168746948 -0.03271794691681862
0.4107118546962738 0.6125556230545044 -0.06286708265542984
0.35079318284988403 0.7221910357475281 0.01860121078789234
0.36250069737434387 0.747855544090271 0.0008007516735233366
0.35957711935043335 0.7227470278739929 0.013702238909900188
0.4160766005516052 0.5983044505119324 -0.09592470526695251
0.3900470733642578 0.7008320689201355 -0.030357852578163147
0.4107149839401245 0.6952479481697083 -0.053412459790706635
0.438774436712265 0.6931979656219482 -0.07309923321008682
0.432614803314209 0.8312684893608093 -0.06191817298531532
0.4331296980381012 0.8128528594970703 -0.07275906205177307
0.43387672305107117 0.799456000328064 -0.07155504077672958
0.43707650899887085 0.7869433164596558 -0.062444575130939484
0.44184979796409607 0.7787722945213318 -0.05433737859129906
0.3939291536808014 0.7600426077842712 -0.016301633790135384
0.38674020767211914 0.7629315853118896 -0.022501720115542412
0.3777748644351959 0.7685222625732422 -0.026448315009474754
0.37161606550216675 0.7756437063217163 -0.02162938192486763
0.3574519753456116 0.6697532534599304 -0.018498145043849945
0.27714553475379944 0.6467692852020264 0.28903165459632874
0.46506714820861816 0.6177523136138916 -0.10574514418840408
0.3785005211830139 0.7463274598121643 0.003795431926846504
0.3700542151927948 0.7463982105255127 9.010873327497393e-05
0.43255314230918884 0.6249136328697205 -0.08038070797920227
0.39396122097969055 0.6193292140960693 -0.045604340732097626
0.4290854334831238 0.6204167604446411 -0.07902819663286209
0.387198805809021 0.5444138646125793 0.014431214891374111
0.3492864966392517 0.5595712661743164 0.02347942814230919
0.3829532861709595 0.5931448936462402 -0.044007912278175354
0.34049171209335327 0.35573726892471313 0.1632796823978424
0.34371936321258545 0.37491023540496826 0.11242552846670151
0.33944183588027954 0.38678261637687683 0.06819739937782288
0.36952728033065796 0.7848590612411499 -0.00894427765160799
0.4279901087284088 0.3832661211490631 0.012975150719285011
0.43443945050239563 0.35048162937164307 0.04993031173944473
0.43315985798835754 0.3122559189796448 0.08076460659503937
0.3399674892425537 0.4976853132247925 0.08383681625127792
0.2937679588794708 0.5242019295692444 0.12039367109537125
0.4250536561012268 0.48364460468292236 0.05606284737586975
0.3114497661590576 0.463393896818161 0.10871101915836334
0.4297005534172058 0.5152441263198853 -0.003168214811012149
0.4004124104976654 0.5821524262428284 -0.0908794105052948
0.2681950330734253 0.5557751655578613 0.14628830552101135
0.3060024380683899 0.5359671115875244 0.09197784960269928
0.33115071058273315 0.5399501323699951 0.0627094954252243
0.37043535709381104 0.5327489972114563 0.04339826852083206
0.399219274520874 0.521920919418335 0.03450450301170349
0.4207530617713928 0.510412871837616 0.025531450286507607
0.45839524269104004 0.4803209602832794 -0.02710118144750595
0.2596208453178406 0.5978743433952332 0.12616758048534393
0.296755850315094 0.46242591738700867 0.12498343735933304
0.4491369426250458 0.6085978746414185 -0.13012436032295227
0.4058316946029663 0.5505830645561218 -0.013073951937258244
0.2819615304470062 0.5431971549987793 0.30657437443733215
0.4366603195667267 0.49763786792755127 0.022127073258161545
0.3830888271331787 0.5963178277015686 -0.018624264746904373
0.32314983010292053 0.4790322482585907 0.10980156064033508
0.40213507413864136 0.5678879022598267 -0.07774779200553894
0.27858981490135193 0.7022870779037476 0.25876763463020325
0.42580658197402954 0.47659072279930115 0.06661751121282578
0.42238301038742065 0.5519311428070068 -0.10142453014850616
0.3042750954627991 0.7972933053970337 0.08541016280651093
0.3153727650642395 0.8386322855949402 0.11085950583219528
0.25655895471572876 0.6243417859077454 0.2099156379699707
0.2836122214794159 0.7681283950805664 0.12105103582143784
0.28633934259414673 0.48359185457229614 0.21727794408798218
0.37482285499572754 0.8890455365180969 -0.025268178433179855
0.45477473735809326 0.6172499656677246 -0.10248167812824249
0.3841530680656433 0.5686334371566772 -0.005457000341266394
0.27820929884910583 0.5017095804214478 0.166961669921875
0.35785865783691406 0.487847238779068 0.07546334713697433
0.3750256597995758 0.4881893992424011 0.06646804511547089
0.3561437129974365 0.7501063942909241 0.005012852605432272
0.25805947184562683 0.6470771431922913 0.11889947205781937
0.41824498772621155 0.9330097436904907 -0.04207829758524895
0.35742175579071045 0.893480658531189 0.031453050673007965
0.33734047412872314 0.8696370124816895 0.06896994262933731
0.4913864731788635 0.34778574109077454 0.0324639193713665
0.47317785024642944 0.9413666725158691 -0.06066082790493965
0.3923494219779968 0.4857648015022278 0.06209607049822807
0.4089421033859253 0.48165297508239746 0.06283661723136902
0.42007535696029663 0.4790741205215454 0.06670501828193665
0.28393441438674927 0.46157729625701904 0.15365229547023773
0.40624237060546875 0.4609881639480591 0.06573673337697983
0.3877473473548889 0.4549486041069031 0.06498866528272629
0.3694629669189453 0.45482349395751953 0.06930779665708542
0.35197627544403076 0.45994603633880615 0.07733724266290665
0.3415989875793457 0.4669926166534424 0.08591867238283157
0.2879076898097992 0.48660415410995483 0.28573569655418396
0.34655946493148804 0.485478937625885 0.08546678721904755
0.47039994597435 0.6428109407424927 -0.08814343065023422
0.3803802728652954 0.6540021896362305 -0.043386876583099365
0.40443339943885803 0.6032202243804932 -0.07147364318370819
0.4296042323112488 0.6442950963973999 -0.07881022244691849
0.4845511317253113 0.4511842429637909 -0.013704990036785603
0.32716095447540283 0.8312628269195557 0.05213643237948418
0.34989413619041443 0.8591722249984741 0.014683235436677933
0.41489341855049133 0.9108091592788696 -0.06216604262590408
0.30042335391044617 0.8074801564216614 0.16210034489631653
0.419560968875885 0.4703981578350067 0.06673088669776917
0.4384223222732544 0.5155360698699951 -0.04216277226805687
0.47045713663101196 0.9184120297431946 -0.07905378937721252
0.3818134069442749 0.9153792262077332 -0.009028324857354164
0.25799477100372314 0.6771304607391357 0.18917469680309296
0.4147071838378906 0.7713140249252319 -0.03618597984313965
0.4074866473674774 0.7769839763641357 -0.042709432542324066
0.4009906053543091 0.7867416739463806 -0.04724738746881485
0.39751166105270386 0.798750102519989 -0.044938210397958755
0.3945316672325134 0.8123751878738403 -0.034799687564373016
0.3661922216415405 0.7089335322380066 -0.004962650593370199
0.3575747013092041 0.7061341404914856 -0.0018354334169998765
0.35034942626953125 0.7025919556617737 -0.00032426786492578685
0.3407563269138336 0.6900351643562317 0.008324408903717995
0.27723079919815063 0.6493930816650391 0.06402413547039032
0.4450758397579193 0.4965512156486511 -0.01320990826934576
0.43918153643608093 0.45525306463241577 0.04746883735060692
0.42744603753089905 0.46037304401397705 0.061595506966114044
0.3735990524291992 0.7095740437507629 -0.005196622107177973
0.2801463305950165 0.7189704179763794 0.08769561350345612
0.45580926537513733 0.4507175087928772 0.009555917233228683
0.38679391145706177 0.8326706886291504 -0.030982032418251038
0.4695852994918823 0.5146695375442505 -0.09883341193199158
0.45375242829322815 0.500526487827301 -0.0584232471883297
0.474632203578949 0.4942457675933838 -0.06769827008247375
0.41570085287094116 0.5509918332099915 -0.05013841763138771
0.47069695591926575 0.8890166878700256 -0.08299093693494797
0.47344478964805603 0.8584274649620056 -0.07670971751213074
0.42564520239830017 0.8538278341293335 -0.062059756368398666
0.33975666761398315 0.7666146755218506 0.02263602428138256
0.36594194173812866 0.6181451678276062 -0.010112067684531212
0.3601466417312622 0.8031511306762695 -0.002391277113929391
0.3198779225349426 0.6190968751907349 0.01169066783040762
0.34572386741638184 0.6443678736686707 0.0002027756709139794
0.3023460805416107 0.6617026925086975 0.032012734562158585
0.41727957129478455 0.8828185796737671 -0.06539709120988846
0.40021705627441406 0.5657945871353149 -0.033940497785806656
0.3275655508041382 0.7937418818473816 0.036854613572359085
0.35217615962028503 0.8274766206741333 0.005820957012474537
0.3222562074661255 0.7265000343322754 0.033113911747932434
0.2642524838447571 0.6923180222511292 0.1155010461807251
0.30159440636634827 0.7406918406486511 0.05418436601758003
0.2672640383243561 0.7266637682914734 0.1638125330209732
0.32807302474975586 0.6749440431594849 0.01567036285996437
0.42320606112480164 0.5333963632583618 -0.026341034099459648
0.4078526496887207 0.593280553817749 -0.09865924715995789
0.393110990524292 0.6008286476135254 -0.0736856609582901
0.4168742895126343 0.5741190314292908 -0.11608794331550598
0.4214300811290741 0.43318137526512146 0.050340719521045685
0.3867540955543518 0.42077022790908813 0.05393374338746071
0.3568434417247772 0.4211755394935608 0.06037195399403572
0.33324119448661804 0.42929601669311523 0.07364486902952194
0.3177216351032257 0.44307416677474976 0.09029127657413483
0.3105662167072296 0.48631972074508667 0.12025533616542816
0.2616398334503174 0.5767806172370911 0.22217483818531036
0.324868381023407 0.5136717557907104 0.09056917577981949
0.3454011082649231 0.5174478888511658 0.07047315686941147
0.37252384424209595 0.5149862766265869 0.05489067733287811
0.39832592010498047 0.5081779360771179 0.04728906229138374
0.41834503412246704 0.499660462141037 0.042370881885290146
0.4320976138114929 0.49149289727211 0.0398758240044117
0.27952802181243896 0.5952457189559937 0.307457834482193
0.39422276616096497 0.6078720688819885 -0.06340432167053223
0.43240875005722046 0.5329911708831787 -0.06838802248239517
0.4229372441768646 0.5922219157218933 -0.1220623180270195
0.43900784850120544 0.6069700717926025 -0.11850311607122421
0.4255453944206238 0.5987401604652405 -0.11097841709852219
0.4009726941585541 0.6157433986663818 -0.059234559535980225
0.4423537850379944 0.6080228090286255 -0.12614770233631134
0.4472358226776123 0.6159467101097107 -0.10053450614213943
0.4326750636100769 0.47576507925987244 0.05886166915297508
0.4427078366279602 0.4783821702003479 0.03831685706973076
0.448453426361084 0.47986698150634766 0.015761377289891243
0.3359653353691101 0.47233766317367554 0.09388728439807892
0.32141372561454773 0.4633048176765442 0.09806900471448898
0.49165162444114685 0.5182129144668579 -0.09608203172683716
0.6809359788894653 0.4809987545013428 0.025202792137861252
0.4926358163356781 0.6115092039108276 -0.10625039786100388
0.7636550664901733 0.4228847622871399 0.1441345065832138
0.6037390232086182 0.49426236748695374 0.010331416502594948
0.6282440423965454 0.49696511030197144 0.006466347258538008
0.6528624296188354 0.4977852404117584 0.008189230225980282
0.690828800201416 0.4886470139026642 0.023458000272512436
0.5837231874465942 0.48934638500213623 0.017865225672721863
0.6407843232154846 0.42590001225471497 0.008355461992323399
0.6105747222900391 0.4284377098083496 0.01617974042892456
0.6696423888206482 0.43174415826797485 0.009634514339268208
0.6893688440322876 0.44386914372444153 0.015131799504160881
0.7062623500823975 0.5026094913482666 0.02825153060257435
0.5857184529304504 0.8618925213813782 -0.06324092298746109
0.692333459854126 0.4747104048728943 0.03236987814307213
0.7778593897819519 0.5174901485443115 0.12191808223724365
0.7348406910896301 0.4886365234851837 0.05185374990105629
0.6172114610671997 0.5831432342529297 -0.04705260321497917
0.5161380171775818 0.6685242056846619 -0.09974739700555801
0.5167943835258484 0.6896588802337646 -0.0920298770070076
0.5677319765090942 0.6810194253921509 -0.09034236520528793
0.6029323935508728 0.6948649287223816 -0.0695403516292572
0.5567531585693359 0.6953824758529663 -0.08330217003822327
0.5885422229766846 0.7040324807167053 -0.06356680393218994
0.6336662769317627 0.7524869441986084 -0.03670408949255943
0.48116761445999146 0.5919668078422546 -0.14435742795467377
0.48471951484680176 0.5666406154632568 -0.1472359001636505
0.7157659530639648 0.42694592475891113 0.021040260791778564
0.5618457198143005 0.5272296667098999 -0.02429942972958088
0.5629528164863586 0.5895626544952393 -0.09532436728477478
0.5670816898345947 0.5773946046829224 -0.08520062267780304
0.694816529750824 0.5817895531654358 -0.02908346801996231
0.48795613646507263 0.5397239327430725 -0.12704212963581085
0.6516821384429932 0.39439672231674194 -0.0006919078878127038
0.6888335943222046 0.4061320126056671 0.007822416722774506
0.7339966297149658 0.37601035833358765 0.11697383224964142
0.5412510633468628 0.40895894169807434 -0.006123929284512997
0.586225152015686 0.43957871198654175 0.026050880551338196
0.6545275449752808 0.7150802612304688 -0.0341963991522789
0.7699587345123291 0.7611472606658936 0.11644232273101807
0.5441159605979919 0.6053758859634399 -0.08517730981111526
0.5198984146118164 0.6140069961547852 -0.08684937655925751
0.6437743902206421 0.7283291220664978 -0.028543798252940178
0.6344661116600037 0.7289698719978333 -0.030898937955498695
0.7008214592933655 0.3947185277938843 0.022325696423649788
0.569284975528717 0.6015864014625549 -0.08483907580375671
0.6042064428329468 0.3930770754814148 -0.005691706668585539
0.6069172620773315 0.37644389271736145 -0.005542951636016369
0.6298788189888 0.3135530948638916 0.0629882737994194
0.710763692855835 0.3865484297275543 0.06628262251615524
0.6105306148529053 0.3458302617073059 0.030612517148256302
0.7304866909980774 0.41969549655914307 0.04206187650561333
0.7405597567558289 0.424905002117157 0.09411270916461945
0.5169652700424194 0.6794502139091492 -0.09792125970125198
0.5622700452804565 0.6886854767799377 -0.08718974143266678
0.5959805846214294 0.6996055245399475 -0.0681816041469574
0.5387300848960876 0.6107003092765808 -0.08018631488084793
0.6390196681022644 0.728746235370636 -0.029524000361561775
0.6219309568405151 0.7534325122833252 -0.040343932807445526
0.6305351853370667 0.7290538549423218 -0.031150266528129578
0.5206459760665894 0.5962522029876709 -0.11520950496196747
0.5829126238822937 0.7056312561035156 -0.06193408742547035
0.5521987080574036 0.6987161040306091 -0.0768677145242691
0.5160876512527466 0.6947556734085083 -0.08634334057569504
0.5249554514884949 0.8308255672454834 -0.07487102597951889
0.5298696160316467 0.8146796226501465 -0.08721356093883514
0.526178777217865 0.8013532161712646 -0.08652755618095398
0.522495687007904 0.7889142632484436 -0.07728464901447296
0.518764853477478 0.7807365655899048 -0.06837674230337143
0.5835973620414734 0.7649340033531189 -0.04812907427549362
0.5903439521789551 0.7676156163215637 -0.0545085109770298
0.5993891358375549 0.7729196548461914 -0.05948285385966301
0.6063918471336365 0.7793599963188171 -0.05708887428045273
0.613196074962616 0.6666451096534729 -0.06192146986722946
0.7963067889213562 0.6408538818359375 0.1778448522090912
0.6060664653778076 0.7521564364433289 -0.03569403663277626
0.6140424013137817 0.7521604299545288 -0.03960675373673439
0.511374831199646 0.6236770749092102 -0.09106626361608505
0.5638115406036377 0.6173387765884399 -0.06858877092599869
0.515329122543335 0.6190284490585327 -0.08929859846830368
0.5897449254989624 0.5396903157234192 -0.02572685107588768
0.6316742897033691 0.5529338121414185 -0.031064579263329506
0.575555145740509 0.5897054672241211 -0.07475532591342926
0.691267728805542 0.3381391763687134 0.08729393780231476
0.6691402196884155 0.35945844650268555 0.04583192616701126
0.6590561270713806 0.37952476739883423 0.008476191200315952
0.6069042086601257 0.7833473086357117 -0.04965292289853096
0.5474047064781189 0.38002488017082214 -0.006731109693646431
0.5534183979034424 0.34385743737220764 0.02639518678188324
0.5670739412307739 0.3043837547302246 0.054093364626169205
0.6763836145401001 0.4957466721534729 0.014815129339694977
0.7305145263671875 0.5177794098854065 0.03301848843693733
0.570116400718689 0.4840869903564453 0.02455272525548935
0.7115306854248047 0.45837119221687317 0.029758451506495476
0.5421003699302673 0.5121734738349915 -0.026937833055853844
0.5382031798362732 0.5793708562850952 -0.11378175765275955
0.7547112703323364 0.5444700717926025 0.04736592620611191
0.711626410484314 0.5307155847549438 0.009358636103570461
0.6773455739021301 0.5352360010147095 -0.008128325454890728
0.6290090680122375 0.5299439430236816 -0.010912605561316013
0.5941321849822998 0.5206709504127502 -0.006762702018022537
0.5678395628929138 0.5102859139442444 -0.0053397901356220245
0.5040323138237 0.47880080342292786 -0.03710399940609932
0.7559460401535034 0.5884736776351929 0.0269844438880682
0.7281331419944763 0.45650678873062134 0.03857460245490074
0.4750562906265259 0.6081268191337585 -0.13514383137226105
0.5608251094818115 0.5471574664115906 -0.042327024042606354
0.7944053411483765 0.53145831823349 0.19166502356529236
0.5478115081787109 0.4981459379196167 -0.0018478927668184042
0.5818745493888855 0.5930145978927612 -0.04967844858765602
0.7020887732505798 0.4760180115699768 0.03449501842260361
0.5428489446640015 0.5649787187576294 -0.10094238817691803
0.7889567017555237 0.6988438963890076 0.1527567207813263
0.5714067816734314 0.4771774411201477 0.0338376946747303
0.5143408179283142 0.5498303174972534 -0.11842968314886093
0.7057859897613525 0.8004562854766846 0.01029958575963974
0.7063469290733337 0.8452473282814026 0.034383855760097504
0.7864683866500854 0.615519106388092 0.10252594202756882
0.7398744821548462 0.7683625221252441 0.033379554748535156
0.7597401738166809 0.46843743324279785 0.1156262531876564
0.5872644186019897 0.893488347530365 -0.061752911657094955
0.476042240858078 0.6167331337928772 -0.10555892437696457
0.5862273573875427 0.5643917322158813 -0.04196951165795326
0.7575202584266663 0.4934408366680145 0.07027775049209595
0.6518341302871704 0.48598623275756836 0.014885704033076763
0.6294540762901306 0.48540711402893066 0.012604461051523685
0.6289224028587341 0.7553713321685791 -0.03896521404385567
0.7581443786621094 0.6401296854019165 0.022397030144929886
0.5336427688598633 0.9368059635162354 -0.06320982426404953
0.6259399056434631 0.9003362655639648 -0.01905471831560135
0.6641135811805725 0.8771539926528931 0.0060705626383423805
0.6090466380119324 0.4833119809627533 0.016141103580594063
0.5904895663261414 0.48058778047561646 0.023425359278917313
0.5779253840446472 0.4792180061340332 0.03139278292655945
0.7464463710784912 0.4538723826408386 0.06026294454932213
0.5941712260246277 0.4583395719528198 0.025492893531918526
0.6151748895645142 0.4492744207382202 0.018338922411203384
0.6377333998680115 0.44702357053756714 0.015057184733450413
0.6616246104240417 0.451701819896698 0.015544984489679337
0.6767055988311768 0.46033695340156555 0.0198417566716671
0.782239556312561 0.47191059589385986 0.17372028529644012
0.6685117483139038 0.4842611253261566 0.019710078835487366
0.5803948640823364 0.6516741514205933 -0.07604536414146423
0.5412880182266235 0.6007506847381592 -0.0916280671954155
0.5170303583145142 0.6433961987495422 -0.09233146160840988
0.6681249737739563 0.8357858657836914 -0.009139487519860268
0.6300458908081055 0.8645591735839844 -0.0341508612036705
0.5328571200370789 0.9133286476135254 -0.08221181482076645
0.7398257255554199 0.8103470206260681 0.0723453238606453
0.5786327123641968 0.4701894223690033 0.03064093366265297
0.5185341238975525 0.5132676959037781 -0.05813750624656677
0.5834956765174866 0.921184778213501 -0.046982184052467346
0.7824375033378601 0.6709456443786621 0.08616552501916885
0.5537705421447754 0.7747991681098938 -0.06021666154265404
0.5603969693183899 0.7803646922111511 -0.0677013099193573
0.5672249794006348 0.7897458076477051 -0.0736938938498497
0.57281494140625 0.8011600971221924 -0.07259756326675415
0.572124719619751 0.8111447691917419 -0.0651918277144432
0.6158731579780579 0.7147748470306396 -0.04614698886871338
0.6227445006370544 0.7125486731529236 -0.04651419445872307
0.62885981798172 0.7095394730567932 -0.0474119558930397
0.6397956013679504 0.6866932511329651 -0.04565070942044258
0.7219818830490112 0.6430450081825256 -0.019547071307897568
0.5223432779312134 0.49422770738601685 -0.029767410829663277
0.5479711294174194 0.45493531227111816 0.02639596164226532
0.5662167072296143 0.4598575532436371 0.031192684546113014
0.610382080078125 0.7150923609733582 -0.0448489785194397
0.730233907699585 0.7162566184997559 0.0033636426087468863
0.5197446942329407 0.450511634349823 -0.002888508141040802
0.5797961354255676 0.833463728427887 -0.06279899924993515
0.497849702835083 0.499131441116333 -0.06700356304645538
0.538453221321106 0.5483206510543823 -0.07140769064426422
0.5280389785766602 0.8543826341629028 -0.07707392424345016
0.6469064950942993 0.7658207416534424 -0.03252290189266205
0.603814959526062 0.614197850227356 -0.049934323877096176
0.6178010106086731 0.8035419583320618 -0.04606802389025688
0.6603201031684875 0.6128756999969482 -0.04974537715315819
0.6301621198654175 0.6398354172706604 -0.050323959439992905
0.6866426467895508 0.6565678119659424 -0.038778550922870636
0.5315101742744446 0.884272575378418 -0.08458614349365234
0.5604968667030334 0.562383234500885 -0.06101106479763985
0.6630039215087891 0.795013964176178 -0.023437604308128357
0.6259711980819702 0.8300421833992004 -0.04072584956884384
0.6681684255599976 0.724179744720459 -0.03252287954092026
0.7547728419303894 0.6877018213272095 0.022744983434677124
0.6971123814582825 0.739578366279602 -0.018774334341287613
0.7682099938392639 0.7233067750930786 0.0652383416891098
0.656689465045929 0.670481264591217 -0.04491521418094635
0.5389509797096252 0.5305768251419067 -0.04922601953148842
0.5284474492073059 0.5908843278884888 -0.11949668824672699
0.5535721778869629 0.5979691743850708 -0.09800633788108826
0.5114597678184509 0.5721587538719177 -0.13258713483810425
0.5671011805534363 0.4314219355583191 0.021646514534950256
0.607624351978302 0.41640588641166687 0.012478451244533062
0.6449716091156006 0.4146496653556824 0.006195054389536381
0.6765836477279663 0.4218461513519287 0.007702786475419998
0.6998967528343201 0.43651169538497925 0.016408303752541542
0.7150465846061707 0.48253709077835083 0.04012478515505791
0.7849091291427612 0.5655558705329895 0.11205396056175232
0.6920976042747498 0.5101909637451172 0.01629742980003357
0.6632434725761414 0.5139626860618591 0.005522033199667931
0.6294762492179871 0.5120737552642822 0.0011992306681349874
0.5985331535339355 0.5064781308174133 0.004858128726482391
0.5751039981842041 0.4993186593055725 0.01036061067134142
0.5581820011138916 0.49182218313217163 0.013781018555164337
0.7973325252532959 0.586251974105835 0.19240917265415192
0.5567383170127869 0.6053329110145569 -0.08734223246574402
0.5144497752189636 0.5308205485343933 -0.08501699566841125
0.5033057332038879 0.5907098650932312 -0.13518153131008148
0.4910575747489929 0.6062303185462952 -0.12607625126838684
0.506159245967865 0.5973908305168152 -0.12447770684957504
0.552214503288269 0.6137665510177612 -0.0793808326125145
0.48431098461151123 0.60727459192276 -0.13240379095077515
0.485489159822464 0.6152268052101135 -0.10578902065753937
0.5609383583068848 0.47660762071609497 0.03142654523253441
0.5445189476013184 0.478892982006073 0.017899541184306145
0.5323296189308167 0.4804702401161194 -0.001036346540786326
0.6856012344360352 0.4677838087081909 0.024715328589081764
0.7011258602142334 0.45881733298301697 0.02467324584722519
0.3786007761955261 0.4727255702018738 0.0755145251750946
0.40211373567581177 0.47073182463645935 0.0755145251750946
0.3774210214614868 0.4518568813800812 0.0755145251750946
0.35515907406806946 0.4747685492038727 0.0755145251750946
0.37979334592819214 0.49336880445480347 0.0755145251750946
0.6405193209648132 0.46788454055786133 0.022450115531682968
0.6690006256103516 0.4691859483718872 0.022450115531682968
0.6410911679267883 0.44736021757125854 0.022450115531682968
0.6119112372398376 0.4665076732635498 0.022450115531682968
0.6398679614067078 0.48836448788642883 0.022450115531682968
