ply
format ascii 1.0
element vertex 478
property float x
property float y
property float z
end_header
0.4922930598258972 0.7148206830024719 -0.00993436947464943
0.4620109796524048 0.6862537860870361 -0.1159643828868866
0.47606807947158813 0.6911730766296387 -0.043261174112558365
0.4485650658607483 0.596612274646759 -0.11440639197826385
0.4599795639514923 0.6644507050514221 -0.132586270570755
0.4624101519584656 0.6282175779342651 -0.13660526275634766
0.4745222330093384 0.531369686126709 -0.11599933356046677
0.3419046998023987 0.4788854718208313 0.006852520164102316
0.47667428851127625 0.467851847410202 -0.12774509191513062
0.47526875138282776 0.4373326599597931 -0.14842970669269562
0.47933101654052734 0.3028923571109772 -0.18816640973091125
0.49322497844696045 0.7190585136413574 -0.0022534560412168503
0.4943946599960327 0.72324138879776 0.006786323618143797
0.4956287145614624 0.7260394096374512 0.020528776571154594
0.4937592148780823 0.745466411113739 0.03474874421954155
0.4932689368724823 0.7548052072525024 0.036974240094423294
0.4935702085494995 0.7659308910369873 0.036104828119277954
0.4946821630001068 0.776721715927124 0.04400151968002319
0.4908786118030548 0.8086570501327515 0.06947638094425201
0.4657517075538635 0.6934946775436401 -0.09973790496587753
0.4436919093132019 0.6837607622146606 -0.06294701248407364
0.27147379517555237 0.3758127689361572 0.07407093793153763
0.4041655957698822 0.5044676065444946 -0.020108424127101898
0.3825260400772095 0.5043174624443054 -0.013152721337974072
0.3607923984527588 0.5023922920227051 -0.0035022718366235495
0.3342944383621216 0.48482298851013184 0.01690611056983471
0.4206388592720032 0.5027437806129456 -0.024997061118483543
0.3626067042350769 0.4518393874168396 -0.043248679488897324
0.3883197605609894 0.4559949040412903 -0.05024102330207825
0.341066837310791 0.45308393239974976 -0.02948460914194584
0.3289552927017212 0.45835766196250916 -0.015539216808974743
0.31678348779678345 0.49808207154273987 0.03719143569469452
0.4133089780807495 0.8301199674606323 0.13801264762878418
0.33417701721191406 0.47163814306259155 0.013238374143838882
0.2717880308628082 0.4748463034629822 0.14354760944843292
0.29409199953079224 0.4803992211818695 0.05539132282137871
0.3707824945449829 0.6134850382804871 0.00811714492738247
0.45687630772590637 0.7067104578018188 -0.002928254660218954
0.46203798055648804 0.7166963219642639 0.01684431917965412
0.42993253469467163 0.7004379034042358 0.022129403427243233
0.41121089458465576 0.6942237615585327 0.05408872663974762
0.4374238848686218 0.7089796662330627 0.0352315679192543
0.41910338401794434 0.7023582458496094 0.06179873272776604
0.38660764694213867 0.727310836315155 0.12378624826669693
0.44275975227355957 0.6832395792007446 -0.11117637902498245
0.43843522667884827 0.6616436243057251 -0.12628822028636932
0.29685547947883606 0.4448198080062866 -0.020595701411366463
0.4207211136817932 0.5610188245773315 -0.03157898411154747
0.3984261453151703 0.6462884545326233 -0.046024344861507416
0.4010442793369293 0.6302720904350281 -0.04311728477478027
0.309357225894928 0.5942585468292236 0.04994642361998558
0.4424944818019867 0.6281104683876038 -0.12454769760370255
0.33944278955459595 0.43736928701400757 -0.08210662752389908
0.3126363456249237 0.43731996417045593 -0.05480283498764038
0.2791067063808441 0.3459705114364624 0.005186987575143576
0.4325389862060547 0.46616265177726746 -0.11365484446287155
0.4108036160469055 0.465320348739624 -0.045377712696790695
0.3655771017074585 0.7009133696556091 0.12050913274288177
0.3137262463569641 0.6738312840461731 0.3149535655975342
0.4136836528778076 0.6616886854171753 -0.03580261766910553
0.43156224489212036 0.6735658645629883 -0.03754231333732605
0.3812614977359772 0.6848843097686768 0.11793218553066254
0.3874592185020447 0.6892218589782715 0.10955260694026947
0.30260735750198364 0.42205026745796204 -0.05002838000655174
0.39899972081184387 0.6484196782112122 -0.028759444132447243
0.3787251114845276 0.44558069109916687 -0.10242239385843277
0.373241126537323 0.4286365509033203 -0.1168072447180748
0.34637290239334106 0.3106897175312042 -0.12476624548435211
0.28711873292922974 0.38220149278640747 -0.02620209939777851
0.35656800866127014 0.36627069115638733 -0.12306322902441025
0.286639004945755 0.4307221472263336 -0.005610509309917688
0.2772514820098877 0.4048238694667816 0.03205030411481857
0.4589218497276306 0.7118126153945923 0.005573067348450422
0.4334564805030823 0.704573929309845 0.02945919707417488
0.41480201482772827 0.698093593120575 0.05693141743540764
0.41817212104797363 0.6647413372993469 -0.03130841255187988
0.3844076991081238 0.687070369720459 0.11312507838010788
0.39768242835998535 0.7072287797927856 0.10200247913599014
0.3904852271080017 0.6913460493087769 0.10825565457344055
0.4223707914352417 0.6688326001167297 -0.07331649214029312
0.4231204390525818 0.7058683037757874 0.06663458794355392
0.4417133629322052 0.7128329277038574 0.04679485410451889
0.4657636880874634 0.7204760909080505 0.030367536470294
0.4580301344394684 0.8025487661361694 0.07850587368011475
0.4598425626754761 0.7709270715713501 0.05302129313349724
0.45955532789230347 0.7600668668746948 0.04630104824900627
0.4615338146686554 0.7491578459739685 0.0470285527408123
0.4649077355861664 0.7407058477401733 0.04464852809906006
0.4226347804069519 0.7193940877914429 0.07724127173423767
0.417789101600647 0.7222905158996582 0.07804178446531296
0.41222020983695984 0.7272553443908691 0.0800308957695961
0.40863728523254395 0.7328860759735107 0.088654525578022
0.3832818269729614 0.6885417699813843 0.05102820694446564
0.29634106159210205 0.5568186044692993 0.28842514753341675
0.4700375199317932 0.6938745379447937 -0.06478673219680786
0.4086530804634094 0.7072244882583618 0.09668366611003876
0.40292471647262573 0.7067944407463074 0.09837569296360016
0.44218429923057556 0.6836983561515808 -0.03119555301964283
0.40591704845428467 0.6578190326690674 -0.007332428824156523
0.43674951791763306 0.6791484355926514 -0.03611444681882858
0.4004167914390564 0.5679296255111694 -0.011665411293506622
0.3624769151210785 0.5778433680534363 0.007773851044476032
0.3990296721458435 0.63426274061203 -0.024924255907535553
0.3011331260204315 0.32351815700531006 -0.062372684478759766
0.3114519715309143 0.3679293990135193 -0.07674342393875122
0.3318709433078766 0.4195251762866974 -0.08690181374549866
0.4048999845981598 0.7571431398391724 0.11263841390609741
0.4233487844467163 0.44070273637771606 -0.13564041256904602
0.40994423627853394 0.36850059032440186 -0.15265142917633057
0.4037488102912903 0.3044413626194 -0.16603849828243256
0.34357571601867676 0.4953172206878662 0.008230431005358696
0.29492390155792236 0.5101416707038879 0.061536431312561035
0.4301217198371887 0.5003034472465515 -0.02729179337620735
0.310350239276886 0.463424414396286 0.007392186671495438
0.4335179626941681 0.552467405796051 -0.04940997436642647
0.40885064005851746 0.6508934497833252 -0.07567591965198517
0.2768332064151764 0.5272548794746399 0.10168237239122391
0.30720722675323486 0.529491126537323 0.047932252287864685
0.33214181661605835 0.5432887077331543 0.025788823142647743
0.37227365374565125 0.5442579388618469 0.005966051947325468
0.40176379680633545 0.5381889939308167 -0.009563447907567024
0.4211370348930359 0.532233476638794 -0.02651817910373211
0.455188125371933 0.5345316529273987 -0.09945954382419586
0.27434784173965454 0.5727418661117554 0.12048433721065521
0.2942189574241638 0.4591137170791626 0.017292456701397896
0.45320042967796326 0.6915405988693237 -0.09593377262353897
0.4169228672981262 0.5884365439414978 -0.030225489288568497
0.2809612452983856 0.45665881037712097 0.2144443392753601
0.43514329195022583 0.5259034633636475 -0.04066529870033264
0.40021419525146484 0.6287519335746765 -0.0005953218205831945
0.32527586817741394 0.4724343717098236 0.019870085641741753
0.41188952326774597 0.6307194232940674 -0.07276669889688492
0.30173027515411377 0.6131017804145813 0.30667296051979065
0.42948710918426514 0.49261748790740967 -0.026427404955029488
0.4263496398925781 0.6286618709564209 -0.1037173941731453
0.3329744338989258 0.7497693300247192 0.2190847396850586
0.3482758700847626 0.7710645794868469 0.2670445442199707
0.2738979756832123 0.5688812136650085 0.20799629390239716
0.30794182419776917 0.7138057947158813 0.2346368283033371
0.2739776372909546 0.4355984330177307 0.09224976599216461
0.41162365674972534 0.855008602142334 0.16340520977973938
0.45888519287109375 0.692137598991394 -0.061752136796712875
0.3989253640174866 0.5982190370559692 -0.010238582268357277
0.27998673915863037 0.4791049361228943 0.08320475369691849
0.36318227648735046 0.4891491234302521 -0.00762157840654254
0.38245582580566406 0.4920734763145447 -0.016106486320495605
0.39344528317451477 0.7078922986984253 0.10875242948532104
0.27609357237815857 0.6172856688499451 0.15294910967350006
0.4502182602882385 0.8944451212882996 0.17228634655475616
0.39698702096939087 0.8430249691009521 0.21754562854766846
0.37575310468673706 0.8112850785255432 0.24071118235588074
0.47631362080574036 0.36951732635498047 -0.17083759605884552
0.4952411651611328 0.9047951698303223 0.15758605301380157
0.40067726373672485 0.4922431409358978 -0.02227100543677807
0.41702476143836975 0.49169957637786865 -0.024313034489750862
0.4262506365776062 0.4922730028629303 -0.024282366037368774
0.2824248671531677 0.4496132731437683 0.039841484278440475
0.4109809696674347 0.4740176200866699 -0.03512422740459442
0.3917115330696106 0.4650678038597107 -0.037223730236291885
0.3711484372615814 0.46184462308883667 -0.03207715228199959
0.3528705835342407 0.4630751311779022 -0.021183494478464127
0.3429153561592102 0.4667171239852905 -0.009919248521327972
0.27137431502342224 0.41036543250083923 0.14688469469547272
0.3505699634552002 0.4844632148742676 0.000507708580698818
0.48027387261390686 0.700884997844696 -0.027142181992530823
0.40303727984428406 0.6868368983268738 0.0197755116969347
0.4129682183265686 0.6621458530426025 -0.048882465809583664
0.44402626156806946 0.696330189704895 -0.016481008380651474
0.47790849208831787 0.49557381868362427 -0.11428601294755936
0.3626645505428314 0.7862624526023865 0.20799775421619415
0.38706520199775696 0.820000410079956 0.18847621977329254
0.4463210105895996 0.8799588680267334 0.13894207775592804
0.3292333781719208 0.7278374433517456 0.29598894715309143
0.42329347133636475 0.4856386184692383 -0.030391477048397064
0.43940988183021545 0.5735597610473633 -0.08323851227760315
0.4923560321331024 0.8910541534423828 0.12532919645309448
0.41968706250190735 0.8728913068771362 0.19226908683776855
0.2790278196334839 0.6186606884002686 0.2300616204738617
0.44160154461860657 0.7313364744186401 0.05968508496880531
0.4368113875389099 0.737323522567749 0.06162609905004501
0.4329044818878174 0.7460571527481079 0.06339240819215775
0.4312363266944885 0.7563669681549072 0.07166910916566849
0.4272947609424591 0.783889889717102 0.0960446149110794
0.4029197692871094 0.6959547996520996 0.08712567389011383
0.39864450693130493 0.6923251152038574 0.08878962695598602
0.39541372656822205 0.6891138553619385 0.08781100809574127
0.36906903982162476 0.6919534206390381 0.08601432293653488
0.2940443754196167 0.6378690600395203 0.105770044028759
0.4447222352027893 0.5428246259689331 -0.0732506588101387
0.44034433364868164 0.48542264103889465 -0.05507653206586838
0.4295901656150818 0.48256388306617737 -0.04090620204806328
0.4074746370315552 0.6995809078216553 0.08977300673723221
0.3009883761405945 0.6863580346107483 0.17248062789440155
0.4527437090873718 0.4930000603199005 -0.0905354917049408
0.4212351441383362 0.8041747808456421 0.11670186370611191
0.4666398763656616 0.5956254005432129 -0.1283286213874817
0.4514424800872803 0.5673956274986267 -0.11089402437210083
0.47051483392715454 0.5650362968444824 -0.1220017522573471
0.42336535453796387 0.6058909893035889 -0.06341472268104553
0.49080246686935425 0.8661893606185913 0.1012394055724144
0.4911240339279175 0.8345940709114075 0.08581718057394028
0.4540703296661377 0.8268353343009949 0.09835214167833328
0.37352368235588074 0.7392509579658508 0.14172309637069702
0.383899986743927 0.6427565217018127 0.01931704208254814
0.39652812480926514 0.7734024524688721 0.13347214460372925
0.3336490988731384 0.6337329149246216 0.039111923426389694
0.3645416796207428 0.6609634757041931 0.045899298042058945
0.3188437819480896 0.6608631014823914 0.08452434092760086
0.4477437734603882 0.8561242818832397 0.11554628610610962
0.4135540723800659 0.609434962272644 -0.03686955198645592
0.36139774322509766 0.7598100304603577 0.171624556183815
0.3885006904602051 0.7955195307731628 0.16038207709789276
0.35041344165802 0.7075766921043396 0.13190311193466187
0.28428515791893005 0.6551225781440735 0.18100708723068237
0.3272223472595215 0.7136211395263672 0.15505670011043549
0.290089875459671 0.6668163537979126 0.2462163269519806
0.3488852381706238 0.6765472292900085 0.08036617934703827
0.42888081073760986 0.5808280110359192 -0.05490363389253616
0.4147263169288635 0.6643595695495605 -0.07913333177566528
0.4037902057170868 0.6569569706916809 -0.0477980300784111
0.4219256639480591 0.6570510268211365 -0.10180862993001938
0.42202675342559814 0.46811357140541077 -0.06597888469696045
0.38516557216644287 0.453330397605896 -0.06789577007293701
0.3529151380062103 0.4477726221084595 -0.058930765837430954
0.32846182584762573 0.448309987783432 -0.04080333560705185
0.31465741991996765 0.4535491168498993 -0.020051993429660797
0.3115295171737671 0.47785118222236633 0.03293557092547417
0.27182480692863464 0.5217996835708618 0.17911270260810852
0.3277682065963745 0.5095097422599792 0.02851538173854351
0.34829092025756836 0.5201327800750732 0.013238114304840565
0.3772830367088318 0.5224266648292542 -0.0005874017952010036
0.40404292941093445 0.5196805000305176 -0.01265698578208685
0.42252057790756226 0.5162380933761597 -0.023384496569633484
0.4343945384025574 0.5133727192878723 -0.031424630433321
0.29178205132484436 0.5051347613334656 0.25888150930404663
0.4054560959339142 0.6570857763290405 -0.03432660177350044
0.43451187014579773 0.6007332801818848 -0.09020395576953888
0.4278793931007385 0.6749345660209656 -0.0989680364727974
0.4416465759277344 0.6836824417114258 -0.08658728003501892
0.4297349750995636 0.6747335195541382 -0.08635099232196808
0.41081035137176514 0.6613976955413818 -0.024562858045101166
0.44588524103164673 0.6884523630142212 -0.09231963753700256
0.4504934847354889 0.6887530088424683 -0.06229328364133835
0.43541625142097473 0.49610957503318787 -0.03161854296922684
0.44347113370895386 0.5053604245185852 -0.04555782303214073
0.44590631127357483 0.5135719180107117 -0.060278553515672684
0.3375982642173767 0.4696275591850281 0.00033579597948119044
0.32260414958000183 0.4641045928001404 0.0017961867852136493
0.4885384142398834 0.597092866897583 -0.12446391582489014
0.667987585067749 0.4936288595199585 -0.06621254235506058
0.5000669360160828 0.6856977343559265 -0.07070319354534149
0.807224452495575 0.3725501298904419 -0.03810669854283333
0.5964996814727783 0.5175174474716187 -0.06708358973264694
0.619865357875824 0.5177201628684998 -0.06957686692476273
0.6447017192840576 0.5156658291816711 -0.06892088055610657
0.6819419264793396 0.49859777092933655 -0.06064899265766144
0.5771704912185669 0.5151752233505249 -0.06198323518037796
0.6315025687217712 0.4587700068950653 -0.10294947773218155
0.603484570980072 0.46320030093193054 -0.09749748557806015
0.6582390069961548 0.46026840806007385 -0.09843181818723679
0.6766106486320496 0.46639567613601685 -0.08999233692884445
0.7064732909202576 0.51019287109375 -0.04624634236097336
0.5922625660896301 0.8395412564277649 0.10339295864105225
0.679865837097168 0.4853554368019104 -0.06330730020999908
0.8169701099395752 0.4782394468784332 0.029003242030739784
0.7425090670585632 0.4912339448928833 -0.038480594754219055
0.6219568848609924 0.6164774298667908 -0.04005780071020126
0.5328247547149658 0.7096126079559326 -0.015824122354388237
0.5329846739768982 0.7197134494781494 0.004812328144907951
0.5721679925918579 0.7060143947601318 -0.0042631421238183975
0.5999100208282471 0.7015489339828491 0.017711328342556953
0.566035807132721 0.7139124870300293 0.011682242155075073
0.5917700529098511 0.7083608508110046 0.030629802495241165
0.6334543228149414 0.7335739731788635 0.07683932036161423
0.4839930534362793 0.6850799322128296 -0.11759781092405319
0.4848417043685913 0.6627101302146912 -0.1340315043926239
0.7096385955810547 0.45083650946617126 -0.10956308990716934
0.5621061325073242 0.5622585415840149 -0.06286925077438354
0.5649974346160889 0.650334358215332 -0.0752837136387825
0.5675349831581116 0.6330544352531433 -0.07335876673460007
0.70768141746521 0.5999470353126526 -0.029655644670128822
0.4860726594924927 0.6285852193832397 -0.13438038527965546
0.6353418231010437 0.44097641110420227 -0.14338597655296326
0.6762501001358032 0.44164496660232544 -0.13190364837646484
0.7680485248565674 0.34092116355895996 -0.09575912356376648
0.5284845232963562 0.47260531783103943 -0.1338021457195282
0.5808393955230713 0.4737605154514313 -0.08359351754188538
0.657465934753418 0.7077181339263916 0.064177967607975
0.8162635564804077 0.6891077756881714 0.21288612484931946
0.5481176376342773 0.6658600568771362 -0.05761469155550003
0.5252443552017212 0.6749109029769897 -0.04847795143723488
0.6396411657333374 0.6938633322715759 0.06879092007875443
0.6322683691978455 0.697110116481781 0.06610263139009476
0.6926313638687134 0.4253426790237427 -0.13258066773414612
0.5715063810348511 0.652072548866272 -0.057371217757463455
0.5862289071083069 0.45068198442459106 -0.14468930661678314
0.5876445770263672 0.433269202709198 -0.16022072732448578
0.6386560797691345 0.30600622296333313 -0.18224841356277466
0.7342633008956909 0.38094305992126465 -0.11764419078826904
0.6148526668548584 0.363866925239563 -0.17304246127605438
0.7314791679382324 0.4367581009864807 -0.1009017676115036
0.7719777822494507 0.4057823717594147 -0.07139597088098526
0.5336315035820007 0.714871883392334 -0.007298129145056009
0.5694295167922974 0.7100602388381958 0.004380758851766586
0.5960841774940491 0.7049044370651245 0.023422012105584145
0.5436163544654846 0.6681841015815735 -0.04866948351264
0.6357903480529785 0.695509672164917 0.06752301007509232
0.6168050765991211 0.7132002711296082 0.06342285871505737
0.628655731678009 0.6986463665962219 0.06600154936313629
0.5241742134094238 0.6730040907859802 -0.09305477142333984
0.587863028049469 0.7105792760848999 0.0370621532201767
0.56241375207901 0.7166547775268555 0.024817340075969696
0.5317214727401733 0.7227503061294556 0.01801752671599388
0.5314963459968567 0.8054531812667847 0.06636884063482285
0.5343154668807983 0.7728815078735352 0.04011969640851021
0.5325127243995667 0.7620577216148376 0.03266927972435951
0.5302699208259583 0.7509515285491943 0.03366251662373543
0.5283426642417908 0.7423126697540283 0.03197358921170235
0.584911584854126 0.7230858206748962 0.04769264534115791
0.58942049741745 0.7262706756591797 0.04849691689014435
0.5951733589172363 0.7314828634262085 0.04960915073752403
0.5996735692024231 0.7371803522109985 0.05596819147467613
0.6146805286407471 0.6928185820579529 0.009448336437344551
0.8444663286209106 0.5642211437225342 0.17440900206565857
0.6051476001739502 0.7121107578277588 0.05965544655919075
0.6108401417732239 0.7123011350631714 0.061153244227170944
0.5155587792396545 0.6841042041778564 -0.0420551598072052
0.5677283406257629 0.6607383489608765 -0.02993929199874401
0.5200008153915405 0.6798497438430786 -0.046607453376054764
0.5897428393363953 0.5696731805801392 -0.05343473702669144
0.6352069973945618 0.5808092355728149 -0.04905406013131142
0.5762501358985901 0.6370657086372375 -0.056038275361061096
0.7142201662063599 0.3177168369293213 -0.14463210105895996
0.6839842200279236 0.3657780587673187 -0.15020200610160828
0.6434319615364075 0.42265766859054565 -0.15218721330165863
0.6060508489608765 0.7630981206893921 0.07447101920843124
0.5312095880508423 0.44621458649635315 -0.15740573406219482
0.5483904480934143 0.3670077621936798 -0.17849846184253693
0.5633878707885742 0.30171775817871094 -0.19500431418418884
0.6681364178657532 0.5092716813087463 -0.06490465253591537
0.7377989292144775 0.521465539932251 -0.03141453117132187
0.5643386244773865 0.5127197504043579 -0.0602678507566452
0.7052257061004639 0.4731440246105194 -0.07767169922590256
0.5415407419204712 0.5534510016441345 -0.07443053275346756
0.5398456454277039 0.6545723676681519 -0.09917623549699783
0.7794932723045349 0.5332699418067932 -0.00352962757460773
0.7130727171897888 0.5404432415962219 -0.03931187465786934
0.6740034222602844 0.5528526306152344 -0.048692986369132996
0.6238961219787598 0.5535269379615784 -0.05078495666384697
0.5900052785873413 0.5475053191184998 -0.05251983180642128
0.5655356049537659 0.5413311719894409 -0.0588625967502594
0.49947184324264526 0.53476482629776 -0.1100001335144043
0.7806701064109802 0.5806676149368286 0.015805864706635475
0.7293857932090759 0.4678536057472229 -0.07630439847707748
0.4801207482814789 0.6927114725112915 -0.10108482837677002
0.561851441860199 0.5895258784294128 -0.06038787588477135
0.8434058427810669 0.4571940302848816 0.09549248218536377
0.5453124642372131 0.5345723032951355 -0.06572911143302917
0.5831702351570129 0.6310815811157227 -0.031228408217430115
0.6922690272331238 0.4852103292942047 -0.060475315898656845
0.5433714985847473 0.6329339742660522 -0.0967702716588974
0.8373802900314331 0.6250698566436768 0.19814617931842804
0.5670884847640991 0.5056211352348328 -0.06072474271059036
0.5134708285331726 0.6300521492958069 -0.12111293524503708
0.7294822931289673 0.765342116355896 0.14091640710830688
0.7334802150726318 0.7880976796150208 0.1897263377904892
0.8231439590454102 0.5781533122062683 0.09387356042861938
0.772196352481842 0.7289873957633972 0.14280077815055847
0.7964513897895813 0.43698185682296753 -0.017864303663372993
0.5970367193222046 0.8662935495376587 0.1261613517999649
0.4817580580711365 0.6926191449165344 -0.06497218459844589
0.5880419611930847 0.5999947786331177 -0.04745863378047943
0.7726926803588867 0.4893403947353363 -0.020342206582427025
0.6394650340080261 0.504499614238739 -0.0716627910733223
0.6183542013168335 0.5068530440330505 -0.07272512465715408
0.6222395300865173 0.714319109916687 0.06725460290908813
0.7851051688194275 0.6278007626533508 0.05189548432826996
0.5479387044906616 0.9013527631759644 0.15163955092430115
0.6365837454795837 0.856459379196167 0.1668243110179901
0.6802409291267395 0.8273723721504211 0.17743870615959167
0.5999435782432556 0.5063068866729736 -0.07056788355112076
0.5824106931686401 0.5051854848861694 -0.06576229631900787
0.5713689923286438 0.5058284401893616 -0.06139718368649483
0.7557570338249207 0.4575616121292114 -0.06098146736621857
0.5899600982666016 0.4842941164970398 -0.07770935446023941
0.6104270815849304 0.47400790452957153 -0.08685681223869324
0.631453812122345 0.4711114466190338 -0.09010371565818787
0.6523776054382324 0.4730944037437439 -0.0872194766998291
0.6654999256134033 0.47780993580818176 -0.08041466027498245
0.8308712244033813 0.40850335359573364 0.0298643559217453
0.6556112170219421 0.49956464767456055 -0.06907366961240768
0.5814467072486877 0.6898050308227539 -0.011688081547617912
0.5448878407478333 0.6668117046356201 -0.0694001093506813
0.5220870971679688 0.6980250477790833 -0.029657546430826187
0.6828892230987549 0.8017978072166443 0.14446419477462769
0.6410606503486633 0.8339470624923706 0.1383436620235443
0.546745777130127 0.8868453502655029 0.1183880865573883
0.7786062955856323 0.7440779209136963 0.20409196615219116
0.5742203593254089 0.4979510009288788 -0.06842563301324844
0.5165744423866272 0.5742673277854919 -0.10002226382493973
0.5935935378074646 0.8835083246231079 0.15450838208198547
0.8198087811470032 0.6311016082763672 0.12113068997859955
0.5585455298423767 0.7341130971908569 0.037557024508714676
0.5625594258308411 0.740201473236084 0.0387609526515007
0.5665956735610962 0.7488803863525391 0.03933798894286156
0.5694501996040344 0.7589883804321289 0.046778611838817596
0.5726239681243896 0.7884312272071838 0.06811210513114929
0.6137324571609497 0.7025086879730225 0.048193056136369705
0.6184116005897522 0.6997660994529724 0.046481311321258545
0.6224592924118042 0.697162926197052 0.04304305836558342
0.6430756449699402 0.6973047256469727 0.03409695252776146
0.7436732053756714 0.6468206644058228 0.019323162734508514
0.519836962223053 0.5434877276420593 -0.09099823981523514
0.5441457033157349 0.49471181631088257 -0.07765023410320282
0.5626320838928223 0.492867648601532 -0.07282651215791702
0.6085905432701111 0.7049668431282043 0.05248747020959854
0.7556811571121216 0.6984553337097168 0.08551055192947388
0.5150963068008423 0.5005935430526733 -0.10384465008974075
0.5835984945297241 0.8111512064933777 0.08626724034547806
0.49417439103126526 0.5677485466003418 -0.11989667266607285
0.5387195944786072 0.6072985529899597 -0.08543108403682709
0.5367068648338318 0.8308244943618774 0.0837407037615776
0.6523656249046326 0.7486976385116577 0.08816034346818924
0.6072742342948914 0.645461916923523 -0.020055510103702545
0.6209692358970642 0.7820379137992859 0.09116916358470917
0.6719262003898621 0.6393951177597046 -0.023412277922034264
0.6366719007492065 0.6652750968933105 -0.003917868714779615
0.7036768198013306 0.6690512895584106 0.013017690740525723
0.5426697134971619 0.8617466688156128 0.09621214866638184
0.5609713196754456 0.6107655763626099 -0.06462431699037552
0.6730145215988159 0.7728414535522461 0.11092739552259445
0.633181095123291 0.8072765469551086 0.11382001638412476
0.6774443984031677 0.7168837785720825 0.06723915040493011
0.7832939624786377 0.6671863198280334 0.08444008976221085
0.7142515182495117 0.725853681564331 0.08116762340068817
0.8053933382034302 0.6810452938079834 0.14221569895744324
0.6666806936264038 0.682542085647583 0.02052096277475357
0.5389038920402527 0.5818875432014465 -0.07870840281248093
0.5313236713409424 0.6688933968544006 -0.10057643800973892
0.5566748976707458 0.6616503000259399 -0.07251495867967606
0.512336790561676 0.6599038243293762 -0.11921060085296631
0.5589885711669922 0.47703519463539124 -0.09705600887537003
0.595461368560791 0.4611915946006775 -0.11301375925540924
0.6303761005401611 0.4545222520828247 -0.11777420341968536
0.6625142097473145 0.45474526286125183 -0.1120256781578064
0.6880996823310852 0.4608810544013977 -0.09992405027151108
0.7136272192001343 0.4892154335975647 -0.052756015211343765
0.8222015500068665 0.5278732776641846 0.0617142915725708
0.6881577372550964 0.5216960906982422 -0.05012456700205803
0.6582515239715576 0.5312805771827698 -0.05531704053282738
0.6233694553375244 0.5335120558738708 -0.056758809834718704
0.5934314727783203 0.5308120250701904 -0.056817058473825455
0.5714524388313293 0.5269978046417236 -0.05671542137861252
0.5553652048110962 0.5234563946723938 -0.05855396017432213
0.8450722694396973 0.5082136988639832 0.14024457335472107
0.5601269602775574 0.6611412763595581 -0.05844268575310707
0.5127790570259094 0.6016200184822083 -0.10746457427740097
0.5062188506126404 0.6786150336265564 -0.11242217570543289
0.4978092312812805 0.6866737008094788 -0.09439858794212341
0.5108656287193298 0.6789289712905884 -0.10024460405111313
0.5565115809440613 0.6645566821098328 -0.04478820040822029
0.48992300033569336 0.6905325651168823 -0.09862559288740158
0.492063969373703 0.6899630427360535 -0.06774403899908066
0.5571269392967224 0.5079841017723083 -0.06013735383749008
0.5423053503036499 0.5149430632591248 -0.06687213480472565
0.5293502807617188 0.5219888091087341 -0.07812176644802094
0.6731402277946472 0.4818686246871948 -0.0731465145945549
0.6894554495811462 0.4743490517139435 -0.07660693675279617
0.38814878463745117 0.4737223982810974 -0.016625424847006798
0.4119827449321747 0.47478973865509033 -0.016625424847006798
0.3879404366016388 0.4546324908733368 -0.016625424847006798
0.3644120693206787 0.47255200147628784 -0.016625424847006798
0.3881312906742096 0.4927847981452942 -0.016625424847006798
0.6351248025894165 0.4880446195602417 -0.07283185422420502
0.6601845622062683 0.4864811897277832 -0.07283185422420502
0.6339704990386963 0.4682331681251526 -0.07283185422420502
0.6103347539901733 0.48939114809036255 -0.07283185422420502
0.6362951993942261 0.5077722668647766 -0.07283185422420502
