ply
format ascii 1.0
element vertex 478
property float x
property float y
property float z
end_header
0.4892038404941559 0.7037595510482788 -0.0799502283334732
0.4666537642478943 0.6162595748901367 -0.14017535746097565
0.47515201568603516 0.640096127986908 -0.08389557898044586
0.45607611536979675 0.5352263450622559 -0.09428375959396362
0.4665614664554596 0.5894550085067749 -0.14546522498130798
0.4701876640319824 0.5571837425231934 -0.13229042291641235
0.4820369780063629 0.48213815689086914 -0.05698281154036522
0.34514278173446655 0.48103365302085876 0.0695432499051094
0.48630639910697937 0.42830777168273926 -0.031565748155117035
0.4867541491985321 0.39566224813461304 -0.03055865690112114
0.49243152141571045 0.26828432083129883 0.011355221271514893
0.48952987790107727 0.7119146585464478 -0.07814045250415802
0.48974350094795227 0.719520092010498 -0.07338368892669678
0.4899500608444214 0.723075270652771 -0.06669262796640396
0.49213913083076477 0.7781654596328735 -0.0431499257683754
0.49175047874450684 0.7853125333786011 -0.05055347830057144
0.49128058552742004 0.7949714064598083 -0.05784229189157486
0.4908427596092224 0.806930422782898 -0.055952779948711395
0.4828053116798401 0.8319165110588074 -0.04135904461145401
0.4693315923213959 0.6309806704521179 -0.12942539155483246
0.44931259751319885 0.630282998085022 -0.09488482028245926
0.2719716429710388 0.4020736813545227 0.2085137963294983
0.4014211893081665 0.4951881170272827 0.034210290759801865
0.3805677890777588 0.49782127141952515 0.0388641320168972
0.3607877790927887 0.49746859073638916 0.04821709915995598
0.3353276550769806 0.4888085722923279 0.0733809769153595
0.41971555352211 0.4895590543746948 0.03288211300969124
0.3700861930847168 0.43377286195755005 0.035977188497781754
0.39396432042121887 0.43495017290115356 0.03269311413168907
0.3482222557067871 0.43941599130630493 0.046260613948106766
0.33390292525291443 0.44988998770713806 0.057539358735084534
0.3168352544307709 0.5007429122924805 0.08556798845529556
0.3954869508743286 0.8594160676002502 -0.00010241936979582533
0.3377457857131958 0.4770394265651703 0.07938025146722794
0.25888940691947937 0.5081892013549805 0.20343808829784393
0.29313361644744873 0.48622560501098633 0.11533971130847931
0.36104100942611694 0.5924922823905945 -0.005031178239732981
0.4489717483520508 0.6977137327194214 -0.07211864739656448
0.4521583914756775 0.716370165348053 -0.06400811672210693
0.413322776556015 0.700188159942627 -0.0502900704741478
0.38951802253723145 0.7048604488372803 -0.01945491135120392
0.42210301756858826 0.7142309546470642 -0.0448036789894104
0.399847149848938 0.7145757079124451 -0.017376724630594254
0.3618106245994568 0.7454103827476501 0.029667893424630165
0.4475579261779785 0.6159688830375671 -0.13558435440063477
0.44540590047836304 0.5899027585983276 -0.1398182064294815
0.30435746908187866 0.42898473143577576 0.07097212225198746
0.4182065725326538 0.5359774827957153 -0.005886829923838377
0.39692366123199463 0.6043072938919067 -0.06836731731891632
0.39762043952941895 0.5908647179603577 -0.05890755355358124
0.29407480359077454 0.5875759124755859 0.03889480605721474
0.4503602087497711 0.5599453449249268 -0.12138903141021729
0.3527827858924866 0.39917558431625366 0.02234744094312191
0.3243434727191925 0.41023215651512146 0.0454326756298542
0.28969427943229675 0.35420283675193787 0.16436146199703217
0.444609671831131 0.4154209494590759 -0.015999576076865196
0.414872407913208 0.4436856508255005 0.03585175424814224
0.3419950604438782 0.7088940739631653 0.03684558719396591
0.29124680161476135 0.7476440072059631 0.22590228915214539
0.414100706577301 0.6202616691589355 -0.06329268217086792
0.43320220708847046 0.628572404384613 -0.07191531360149384
0.36329683661460876 0.7197965383529663 0.03681081160902977
0.37015634775161743 0.721592903137207 0.029668709263205528
0.31259459257125854 0.3962721824645996 0.061680588871240616
0.39495909214019775 0.6130014061927795 -0.05668584629893303
0.3920915126800537 0.39873138070106506 0.001337639638222754
0.3880056142807007 0.3802575469017029 -0.0007531053270213306
0.3685785233974457 0.28697916865348816 0.06352023780345917
0.2991948425769806 0.37555956840515137 0.10712176561355591
0.3786252439022064 0.3328128457069397 0.030474092811346054
0.2913869321346283 0.4190768003463745 0.09536498785018921
0.2790529131889343 0.414167195558548 0.14963354170322418
0.44995516538619995 0.7080685496330261 -0.0696408823132515
0.417611300945282 0.7076482772827148 -0.04757427051663399
0.39451175928115845 0.7097322344779968 -0.02007150650024414
0.41894668340682983 0.6241550445556641 -0.060796406120061874
0.3668031096458435 0.7206295728683472 0.032883357256650925
0.3808211386203766 0.7447205781936646 0.01796519197523594
0.3732500672340393 0.7227491736412048 0.028513630852103233
0.42597001791000366 0.6165180802345276 -0.0959993451833725
0.40445250272750854 0.7174192667007446 -0.016583966091275215
0.42662954330444336 0.7179371118545532 -0.038807619363069534
0.4550231099128723 0.7204413414001465 -0.05698755010962486
0.44282135367393494 0.8274869918823242 -0.03331560268998146
0.4513445198535919 0.8031037449836731 -0.04658772051334381
0.4527256190776825 0.7910367250442505 -0.047025080770254135
0.455081045627594 0.781464695930481 -0.039441581815481186
0.4581713378429413 0.7749100923538208 -0.03302169591188431
0.40803515911102295 0.7571452260017395 0.0012316512875258923
0.40327680110931396 0.7589671611785889 -0.003957976587116718
0.39753246307373047 0.7636507153511047 -0.007080826908349991
0.3935014009475708 0.7702146172523499 -0.002153395675122738
0.3637041449546814 0.6710833311080933 -0.01032157614827156
0.27097904682159424 0.6252607703208923 0.2806644141674042
0.4721306562423706 0.636859118938446 -0.0999135673046112
0.39161765575408936 0.744549572467804 0.019796069711446762
0.3860732316970825 0.7437227964401245 0.016986608505249023
0.4400932788848877 0.6371374726295471 -0.07361052930355072
0.40172475576400757 0.6257615089416504 -0.04264167323708534
0.4367782473564148 0.6330956220626831 -0.07377327233552933
0.3921509087085724 0.5476542115211487 0.0037141270004212856
0.35149455070495605 0.5603505969047546 0.013387829065322876
0.39285099506378174 0.6007570028305054 -0.04611712321639061
0.31999361515045166 0.31472593545913696 0.11331909149885178
0.33078181743621826 0.34732142090797424 0.06795317679643631
0.34505727887153625 0.38184237480163574 0.03124931827187538
0.38117867708206177 0.7782496213912964 0.01157370489090681
0.4374590814113617 0.38474977016448975 -0.019963745027780533
0.4292651414871216 0.32804611325263977 0.004980118479579687
0.4236699044704437 0.2729078531265259 0.028451640158891678
0.3446691036224365 0.4947357177734375 0.06126919761300087
0.29338768124580383 0.515840470790863 0.10068165510892868
0.43155574798583984 0.48390889167785645 0.034885138273239136
0.313995897769928 0.4600942134857178 0.0819273293018341
0.4351412057876587 0.5214414000511169 -0.015599478967487812
0.41166937351226807 0.5983288288116455 -0.09281229227781296
0.26259082555770874 0.5427606105804443 0.12870611250400543
0.3075416088104248 0.5290079116821289 0.07504268735647202
0.3335452675819397 0.5358327627182007 0.047882262617349625
0.37336495518684387 0.5330979824066162 0.029802503064274788
0.4034934639930725 0.5246248841285706 0.020732548087835312
0.42595699429512024 0.5142914652824402 0.01121607981622219
0.4619242548942566 0.48901692032814026 -0.04374299198389053
0.2559835612773895 0.5887697339057922 0.11555268615484238
0.2975514233112335 0.45593443512916565 0.09620335698127747
0.45734724402427673 0.6301389932632446 -0.12619087100028992
0.41349759697914124 0.5578746199607849 -0.021207664161920547
0.2647441625595093 0.5120947360992432 0.2816530168056488
0.44278496503829956 0.5021476149559021 0.00630752369761467
0.3919130563735962 0.6016340255737305 -0.020623259246349335
0.32717543840408325 0.47739720344543457 0.08509945124387741
0.41341379284858704 0.5815778374671936 -0.08155205845832825
0.27725905179977417 0.6853375434875488 0.25917714834213257
0.4312964677810669 0.4766182601451874 0.043326184153556824
0.43227216601371765 0.5687756538391113 -0.10558382421731949
0.3170309066772461 0.7924617528915405 0.10390521585941315
0.33054059743881226 0.8304959535598755 0.1321870982646942
0.25199344754219055 0.6105814576148987 0.2001122385263443
0.29104989767074585 0.7620196342468262 0.13427411019802094
0.26848047971725464 0.4582362174987793 0.18416206538677216
0.3955157995223999 0.8886836767196655 0.006953123956918716
0.4621090292930603 0.6359483599662781 -0.09712330251932144
0.39073288440704346 0.5735470056533813 -0.012225343845784664
0.27463603019714355 0.4910726547241211 0.1420777291059494
0.3641167879104614 0.4852052330970764 0.05158497393131256
0.3809206485748291 0.48559314012527466 0.04298055171966553
0.3765314221382141 0.7467834949493408 0.022045964375138283
0.25600486993789673 0.6412346363067627 0.11533930152654648
0.43570902943611145 0.9309496879577637 -0.005914010107517242
0.3792871832847595 0.8897573351860046 0.060148388147354126
0.35751551389694214 0.8640847206115723 0.09397844970226288
0.48925647139549255 0.32756614685058594 -0.010587622411549091
0.48265889286994934 0.93946373462677 -0.02108149230480194
0.39815717935562134 0.4834057688713074 0.03899550437927246
0.41489797830581665 0.48004060983657837 0.0399191789329052
0.4258571267127991 0.4783405661582947 0.043551117181777954
0.28213953971862793 0.45132750272750854 0.12313017249107361
0.4109131693840027 0.4634801745414734 0.040179986506700516
0.3923720717430115 0.458999902009964 0.03865446895360947
0.37525397539138794 0.4591480791568756 0.042468711733818054
0.3586849570274353 0.4634496569633484 0.050809260457754135
0.34829145669937134 0.4691805839538574 0.05995292589068413
0.2642139792442322 0.4517613649368286 0.2516113519668579
0.35304731130599976 0.48330485820770264 0.06117560714483261
0.4766135811805725 0.6542479395866394 -0.07706143707036972
0.38813352584838867 0.6588044166564941 -0.03573217988014221
0.41425541043281555 0.617601215839386 -0.07173780351877213
0.436844140291214 0.653812050819397 -0.0690869688987732
0.4857568144798279 0.4557899832725525 -0.03519774228334427
0.34558719396591187 0.8274245262145996 0.07623814046382904
0.3706618547439575 0.8570066690444946 0.04307549074292183
0.432282418012619 0.9107815027236938 -0.025778697803616524
0.3101605772972107 0.7961730360984802 0.17848509550094604
0.42470651865005493 0.4711074233055115 0.042273592203855515
0.44465869665145874 0.5264732241630554 -0.05307624489068985
0.4807610809803009 0.919019341468811 -0.03960262984037399
0.4030872583389282 0.9132834672927856 0.023303529247641563
0.25751158595085144 0.6667106747627258 0.18725964426994324
0.43029189109802246 0.7673420310020447 -0.017002373933792114
0.4254905879497528 0.7719005346298218 -0.022157276049256325
0.4214335083961487 0.7800092697143555 -0.02590537630021572
0.4189812242984772 0.7907407283782959 -0.02278590016067028
0.40638160705566406 0.8075740933418274 -0.010773928835988045
0.38255733251571655 0.7170006036758423 0.00832425057888031
0.3775671720504761 0.7139027714729309 0.01103140041232109
0.3734673261642456 0.7108921408653259 0.011859195306897163
0.3463064432144165 0.6862590312957764 0.017583772540092468
0.2750515341758728 0.6476320624351501 0.06217228248715401
0.44966429471969604 0.5038909316062927 -0.027869468554854393
0.4458012282848358 0.45683586597442627 0.023502904921770096
0.43363285064697266 0.4612145721912384 0.03683098778128624
0.38695451617240906 0.7189645171165466 0.008425473235547543
0.2828137278556824 0.7155945897102356 0.09491359442472458
0.46353843808174133 0.4543085992336273 -0.01325781550258398
0.40142112970352173 0.8305569291114807 -0.0050137280486524105
0.47440892457962036 0.5314524173736572 -0.1057988777756691
0.4590381979942322 0.5131919384002686 -0.0709020346403122
0.47821226716041565 0.5077848434448242 -0.07959996908903122
0.42448633909225464 0.5624650716781616 -0.05675365775823593
0.48010721802711487 0.8907260298728943 -0.046525850892066956
0.4814702868461609 0.8586636781692505 -0.04361777380108833
0.43830406665802 0.8530668616294861 -0.031466130167245865
0.3535534143447876 0.7604159116744995 0.04057789966464043
0.373777836561203 0.6217817664146423 -0.010560618713498116
0.3756331503391266 0.7987402677536011 0.020046301186084747
0.32088106870651245 0.6214708685874939 0.008821550756692886
0.3510342836380005 0.6468833088874817 0.00225117732770741
0.3029911518096924 0.6618534326553345 0.03340689092874527
0.43263933062553406 0.8836631774902344 -0.03213208168745041
0.4097507894039154 0.5745591521263123 -0.039486803114414215
0.3436959981918335 0.7893363237380981 0.05704597383737564
0.3705597519874573 0.825029730796814 0.030941732227802277
0.33169758319854736 0.7205526828765869 0.045418597757816315
0.264610230922699 0.6876179575920105 0.11815834045410156
0.3100391626358032 0.7367883920669556 0.06607932597398758
0.2708947956562042 0.718482494354248 0.17000046372413635
0.33171868324279785 0.6728711724281311 0.02086285687983036
0.4304773211479187 0.542513370513916 -0.03563957288861275
0.41836225986480713 0.6111683249473572 -0.09947033226490021
0.4035491943359375 0.6138257384300232 -0.07384740561246872
0.4277256727218628 0.593853771686554 -0.1171768382191658
0.4287298321723938 0.4356546401977539 0.023045523092150688
0.39350682497024536 0.4217769503593445 0.02478698454797268
0.36333388090133667 0.4209139347076416 0.030866017565131187
0.33848249912261963 0.4279128313064575 0.044484417885541916
0.3215508460998535 0.4409220218658447 0.061809927225112915
0.3125615119934082 0.48127421736717224 0.09598773717880249
0.2528454065322876 0.5589697360992432 0.20461763441562653
0.3281768560409546 0.5090923309326172 0.07087348401546478
0.34896254539489746 0.5140005946159363 0.05249558016657829
0.37661024928092957 0.513853907585144 0.03794527053833008
0.40310800075531006 0.5087648034095764 0.030206136405467987
0.42412203550338745 0.5012509822845459 0.025189831852912903
0.43844008445739746 0.4937797784805298 0.02200622484087944
0.26854783296585083 0.5687428116798401 0.2903280258178711
0.4037116765975952 0.6184585094451904 -0.06284063309431076
0.44006484746932983 0.5469898581504822 -0.07597692310810089
0.4329718053340912 0.6133308410644531 -0.12108384072780609
0.44702112674713135 0.626620352268219 -0.11526131629943848
0.4346327483654022 0.6184554100036621 -0.10983505845069885
0.40897905826568604 0.6247817277908325 -0.05687771737575531
0.45053309202194214 0.6287158131599426 -0.12236852943897247
0.4546443819999695 0.6341153383255005 -0.09590685367584229
0.4389955699443817 0.47661733627319336 0.036521390080451965
0.4492564797401428 0.4808600842952728 0.01821378991007805
0.455098032951355 0.4841495156288147 -0.002268994925543666
0.34232956171035767 0.4735105633735657 0.06840653717517853
0.32560575008392334 0.4620058834552765 0.07196597754955292
0.4948163330554962 0.5352196097373962 -0.10162794589996338
0.6619618535041809 0.4740334749221802 0.015282622538506985
0.49900108575820923 0.6305282115936279 -0.10061232000589371
0.7803263664245605 0.39326488971710205 0.12586389482021332
0.5982702970504761 0.48950400948524475 -0.0007942016236484051
0.6202239990234375 0.4914388656616211 -0.0031928543467074633
0.6430476903915405 0.4919413626194 -0.00042841307003982365
0.6757292151451111 0.4830362796783447 0.015762809664011
0.5796096920967102 0.48488885164260864 0.005294993985444307
0.626993715763092 0.43167489767074585 -0.007820982486009598
0.6021981239318848 0.4335268437862396 -0.001996313687413931
0.6517378091812134 0.43573689460754395 -0.004268058575689793
0.6696925759315491 0.44473594427108765 0.0027559828013181686
0.7004146575927734 0.4983152747154236 0.023606933653354645
0.5815889835357666 0.8656262159347534 -0.026418114081025124
0.6723554730415344 0.47042199969291687 0.022518863901495934
0.7924105525016785 0.5055134892463684 0.11872199177742004
0.7318589091300964 0.4845958948135376 0.045799434185028076
0.6189277172088623 0.5920594334602356 -0.041051771491765976
0.5318493247032166 0.6978339552879333 -0.08209959417581558
0.5308883190155029 0.7162846326828003 -0.07335758209228516
0.5727550387382507 0.7004262208938599 -0.07066407054662704
0.6007811427116394 0.7047773599624634 -0.04755757004022598
0.5648020505905151 0.7138208150863647 -0.06305837631225586
0.5908994674682617 0.7136704921722412 -0.04163411259651184
0.6290149688720703 0.7467833161354065 -0.006672529503703117
0.4880901277065277 0.6161676645278931 -0.14030596613883972
0.4901549518108368 0.5899849534034729 -0.1455014944076538
0.7036619186401367 0.42684346437454224 0.00553373945876956
0.5614936947822571 0.5355128645896912 -0.028874294832348824
0.5636366009712219 0.6040778756141663 -0.09000751376152039
0.5666594505310059 0.5902832746505737 -0.08130000531673431
0.7006226778030396 0.5871659517288208 -0.020629534497857094
0.49223268032073975 0.5598943829536438 -0.12872399389743805
0.6362069249153137 0.3992183208465576 -0.022816579788923264
0.6738675832748413 0.4087233543395996 -0.011355075985193253
0.7467788457870483 0.34473928809165955 0.09021259099245071
0.5330874919891357 0.4216115474700928 -0.0307152196764946
0.5814835429191589 0.4419138729572296 0.007629763334989548
0.6513330936431885 0.7098577618598938 -0.006513170897960663
0.7749438285827637 0.7569233775138855 0.14939019083976746
0.5460560321807861 0.6202056407928467 -0.07926765084266663
0.5233542323112488 0.628304123878479 -0.07990939915180206
0.6344156861305237 0.7198695540428162 -0.0012663620291277766
0.6279672384262085 0.7213057279586792 -0.004284554626792669
0.6881864070892334 0.3942002058029175 0.001094602863304317
0.5697710514068604 0.6126172542572021 -0.07793008536100388
0.5894536972045898 0.4018857479095459 -0.029573902487754822
0.5918104648590088 0.382698655128479 -0.032519008964300156
0.6340083479881287 0.2799014747142792 0.021485961973667145
0.7197566032409668 0.3700987696647644 0.040342118591070175
0.6122053265571594 0.32891684770584106 -0.005999363027513027
0.7214840650558472 0.4171225428581238 0.025307640433311462
0.7536795139312744 0.40907585620880127 0.0735926404595375
0.5319777131080627 0.7080584764480591 -0.0795542523264885
0.5689711570739746 0.7076867818832397 -0.06700344383716583
0.5959596633911133 0.7093133330345154 -0.046127986162900925
0.5412027835845947 0.6240358352661133 -0.07380102574825287
0.6311271786689758 0.7205461859703064 -0.0026448327116668224
0.6150853633880615 0.7445510029792786 -0.012251624837517738
0.6253190040588379 0.7222330570220947 -0.004480169154703617
0.524825394153595 0.6166110038757324 -0.11061584204435349
0.5864526629447937 0.7160329818725586 -0.039649780839681625
0.5605674982070923 0.717289388179779 -0.05603047087788582
0.5288537740707397 0.7201415300369263 -0.06666930764913559
0.5274257659912109 0.8282732367515564 -0.04290862753987312
0.533302903175354 0.8032619953155518 -0.0571223683655262
0.5325007438659668 0.7912255525588989 -0.057986289262771606
0.5312537550926208 0.7817809581756592 -0.05019861087203026
0.5290545225143433 0.775286078453064 -0.04330809786915779
0.5849995613098145 0.7568766474723816 -0.022091560065746307
0.5896825194358826 0.7589821219444275 -0.02733597345650196
0.595086932182312 0.7633848786354065 -0.031275488436222076
0.5985475182533264 0.7695480585098267 -0.028017206117510796
0.6142246127128601 0.6704908609390259 -0.04214107245206833
0.808173656463623 0.6279153227806091 0.19548606872558594
0.6040303707122803 0.7442010641098022 -0.009218010120093822
0.6098908185958862 0.7436862587928772 -0.01225011982023716
0.5152029395103455 0.6370227932929993 -0.08161968737840652
0.5651512145996094 0.6255470514297485 -0.059576574712991714
0.5189573764801025 0.6329323649406433 -0.08143962174654007
0.5901052951812744 0.5470378398895264 -0.02724086493253708
0.6338034868240356 0.5596977472305298 -0.028973044827580452
0.5752334594726562 0.6001830101013184 -0.0691949650645256
0.699832022190094 0.30560481548309326 0.053061939775943756
0.6741880178451538 0.3424563705921173 0.014383295550942421
0.6441500186920166 0.3810804486274719 -0.01676042564213276
0.6036434173583984 0.7798061966896057 -0.018415052443742752
0.5371636152267456 0.3905956745147705 -0.03593909740447998
0.5535328388214111 0.3258170783519745 -0.013805367983877659
0.5675596594810486 0.2688685953617096 0.0074494159780442715
0.6631657481193542 0.4894106388092041 0.007093003485351801
0.730352520942688 0.515091061592102 0.03168680518865585
0.5672189593315125 0.47993189096450806 0.010390764102339745
0.6978896260261536 0.45589715242385864 0.019107015803456306
0.5417326092720032 0.5211544632911682 -0.03402328118681908
0.5404191613197327 0.5983465313911438 -0.110220767557621
0.7626163363456726 0.5423632860183716 0.05063890665769577
0.7098073959350586 0.529263436794281 0.010191458277404308
0.675194263458252 0.5361343026161194 -0.007503534201532602
0.627471387386322 0.5321968197822571 -0.012525232508778572
0.5936753153800964 0.5228152871131897 -0.011384437792003155
0.5685405135154724 0.5126836895942688 -0.012699353508651257
0.505135178565979 0.488785982131958 -0.05154773220419884
0.7639326453208923 0.5897806286811829 0.037739694118499756
0.7199023962020874 0.45374324917793274 0.027328837662935257
0.4827181100845337 0.630392849445343 -0.12998436391353607
0.5607573986053467 0.5571714043617249 -0.0433378629386425
0.811799168586731 0.5079248547554016 0.19344095885753632
0.548784077167511 0.5008784532546997 -0.01228094007819891
0.5814158916473389 0.600985050201416 -0.04374969005584717
0.68506920337677 0.4710615873336792 0.025509702041745186
0.5435876846313477 0.5813382863998413 -0.09920065850019455
0.7981215119361877 0.6915136575698853 0.17780299484729767
0.5686962604522705 0.47259658575057983 0.017923999577760696
0.5166208148002625 0.5688247084617615 -0.11849973350763321
0.7017778754234314 0.8032758235931396 0.04552716016769409
0.7012172937393188 0.8443765640258789 0.07419697195291519
0.7964852452278137 0.6127421259880066 0.11542116850614548
0.7411274909973145 0.7713578939437866 0.06597406417131424
0.7747617363929749 0.4536065459251404 0.10307183861732483
0.5828596353530884 0.8969012498855591 -0.021128255873918533
0.4828327000141144 0.635968029499054 -0.09942213445901871
0.5867226719856262 0.5728274583816528 -0.03984823450446129
0.7592077851295471 0.4902060925960541 0.06547129899263382
0.6377201080322266 0.4772075116634369 0.003977927379310131
0.6189101338386536 0.47743237018585205 0.000871548312716186
0.6191970109939575 0.7466051578521729 -0.010363571345806122
0.766089916229248 0.6440746784210205 0.03991692513227463
0.5343485474586487 0.9362407922744751 -0.021447179839015007
0.6171784400939941 0.9010787010192871 0.02192930318415165
0.6551241874694824 0.8773361444473267 0.04643562436103821
0.6014848947525024 0.4760776162147522 0.0031026548240333796
0.5850962996482849 0.47402918338775635 0.009174595586955547
0.5741786956787109 0.4734194278717041 0.0160754956305027
0.7425971031188965 0.4494217038154602 0.0487201027572155
0.5885031223297119 0.4601743817329407 0.008751695044338703
0.6069475412368774 0.4558209180831909 0.0021177546586841345
0.6249334216117859 0.45557981729507446 -0.00010928131086984649
0.6438739895820618 0.45886558294296265 0.0022842276375740767
0.6568644046783447 0.46356165409088135 0.007894902490079403
0.800833523273468 0.4443702697753906 0.16509628295898438
0.651262640953064 0.4758368730545044 0.009564246982336044
0.5817275643348694 0.6580660939216614 -0.05958268418908119
0.5434800982475281 0.6176740527153015 -0.08694787323474884
0.5207450985908508 0.6537342071533203 -0.07905282080173492
0.6599973440170288 0.8385289907455444 0.028775328770279884
0.6224436163902283 0.8676447868347168 0.00540582463145256
0.5343959331512451 0.9155101776123047 -0.04124061018228531
0.7399128675460815 0.8079200387001038 0.1099701076745987
0.5750420093536377 0.46750617027282715 0.014248771592974663
0.5194230675697327 0.526303768157959 -0.06533673405647278
0.5780934691429138 0.9219061136245728 -0.005164943635463715
0.790220320224762 0.6716179847717285 0.10632401704788208
0.5596618056297302 0.7674967050552368 -0.03461892902851105
0.564125657081604 0.7720255851745605 -0.04040366783738136
0.5674090385437012 0.7796372175216675 -0.045225489884614944
0.5695618391036987 0.7900542616844177 -0.042940255254507065
0.5709548592567444 0.8087255358695984 -0.03294042497873306
0.6133808493614197 0.715932309627533 -0.02192741073668003
0.6177594065666199 0.7134630084037781 -0.021800236776471138
0.621560275554657 0.7106166481971741 -0.02280794270336628
0.6401580572128296 0.6860858201980591 -0.022338850423693657
0.7299798130989075 0.6493784785270691 -0.0025817956775426865
0.522463321685791 0.5037729740142822 -0.040870361030101776
0.5457558631896973 0.4564743638038635 0.007151531986892223
0.5631570816040039 0.4587317407131195 0.013273395597934723
0.6093484163284302 0.7174669504165649 -0.020678957924246788
0.7340617775917053 0.7208676338195801 0.02981993556022644
0.519655704498291 0.4570893347263336 -0.022976083680987358
0.5768440961837769 0.834568977355957 -0.028748774901032448
0.49970242381095886 0.5130991339683533 -0.0775243416428566
0.5390902161598206 0.5622904300689697 -0.07291626930236816
0.5299898386001587 0.8553508520126343 -0.04277177155017853
0.6399043798446655 0.7649765014648438 -0.0007301150471903384
0.6036601662635803 0.621463418006897 -0.040226876735687256
0.6112974882125854 0.8035432696342468 -0.012632212601602077
0.6652277112007141 0.621637225151062 -0.038024332374334335
0.6314880847930908 0.6470041871070862 -0.03537196293473244
0.6917157173156738 0.6636117696762085 -0.02062099613249302
0.5329773426055908 0.8873061537742615 -0.04682306572794914
0.5600951910018921 0.5737939476966858 -0.059908654540777206
0.654909074306488 0.7970985770225525 0.01110430620610714
0.6184911131858826 0.8327795267105103 -0.00445323484018445
0.6643127202987671 0.7241500020027161 -0.004127386026084423
0.7608011960983276 0.6922121047973633 0.04600466415286064
0.6951596736907959 0.7427830696105957 0.010330353863537312
0.7730849981307983 0.7257483005523682 0.09273959696292877
0.6584420800209045 0.6735324859619141 -0.024555375799536705
0.5391073226928711 0.5422496795654297 -0.05310087651014328
0.5319805145263672 0.6113467216491699 -0.11532464623451233
0.5551632642745972 0.613836407661438 -0.0921887457370758
0.5152804255485535 0.5941545963287354 -0.12975424528121948
0.5605353116989136 0.43656110763549805 0.0005917967646382749
0.5960214734077454 0.422275185585022 -0.008130457252264023
0.6291592121124268 0.4192713499069214 -0.01243354007601738
0.6593331098556519 0.4246402382850647 -0.00800243578851223
0.683009922504425 0.43663108348846436 0.002915026154369116
0.7049283981323242 0.4773968458175659 0.03254285827279091
0.7970396280288696 0.5586349368095398 0.11770538985729218
0.6849288940429688 0.5067253708839417 0.012344873510301113
0.6584715843200684 0.511642575263977 0.0014895729254931211
0.6255719661712646 0.5105027556419373 -0.003971044439822435
0.5960879921913147 0.5051543712615967 -0.002805922646075487
0.5736137628555298 0.49834775924682617 0.00040963460924103856
0.5574691891670227 0.49142515659332275 0.0017721150070428848
0.8115997314453125 0.5676909685134888 0.20228168368339539
0.5581239461898804 0.6182687878608704 -0.08075884729623795
0.5163066387176514 0.5469394326210022 -0.08866571635007858
0.5089561343193054 0.6138389110565186 -0.13106417655944824
0.4983111023902893 0.6274415850639343 -0.12105295807123184
0.5120360255241394 0.6191209554672241 -0.12006209790706635
0.5542033314704895 0.6244867444038391 -0.07191543281078339
0.491781622171402 0.6292176842689514 -0.1270805448293686
0.4920753836631775 0.6343896389007568 -0.09992000460624695
0.5589850544929504 0.4731871485710144 0.01538937259465456
0.54417884349823 0.4792119860649109 0.0023427840787917376
0.5332402586936951 0.483629047870636 -0.015421179123222828
0.6653026342391968 0.46735814213752747 0.013946522027254105
0.6827011108398438 0.4563966989517212 0.01404209341853857
0.3813147246837616 0.47171318531036377 0.05082513391971588
0.40364962816238403 0.47137874364852905 0.05082513391971588
0.3813912868499756 0.4529176950454712 0.05082513391971588
0.3589101731777191 0.472227543592453 0.05082513391971588
0.38123929500579834 0.49036070704460144 0.05082513391971588
0.627833902835846 0.46607014536857605 0.009226659312844276
0.6492217183113098 0.46606096625328064 0.009226659312844276
0.6271082162857056 0.44857096672058105 0.009226659312844276
0.6066952347755432 0.4660685062408447 0.009226659312844276
0.628728985786438 0.4837411642074585 0.009226659312844276
