ply
format ascii 1.0
element vertex 478
property float x
property float y
property float z
end_header
0.5397104620933533 0.6907235980033875 -0.045742545276880264
0.5715434551239014 0.6479262709617615 -0.12889112532138824
0.551376223564148 0.6618093848228455 -0.060571711510419846
0.5353451371192932 0.5652032494544983 -0.12017548829317093
0.5726833939552307 0.6248360276222229 -0.1410735845565796
0.5659099817276001 0.5911241173744202 -0.13760213553905487
0.5413731336593628 0.5033597350120544 -0.09356262534856796
0.32998836040496826 0.4825141131877899 -0.04990373179316521
0.5333935618400574 0.43944424390792847 -0.09015548974275589
0.5338727831840515 0.40708422660827637 -0.10256034135818481
0.5230521559715271 0.26919278502464294 -0.10741466283798218
0.539140522480011 0.6971831321716309 -0.04089949280023575
0.5372186899185181 0.7036170959472656 -0.032427556812763214
0.5347154140472412 0.7076643109321594 -0.018615800887346268
0.5359780788421631 0.7688997387886047 0.0005763128283433616
0.5379579067230225 0.7799211740493774 0.0016798480646684766
0.5388404130935669 0.7936822175979614 0.0004332849639467895
0.538025975227356 0.8068504929542542 0.009691446088254452
0.5396122336387634 0.8236192464828491 0.03820318356156349
0.5660961270332336 0.6578971147537231 -0.11472588032484055
0.5316236615180969 0.6562026739120483 -0.0867958813905716
0.17503607273101807 0.36820167303085327 0.005485879722982645
0.40896573662757874 0.5042188167572021 -0.05232684686779976
0.38257789611816406 0.5068942308425903 -0.057252947241067886
0.3552711606025696 0.505950391292572 -0.05762089416384697
0.3157378137111664 0.48990046977996826 -0.04766828194260597
0.4312586188316345 0.4987387955188751 -0.044228360056877136
0.36920300126075745 0.4338572025299072 -0.07990455627441406
0.39991897344589233 0.4367048740386963 -0.07151594758033752
0.34028396010398865 0.4384145140647888 -0.07759921997785568
0.32012873888015747 0.4481028914451599 -0.07030776143074036
0.28957051038742065 0.505158543586731 -0.037175554782152176
0.4379226565361023 0.84423828125 0.05020619556307793
0.31786447763442993 0.4743550717830658 -0.04542038217186928
0.17430877685546875 0.48095375299453735 0.04275709018111229
0.25138384103775024 0.48678460717201233 -0.024832123890519142
0.39859092235565186 0.608715832233429 -0.05135662481188774
0.5005648136138916 0.6894078254699707 -0.0522037073969841
0.5001391172409058 0.7047852873802185 -0.03684872388839722
0.4586513936519623 0.6982815265655518 -0.04506013169884682
0.42865872383117676 0.7074059844017029 -0.028052467852830887
0.4659561514854431 0.7083744406700134 -0.03311561048030853
0.43888407945632935 0.713767409324646 -0.017326809465885162
0.40049606561660767 0.7560954093933105 0.023020420223474503
0.5501800775527954 0.648450493812561 -0.13167384266853333
0.5475749969482422 0.6256558895111084 -0.14377711713314056
0.2808212637901306 0.42888444662094116 -0.08235418051481247
0.45104894042015076 0.5476710796356201 -0.05824226513504982
0.4651862382888794 0.6309833526611328 -0.08996928483247757
0.4596140384674072 0.6156538128852844 -0.08539090305566788
0.308960497379303 0.6025055646896362 -0.04502265527844429
0.5423098802566528 0.5936779379844666 -0.1371074765920639
0.35923194885253906 0.4057007133960724 -0.10949161648750305
0.3153095543384552 0.41263678669929504 -0.10068880021572113
0.2178422510623932 0.3281863033771515 -0.04219743236899376
0.4814540147781372 0.4327210783958435 -0.09768286347389221
0.4257083237171173 0.44766178727149963 -0.05683990195393562
0.37933284044265747 0.7280607223510742 0.012610157951712608
0.19429461658000946 0.7019007802009583 0.16897007822990417
0.4836268126964569 0.6449664235115051 -0.07313767075538635
0.5061420202255249 0.6517557501792908 -0.06520330160856247
0.39193159341812134 0.7291936874389648 0.015767736360430717
0.3995293080806732 0.7293635606765747 0.01347656175494194
0.29692167043685913 0.39529910683631897 -0.09660504013299942
0.4587404429912567 0.6369423270225525 -0.0737619549036026
0.41470882296562195 0.411306232213974 -0.10934747755527496
0.4115588665008545 0.3909732401371002 -0.12027963250875473
0.3593692481517792 0.27837786078453064 -0.11382626742124557
0.257931113243103 0.36336421966552734 -0.07328171283006668
0.38819584250450134 0.33500128984451294 -0.11839471012353897
0.25786468386650085 0.41560330986976624 -0.06927535682916641
0.21610349416732788 0.3949563503265381 -0.03337697684764862
0.4999968409538269 0.6975388526916504 -0.04718359559774399
0.46231892704963684 0.7036952376365662 -0.03954075276851654
0.43361523747444153 0.71084064245224 -0.024248870089650154
0.48804232478141785 0.647811770439148 -0.06429112702608109
0.3958156704902649 0.7293392419815063 0.01465669460594654
0.41303279995918274 0.749685525894165 0.011418182402849197
0.40275049209594727 0.7293407320976257 0.013660144992172718
0.5073676109313965 0.6445943117141724 -0.10736120492219925
0.4432443380355835 0.7152688503265381 -0.01067307498306036
0.46937239170074463 0.7109520435333252 -0.02008521929383278
0.500449001789093 0.7087267637252808 -0.023885507136583328
0.4995518624782562 0.82206130027771 0.031195780262351036
0.4968873858451843 0.8059432506561279 0.0020915649365633726
0.49926260113716125 0.7930173277854919 -0.0060510048642754555
0.5012513995170593 0.7791001200675964 -0.0045217955484986305
0.5028548836708069 0.7690534591674805 -0.005104305688291788
0.44621264934539795 0.7563205361366272 0.0031766549218446016
0.4413977563381195 0.7605541944503784 0.0031615521293133497
0.4347294270992279 0.7675389647483826 0.002676601056009531
0.42934495210647583 0.7746687531471252 0.007492246106266975
0.42012566328048706 0.6930005550384521 -0.030007436871528625
0.1499180793762207 0.576931893825531 0.16292794048786163
0.5596902966499329 0.6609718799591064 -0.08090746402740479
0.42565783858299255 0.745826005935669 0.010467853397130966
0.4195858836174011 0.7472983598709106 0.010775420814752579
0.5148714184761047 0.6598672270774841 -0.061386074870824814
0.46294933557510376 0.6474844217300415 -0.04751872643828392
0.510898232460022 0.6560525894165039 -0.06446720659732819
0.42219409346580505 0.5591162443161011 -0.05375161021947861
0.37832534313201904 0.5751251578330994 -0.054448459297418594
0.45102789998054504 0.6231124401092529 -0.06999373435974121
0.2777024507522583 0.2973756790161133 -0.08375971019268036
0.3133699893951416 0.34220296144485474 -0.10038047283887863
0.3492814004421234 0.3855189383029938 -0.11284662783145905
0.42669957876205444 0.782671332359314 0.02348085679113865
0.4759564995765686 0.400166392326355 -0.11515592038631439
0.4573158621788025 0.3356165885925293 -0.11966334283351898
0.4383813738822937 0.2700823247432709 -0.12062133103609085
0.3303528130054474 0.5005369782447815 -0.053494375199079514
0.25661903619766235 0.5222496390342712 -0.02686893753707409
0.44599995017051697 0.4938097298145294 -0.039848580956459045
0.28942322731018066 0.458834707736969 -0.05752277746796608
0.47213080525398254 0.5349326729774475 -0.06585661321878433
0.4898872375488281 0.6278195381164551 -0.11168808490037918
0.21955744922161102 0.5358010530471802 -0.004793544765561819
0.28221073746681213 0.5407758951187134 -0.04011675342917442
0.323701947927475 0.5508295893669128 -0.05062317103147507
0.3779412806034088 0.5472237467765808 -0.050087615847587585
0.4157494008541107 0.5373198986053467 -0.047523509711027145
0.44346290826797485 0.5270205736160278 -0.049654390662908554
0.5157884955406189 0.5086121559143066 -0.09050002694129944
0.22680506110191345 0.5873178839683533 0.0005897151422686875
0.26307007670402527 0.4548851251602173 -0.055115483701229095
0.5524949431419373 0.6582198739051819 -0.11719372868537903
0.45705878734588623 0.573743462562561 -0.06214272230863571
0.14050105214118958 0.46670809388160706 0.11442939192056656
0.46620815992355347 0.5159040689468384 -0.0516854003071785
0.44274061918258667 0.6205001473426819 -0.04391379654407501
0.3046271502971649 0.47482800483703613 -0.043331146240234375
0.48346763849258423 0.6087904572486877 -0.10571585595607758
0.16438862681388855 0.6372355818748474 0.1707666963338852
0.44385436177253723 0.4859098792076111 -0.03716729208827019
0.5137795209884644 0.5996567010879517 -0.12666034698486328
0.2972278594970703 0.7780630588531494 0.08577730506658554
0.28514301776885986 0.7994396686553955 0.13034045696258545
0.17737790942192078 0.5861400365829468 0.0797215923666954
0.2514409124851227 0.7417425513267517 0.09309220314025879
0.19192515313625336 0.43366971611976624 0.009287120774388313
0.43243274092674255 0.8670201301574707 0.06671100854873657
0.5488295555114746 0.6605522036552429 -0.08166053891181946
0.4307645857334137 0.5886144042015076 -0.053850580006837845
0.220228910446167 0.489512175321579 -0.00741666741669178
0.3601534366607666 0.49257034063339233 -0.05675653740763664
0.3838537335395813 0.493860125541687 -0.0572110116481781
0.4071071743965149 0.7521957159042358 0.013804538175463676
0.23066158592700958 0.6363494396209717 0.0238596610724926
0.4794752299785614 0.8966900110244751 0.09230125695466995
0.38530585169792175 0.8603439331054688 0.10553840547800064
0.3400324285030365 0.8353433012962341 0.11595713347196579
0.5294151902198792 0.33691927790641785 -0.1071397215127945
0.5321761965751648 0.8971377611160278 0.102037712931633
0.4052902162075043 0.4914591312408447 -0.05300481989979744
0.4255867004394531 0.48787030577659607 -0.04575851559638977
0.43846070766448975 0.4868200421333313 -0.03906838223338127
0.23481182754039764 0.44726282358169556 -0.03762853145599365
0.4173739552497864 0.4648659825325012 -0.053939659148454666
0.39333826303482056 0.4558660387992859 -0.0637814924120903
0.3704564869403839 0.454570472240448 -0.06831353902816772
0.34754979610443115 0.45865869522094727 -0.06703764200210571
0.3332350552082062 0.46501395106315613 -0.061122599989175797
0.1509915292263031 0.4116743803024292 0.06253116577863693
0.3427884578704834 0.4881591796875 -0.05375996232032776
0.5477411150932312 0.6763635277748108 -0.049314193427562714
0.4513969421386719 0.681460440158844 -0.04300954192876816
0.48696911334991455 0.6436491012573242 -0.08310109376907349
0.5092270374298096 0.6780138611793518 -0.05488226190209389
0.533455491065979 0.468572735786438 -0.0833214521408081
0.3434791564941406 0.8119420409202576 0.0845932587981224
0.38585323095321655 0.8397611975669861 0.07792536169290543
0.4839070439338684 0.8846322298049927 0.060595154762268066
0.23741210997104645 0.757064163684845 0.14980262517929077
0.43560341000556946 0.4781035780906677 -0.04460636526346207
0.502714991569519 0.5488277673721313 -0.09239381551742554
0.5374168157577515 0.8860249519348145 0.07102800905704498
0.43173107504844666 0.8825407028198242 0.09372620284557343
0.188148632645607 0.6408684253692627 0.09294955432415009
0.47301381826400757 0.7646308541297913 -0.003161467844620347
0.4685911536216736 0.7719883322715759 -0.0028903228230774403
0.46384748816490173 0.7830246090888977 -0.0035856086760759354
0.4603235125541687 0.7946711778640747 0.0027757498901337385
0.45896977186203003 0.8065135478973389 0.023283179849386215
0.4155159294605255 0.7205054759979248 -0.0028233518823981285
0.4101228415966034 0.7191444039344788 -0.0050359126180410385
0.4052382707595825 0.7170931696891785 -0.007648824248462915
0.3948287069797516 0.7080170512199402 -0.012060455977916718
0.2804252505302429 0.6537052392959595 -0.010153736919164658
0.494461327791214 0.5204321146011353 -0.07680787891149521
0.46830353140830994 0.46778711676597595 -0.05014200881123543
0.44787323474884033 0.469224750995636 -0.046430010348558426
0.4203612208366394 0.7209712266921997 0.0019251670455560088
0.27198106050491333 0.7102211117744446 0.04296797141432762
0.4987720847129822 0.4694288671016693 -0.07505462318658829
0.44628623127937317 0.8224356174468994 0.039023805409669876
0.5575076341629028 0.5617899298667908 -0.12176700681447983
0.5258535742759705 0.5388800501823425 -0.10721483081579208
0.5497044324874878 0.5341553092002869 -0.10707318037748337
0.4835700988769531 0.5850716233253479 -0.08774220198392868
0.5396829843521118 0.8657628297805786 0.05406445264816284
0.5391768217086792 0.8421574831008911 0.04714766889810562
0.49361878633499146 0.8403170108795166 0.04145906865596771
0.37829121947288513 0.765878438949585 0.03405020013451576
0.4188488721847534 0.6389279961585999 -0.03839147090911865
0.40837880969047546 0.7965972423553467 0.03920181840658188
0.35427841544151306 0.6381585597991943 -0.043108899146318436
0.39311569929122925 0.6640346050262451 -0.032003309577703476
0.3273528814315796 0.674513578414917 -0.018215151503682137
0.48862242698669434 0.8637712001800537 0.0453900508582592
0.46157968044281006 0.5940647721290588 -0.07085609436035156
0.3557233214378357 0.786001443862915 0.05451153591275215
0.39537301659584045 0.8165220618247986 0.05803415924310684
0.35546165704727173 0.7330918908119202 0.016963951289653778
0.23789560794830322 0.677628755569458 0.047027502208948135
0.3165385127067566 0.7395066022872925 0.03231605514883995
0.21015967428684235 0.6923539638519287 0.10118457674980164
0.36838698387145996 0.6910769939422607 -0.017557676881551743
0.4798288643360138 0.5610858798027039 -0.07604925334453583
0.5002371072769165 0.6406331062316895 -0.11422057449817657
0.4748521149158478 0.6404494643211365 -0.08810091763734818
0.5190143585205078 0.6270169615745544 -0.13094468414783478
0.44970452785491943 0.4462311267852783 -0.06676405668258667
0.407034695148468 0.4293873906135559 -0.08320795744657516
0.367730051279068 0.42505884170532227 -0.09022927284240723
0.3329843282699585 0.4294319152832031 -0.08753194659948349
0.30582672357559204 0.4405061602592468 -0.07703897356987
0.282067209482193 0.4808802306652069 -0.037256598472595215
0.17246916890144348 0.5333490371704102 0.06101084500551224
0.3086157441139221 0.5166062116622925 -0.04340565577149391
0.34056538343429565 0.5247637629508972 -0.04950053617358208
0.3786691129207611 0.5247678756713867 -0.05017678812146187
0.4121348559856415 0.5189674496650696 -0.04661298915743828
0.4376305043697357 0.5116261839866638 -0.042730797082185745
0.45600181818008423 0.5050361752510071 -0.04159737378358841
0.14334890246391296 0.5207617282867432 0.14499039947986603
0.4710848331451416 0.6431768536567688 -0.07455365359783173
0.5101574659347534 0.5737524032592773 -0.10632627457380295
0.526822566986084 0.6455046534538269 -0.12626083195209503
0.5344189405441284 0.6550418734550476 -0.11000215262174606
0.5213109254837036 0.6479964852333069 -0.11441133171319962
0.47478657960891724 0.6477150917053223 -0.06155459210276604
0.5425747036933899 0.6573321223258972 -0.1147865429520607
0.5391045212745667 0.6595617532730103 -0.08418498933315277
0.4545344412326813 0.4869348406791687 -0.036564018577337265
0.4707208275794983 0.492629736661911 -0.044860824942588806
0.48371630907058716 0.4982966482639313 -0.05841991305351257
0.32488706707954407 0.4700482189655304 -0.05458980053663254
0.3064582943916321 0.4598006308078766 -0.0578603558242321
0.5746712684631348 0.5631615519523621 -0.10590600967407227
0.6587018966674805 0.47447389364242554 0.05423680692911148
0.5811826586723328 0.6522389054298401 -0.07556749880313873
0.7049703001976013 0.3595726788043976 0.16843268275260925
0.5961498022079468 0.4987785816192627 0.014572085812687874
0.6184072494506836 0.5000759959220886 0.023179152980446815
0.6390464305877686 0.4978134334087372 0.035715941339731216
0.6610528230667114 0.48022016882896423 0.0629790723323822
0.5797020196914673 0.4935925006866455 0.008001625537872314
0.6415780186653137 0.432189404964447 0.004310618620365858
0.6147235035896301 0.4352448582649231 -0.005475127138197422
0.6626748442649841 0.4358796179294586 0.020166629925370216
0.6726394891738892 0.44419699907302856 0.03535035625100136
0.6724885106086731 0.4934389591217041 0.08181659132242203
0.607111930847168 0.8258663415908813 0.09865934401750565
0.6640271544456482 0.46567678451538086 0.06364475190639496
0.7040411233901978 0.4622948169708252 0.20613233745098114
0.6857775449752808 0.47309184074401855 0.109333835542202
0.6408609747886658 0.5963650941848755 0.016000302508473396
0.5719432830810547 0.6833997964859009 -0.03444632887840271
0.5654670596122742 0.6995877027511597 -0.02036150172352791
0.5993548631668091 0.684787929058075 -0.008538860827684402
0.6153651475906372 0.6907087564468384 0.021848106756806374
0.5875153541564941 0.6981545090675354 -0.0011017174692824483
0.6026641726493835 0.7004650831222534 0.025037206709384918
0.6250549554824829 0.7399874925613403 0.08658045530319214
0.5885067582130432 0.645278811454773 -0.12244877219200134
0.5918091535568237 0.6228598952293396 -0.13287019729614258
0.7008613348007202 0.4243716895580292 0.04416102543473244
0.5935410261154175 0.5414906144142151 -0.013879599049687386
0.6189573407173157 0.6220143437385559 -0.04815567284822464
0.6155636310577393 0.6074117422103882 -0.042223330587148666
0.6939040422439575 0.5822694301605225 0.06703154742717743
0.5844679474830627 0.5913244485855103 -0.12317325919866562
0.6724450588226318 0.40788733959198 -0.023028317838907242
0.6931114792823792 0.4120343327522278 0.008596102707087994
0.6992366909980774 0.32375678420066833 0.10414529591798782
0.5843440294265747 0.43050920963287354 -0.06982111930847168
0.5908408164978027 0.44545501470565796 -0.0035046276170760393
0.6390505433082581 0.7104412317276001 0.08931019902229309
0.6602363586425781 0.6662004590034485 0.31959789991378784
0.6039289832115173 0.6374061703681946 -0.0411282517015934
0.5882222056388855 0.647493839263916 -0.049229107797145844
0.6289139986038208 0.7109843492507935 0.08224573731422424
0.6216474771499634 0.7120726108551025 0.072004035115242
0.7012101411819458 0.395966112613678 0.020420268177986145
0.615748941898346 0.628445565700531 -0.032896194607019424
0.6382207274436951 0.412128746509552 -0.05004904419183731
0.6449503302574158 0.3938179612159729 -0.058890391141176224
0.6445615291595459 0.2788090705871582 -0.03133610263466835
0.6983621120452881 0.3585520386695862 0.05670810863375664
0.639507532119751 0.3356020450592041 -0.0472552552819252
0.7075086832046509 0.4113256633281708 0.06636424362659454
0.7071921825408936 0.38576740026474 0.11376278847455978
0.5698075890541077 0.6920095682144165 -0.02947818674147129
0.5939496755599976 0.6922374367713928 -0.005144934169948101
0.6096911430358887 0.6958007216453552 0.021548859775066376
0.5985299348831177 0.6412283778190613 -0.03897293284535408
0.6253722906112671 0.7115786671638489 0.076229989528656
0.6188158392906189 0.7333137392997742 0.06357450038194656
0.6182606220245361 0.7125182151794434 0.07061691582202911
0.601851224899292 0.6376341581344604 -0.07875228673219681
0.595770537853241 0.7031092047691345 0.029416806995868683
0.5809077024459839 0.7018073797225952 0.009958087466657162
0.5605665445327759 0.7039970755577087 -0.006973781622946262
0.5705623030662537 0.8161026835441589 0.04722265154123306
0.5714650750160217 0.8002516031265259 0.019744563847780228
0.570591390132904 0.7870882153511047 0.012597909197211266
0.5665690898895264 0.7733467817306519 0.013818154111504555
0.561376690864563 0.7638022899627686 0.012352517805993557
0.5953555107116699 0.7440381646156311 0.04345402866601944
0.6018202900886536 0.7476145029067993 0.04356718435883522
0.609447181224823 0.7538695335388184 0.04409065470099449
0.6145596504211426 0.7607914209365845 0.05166442319750786
0.6276975870132446 0.6802239418029785 0.026978041976690292
0.6748918294906616 0.5502854585647583 0.33005833625793457
0.6055833101272583 0.7313226461410522 0.06058988720178604
0.6124899983406067 0.7317838072776794 0.06112026423215866
0.5804938077926636 0.6568145155906677 -0.045974478125572205
0.6073333024978638 0.6400632262229919 -0.015411287546157837
0.5844308137893677 0.652551531791687 -0.04911516606807709
0.6135283708572388 0.550642728805542 0.00530975079163909
0.6488465070724487 0.5622792840003967 0.02547500655055046
0.6158359050750732 0.6147155165672302 -0.02566044218838215
0.6820323467254639 0.2962571084499359 0.0353039912879467
0.6775396466255188 0.34124332666397095 0.0037796541582792997
0.6803154945373535 0.3890611529350281 -0.0209051426500082
0.613065242767334 0.7680625319480896 0.07534203678369522
0.5971130132675171 0.4023621082305908 -0.08463563024997711
0.5915672779083252 0.33550187945365906 -0.08299682289361954
0.5940607786178589 0.27024605870246887 -0.07925378531217575
0.6538549065589905 0.49134188890457153 0.050991691648960114
0.6856909394264221 0.5066896677017212 0.10548056662082672
0.5700326561927795 0.4885411560535431 0.006638626102358103
0.6834832429885864 0.4510505199432373 0.06368131190538406
0.5809028148651123 0.5303584337234497 -0.030312351882457733
0.6135609745979309 0.6202303767204285 -0.07768143713474274
0.7130088806152344 0.5135979652404785 0.14485715329647064
0.6804944276809692 0.5259905457496643 0.08411747217178345
0.6621250510215759 0.5375308990478516 0.05478160083293915
0.6263754367828369 0.5363851189613342 0.030021751299500465
0.5987936854362488 0.5284788608551025 0.013283629901707172
0.5807312726974487 0.5199880003929138 -0.0036646611988544464
0.5599064826965332 0.5072227716445923 -0.07558322697877884
0.717826247215271 0.5615702867507935 0.14936059713363647
0.6941850185394287 0.44587868452072144 0.07863913476467133
0.5770291686058044 0.6560171246528625 -0.10972157120704651
0.5977441072463989 0.5673848390579224 -0.019247611984610558
0.6880620718002319 0.44938063621520996 0.28710633516311646
0.5684882402420044 0.5106937885284424 -0.0161576010286808
0.612567663192749 0.6122158765792847 -0.0006851163925603032
0.6690241098403931 0.46558672189712524 0.07122627645730972
0.6086233854293823 0.6019377112388611 -0.0710795447230339
0.6702348589897156 0.6051332950592041 0.3314690887928009
0.5689632892608643 0.48037731647491455 0.011313552036881447
0.5977634787559509 0.5948165655136108 -0.10170378535985947
0.6596658825874329 0.7447025179862976 0.19639766216278076
0.6435040831565857 0.7641994953155518 0.24349074065685272
0.7068228721618652 0.5578524470329285 0.2426006942987442
0.6750965714454651 0.7067742943763733 0.22383616864681244
0.7068377733230591 0.420197457075119 0.16653767228126526
0.6070574522018433 0.8461832404136658 0.11935018748044968
0.5693606734275818 0.6592183113098145 -0.07703851163387299
0.6143425107002258 0.5799575448036194 -0.0012643899535760283
0.6925700902938843 0.4731740653514862 0.14030610024929047
0.6402953863143921 0.48658156394958496 0.034514378756284714
0.6206679344177246 0.4893141984939575 0.023487236350774765
0.6239327788352966 0.7353370189666748 0.0697670578956604
0.7127318382263184 0.6071118712425232 0.16735006868839264
0.5736387968063354 0.8845060467720032 0.12188731878995895
0.615117073059082 0.8330026865005493 0.17895466089248657
0.6280895471572876 0.8032712340354919 0.2080061286687851
0.6008715629577637 0.4877801239490509 0.015744255855679512
0.5833058953285217 0.48391252756118774 0.012950841337442398
0.5731188654899597 0.4820080101490021 0.013461063615977764
0.7005631923675537 0.43774083256721497 0.10620833188295364
0.5877764821052551 0.4598628580570221 0.006583034992218018
0.607939600944519 0.45095670223236084 0.006673148367553949
0.6303420066833496 0.44865715503692627 0.013948689214885235
0.6490397453308105 0.4517896771430969 0.02661442942917347
0.6581035852432251 0.45758605003356934 0.03895550221204758
0.7018932700157166 0.39901861548423767 0.23284120857715607
0.651924192905426 0.481026828289032 0.045593295246362686
0.6129322052001953 0.672262966632843 0.0005954945809207857
0.6064589023590088 0.6356573700904846 -0.053500331938266754
0.5801402926445007 0.673862099647522 -0.03660740330815315
0.6405077576637268 0.7811603546142578 0.17458471655845642
0.6240971088409424 0.8127371072769165 0.14909501373767853
0.5789763331413269 0.8727511167526245 0.0892324447631836
0.651836097240448 0.7208932638168335 0.28499025106430054
0.575011670589447 0.47239983081817627 0.009108311496675014
0.5787578225135803 0.5453199744224548 -0.06847167015075684
0.5991117358207703 0.861849308013916 0.14786396920681
0.7001699805259705 0.6083720922470093 0.24944189190864563
0.5808957815170288 0.7554426193237305 0.02739698812365532
0.5875588059425354 0.76222163438797 0.02861821837723255
0.5938782691955566 0.7728233933448792 0.02920655347406864
0.5972962379455566 0.7848805785179138 0.03655529022216797
0.5967185497283936 0.7952438592910767 0.061001840978860855
0.6137387752532959 0.7049908638000488 0.05010003224015236
0.6201808452606201 0.7023251056671143 0.052487682551145554
0.6257006525993347 0.6991075277328491 0.05345487222075462
0.6370290517807007 0.6925036311149597 0.058820828795433044
0.7002667784690857 0.6278364658355713 0.11134107410907745
0.569985568523407 0.5177040100097656 -0.051644522696733475
0.5644720792770386 0.4646371603012085 -0.018385661765933037
0.5712519884109497 0.4652559757232666 -0.0018371217884123325
0.6075452566146851 0.7065390944480896 0.052212607115507126
0.6874213814735413 0.6796137690544128 0.16570375859737396
0.5569698214530945 0.46717870235443115 -0.05682259052991867
0.600929319858551 0.8074644804000854 0.08074573427438736
0.5678008198738098 0.5369094610214233 -0.09451549500226974
0.5956960916519165 0.5795195698738098 -0.05603277310729027
0.5735998749732971 0.8322359919548035 0.061398670077323914
0.6361566781997681 0.7444556951522827 0.10729572921991348
0.6274740695953369 0.6278508305549622 0.016666563227772713
0.6199640035629272 0.7772480249404907 0.09685426950454712
0.6713098883628845 0.6199837923049927 0.043499890714883804
0.6439394354820251 0.6492197513580322 0.03676210343837738
0.680044949054718 0.651951253414154 0.0805249884724617
0.578863263130188 0.8536604642868042 0.07201680541038513
0.6025923490524292 0.587344765663147 -0.031199418008327484
0.6455184817314148 0.7588100433349609 0.1391848474740982
0.6255916357040405 0.7926713228225708 0.12320253998041153
0.6529810428619385 0.7110904455184937 0.10581044852733612
0.7014305591583252 0.6460835337638855 0.1845296174287796
0.6700241565704346 0.7112482786178589 0.13547317683696747
0.6887237429618835 0.657269299030304 0.24989645183086395
0.6539247035980225 0.6730620861053467 0.06440607458353043
0.5876613259315491 0.5561445355415344 -0.04208297282457352
0.6091212630271912 0.6327832937240601 -0.08332763612270355
0.6145299673080444 0.6317209005355835 -0.0527220256626606
0.604686975479126 0.6210656762123108 -0.10561784356832504
0.5860543847084045 0.4426231384277344 -0.023104174062609673
0.6240865588188171 0.42783594131469727 -0.019596507772803307
0.6554605960845947 0.4249188303947449 -0.007273795548826456
0.6767182350158691 0.42830944061279297 0.013633660972118378
0.6860234141349792 0.436856746673584 0.036569248884916306
0.6761243343353271 0.4696531891822815 0.08534016460180283
0.7067344188690186 0.5096890330314636 0.2279270589351654
0.6655955910682678 0.5052576065063477 0.06841755658388138
0.6481943726539612 0.5143144130706787 0.0478769913315773
0.621643602848053 0.5159448981285095 0.02955179661512375
0.5959558486938477 0.5116437673568726 0.01599930413067341
0.5782642364501953 0.5052840113639832 0.004356812220066786
0.5673339366912842 0.4995869994163513 -0.003415771061554551
0.6778954863548279 0.49909675121307373 0.31710565090179443
0.6106181144714355 0.6350476145744324 -0.03993043303489685
0.5870236754417419 0.5697067379951477 -0.0816056951880455
0.6002575159072876 0.6391509771347046 -0.10684657841920853
0.5854895710945129 0.6499888300895691 -0.0986311137676239
0.5965757369995117 0.6414833068847656 -0.09432701021432877
0.6042623519897461 0.640688955783844 -0.032485973089933395
0.5829679369926453 0.6535583734512329 -0.10556568205356598
0.5760467052459717 0.6565690636634827 -0.07629551738500595
0.5642866492271423 0.482033908367157 0.003553904127329588
0.5591837167739868 0.4886203408241272 -0.015015053562819958
0.5593550205230713 0.4949132204055786 -0.033235762268304825
0.6620439291000366 0.46201807260513306 0.05005373805761337
0.675116240978241 0.4531828463077545 0.05395705625414848
0.3673097491264343 0.47206753492355347 -0.053215108811855316
0.394071102142334 0.47120118141174316 -0.053215108811855316
0.366638720035553 0.44933271408081055 -0.053215108811855316
0.33987957239151 0.47283613681793213 -0.053215108811855316
0.36773425340652466 0.49481213092803955 -0.053215108811855316
0.6119676828384399 0.46753236651420593 0.02668019011616707
0.6378304958343506 0.4680718779563904 0.02668019011616707
0.6131033897399902 0.4438169598579407 0.02668019011616707
0.5859139561653137 0.46687331795692444 0.02668019011616707
0.6109310388565063 0.4912787675857544 0.02668019011616707
