ply
format ascii 1.0
element vertex 478
property float x
property float y
property float z
end_header
0.516711950302124 0.7260399460792542 -0.06602457165718079
0.5258117914199829 0.6476439833641052 -0.1317191869020462
0.5212582945823669 0.6711710691452026 -0.07070936262607574
0.5003085732460022 0.5585713982582092 -0.10281223058700562
0.5258309841156006 0.6202518343925476 -0.14007587730884552
0.5237065553665161 0.5844417810440063 -0.13106827437877655
0.5163556337356567 0.4977439045906067 -0.06807366758584976
0.33720099925994873 0.4781634509563446 0.013091855682432652
0.5132994651794434 0.42646682262420654 -0.05136784911155701
0.512822687625885 0.39142686128616333 -0.05582138150930405
0.5106132626533508 0.2699865400791168 -0.035389430820941925
0.5167967677116394 0.7343726754188538 -0.06284439563751221
0.5165992975234985 0.741938591003418 -0.05593177303671837
0.5163081884384155 0.7461355328559875 -0.04636811837553978
0.5154585242271423 0.7963043451309204 -0.029391074553132057
0.5159937143325806 0.8038924932479858 -0.033604174852371216
0.516090452671051 0.8138854503631592 -0.03752020001411438
0.5160242319107056 0.8264253735542297 -0.03196413442492485
0.5177565217018127 0.8629058599472046 -0.00917559489607811
0.5244904160499573 0.661220908164978 -0.11945057660341263
0.49895867705345154 0.6598178744316101 -0.08837509900331497
0.23402374982833862 0.3788014054298401 0.11274699121713638
0.4065909683704376 0.5035365223884583 -0.006265418604016304
0.38377249240875244 0.5052688717842102 -0.0060202330350875854
0.36062151193618774 0.5042802095413208 -0.0011951550841331482
0.3265681862831116 0.48538869619369507 0.01585497334599495
0.4258074164390564 0.4995121657848358 -0.0018656079191714525
0.37407171726226807 0.41668701171875 -0.016061240807175636
0.40162697434425354 0.42269110679626465 -0.01366843469440937
0.34745705127716064 0.4206582307815552 -0.010108930990099907
0.3290350139141083 0.4328101873397827 -0.0017344227526336908
0.3063918352127075 0.5029656887054443 0.026412878185510635
0.419539213180542 0.8858285546302795 0.016668453812599182
0.3271239995956421 0.4677209258079529 0.020168282091617584
0.22044748067855835 0.49357086420059204 0.12488437443971634
0.2758777141571045 0.4797016978263855 0.048036910593509674
0.387628972530365 0.6172208189964294 -0.02792374975979328
0.4792509377002716 0.721409022808075 -0.06537427008152008
0.4809204638004303 0.7401509284973145 -0.053925398737192154
0.4428252577781677 0.7264136672019958 -0.05169910565018654
0.4175211489200592 0.7326504588127136 -0.029872016981244087
0.45081308484077454 0.7397429943084717 -0.04359215125441551
0.427105575799942 0.7412552833557129 -0.02366008795797825
0.3890717625617981 0.7874966859817505 0.016754446551203728
0.5052586197853088 0.6469023823738098 -0.13081760704517365
0.5020027756690979 0.6203474998474121 -0.13853852450847626
0.2977609634399414 0.4031054973602295 0.0011070070322602987
0.44025516510009766 0.5521109700202942 -0.029287045821547508
0.44160956144332886 0.6355665922164917 -0.07701656967401505
0.43807560205459595 0.6208826303482056 -0.07011298090219498
0.31044942140579224 0.6109980344772339 -0.003354629036039114
0.5012810826301575 0.587034285068512 -0.12550459802150726
0.35702913999557495 0.37172695994377136 -0.033906158059835434
0.3235531449317932 0.38163769245147705 -0.018448350951075554
0.26395493745803833 0.334087610244751 0.0686098039150238
0.4610050618648529 0.40171104669570923 -0.047444313764572144
0.42386069893836975 0.43863746523857117 -0.005651538260281086
0.370147168636322 0.7533422708511353 0.01589811220765114
0.24084798991680145 0.7457890510559082 0.19365309178829193
0.459917813539505 0.6513287425041199 -0.06653560698032379
0.4799262583255768 0.659458339214325 -0.06624644249677658
0.38575243949890137 0.7479027509689331 0.016578057780861855
0.39195793867111206 0.7491353750228882 0.011464920826256275
0.3090413212776184 0.36469143629074097 -0.008850031532347202
0.4384286105632782 0.6460409164428711 -0.06359109282493591
0.40078896284103394 0.3755033314228058 -0.04409133642911911
0.39785197377204895 0.3554637134075165 -0.04992245137691498
0.3708363473415375 0.2785261273384094 -0.014178631827235222
0.28443676233291626 0.3590930700302124 0.0252439696341753
0.38602179288864136 0.3257804214954376 -0.032257214188575745
0.27980566024780273 0.39166703820228577 0.01948467828333378
0.2552391290664673 0.39555755257606506 0.06444043666124344
0.4795302748680115 0.7317368388175964 -0.06193368136882782
0.44673970341682434 0.7335525751113892 -0.04809947684407234
0.4222739338874817 0.7371066808700562 -0.02837561070919037
0.46487298607826233 0.6558826565742493 -0.06033753603696823
0.3888806700706482 0.7484745979309082 0.013971761800348759
0.40442949533462524 0.7709957957267761 0.00406392477452755
0.3950235843658447 0.749970018863678 0.011133200488984585
0.4749426245689392 0.6450818181037903 -0.09911787509918213
0.43119707703590393 0.7440423369407654 -0.02038440853357315
0.4544942378997803 0.7434521913528442 -0.03482377529144287
0.4829462766647339 0.7445811629295349 -0.044756580144166946
0.4775214195251465 0.8602175116539001 -0.009128034114837646
0.4792194664478302 0.8240492343902588 -0.031678471714258194
0.4800680875778198 0.8114113211631775 -0.03595651686191559
0.48141705989837646 0.8018267154693604 -0.03166984021663666
0.4834667146205902 0.7950282692909241 -0.02780231088399887
0.4323548972606659 0.7810068130493164 -0.007429151330143213
0.4282870292663574 0.7834649085998535 -0.010655652731657028
0.4231298863887787 0.7890480160713196 -0.012894239276647568
0.41974401473999023 0.7966185808181763 -0.007947036065161228
0.40349510312080383 0.7106048464775085 -0.02476762980222702
0.2094387710094452 0.608100414276123 0.2204899936914444
0.5229804515838623 0.6665570735931396 -0.08807679265737534
0.41509324312210083 0.7693723440170288 0.005256097298115492
0.40964531898498535 0.7692641019821167 0.00343429297208786
0.4872090518474579 0.6694519519805908 -0.0662606880068779
0.44442737102508545 0.660491943359375 -0.04437926784157753
0.4837750196456909 0.6645920872688293 -0.0670379027724266
0.41323792934417725 0.5656116604804993 -0.022841375321149826
0.3713887929916382 0.5816137790679932 -0.018549753352999687
0.4322071969509125 0.6318026781082153 -0.056555233895778656
0.30772924423217773 0.2996006906032562 0.023824788630008698
0.3260810077190399 0.3345973789691925 -0.00614772317931056
0.34780198335647583 0.352639764547348 -0.031193658709526062
0.4107087254524231 0.8166667222976685 0.007775361184030771
0.4556417465209961 0.3673347234725952 -0.05710162594914436
0.44564247131347656 0.3271315097808838 -0.04517087712883949
0.43623775243759155 0.27024218440055847 -0.03415396809577942
0.33917272090911865 0.4975568950176239 0.00734577514231205
0.27848535776138306 0.5213406085968018 0.038087137043476105
0.4387078583240509 0.49474650621414185 0.0017637256532907486
0.30466321110725403 0.4447634220123291 0.016030970960855484
0.45840874314308167 0.5362781286239624 -0.03712385892868042
0.45883750915527344 0.6272817254066467 -0.0995512381196022
0.2459881454706192 0.5444617867469788 0.0621769018471241
0.2989482879638672 0.5416500568389893 0.018246406689286232
0.3340913653373718 0.5527631640434265 -0.0008289936231449246
0.3820165991783142 0.5480313897132874 -0.00828300230205059
0.41451704502105713 0.5376449227333069 -0.011302785947918892
0.4385625720024109 0.5274626612663269 -0.016058925539255142
0.4929050803184509 0.5035024881362915 -0.0603780634701252
0.24860237538814545 0.5995643734931946 0.05682414025068283
0.2843666970729828 0.43913424015045166 0.02516227960586548
0.5118051171302795 0.6602097153663635 -0.11896025389432907
0.44246530532836914 0.5787609815597534 -0.039637260138988495
0.20616525411605835 0.4884266257286072 0.19928380846977234
0.4578033685684204 0.515815019607544 -0.018619664013385773
0.42763078212738037 0.632235586643219 -0.03200453519821167
0.3161565363407135 0.46664851903915405 0.023842263966798782
0.4557822048664093 0.6092970371246338 -0.09086206555366516
0.21941423416137695 0.6742888689041138 0.21257664263248444
0.43716228008270264 0.4865191876888275 0.007505002431571484
0.4782729148864746 0.5954190492630005 -0.11275379359722137
0.3082128167152405 0.8151819705963135 0.08658373355865479
0.30496037006378174 0.8473140001296997 0.1250307410955429
0.21795403957366943 0.6064289808273315 0.13845017552375793
0.2732699513435364 0.7773669958114624 0.10715590417385101
0.23655596375465393 0.44086337089538574 0.10103944689035416
0.4158758521080017 0.9110730886459351 0.028460899367928505
0.5131063461303711 0.6655868291854858 -0.08701538294553757
0.4187469482421875 0.5967410206794739 -0.031761348247528076
0.25152355432510376 0.4841288924217224 0.06966883689165115
0.3630034327507019 0.49031490087509155 0.0009845661697909236
0.3835008442401886 0.4923829138278961 -0.003380865789949894
0.40030473470687866 0.7739529609680176 0.007490622811019421
0.25182706117630005 0.6541846990585327 0.06670290231704712
0.46243125200271606 0.9486989974975586 0.0381498821079731
0.3816963732242584 0.9094277620315552 0.07663087546825409
0.34657323360443115 0.884025514125824 0.09835570305585861
0.5113524794578552 0.3301633894443512 -0.04658966138958931
0.5160744190216064 0.953169584274292 0.03557834401726723
0.40224599838256836 0.49116265773773193 -0.00298192142508924
0.4196898639202118 0.48884856700897217 0.0014080977998673916
0.4313911199569702 0.4879767894744873 0.006819555535912514
0.2625880837440491 0.43348878622055054 0.04720025882124901
0.4157392680644989 0.46335569024086 -0.002251876750960946
0.3952992260456085 0.45174509286880493 -0.007352872285991907
0.374983012676239 0.44846311211586 -0.0076654935255646706
0.35456323623657227 0.4511744976043701 -0.003336393740028143
0.3413783311843872 0.457400381565094 0.0033299338538199663
0.21574020385742188 0.4277838468551636 0.16058434545993805
0.3482455015182495 0.4850687086582184 0.00721480930224061
0.5206767916679382 0.6907791495323181 -0.06320454925298691
0.4314746856689453 0.6975582838058472 -0.0413224883377552
0.46116310358047485 0.6477165222167969 -0.07520535588264465
0.48338791728019714 0.6916995644569397 -0.06246659532189369
0.5138983726501465 0.46223869919776917 -0.050902027636766434
0.3447033762931824 0.8518226742744446 0.07157721370458603
0.3785310387611389 0.8813490271568298 0.05186031758785248
0.4625698924064636 0.9324642419815063 0.009194687008857727
0.27122175693511963 0.8045547008514404 0.1595812886953354
0.4305255115032196 0.4783194065093994 0.0035502181854099035
0.47826242446899414 0.5455503463745117 -0.06857873499393463
0.517038106918335 0.93694007396698 0.0072713494300842285
0.4190823435783386 0.9323652982711792 0.05290602520108223
0.22570154070854187 0.6670194864273071 0.13715650141239166
0.4559710919857025 0.7897874116897583 -0.019289623945951462
0.4518684446811676 0.7948256134986877 -0.02271347865462303
0.4486917555332184 0.8032355308532715 -0.025214407593011856
0.446943074464798 0.8149198889732361 -0.020500054582953453
0.4391416013240814 0.8426506519317627 -0.003051601815968752
0.406679630279541 0.7442584037780762 -0.00509194890037179
0.4019966721534729 0.741909921169281 -0.00508327828720212
0.39824315905570984 0.7393586039543152 -0.00600933562964201
0.3820304572582245 0.7287570834159851 -0.004459486808627844
0.28862684965133667 0.6694909930229187 0.023557549342513084
0.4760831594467163 0.5181423425674438 -0.04706557095050812
0.457767128944397 0.4620261788368225 -0.007666308898478746
0.44193997979164124 0.46618109941482544 0.0003606320242397487
0.4114437699317932 0.7459374070167542 -0.003014814341440797
0.2855691909790039 0.7364084720611572 0.06328123807907104
0.4836740791797638 0.4603656232357025 -0.03694508224725723
0.42818483710289 0.8619617819786072 0.008678091689944267
0.5212094783782959 0.5549631714820862 -0.1091599240899086
0.4965056777000427 0.5327714681625366 -0.08352938294410706
0.5187627673149109 0.5277530550956726 -0.08752382546663284
0.4604508578777313 0.5860174298286438 -0.06948356330394745
0.5177428722381592 0.9131989479064941 -0.0046715815551579
0.5176936388015747 0.8854482173919678 -0.0061454386450350285
0.4713611602783203 0.8821619749069214 -0.003099279711022973
0.370827853679657 0.7975093126296997 0.02794547751545906
0.4054785966873169 0.6528046727180481 -0.02484976127743721
0.3959842026233673 0.8331832885742188 0.020460477098822594
0.34708911180496216 0.6482914090156555 -0.018461208790540695
0.3811381459236145 0.6786972284317017 -0.01727832295000553
0.3257976770401001 0.6901624798774719 0.003278183750808239
0.465427428483963 0.90897536277771 -0.0016264058649539948
0.4435851573944092 0.5996174812316895 -0.053185563534498215
0.3524230718612671 0.820018470287323 0.04668552428483963
0.38481685519218445 0.8542470335960388 0.03542549908161163
0.35076457262039185 0.7586041688919067 0.022997332736849785
0.259182333946228 0.7014644145965576 0.07824992388486862
0.31995439529418945 0.766633927822113 0.04148855060338974
0.24267052114009857 0.7243176698684692 0.13094301521778107
0.3602139949798584 0.7094469666481018 -0.0030800695531070232
0.46095016598701477 0.5619124174118042 -0.052950844168663025
0.4676411747932434 0.6402637362480164 -0.10417040437459946
0.45007869601249695 0.6449409127235413 -0.07881233841180801
0.4795268177986145 0.6230650544166565 -0.12036489695310593
0.43946006894111633 0.429071843624115 -0.015692945569753647
0.40197131037712097 0.40624964237213135 -0.02176363579928875
0.3679400384426117 0.4010881781578064 -0.022265348583459854
0.3389034569263458 0.4067893624305725 -0.014786305837333202
0.31735217571258545 0.42075422406196594 -0.002061936305835843
0.29935401678085327 0.4731224775314331 0.03232266381382942
0.21585965156555176 0.5492935180664062 0.13245081901550293
0.32144367694854736 0.5152003169059753 0.015441877767443657
0.34874486923217773 0.5247319936752319 0.003665826516225934
0.3814711272716522 0.5243695378303528 -0.0035920077934861183
0.4105195999145508 0.5188183188438416 -0.006322389934211969
0.43261218070983887 0.5122777223587036 -0.005279697477817535
0.44856682419776917 0.5058646202087402 -0.006101729813963175
0.2062545120716095 0.5472002625465393 0.21738794445991516
0.4488104581832886 0.6509702801704407 -0.06681066751480103
0.480082243680954 0.5698420405387878 -0.08755746483802795
0.4865816533565521 0.6431742310523987 -0.12087587267160416
0.49814146757125854 0.6560485363006592 -0.10996866971254349
0.4853779077529907 0.6473177671432495 -0.10943939536809921
0.453788697719574 0.6582385301589966 -0.05767146125435829
0.5036489367485046 0.6586079001426697 -0.1159183606505394
0.5048962235450745 0.6638817191123962 -0.08764822781085968
0.44705045223236084 0.48682814836502075 0.004670844879001379
0.46141448616981506 0.492159903049469 -0.008496713824570179
0.4724552631378174 0.4966591000556946 -0.02457207255065441
0.33349668979644775 0.4626714587211609 0.010454697534441948
0.3175446391105652 0.4470478892326355 0.010688000358641148
0.5407597422599792 0.5583968758583069 -0.09948417544364929
0.6758817434310913 0.4780452847480774 0.03713706508278847
0.5447684526443481 0.6593016982078552 -0.08567391335964203
0.7365356087684631 0.3849042057991028 0.151828795671463
0.6140590906143188 0.5050380825996399 0.00925495196133852
0.6369377970695496 0.5058837532997131 0.01266797911375761
0.6581407189369202 0.5040475130081177 0.020509760826826096
0.6834978461265564 0.4876177906990051 0.04148686304688454
0.5944159030914307 0.5002855658531189 0.010236598551273346
0.6425482630729675 0.41539591550827026 0.002999326679855585
0.6152791976928711 0.42078709602355957 0.0011549724731594324
0.6676943302154541 0.4206438362598419 0.01229881215840578
0.6836990714073181 0.43393200635910034 0.022558949887752533
0.7024427652359009 0.5052798986434937 0.05417584627866745
0.6062873005867004 0.8807567358016968 0.028071681037545204
0.6829791069030762 0.46936914324760437 0.04533989354968071
0.7544593811035156 0.4964893162250519 0.16311244666576385
0.7237261533737183 0.485248327255249 0.07928046584129333
0.636792004108429 0.6168056726455688 -0.012106802314519882
0.5527026057243347 0.7209964394569397 -0.060773130506277084
0.5507229566574097 0.7398626804351807 -0.04972272738814354
0.5871628522872925 0.7248859405517578 -0.04232839122414589
0.6100764870643616 0.730677604675293 -0.017321119084954262
0.5789057016372681 0.7391383647918701 -0.03547395020723343
0.600330650806427 0.7402220368385315 -0.012887276709079742
0.6315178275108337 0.7834774255752563 0.03209495171904564
0.544992983341217 0.6466318368911743 -0.12856543064117432
0.5478689670562744 0.6200124621391296 -0.13597573339939117
0.7080053687095642 0.4071350693702698 0.030236195772886276
0.5841556191444397 0.552254855632782 -0.01877274364233017
0.594818115234375 0.6345162391662598 -0.06693696975708008
0.5958642959594727 0.6198897957801819 -0.05978163704276085
0.7047329545021057 0.610863447189331 0.023027285933494568
0.5448419451713562 0.5867415070533752 -0.12216648459434509
0.6600077152252197 0.3694392144680023 -0.014539925381541252
0.6887137293815613 0.38301482796669006 0.006282750517129898
0.7167302966117859 0.3408670723438263 0.10342830419540405
0.5633518099784851 0.3953824043273926 -0.04149486869573593
0.5927197337150574 0.43695324659347534 0.0064237890765070915
0.6485479474067688 0.7497894763946533 0.03426826372742653
0.7352648377418518 0.7417102456092834 0.23082923889160156
0.577012300491333 0.6502789258956909 -0.0588262714445591
0.5590329766273499 0.6588547229766846 -0.062346555292606354
0.6378783583641052 0.7458571195602417 0.032757196575403214
0.6313865780830383 0.7471462488174438 0.026000183075666428
0.6975650191307068 0.36851966381073 0.017772866412997246
0.5953050851821899 0.6447485089302063 -0.053686849772930145
0.620552659034729 0.36958983540534973 -0.031051894649863243
0.623126208782196 0.3493514657020569 -0.03623167797923088
0.6370006203651428 0.2837921977043152 0.004610032308846712
0.7064781188964844 0.36488234996795654 0.05498106777667999
0.62624192237854 0.33093711733818054 -0.016406293958425522
0.7177482843399048 0.39882248640060425 0.05081644654273987
0.7275262475013733 0.40050023794174194 0.09846649318933487
0.5524039268493652 0.7314596772193909 -0.05740780010819435
0.5831613540649414 0.7327603697776794 -0.03937315568327904
0.6054258346557617 0.7356627583503723 -0.016838474199175835
0.5716381072998047 0.6548187136650085 -0.05424468591809273
0.6347103714942932 0.7464390397071838 0.02907532826066017
0.6207619309425354 0.7690045237541199 0.017145879566669464
0.6281093955039978 0.7479937672615051 0.025284836068749428
0.5672497749328613 0.6444970369338989 -0.09221861511468887
0.595844566822052 0.742888867855072 -0.01013183780014515
0.574794590473175 0.7427809238433838 -0.026995794847607613
0.5484382510185242 0.7443293333053589 -0.04036984220147133
0.5553003549575806 0.8588569760322571 -0.005080018192529678
0.551793098449707 0.8235833644866943 -0.026874065399169922
0.5509054660797119 0.8107544183731079 -0.030898625031113625
0.5492565631866455 0.8010421991348267 -0.026768038049340248
0.5465088486671448 0.7943109273910522 -0.02315390855073929
0.5938893556594849 0.7792618870735168 0.0029043005779385567
0.5984970927238464 0.7817920446395874 -0.00016539286298211664
0.603919506072998 0.787365198135376 -0.0021448368206620216
0.6077219247817993 0.7950546741485596 0.0032298078294843435
0.6229473352432251 0.7084535956382751 -0.01080098282545805
0.7523261904716492 0.6088812351226807 0.2612552046775818
0.6094626188278198 0.7675188779830933 0.01787075214087963
0.6153488159179688 0.7673489451408386 0.016142314299941063
0.552678108215332 0.6688499450683594 -0.06254350394010544
0.5878243446350098 0.6590444445610046 -0.03655081242322922
0.5557773113250732 0.6640718579292297 -0.06324448436498642
0.6091957092285156 0.5656664967536926 -0.008922886103391647
0.6492856740951538 0.5817075967788696 8.60965737956576e-05
0.5996290445327759 0.6307826638221741 -0.04582194611430168
0.6861604452133179 0.3063817620277405 0.05166389048099518
0.6744017601013184 0.34088462591171265 0.017368284985423088
0.6659198999404907 0.3514324128627777 -0.01055116020143032
0.6133498549461365 0.8130245208740234 0.020616918802261353
0.5685870051383972 0.35838931798934937 -0.05050639063119888
0.5736761093139648 0.3298110067844391 -0.03704388067126274
0.5809348225593567 0.2731676399707794 -0.02470351569354534
0.6750164031982422 0.4981032609939575 0.03163791447877884
0.7274690866470337 0.5243426561355591 0.06904563307762146
0.5811570286750793 0.49453383684158325 0.0125597408041358
0.7019617557525635 0.4481496810913086 0.043956004083156586
0.5676923990249634 0.5364173650741577 -0.028750019147992134
0.5819392800331116 0.626660168170929 -0.09140262752771378
0.7479951977729797 0.545707106590271 0.09728586673736572
0.7164603471755981 0.5420776009559631 0.04740746319293976
0.6898692846298218 0.5520517230033875 0.0238734632730484
0.6459922194480896 0.5489659905433655 0.010373272001743317
0.612900972366333 0.5396153330802917 0.002850612159818411
0.5879306793212891 0.5287829637527466 -0.005231982097029686
0.5379779934883118 0.503781795501709 -0.05704917386174202
0.7513542175292969 0.5996511578559875 0.09181080013513565
0.7167247533798218 0.44434991478919983 0.056152358651161194
0.5362040400505066 0.6599507331848145 -0.1171574592590332
0.5850738286972046 0.5786182880401611 -0.029420601204037666
0.7529432773590088 0.49247854948043823 0.24115867912769318
0.5691839456558228 0.5155008435249329 -0.010396527126431465
0.601340115070343 0.6311732530593872 -0.021580686792731285
0.6906218528747559 0.4705777168273926 0.05032875016331673
0.5820330381393433 0.6087049245834351 -0.08258447796106339
0.7481884360313416 0.6727660894393921 0.2521536648273468
0.5794878005981445 0.48507654666900635 0.01865961216390133
0.563947319984436 0.5949998497962952 -0.10676804184913635
0.6974356174468994 0.8085622787475586 0.1123443990945816
0.6920942664146423 0.8384946584701538 0.15264832973480225
0.7642667293548584 0.6063947677612305 0.17680227756500244
0.7249888777732849 0.7721742987632751 0.137777641415596
0.741417407989502 0.444987416267395 0.1377030462026596
0.6080617308616638 0.9046472311019897 0.040669213980436325
0.532461404800415 0.6653969883918762 -0.0859149917960167
0.6068956255912781 0.5963739156723022 -0.019302066415548325
0.7405251264572144 0.4914393424987793 0.10421197861433029
0.6558172106742859 0.4884025752544403 0.022064974531531334
0.6371092796325684 0.4913026690483093 0.015244022011756897
0.6251490116119385 0.7720110416412354 0.02128300815820694
0.7496553659439087 0.6531646847724915 0.10080467164516449
0.5659117698669434 0.9443131685256958 0.045233480632305145
0.6320129632949829 0.8998441696166992 0.09440355747938156
0.6599537134170532 0.8738681077957153 0.12068746238946915
0.6178669929504395 0.49105361104011536 0.012910683639347553
0.5989902019500732 0.4888949394226074 0.014929130673408508
0.5861676931381226 0.48764294385910034 0.0188567154109478
0.7292558550834656 0.44113457202911377 0.08063574880361557
0.599443793296814 0.46196314692497253 0.011556814424693584
0.6188047528266907 0.45028501749038696 0.008738641627132893
0.6397131681442261 0.4465368986129761 0.011109022423624992
0.6600487232208252 0.45009440183639526 0.018070831894874573
0.6720354557037354 0.4578779339790344 0.02624220959842205
0.7484660148620605 0.4330329895019531 0.20183701813220978
0.667980432510376 0.4835265874862671 0.030154814943671227
0.5999269485473633 0.6959128975868225 -0.030505966395139694
0.5772330164909363 0.6467273831367493 -0.06808288395404816
0.5556071400642395 0.6910762190818787 -0.0579569935798645
0.6667666435241699 0.8443246483802795 0.09253529459238052
0.6381891965866089 0.8733854293823242 0.06848221272230148
0.5678229331970215 0.9289623498916626 0.015769846737384796
0.7157335877418518 0.7980343103408813 0.1932089626789093
0.585731029510498 0.47639647126197815 0.015813956037163734
0.5551850199699402 0.5454885363578796 -0.06292051076889038
0.6024951934814453 0.9247539043426514 0.0657268688082695
0.7597855925559998 0.6654503345489502 0.17422935366630554
0.5724884271621704 0.7885525226593018 -0.011128919199109077
0.5770119428634644 0.7933815717697144 -0.01432235911488533
0.5805692672729492 0.8018650412559509 -0.016506852582097054
0.5827884674072266 0.8138576149940491 -0.011634735390543938
0.5893561244010925 0.8396581411361694 0.006535603664815426
0.6180816888809204 0.7426059246063232 0.008100396022200584
0.6230025887489319 0.7401458024978638 0.009195088408887386
0.6270689964294434 0.7372926473617554 0.009047188796103
0.6398881673812866 0.7260396480560303 0.01268662977963686
0.7227485179901123 0.6683646440505981 0.05232996493577957
0.5522936582565308 0.5185038447380066 -0.04129919409751892
0.5620545148849487 0.4594608545303345 -0.00037814813549630344
0.5753831267356873 0.46442121267318726 0.01060496922582388
0.613039493560791 0.744399905204773 0.00970621220767498
0.7213119268417358 0.7332409620285034 0.09235028177499771
0.5429576635360718 0.4574826657772064 -0.032837506383657455
0.5983379483222961 0.8577035665512085 0.018714969977736473
0.5396476984024048 0.5326588749885559 -0.08059486746788025
0.5733786821365356 0.585774838924408 -0.061904121190309525
0.5606876611709595 0.879853367805481 0.0015231964644044638
0.6476342678070068 0.7930704355239868 0.04542723670601845
0.6206962466239929 0.6514386534690857 -0.011567173525691032
0.6258330345153809 0.8281704783439636 0.03426281735301018
0.6742243766784668 0.6475464105606079 0.0019108918495476246
0.6425707936286926 0.6772370338439941 -0.0007802023901604116
0.691615641117096 0.6886445879936218 0.026506543159484863
0.5664333701133728 0.9063209295272827 0.004411016125231981
0.5868234038352966 0.59913569688797 -0.04371054098010063
0.6633925437927246 0.8142634630203247 0.06667077541351318
0.6353263258934021 0.8478870391845703 0.050847847014665604
0.666265606880188 0.7552102208137512 0.04412756487727165
0.7423828840255737 0.6992421746253967 0.11098480969667435
0.6929664611816406 0.7624009251594543 0.0658857449889183
0.7476547360420227 0.7210859656333923 0.16615334153175354
0.6598719358444214 0.7075238823890686 0.016545386984944344
0.5694125294685364 0.5619446635246277 -0.04487624019384384
0.5747411251068115 0.6395240426063538 -0.09680141508579254
0.5874212384223938 0.6438634395599365 -0.07031892240047455
0.5662655234336853 0.622505784034729 -0.11424669623374939
0.579487681388855 0.42533019185066223 -0.005855016876012087
0.6166383028030396 0.4032835364341736 -0.007693972904235125
0.6499097347259521 0.3996935188770294 -0.0036922371946275234
0.6763240694999695 0.4073219299316406 0.008195029571652412
0.6936608552932739 0.42249947786331177 0.02395792119204998
0.7045068740844727 0.4778493046760559 0.06077934429049492
0.7619357705116272 0.5508350133895874 0.17160376906394958
0.6928087472915649 0.5163814425468445 0.04159731790423393
0.671586275100708 0.5250139236450195 0.026281079277396202
0.6416127681732178 0.5257975459098816 0.014886320568621159
0.612185001373291 0.5209766626358032 0.008234014734625816
0.5893619656562805 0.5138714909553528 0.005631638690829277
0.5733644962310791 0.5060875415802002 0.002717037219554186
0.7521994709968567 0.5497048497200012 0.2594180107116699
0.5865850448608398 0.6497543454170227 -0.05843660235404968
0.5579918026924133 0.5695728063583374 -0.08166316896677017
0.5600730180740356 0.6424834132194519 -0.11626683920621872
0.5470055937767029 0.6554312109947205 -0.10726307332515717
0.5590184330940247 0.6467345952987671 -0.10460662841796875
0.5806962251663208 0.6568744778633118 -0.050553012639284134
0.5431659817695618 0.6580899357795715 -0.11370588093996048
0.5395723581314087 0.6633712649345398 -0.08570820093154907
0.5716632008552551 0.4855995178222656 0.013971549458801746
0.5601075887680054 0.4911651015281677 -0.0016171826282516122
0.5539999604225159 0.49482548236846924 -0.018924547359347343
0.6784168481826782 0.46406644582748413 0.03451855853199959
0.6916899681091309 0.4500015377998352 0.03646526113152504
0.3764023184776306 0.4719403386116028 0.002972349524497986
0.39981868863105774 0.47178342938423157 0.002972349524497986
0.3759457767009735 0.44997188448905945 0.002972349524497986
0.3524528443813324 0.4722040295600891 0.002972349524497986
0.3766482472419739 0.4938671588897705 0.002972349524497986
0.6285147070884705 0.4744423031806946 0.02133418247103691
0.6539668440818787 0.47373300790786743 0.02133418247103691
0.6274875998497009 0.4500002861022949 0.02133418247103691
0.6030424237251282 0.4752129316329956 0.02133418247103691
0.629761278629303 0.4990159273147583 0.02133418247103691
