ply
format ascii 1.0
element vertex 478
property float x
property float y
property float z
end_header
0.5127794742584229 0.6916895508766174 -0.07099233567714691
0.5242339968681335 0.6180165410041809 -0.12219744175672531
0.5179785490036011 0.6389200687408447 -0.06535414606332779
0.5003300905227661 0.5444742441177368 -0.09227870404720306
0.5251369476318359 0.595970094203949 -0.12933114171028137
0.5233422517776489 0.566443145275116 -0.11920731514692307
0.5159386396408081 0.4926930367946625 -0.054716210812330246
0.3340732455253601 0.4767596125602722 0.01246459037065506
0.5141955018043518 0.4278784990310669 -0.03756413981318474
0.5146923661231995 0.3970784544944763 -0.04095744341611862
0.512260913848877 0.29944825172424316 -0.013962430879473686
0.5124837160110474 0.6999684572219849 -0.06868764013051987
0.5117047429084778 0.708076000213623 -0.06117716804146767
0.5109769701957703 0.7133501172065735 -0.050128575414419174
0.5089021921157837 0.7436870336532593 -0.04280398041009903
0.5089801549911499 0.7552019953727722 -0.045226890593767166
0.5087817311286926 0.7691584825515747 -0.04825328662991524
0.5083082914352417 0.7831716537475586 -0.041841063648462296
0.5104422569274902 0.7946184873580933 -0.01640285551548004
0.5222116708755493 0.6290010809898376 -0.11084913462400436
0.49855101108551025 0.6280413269996643 -0.08204161375761032
0.23127302527427673 0.3887598514556885 0.1122560203075409
0.4070966839790344 0.5025813579559326 -0.005225818138569593
0.38185182213783264 0.506078839302063 -0.005915764253586531
0.35710519552230835 0.5038612484931946 -0.0017294340068474412
0.32448095083236694 0.4823683798313141 0.014405176043510437
0.42789995670318604 0.49461597204208374 0.0005792130250483751
0.3676922619342804 0.4203532636165619 -0.014108321629464626
0.39738765358924866 0.4234766364097595 -0.010896742343902588
0.3413999080657959 0.42594432830810547 -0.009041786193847656
0.3246373236179352 0.43716007471084595 -0.0016573661705479026
0.3041079044342041 0.49743300676345825 0.02349596656858921
0.41990333795547485 0.8130379319190979 -0.0017376616597175598
0.3245825469493866 0.46494871377944946 0.01926659233868122
0.22255507111549377 0.48594844341278076 0.1173669621348381
0.27437207102775574 0.4751878082752228 0.04456064850091934
0.39328670501708984 0.597435712814331 -0.029008811339735985
0.48729342222213745 0.6864929795265198 -0.07054783403873444
0.4885835647583008 0.706601619720459 -0.06076976656913757
0.46146148443222046 0.694795548915863 -0.06086113303899765
0.44348883628845215 0.7030246257781982 -0.04678106680512428
0.468090683221817 0.7081258296966553 -0.054784368723630905
0.4517349898815155 0.7112137675285339 -0.04118179902434349
0.40534839034080505 0.7471169829368591 -0.011192850768566132
0.5049847960472107 0.6172914505004883 -0.1219356432557106
0.5022785067558289 0.5961956977844238 -0.12862123548984528
0.2936592698097229 0.4169681668281555 0.003668634220957756
0.4398597478866577 0.5402523279190063 -0.026085276156663895
0.4465019404888153 0.6116799116134644 -0.0724525973200798
0.4428946375846863 0.5999463200569153 -0.06578616797924042
0.31963640451431274 0.5939699411392212 -0.00944635458290577
0.50163334608078 0.5685971975326538 -0.11481718719005585
0.3529009222984314 0.393272340297699 -0.02706807851791382
0.3184809684753418 0.4008481502532959 -0.013364004902541637
0.2598409652709961 0.3507693111896515 0.07185910642147064
0.4612328112125397 0.41786226630210876 -0.03617362305521965
0.4227217733860016 0.43633803725242615 -0.002390648238360882
0.3906412124633789 0.7235199213027954 -0.00991697609424591
0.24438369274139404 0.6947501301765442 0.1727648377418518
0.4638424813747406 0.623758852481842 -0.061908259987831116
0.48181524872779846 0.6300715208053589 -0.06105376407504082
0.42020100355148315 0.7173277139663696 -0.012211297638714314
0.4256128966808319 0.7178477644920349 -0.01750776544213295
0.30534452199935913 0.384086549282074 -0.0036107893101871014
0.444303035736084 0.6218440532684326 -0.05997837334871292
0.399150550365448 0.3966110348701477 -0.03502325341105461
0.3954389691352844 0.377420574426651 -0.0393863320350647
0.36813896894454956 0.3046603202819824 -0.0023260959424078465
0.2836838364601135 0.3721059262752533 0.028996607288718224
0.3852677047252655 0.3448244333267212 -0.021521560847759247
0.277906596660614 0.4028231203556061 0.022161412984132767
0.25550344586372375 0.40274864435195923 0.06497371196746826
0.48756465315818787 0.6975218653678894 -0.06862431019544601
0.4646871089935303 0.701941728591919 -0.05916885659098625
0.44748011231422424 0.7072938084602356 -0.04597939923405647
0.4687933623790741 0.627890944480896 -0.05584266036748886
0.4229170083999634 0.7176100611686707 -0.014936907216906548
0.43200746178627014 0.7303401231765747 -0.025011137127876282
0.4283517897129059 0.7181372046470642 -0.017739836126565933
0.4769185185432434 0.6160208582878113 -0.09254815429449081
0.45508673787117004 0.7136579751968384 -0.03676784038543701
0.47107428312301636 0.7118418216705322 -0.04511319845914841
0.4898203909397125 0.7117903232574463 -0.05057072266936302
0.47798484563827515 0.7926216125488281 -0.018898971378803253
0.4805411398410797 0.780159056186676 -0.04386182129383087
0.4822691082954407 0.7660332322120667 -0.048905543982982635
0.4847535490989685 0.7520437240600586 -0.04559815302491188
0.48744577169418335 0.7414968609809875 -0.043117377907037735
0.4534911811351776 0.7315917015075684 -0.031135452911257744
0.44883155822753906 0.7360993027687073 -0.03366633132100105
0.4431852698326111 0.7430814504623413 -0.036697641015052795
0.43864256143569946 0.7510405778884888 -0.03291178122162819
0.41871926188468933 0.681262195110321 -0.03968553990125656
0.21368727087974548 0.5804919600486755 0.20546679198741913
0.5200938582420349 0.6336879730224609 -0.08124244213104248
0.44204115867614746 0.7260322570800781 -0.022812802344560623
0.4371638894081116 0.7277183532714844 -0.02479051612317562
0.4885343015193939 0.6386593580245972 -0.0621945783495903
0.45081567764282227 0.6349053978919983 -0.04205014929175377
0.4853389263153076 0.6344271898269653 -0.06203074008226395
0.4141475260257721 0.5529795289039612 -0.021781770512461662
0.3751095235347748 0.5681071877479553 -0.01927599497139454
0.43791472911834717 0.6101307272911072 -0.05343101918697357
0.30328625440597534 0.32164525985717773 0.03057168610394001
0.3247663974761963 0.3516027331352234 0.0009362585842609406
0.3445664048194885 0.3741869628429413 -0.023765848949551582
0.4228013753890991 0.7648119926452637 -0.017324304208159447
0.4544042646884918 0.3851141631603241 -0.044450122863054276
0.44619178771972656 0.3470250070095062 -0.03138519078493118
0.4356459975242615 0.2986755073070526 -0.017273131757974625
0.3360757529735565 0.4961433410644531 0.006347906310111284
0.2767907381057739 0.5135770440101624 0.032964494079351425
0.4411669373512268 0.48780083656311035 0.005121729802340269
0.3019688129425049 0.4478877782821655 0.014966156333684921
0.4575805962085724 0.5258775353431702 -0.03193584457039833
0.4618910551071167 0.6028360724449158 -0.09287729114294052
0.24997355043888092 0.5325921177864075 0.054137732833623886
0.2947764992713928 0.5348508954048157 0.012920204550027847
0.3277091979980469 0.5473623275756836 -0.004932912532240152
0.3759819567203522 0.5443305969238281 -0.009516382589936256
0.41086095571517944 0.5340690016746521 -0.010649587027728558
0.43599769473075867 0.5232793092727661 -0.013175541535019875
0.4927271604537964 0.497317373752594 -0.049212124198675156
0.2566699981689453 0.5812737941741943 0.04610348120331764
0.28189903497695923 0.4425441324710846 0.024179600179195404
0.5106034874916077 0.6281329393386841 -0.11095363646745682
0.44431015849113464 0.563289225101471 -0.03647178038954735
0.2070012092590332 0.4811166822910309 0.19097067415714264
0.4555736780166626 0.5121393799781799 -0.013991119340062141
0.43363156914711 0.6111835837364197 -0.03093067742884159
0.3149856925010681 0.46504974365234375 0.022376801818609238
0.4588821530342102 0.5886145234107971 -0.08419278264045715
0.22383543848991394 0.6356137990951538 0.19496259093284607
0.44060248136520386 0.4786713719367981 0.010736831463873386
0.4797055423259735 0.5759526491165161 -0.1037779375910759
0.31203800439834595 0.7568186521530151 0.06250596046447754
0.305416464805603 0.7788853645324707 0.10114455223083496
0.22495943307876587 0.5817079544067383 0.12541773915290833
0.2796286940574646 0.7243049144744873 0.08581430464982986
0.2375505417585373 0.44109171628952026 0.09774849563837051
0.41282421350479126 0.8328421711921692 0.010148003697395325
0.5111851096153259 0.6327852606773376 -0.08052598685026169
0.4221477806568146 0.5797548890113831 -0.03046194277703762
0.25137588381767273 0.4756496548652649 0.06480706483125687
0.36003684997558594 0.4921330511569977 0.0008290406549349427
0.3821912407875061 0.49449557065963745 -0.0028048474341630936
0.42738834023475647 0.7336920499801636 -0.022007469087839127
0.2628752589225769 0.6260719299316406 0.05294831842184067
0.45407962799072266 0.8641974925994873 0.022261368110775948
0.37768736481666565 0.8302532434463501 0.05484338477253914
0.34439003467559814 0.8091241717338562 0.07446841150522232
0.5133902430534363 0.3502551019191742 -0.029199479147791862
0.5054147243499756 0.8684753775596619 0.021881604567170143
0.4033184051513672 0.4908219277858734 -0.0014075844082981348
0.4230753183364868 0.4843705892562866 0.0037843796890228987
0.43537527322769165 0.4809994101524353 0.009756019338965416
0.26239246129989624 0.4332129955291748 0.04581396281719208
0.4173451364040375 0.45348960161209106 0.00047972737229429185
0.39461615681648254 0.4429701566696167 -0.004830806981772184
0.37170109152793884 0.4415997266769409 -0.005840536206960678
0.3499276638031006 0.4465283155441284 -0.0024146693758666515
0.3370833992958069 0.454152375459671 0.003379359608516097
0.2146051526069641 0.4300307333469391 0.15659941732883453
0.3447049856185913 0.4852387011051178 0.006867873482406139
0.5169979333877563 0.6567563414573669 -0.06108667328953743
0.44109904766082764 0.6674438714981079 -0.04774154722690582
0.4646763801574707 0.6198548674583435 -0.06989149749279022
0.4857275187969208 0.6585522294044495 -0.06226769834756851
0.5136678814888 0.46101146936416626 -0.03748896345496178
0.3449346423149109 0.7864094376564026 0.046541426330804825
0.37735339999198914 0.8092812895774841 0.029788943007588387
0.4564353823661804 0.8507088422775269 -0.005532132927328348
0.2731659412384033 0.7434861660003662 0.13771216571331024
0.4333508610725403 0.46921050548553467 0.00649940874427557
0.47816702723503113 0.5333482027053833 -0.06050752475857735
0.508232831954956 0.8551279902458191 -0.005416535306721926
0.4133063554763794 0.8498237133026123 0.03383558243513107
0.23369288444519043 0.6318351030349731 0.12172307074069977
0.4690060317516327 0.7371368408203125 -0.03828509524464607
0.4644574522972107 0.7449230551719666 -0.041032709181308746
0.4600878059864044 0.755974292755127 -0.044127460569143295
0.45684316754341125 0.7687378525733948 -0.04019346460700035
0.44656816124916077 0.7811846733093262 -0.02193482406437397
0.43775585293769836 0.7145646214485168 -0.028769249096512794
0.4334149956703186 0.71248459815979 -0.029662592336535454
0.42973750829696655 0.7100311517715454 -0.030297672376036644
0.40207040309906006 0.7006740570068359 -0.02660195901989937
0.3020973205566406 0.6410101652145386 0.011835877783596516
0.4754278361797333 0.5099018216133118 -0.03890605270862579
0.4591769576072693 0.4597937762737274 -0.0015355617506429553
0.4433719217777252 0.4608272910118103 0.004337085410952568
0.4415622353553772 0.7160016298294067 -0.026149559766054153
0.2971939146518707 0.6944611072540283 0.044895753264427185
0.4822966456413269 0.462047815322876 -0.026790523901581764
0.43218135833740234 0.7954204082489014 -0.009247182868421078
0.5207850933074951 0.5414669513702393 -0.09701944887638092
0.4962916076183319 0.5223202705383301 -0.07247623801231384
0.5183770656585693 0.5181698799133301 -0.0750347375869751
0.4622357189655304 0.5687152743339539 -0.06324920803308487
0.5097196102142334 0.8352634310722351 -0.01639079488813877
0.5100265741348267 0.8127341270446777 -0.015430234372615814
0.4702422320842743 0.8098477125167847 -0.015092910267412663
0.3797105550765991 0.751471996307373 0.001388102537021041
0.41282036900520325 0.6288890838623047 -0.027320101857185364
0.40228065848350525 0.7760097980499268 -0.0032883628737181425
0.35758548974990845 0.6243141889572144 -0.023881804198026657
0.39200109243392944 0.6515530943870544 -0.02696157991886139
0.3389303684234619 0.6601779460906982 -0.009344362653791904
0.4619586765766144 0.8312530517578125 -0.015600116923451424
0.4468533396720886 0.5814646482467651 -0.04917402192950249
0.35637208819389343 0.7649427056312561 0.0212184377014637
0.38702788949012756 0.7899388074874878 0.012950127013027668
0.3637719750404358 0.7225347757339478 -0.0005941072595305741
0.2701825797557831 0.6643242239952087 0.06166781485080719
0.32993173599243164 0.7228231430053711 0.019219661131501198
0.24950042366981506 0.6792101263999939 0.11242859810590744
0.3756929337978363 0.6815229654312134 -0.0190539862960577
0.46148842573165894 0.5478931665420532 -0.047604139894247055
0.47012609243392944 0.6124944686889648 -0.09729839861392975
0.45453304052352905 0.6186122298240662 -0.07387109100818634
0.4810073673725128 0.5983725786209106 -0.11160870641469955
0.43968409299850464 0.4338439106941223 -0.010354772210121155
0.3988255560398102 0.4155523180961609 -0.017197581008076668
0.3623380661010742 0.4123613238334656 -0.018867943435907364
0.33294689655303955 0.4180326759815216 -0.012989984825253487
0.31281107664108276 0.4295694828033447 -0.0016280532581731677
0.29797542095184326 0.47062230110168457 0.030107606202363968
0.22037896513938904 0.5332530736923218 0.12154976278543472
0.31811827421188354 0.510686457157135 0.012557906098663807
0.34430044889450073 0.521273136138916 0.0016233486821874976
0.3781150281429291 0.5224438309669495 -0.004355532117187977
0.40937572717666626 0.5160737633705139 -0.005785322282463312
0.43278566002845764 0.5072240233421326 -0.0027814311906695366
0.4490703344345093 0.49999046325683594 -0.002430086024105549
0.20896902680397034 0.5301198959350586 0.20568297803401947
0.45387735962867737 0.624860405921936 -0.06256792694330215
0.48065900802612305 0.5541985630989075 -0.07912106812000275
0.4876471161842346 0.6140197515487671 -0.11281007528305054
0.4981026351451874 0.6244986057281494 -0.10245852917432785
0.4866724908351898 0.6172851920127869 -0.10203877091407776
0.4592590928077698 0.6314926743507385 -0.05384444445371628
0.503105878829956 0.6266717314720154 -0.10813551396131516
0.5037432312965393 0.6314018368721008 -0.08126870542764664
0.4491797089576721 0.47995948791503906 0.008859780617058277
0.46201470494270325 0.487138032913208 -0.002859346102923155
0.4706443250179291 0.49399495124816895 -0.017133377492427826
0.3300275206565857 0.4599379897117615 0.010183806531131268
0.31498974561691284 0.4493708312511444 0.009934064000844955
0.5391803979873657 0.5447196364402771 -0.0867389440536499
0.6652048826217651 0.48919472098350525 0.052305541932582855
0.5390255451202393 0.628329873085022 -0.07774002850055695
0.7314903140068054 0.3987858295440674 0.1768549233675003
0.6025161743164062 0.50974440574646 0.02068704552948475
0.6252018213272095 0.5118234753608704 0.0251598060131073
0.6461837887763977 0.5102118253707886 0.03410707786679268
0.6709661483764648 0.4961252808570862 0.05664782598614693
0.5840162038803101 0.5033273100852966 0.021091116592288017
0.6429494023323059 0.4351717233657837 0.018032487481832504
0.6147090196609497 0.4367769956588745 0.01442018710076809
0.6667447090148926 0.441791832447052 0.028124025091528893
0.6797769665718079 0.45361799001693726 0.038514357060194016
0.6862977743148804 0.5095046162605286 0.06928045302629471
0.5908975005149841 0.8094054460525513 0.016085239127278328
0.6719717383384705 0.4813026189804077 0.06105208024382591
0.7402591705322266 0.4934682250022888 0.17972376942634583
0.7065569758415222 0.4900777339935303 0.09605025500059128
0.6197248697280884 0.5985003113746643 -0.003374194959178567
0.537709653377533 0.6881024241447449 -0.06403698027133942
0.5339512228965759 0.7078874707221985 -0.05499832704663277
0.5601867437362671 0.6974639892578125 -0.047393798828125
0.5742017030715942 0.7066001296043396 -0.0284732673317194
0.5516475439071655 0.710498034954071 -0.04343631491065025
0.5648255348205566 0.7143087387084961 -0.025956198573112488
0.6062107086181641 0.7453495264053345 0.01179612334817648
0.541873574256897 0.6174964904785156 -0.11833727359771729
0.5458490252494812 0.5963800549507141 -0.12440605461597443
0.7077817916870117 0.43290573358535767 0.05158614739775658
0.5757091641426086 0.5414538979530334 -0.008926031179726124
0.582821249961853 0.6117632389068604 -0.05632234364748001
0.5836881399154663 0.5999540686607361 -0.04913097992539406
0.6806974411010742 0.5961834788322449 0.03324253857135773
0.5431476831436157 0.5687764286994934 -0.1094261035323143
0.6676604151725769 0.4056428372859955 0.005999957676976919
0.6937053203582764 0.415311336517334 0.02798902615904808
0.7168775200843811 0.36133360862731934 0.12970080971717834
0.5695191621780396 0.42027121782302856 -0.025269830599427223
0.5901087522506714 0.4480988383293152 0.018224261701107025
0.6203086376190186 0.7221766114234924 0.018091926351189613
0.7081911563873291 0.6943057179450989 0.23257260024547577
0.5651752352714539 0.6239742636680603 -0.05029095709323883
0.5494714975357056 0.6302160620689392 -0.0552227720618248
0.5901252031326294 0.722110390663147 0.011835535056889057
0.5845869779586792 0.722075343132019 0.0036261046770960093
0.7033966779708862 0.4009195864200592 0.04038066789507866
0.5812863707542419 0.6216428875923157 -0.04430246725678444
0.628686785697937 0.4043225049972534 -0.012518770061433315
0.6337565183639526 0.38646215200424194 -0.01610933616757393
0.6405777335166931 0.31255969405174255 0.030721427872776985
0.7072186470031738 0.3811216354370117 0.07774604856967926
0.6309749484062195 0.3515944182872772 0.0053156353533267975
0.7172932624816895 0.4217425584793091 0.07338082790374756
0.7230554819107056 0.4114612936973572 0.12048204988241196
0.5364277362823486 0.6990830302238464 -0.062228381633758545
0.5561886429786682 0.7046706080436707 -0.04670901969075203
0.5699110627174377 0.710677981376648 -0.029393376782536507
0.5596022009849548 0.6278980374336243 -0.04618092253804207
0.5873303413391113 0.7221513986587524 0.007259865757077932
0.5786264538764954 0.7321762442588806 -0.006247276905924082
0.5819820761680603 0.7220365405082703 0.00283503788523376
0.5592826008796692 0.6167592406272888 -0.08151305466890335
0.5602167248725891 0.7162197232246399 -0.022366879507899284
0.5476424098014832 0.7137169241905212 -0.03441225364804268
0.5314229130744934 0.7127763032913208 -0.044626884162425995
0.5412132740020752 0.7919102907180786 -0.013467746786773205
0.5356354713439941 0.7790848612785339 -0.03780823573470116
0.5346337556838989 0.7652910351753235 -0.042625896632671356
0.5326810479164124 0.7515981197357178 -0.03933238983154297
0.5299469232559204 0.7412666082382202 -0.0371965654194355
0.5593264698982239 0.7319635152816772 -0.01673012413084507
0.5640196800231934 0.7361235022544861 -0.01924458146095276
0.5691679120063782 0.742530107498169 -0.021670257672667503
0.5730836391448975 0.7498024702072144 -0.01677989773452282
0.6007108688354492 0.6806753873825073 -0.018487971276044846
0.7299857139587402 0.5852770209312439 0.27252909541130066
0.5687669515609741 0.727617621421814 -0.0047653173096477985
0.5737686157226562 0.7294889688491821 -0.006665178574621677
0.5439969301223755 0.6387550830841064 -0.05639902502298355
0.5726163983345032 0.6345757246017456 -0.029626524075865746
0.5466269850730896 0.6346526145935059 -0.05637260153889656
0.5977079272270203 0.5545192956924438 0.0010380132589489222
0.6334394216537476 0.5701076984405518 0.011240128427743912
0.585658848285675 0.6100199818611145 -0.03633517771959305
0.6896514296531677 0.3318490982055664 0.07784117758274078
0.6790105104446411 0.3603045344352722 0.0399974063038826
0.6754851341247559 0.388180136680603 0.011064124293625355
0.5911456346511841 0.7627842426300049 0.0015266166301444173
0.5795106887817383 0.3897336721420288 -0.03268587961792946
0.5770375728607178 0.3507223129272461 -0.017431478947401047
0.5833560824394226 0.30303990840911865 -0.0006311825709417462
0.6623916029930115 0.5054646730422974 0.04613049328327179
0.7051948308944702 0.5240086913108826 0.08377092331647873
0.5719362497329712 0.49696779251098633 0.023325743153691292
0.6947975158691406 0.46409404277801514 0.06140885874629021
0.5615784525871277 0.5269073247909546 -0.018196791410446167
0.5733190178871155 0.6033679842948914 -0.07974160462617874
0.7293849587440491 0.5378563404083252 0.11152932792901993
0.6957908868789673 0.5415974855422974 0.06075800955295563
0.6720606684684753 0.5503997206687927 0.035656362771987915
0.6310346126556396 0.5471988916397095 0.021428124979138374
0.5998178720474243 0.5380252599716187 0.013047341257333755
0.5773241519927979 0.5275629162788391 0.004618198145180941
0.5361446738243103 0.49799644947052 -0.04349810257554054
0.7253552079200745 0.5849692225456238 0.1030179038643837
0.7089062333106995 0.45895838737487793 0.07495541125535965
0.5328758955001831 0.6283066868782043 -0.10806159675121307
0.5745649933815002 0.5639850497245789 -0.019853711128234863
0.7379772663116455 0.48911795020103455 0.260428786277771
0.5613700151443481 0.5156484842300415 -4.6718003432033584e-05
0.5857580900192261 0.6110188961029053 -0.013882745988667011
0.6800697445869446 0.48187756538391113 0.06638171523809433
0.5730199813842773 0.5889140367507935 -0.07079187780618668
0.7229934930801392 0.6379451155662537 0.2590831518173218
0.5703747272491455 0.4880691170692444 0.029709989205002785
0.5593171119689941 0.5762451887130737 -0.0941302627325058
0.6735355854034424 0.7532334327697754 0.10409188270568848
0.6689251661300659 0.7737301588058472 0.14627011120319366
0.7382179498672485 0.5858743786811829 0.18740694224834442
0.6966372132301331 0.7224180102348328 0.13502390682697296
0.7320827841758728 0.44943585991859436 0.1571803241968155
0.594189465045929 0.8282146453857422 0.029680049046874046
0.5285002589225769 0.6329779624938965 -0.07879146188497543
0.5931355357170105 0.5805088877677917 -0.010240016505122185
0.7193535566329956 0.49182575941085815 0.12123566120862961
0.6456394195556641 0.4989195466041565 0.036010805517435074
0.6266661286354065 0.5007570385932922 0.028343643993139267
0.5828646421432495 0.7354552149772644 -0.0018989266827702522
0.7185227870941162 0.6282719373703003 0.10760103166103363
0.5537300109863281 0.8611031770706177 0.03345680236816406
0.6157203316688538 0.8234961032867432 0.08363137394189835
0.6409372091293335 0.8024773597717285 0.11090932786464691
0.607111930847168 0.4986707270145416 0.02515588141977787
0.5886229276657104 0.4940466582775116 0.02655189484357834
0.5764856338500977 0.49111685156822205 0.03018113598227501
0.7196436524391174 0.45255857706069946 0.10046177357435226
0.5906891226768494 0.465503066778183 0.023617155849933624
0.6112046837806702 0.4562581181526184 0.022154057398438454
0.6335846185684204 0.4553487300872803 0.025538526475429535
0.6535503268241882 0.46118128299713135 0.0332520455121994
0.6640052795410156 0.46962010860443115 0.04170585423707962
0.738202691078186 0.43934130668640137 0.22463564574718475
0.6576315760612488 0.49454599618911743 0.044880032539367676
0.5831711888313293 0.6671350598335266 -0.031458206474781036
0.5662874579429626 0.6202732920646667 -0.05848976969718933
0.5463783144950867 0.6587130427360535 -0.055521976202726364
0.6479201316833496 0.7816258668899536 0.08010692149400711
0.6220797300338745 0.8038251996040344 0.056197259575128555
0.5570451617240906 0.8482175469398499 0.004883394576609135
0.6895110011100769 0.740363359451294 0.1910324990749359
0.5768283605575562 0.4792654812335968 0.027250973507761955
0.5512268543243408 0.5339204668998718 -0.05120570957660675
0.588292121887207 0.8442772626876831 0.05486456677317619
0.7302485108375549 0.6341143846511841 0.1810392439365387
0.5464426279067993 0.7368079423904419 -0.02755054272711277
0.5508870482444763 0.7441208958625793 -0.029881978407502174
0.5547794103622437 0.7544794082641602 -0.032364945858716965
0.5574859380722046 0.7664321660995483 -0.02800418995320797
0.5700671076774597 0.7794492244720459 -0.00846957229077816
0.5751477479934692 0.7181393504142761 -0.010098972357809544
0.5800306797027588 0.7165257930755615 -0.009074744768440723
0.5840141177177429 0.7143594622612 -0.008214461617171764
0.6130478382110596 0.6997289657592773 -0.000385291496058926
0.6916618347167969 0.6422333717346191 0.05739932507276535
0.5485744476318359 0.5108795166015625 -0.02937648817896843
0.5592792630195618 0.46669209003448486 0.010549078695476055
0.5702170133590698 0.4702272415161133 0.021928926929831505
0.5704237818717957 0.7190840244293213 -0.008006369695067406
0.690507173538208 0.6938171982765198 0.09094978123903275
0.5433993935585022 0.4647181034088135 -0.01957891136407852
0.5810049772262573 0.7926052212715149 0.005895846523344517
0.5381091833114624 0.5226927995681763 -0.06757626682519913
0.565367579460144 0.5692183375358582 -0.05095571279525757
0.5476652979850769 0.8083270192146301 -0.007959408685564995
0.6269270777702332 0.7490328550338745 0.028207721188664436
0.6034019589424133 0.6286869049072266 -0.0064657386392354965
0.6069114208221436 0.7729313969612122 0.017822470515966415
0.6507279276847839 0.6252428293228149 0.008730537258088589
0.6218585968017578 0.6514490246772766 -0.0011680771131068468
0.6641572117805481 0.6603212952613831 0.027625588700175285
0.5549029111862183 0.8293271660804749 -0.006027883384376764
0.5753811001777649 0.5817855000495911 -0.03382733091711998
0.6439831256866455 0.7614009976387024 0.05246809870004654
0.6181657314300537 0.7857195138931274 0.03695257380604744
0.6422473192214966 0.7211016416549683 0.03192020580172539
0.7105011940002441 0.6651451587677002 0.11357824504375458
0.6670339703559875 0.7209693789482117 0.05739370360970497
0.7177769541740417 0.679550290107727 0.16854044795036316
0.6347652673721313 0.6810116171836853 0.010960180312395096
0.5623204708099365 0.5485743284225464 -0.03436213359236717
0.5663743615150452 0.6130894422531128 -0.08536579459905624
0.5758068561553955 0.6188310980796814 -0.060289088636636734
0.5611345767974854 0.5987145900726318 -0.10236839205026627
0.580220103263855 0.44124171137809753 0.0061950599774718285
0.6200873255729675 0.42602431774139404 0.006975154858082533
0.653816819190979 0.4257725775241852 0.01302610244601965
0.6785755157470703 0.432971328496933 0.025782978162169456
0.6921471953392029 0.44562608003616333 0.04185549169778824
0.6913178563117981 0.48617616295814514 0.07721567153930664
0.7418826222419739 0.5392633676528931 0.18527713418006897
0.6770395040512085 0.5199428796768188 0.05563813075423241
0.6568492650985718 0.5269027352333069 0.03905937820672989
0.628054141998291 0.52741938829422 0.02645011991262436
0.600085973739624 0.5221664905548096 0.018660278990864754
0.5791029334068298 0.5142458081245422 0.015764111652970314
0.5650442838668823 0.5065081715583801 0.012762084603309631
0.7334813475608826 0.5367091298103333 0.2746140956878662
0.5736743807792664 0.6248160600662231 -0.04926612228155136
0.5538012981414795 0.5545948147773743 -0.06957369297742844
0.5548685193061829 0.6143941879272461 -0.10526298731565475
0.5419650673866272 0.6248025894165039 -0.09804832190275192
0.5526729226112366 0.6179249882698059 -0.09422889351844788
0.5669621229171753 0.6312434077262878 -0.04269661009311676
0.5389562845230103 0.6269310712814331 -0.10454618185758591
0.5346664190292358 0.6315717697143555 -0.07821205258369446
0.5639886856079102 0.48871880769729614 0.024761080741882324
0.5543040633201599 0.4932763874530792 0.00911401491612196
0.5495381355285645 0.4972882568836212 -0.007342744152992964
0.6688601970672607 0.4759211540222168 0.050270263105630875
0.6846678256988525 0.4661896824836731 0.05256516858935356
0.377749502658844 0.4652601480484009 0.00418432429432869
0.4067082703113556 0.464219331741333 0.00418432429432869
0.3769955337047577 0.4378807544708252 0.00418432429432869
0.3484271764755249 0.46613675355911255 0.00418432429432869
0.37836435437202454 0.492410272359848 0.00418432429432869
0.6103169322013855 0.47603946924209595 0.03487374261021614
0.640392005443573 0.47721368074417114 0.03487374261021614
0.6110785603523254 0.4496428966522217 0.03487374261021614
0.580316424369812 0.47490304708480835 0.03487374261021614
0.6096864938735962 0.5022506713867188 0.03487374261021614
