ply
format ascii 1.0
element vertex 478
property float x
property float y
property float z
end_header
0.49070340394973755 0.7210391163825989 -0.06264401972293854
0.5010015964508057 0.6438407897949219 -0.14282986521720886
0.5006665587425232 0.6619309782981873 -0.07447563856840134
0.4776233732700348 0.5558679699897766 -0.11416542530059814
0.500656247138977 0.6181554794311523 -0.15310139954090118
0.5000536441802979 0.5825661420822144 -0.14535629749298096
0.49855318665504456 0.4949844181537628 -0.08160453289747238
0.33729708194732666 0.4827954173088074 0.01945628598332405
0.4979865849018097 0.4306989312171936 -0.0662408247590065
0.4976832866668701 0.39927804470062256 -0.07339902967214584
0.4962073266506195 0.2909218668937683 -0.05802896246314049
0.4910241365432739 0.7278445363044739 -0.057872094213962555
0.4920545518398285 0.733439028263092 -0.04984063655138016
0.4936438798904419 0.7366846203804016 -0.03905436396598816
0.49423232674598694 0.7776210308074951 -0.025171924382448196
0.4941195845603943 0.7915709018707275 -0.029517000541090965
0.4941500425338745 0.8083473443984985 -0.034779876470565796
0.4950406849384308 0.82478928565979 -0.03041176125407219
0.5039541721343994 0.8278370499610901 -0.007278887555003166
0.5011829137802124 0.6552350521087646 -0.1287609040737152
0.4731426239013672 0.6515794992446899 -0.09319353103637695
0.24710121750831604 0.3958476781845093 0.12798115611076355
0.3974587917327881 0.5012028217315674 -0.0037608977872878313
0.3752816617488861 0.5015258193016052 -0.002437499351799488
0.3534470498561859 0.5009578466415405 0.003811817616224289
0.32482731342315674 0.4923766553401947 0.024002613499760628
0.4165644645690918 0.4987948536872864 -0.001479090191423893
0.3647858500480652 0.44394659996032715 -0.016914352774620056
0.39026939868927 0.4460766911506653 -0.01591247320175171
0.34098735451698303 0.4480458199977875 -0.008968261070549488
0.32526278495788574 0.4568861722946167 0.0016745917964726686
0.3016914129257202 0.5067963004112244 0.037369489669799805
0.4082506597042084 0.8501554131507874 0.034244317561388016
0.32886528968811035 0.47994184494018555 0.02732449769973755
0.23307445645332336 0.49353379011154175 0.1464921236038208
0.27409598231315613 0.4938840866088867 0.06103646010160446
0.3692409098148346 0.6029690504074097 -0.02170594409108162
0.45449933409690857 0.7133384943008423 -0.06019138917326927
0.458740770816803 0.7291122674942017 -0.045194897800683975
0.4239647090435028 0.7156776189804077 -0.042059775441884995
0.40322792530059814 0.7180431485176086 -0.01569940894842148
0.43272536993026733 0.726527214050293 -0.03151499852538109
0.4132664203643799 0.7256402373313904 -0.008186303079128265
0.37315642833709717 0.7514509558677673 0.03672132268548012
0.4784175455570221 0.642792820930481 -0.14072449505329132
0.47472086548805237 0.6177871227264404 -0.15026792883872986
0.2893058955669403 0.4391278326511383 0.005774345714598894
0.42329487204551697 0.5438880324363708 -0.029846753925085068
0.4108373522758484 0.6245720982551575 -0.07805629074573517
0.40936973690986633 0.6096681356430054 -0.07087255269289017
0.29860836267471313 0.5944538712501526 0.011240837164223194
0.4759437143802643 0.5847726464271545 -0.13742496073246002
0.345714271068573 0.41417720913887024 -0.038396138697862625
0.31276774406433105 0.4225916266441345 -0.019069666042923927
0.2677888870239258 0.35648295283317566 0.07576184719800949
0.447444349527359 0.4324885904788971 -0.05876217037439346
0.4124152958393097 0.45498335361480713 -0.007706986740231514
0.35301917791366577 0.719902753829956 0.03753812983632088
0.2668015956878662 0.7049962878227234 0.2401842176914215
0.4299575984477997 0.6394205093383789 -0.06697674095630646
0.4526251554489136 0.6483660340309143 -0.06856337189674377
0.37639349699020386 0.7235614657402039 0.038139235228300095
0.3833654820919037 0.7257648706436157 0.03192279860377312
0.29909205436706543 0.4080783724784851 -0.008481521159410477
0.40848222374916077 0.6323497891426086 -0.06295066326856613
0.3897683918476105 0.41538161039352417 -0.05267542228102684
0.38533326983451843 0.39603671431541443 -0.06029048562049866
0.3574559688568115 0.30381980538368225 -0.024145670235157013
0.28046363592147827 0.3785431683063507 0.028154725208878517
0.3701503276824951 0.3465951085090637 -0.04319383576512337
0.2742358148097992 0.42868363857269287 0.025863327085971832
0.258773535490036 0.4103160500526428 0.07412691414356232
0.45573529601097107 0.7226881980895996 -0.05482776463031769
0.4279724061489105 0.7216261029243469 -0.03689710423350334
0.4077968895435333 0.7220132350921631 -0.013517308980226517
0.43583327531814575 0.6433983445167542 -0.061472248286008835
0.37991607189178467 0.7246727347373962 0.03482396528124809
0.39273378252983093 0.7458199262619019 0.021950680762529373
0.38664451241493225 0.7269580960273743 0.031111478805541992
0.44624263048171997 0.6372871994972229 -0.1039065420627594
0.4185306429862976 0.7281875014305115 -0.004495436791330576
0.43779104948043823 0.7297456860542297 -0.021594129502773285
0.4626119136810303 0.7328829765319824 -0.03457562252879143
0.46313369274139404 0.8240765333175659 -0.004316388629376888
0.45623913407325745 0.819231390953064 -0.02693706750869751
0.4568675756454468 0.8028662204742432 -0.030290693044662476
0.45964279770851135 0.7860379219055176 -0.024608328938484192
0.4634348154067993 0.7733057141304016 -0.02067035809159279
0.4194865822792053 0.7543476819992065 0.0060003362596035
0.4136282205581665 0.7589420676231384 0.0026283699553459883
0.4070241451263428 0.766144871711731 0.00046633905731141567
0.4024098515510559 0.7744202017784119 0.006157543044537306
0.3819567561149597 0.6870114803314209 -0.01212199404835701
0.2351604700088501 0.5889651775360107 0.26125049591064453
0.501019299030304 0.659038782119751 -0.09367585182189941
0.4054719805717468 0.7433002591133118 0.02226167358458042
0.3988375663757324 0.7440513372421265 0.020694689825177193
0.46218737959861755 0.6581206917762756 -0.06779598444700241
0.4171113967895508 0.6448161602020264 -0.04240482300519943
0.45762860774993896 0.6535108685493469 -0.0691901296377182
0.39696043729782104 0.5556127429008484 -0.01989404670894146
0.35642850399017334 0.5697934031486511 -0.011799102649092674
0.40424108505249023 0.6183514595031738 -0.05532157048583031
0.3018191456794739 0.32470160722732544 0.022533079609274864
0.31519919633865356 0.35613706707954407 -0.01001154538244009
0.3369393050670624 0.3956470489501953 -0.03601839765906334
0.39617207646369934 0.7796961665153503 0.02410251274704933
0.4400847554206848 0.4013251066207886 -0.07108386605978012
0.42895710468292236 0.3451197147369385 -0.061290040612220764
0.42026951909065247 0.2937048673629761 -0.05122988671064377
0.3353729844093323 0.49794819951057434 0.014141247607767582
0.274688720703125 0.5226245522499084 0.052613358944654465
0.42931264638900757 0.49508535861968994 0.0013732046354562044
0.300181120634079 0.4669959247112274 0.02358347363770008
0.44122421741485596 0.5300483107566833 -0.04040996730327606
0.4293166995048523 0.6201784014701843 -0.10428980737924576
0.24738609790802002 0.5363086462020874 0.081697016954422
0.2905837893486023 0.5361495614051819 0.03156005218625069
0.32055503129959106 0.5431132912635803 0.009700115770101547
0.36614149808883667 0.5405288934707642 -0.002208633814007044
0.3999813199043274 0.5329804420471191 -0.0082360515370965
0.425055593252182 0.5237846970558167 -0.01622147299349308
0.4747186303138733 0.5007652044296265 -0.07097041606903076
0.24903276562690735 0.5826347470283508 0.07947658002376556
0.28017035126686096 0.46426552534103394 0.03433845192193985
0.48703503608703613 0.654196560382843 -0.12735021114349365
0.4223053753376007 0.5692375302314758 -0.03969285637140274
0.22894081473350525 0.4889044165611267 0.2293788641691208
0.443559467792511 0.5124576091766357 -0.021294062957167625
0.4020056426525116 0.6170376539230347 -0.0282562505453825
0.3158280849456787 0.481484591960907 0.03233354911208153
0.4281017482280731 0.601809561252594 -0.09549927711486816
0.2465755045413971 0.6447590589523315 0.25681430101394653
0.429425448179245 0.4879358410835266 0.007258301600813866
0.4521365463733673 0.5912215709686279 -0.12159152328968048
0.3144257068634033 0.7707438468933105 0.11957677453756332
0.3220639228820801 0.7965119481086731 0.16562385857105255
0.23355549573898315 0.587843656539917 0.16891570389270782
0.28552690148353577 0.7345451712608337 0.14279426634311676
0.24538233876228333 0.4487268328666687 0.11686664074659348
0.40693292021751404 0.8752166032791138 0.0496809147298336
0.4894861876964569 0.6580418348312378 -0.09202448278665543
0.3986627161502838 0.5846357941627502 -0.028769435361027718
0.2535467743873596 0.49910664558410645 0.08591141551733017
0.35794275999069214 0.4858834445476532 0.005535781849175692
0.3758794963359833 0.4873775839805603 -0.00019140496442560107
0.3878127634525299 0.7483487725257874 0.026388701051473618
0.254232794046402 0.6294141411781311 0.09387532621622086
0.4539705514907837 0.9133243560791016 0.05798918381333351
0.3830599784851074 0.8665683269500732 0.10665088891983032
0.3553622364997864 0.8362300992012024 0.13345013558864594
0.4967177212238312 0.34538647532463074 -0.06671971082687378
0.5072278380393982 0.9192889928817749 0.051085904240608215
0.39391741156578064 0.4879014492034912 -0.001143282512202859
0.4113163352012634 0.48795628547668457 0.0021835938096046448
0.4231363534927368 0.48848670721054077 0.006998121272772551
0.26234740018844604 0.45995599031448364 0.058790870010852814
0.40918272733688354 0.47219404578208923 -0.0028165592812001705
0.39001065492630005 0.46585673093795776 -0.008211211301386356
0.37129735946655273 0.46456801891326904 -0.007476795464754105
0.3528186082839966 0.4677692651748657 -0.0013145485427230597
0.3411378860473633 0.47281408309936523 0.007225363980978727
0.23477399349212646 0.4376458525657654 0.18349657952785492
0.3459398150444031 0.4843038022518158 0.0128893181681633
0.5008842945098877 0.6777519583702087 -0.06495030969381332
0.40778765082359314 0.6778996586799622 -0.03423529490828514
0.43081241846084595 0.6371347308158875 -0.07745745778083801
0.45966842770576477 0.6769559383392334 -0.0617196224629879
0.49818700551986694 0.461887389421463 -0.06443236768245697
0.3451082706451416 0.8090749979019165 0.10156415402889252
0.3749231696128845 0.8415668606758118 0.0777810737490654
0.4509856104850769 0.8983508944511414 0.025606991723179817
0.29404324293136597 0.755976676940918 0.20423102378845215
0.42283639311790466 0.48161935806274414 0.0030101025477051735
0.45758748054504395 0.5410997867584229 -0.0761643648147583
0.5062510967254639 0.9049826860427856 0.02026919648051262
0.4142579734325409 0.8943072557449341 0.0775645524263382
0.24369695782661438 0.6388517618179321 0.17127719521522522
0.438815712928772 0.7649664282798767 -0.008888077922165394
0.4329170882701874 0.7740384340286255 -0.012473953887820244
0.4278612434864044 0.7866594195365906 -0.015211359597742558
0.425153911113739 0.8012527227401733 -0.010369683615863323
0.4246348738670349 0.8058153986930847 0.008170641027390957
0.3970581293106079 0.7255030274391174 0.013012687675654888
0.39184659719467163 0.7228833436965942 0.013379174284636974
0.38765695691108704 0.7202420234680176 0.012452795170247555
0.3620005249977112 0.7004855871200562 0.013466847129166126
0.2815438508987427 0.6445064544677734 0.04508448764681816
0.4584754705429077 0.5141184329986572 -0.053905848413705826
0.4462621212005615 0.4697425365447998 -0.012240048497915268
0.4319884777069092 0.47318732738494873 -0.002081019338220358
0.4023495018482208 0.7276439666748047 0.01540859043598175
0.28529858589172363 0.7012314796447754 0.09236530214548111
0.4666135609149933 0.4683539867401123 -0.04613318666815758
0.4164245128631592 0.8247825503349304 0.022412916645407677
0.49952423572540283 0.5525661110877991 -0.12305503338575363
0.4758184552192688 0.5297626852989197 -0.09511182457208633
0.49904173612594604 0.5249986052513123 -0.101319819688797
0.4374299645423889 0.5785006880760193 -0.0737130269408226
0.5054450631141663 0.880846381187439 0.004863911774009466
0.5045978426933289 0.8515377640724182 -0.00017166274483315647
0.45813363790512085 0.8465840816497803 0.005939316935837269
0.3593614995479584 0.7604399919509888 0.0501219742000103
0.38279280066490173 0.6349050998687744 -0.018518544733524323
0.38501089811325073 0.7955487370491028 0.0388532355427742
0.3306688070297241 0.6293588280677795 -0.007104793563485146
0.36161261796951294 0.6571528911590576 -0.006339705549180508
0.3119580149650574 0.6644665002822876 0.021533848717808723
0.4521677494049072 0.8746694326400757 0.011260812170803547
0.41999584436416626 0.5891708135604858 -0.05389193817973137
0.3456268906593323 0.7810996174812317 0.07270216196775436
0.37676918506622314 0.8165411353111267 0.05786875635385513
0.3380853533744812 0.724065363407135 0.04609401151537895
0.26376956701278687 0.669983446598053 0.10876961797475815
0.31404873728752136 0.7296499013900757 0.06769242137670517
0.26012805104255676 0.6879204511642456 0.1678348183631897
0.3426678776741028 0.6820434927940369 0.01339972298592329
0.44062137603759766 0.5550709962844849 -0.05654538795351982
0.4380560517311096 0.6329226493835449 -0.10944992303848267
0.4191164970397949 0.633979856967926 -0.0804668515920639
0.4509056806564331 0.6188849806785583 -0.12896797060966492
0.4281548857688904 0.4490947425365448 -0.02065674588084221
0.39056646823883057 0.43480896949768066 -0.026147855445742607
0.3573324680328369 0.43236038088798523 -0.024475060403347015
0.3292529582977295 0.4376944303512573 -0.014247597195208073
0.30979931354522705 0.4492417573928833 0.0017417013878002763
0.29743772745132446 0.4875972270965576 0.04253170266747475
0.2297181487083435 0.5401405096054077 0.15887151658535004
0.3149119019508362 0.5147762894630432 0.02562660165131092
0.3387293815612793 0.5199358463287354 0.01109320204705
0.37001174688339233 0.5199794173240662 0.0010390247916802764
0.39938414096832275 0.5163476467132568 -0.0033657820895314217
0.42215636372566223 0.5110428333282471 -0.005362868774682283
0.43773701786994934 0.5047556757926941 -0.007433203049004078
0.2301519811153412 0.5379253625869751 0.25342291593551636
0.41861552000045776 0.638088583946228 -0.0672062411904335
0.4571574032306671 0.5654430389404297 -0.09531529992818832
0.45829811692237854 0.6379165053367615 -0.12902265787124634
0.4722954332828522 0.6490886807441711 -0.11723876744508743
0.45770585536956787 0.6405219435691833 -0.11619699746370316
0.42529502511024475 0.6442524194717407 -0.057562824338674545
0.4781603515148163 0.6522207856178284 -0.12382053583860397
0.4800673723220825 0.6557738184928894 -0.09252353012561798
0.4374806880950928 0.48869603872299194 0.0031335263047367334
0.449614018201828 0.49277669191360474 -0.011996875517070293
0.4570097327232361 0.4955562949180603 -0.03023526445031166
0.3342518210411072 0.4767407178878784 0.01588752679526806
0.3151104152202606 0.46760377287864685 0.01674368977546692
0.521376371383667 0.5551784634590149 -0.11395138502120972
0.6630808115005493 0.4755246043205261 0.022066470235586166
0.5286544561386108 0.6508283615112305 -0.09295341372489929
0.7414466738700867 0.3888068199157715 0.130072221159935
0.6019046306610107 0.4947592616081238 -0.0022508951369673014
0.6238816380500793 0.49494779109954834 -0.0005170399090275168
0.64549320936203 0.4943620562553406 0.006063828244805336
0.6742080450057983 0.48479029536247253 0.02668510004878044
0.5828069448471069 0.4927116632461548 -0.0003949401725549251
0.6351180076599121 0.43649646639823914 -0.014693503268063068
0.6094887852668762 0.4398439824581146 -0.014289949089288712
0.6592552661895752 0.43943560123443604 -0.006306025665253401
0.6744253635406494 0.4477400481700897 0.004431150387972593
0.6947600245475769 0.49877941608428955 0.04039547219872475
0.6013208627700806 0.847404956817627 0.035174060612916946
0.6717273592948914 0.471920371055603 0.03012484312057495
0.757037878036499 0.4863317608833313 0.15125204622745514
0.7203435897827148 0.4836403727531433 0.064579077064991
0.6300975680351257 0.5999068021774292 -0.020662402734160423
0.5288082957267761 0.7147132158279419 -0.06016675755381584
0.5281783938407898 0.7302507162094116 -0.04520455747842789
0.5649714469909668 0.719368040561676 -0.04190182685852051
0.59080570936203 0.7224576473236084 -0.015507102012634277
0.55870521068573 0.7290283441543579 -0.03159553185105324
0.5830338001251221 0.7290790677070618 -0.008234398439526558
0.6321731209754944 0.748214840888977 0.03704649582505226
0.5234081745147705 0.6421066522598267 -0.14049552381038666
0.5260856747627258 0.6170295476913452 -0.15009768307209015
0.7082417607307434 0.42611944675445557 0.009348529390990734
0.5744555592536926 0.5418749451637268 -0.02888161689043045
0.5889889597892761 0.6225040555000305 -0.07730422914028168
0.5897775888442993 0.6075321435928345 -0.0700988695025444
0.699630618095398 0.5893803238868713 0.013446441851556301
0.5239673852920532 0.5839799642562866 -0.13723379373550415
0.6534364819526672 0.4041599631309509 -0.03582439944148064
0.686148464679718 0.41036272048950195 -0.01586979627609253
0.72233647108078 0.3500644266605377 0.07775253057479858
0.5496837496757507 0.42997246980667114 -0.05783671885728836
0.5872678160667419 0.45002490282058716 -0.006495211739093065
0.6512486338615417 0.7162936925888062 0.03822099789977074
0.7311358451843262 0.6973857283592224 0.24201123416423798
0.5708006024360657 0.6379169225692749 -0.0663147121667862
0.5488901138305664 0.6475592851638794 -0.06827355921268463
0.6283442378044128 0.7285232543945312 0.03852774202823639
0.6210039854049683 0.7306925654411316 0.03218860924243927
0.6983628273010254 0.3943554759025574 -0.00495773134753108
0.591568648815155 0.6304917335510254 -0.062253136187791824
0.6088327169418335 0.40917521715164185 -0.05082261562347412
0.6124519109725952 0.38934630155563354 -0.0582951083779335
0.6344276666641235 0.3001047670841217 -0.02295372448861599
0.7114299535751343 0.37165144085884094 0.03223932534456253
0.6229839324951172 0.3426998555660248 -0.040777742862701416
0.7210889458656311 0.41504889726638794 0.02978411689400673
0.7321428656578064 0.40305283665657043 0.07842404395341873
0.5286605358123779 0.7238630652427673 -0.05484072118997574
0.5618398785591125 0.7245815396308899 -0.036947742104530334
0.5871248841285706 0.7257441282272339 -0.013490280136466026
0.565025269985199 0.6421321630477905 -0.06100692227482796
0.6245821118354797 0.729625403881073 0.03511299937963486
0.6091393232345581 0.7495400905609131 0.022163603454828262
0.6175780296325684 0.7316938042640686 0.031400568783283234
0.5549528002738953 0.6358861327171326 -0.10331231355667114
0.5793326497077942 0.7313323020935059 -0.004454817622900009
0.5556465983390808 0.7318519949913025 -0.021654101088643074
0.5273454785346985 0.7339110374450684 -0.034642405807971954
0.5445566773414612 0.8232520818710327 -0.004374254494905472
0.5361076593399048 0.8200424313545227 -0.02694939263164997
0.5335721373558044 0.803530752658844 -0.030358534306287766
0.5307431221008301 0.7866296768188477 -0.024691609665751457
0.5274139642715454 0.7739554047584534 -0.020766813308000565
0.5788737535476685 0.7566772103309631 0.006054264027625322
0.584786593914032 0.7611709833145142 0.0027094618417322636
0.5917553901672363 0.768539309501648 0.0005213975091464818
0.5971503853797913 0.7767502665519714 0.006211433093994856
0.6204159259796143 0.6844852566719055 -0.011822512373328209
0.7550684213638306 0.5819151401519775 0.26340505480766296
0.5961507558822632 0.7467738389968872 0.022413605824112892
0.6026813983917236 0.7475980520248413 0.020818809047341347
0.5397179126739502 0.6576659679412842 -0.0675598606467247
0.583757221698761 0.6435250639915466 -0.04198162630200386
0.5441852807998657 0.652965247631073 -0.06892748177051544
0.6009195446968079 0.5530098676681519 -0.01862800121307373
0.6421245336532593 0.5662372708320618 -0.010283287614583969
0.5952555537223816 0.6163607835769653 -0.05458114668726921
0.6896764039993286 0.31934475898742676 0.02426018752157688
0.6774791479110718 0.35035985708236694 -0.006608940195292234
0.6609739065170288 0.3846573829650879 -0.033249061554670334
0.6099779605865479 0.7770047783851624 0.024323217570781708
0.5565556287765503 0.398545503616333 -0.07006323337554932
0.5644014477729797 0.3431367874145508 -0.05998482182621956
0.5718588829040527 0.29172492027282715 -0.05061907693743706
0.6636124849319458 0.49118027091026306 0.01670660637319088
0.7197772860527039 0.5136592388153076 0.05594831705093384
0.5702136754989624 0.48955968022346497 0.0023795871529728174
0.6973893642425537 0.45652467012405396 0.026793545112013817
0.5563755035400391 0.5284425616264343 -0.039640288800001144
0.5708006024360657 0.6183615326881409 -0.10356070846319199
0.7460922598838806 0.5295458436012268 0.0856112539768219
0.7047643661499023 0.5288859605789185 0.034612178802490234
0.676128625869751 0.5374987125396729 0.01202928926795721
0.631710946559906 0.535854160785675 -0.0005559896235354245
0.5984856486320496 0.5285022258758545 -0.007005120161920786
0.5735677480697632 0.5199747681617737 -0.015202549286186695
0.5223874449729919 0.500041127204895 -0.07070483267307281
0.7462701797485352 0.5760489106178284 0.08314870297908783
0.7155396938323975 0.4529818892478943 0.038034457713365555
0.5150951147079468 0.6538013815879822 -0.1271294206380844
0.5758486986160278 0.5672731995582581 -0.03874745965003967
0.7584832310676575 0.4817686378955841 0.2316160500049591
0.5548998713493347 0.5091539025306702 -0.020548390224575996
0.5974668264389038 0.6151376366615295 -0.027729535475373268
0.6830751895904541 0.4728853702545166 0.0353328101336956
0.5711758136749268 0.5999796390533447 -0.09475458413362503
0.7470953464508057 0.6372928023338318 0.25895214080810547
0.5703907012939453 0.4820951223373413 0.008451396599411964
0.5473437905311584 0.5898686647415161 -0.12114758789539337
0.6911492943763733 0.7647165656089783 0.12224097549915314
0.6844093799591064 0.7901899218559265 0.16691598296165466
0.7592315077781677 0.5804404616355896 0.17328238487243652
0.7167080640792847 0.7275301218032837 0.14591529965400696
0.7446956634521484 0.44159650802612305 0.12142863124608994
0.6038496494293213 0.8722579479217529 0.05082973092794418
0.5124969482421875 0.6577370166778564 -0.09193909913301468
0.5997982025146484 0.5823073983192444 -0.02783714048564434
0.7395700216293335 0.48719674348831177 0.08992177993059158
0.6421414613723755 0.47918540239334106 0.007810307666659355
0.6241005659103394 0.48047247529029846 0.0016942779766395688
0.6147735714912415 0.7520317435264587 0.026592181995511055
0.7430996298789978 0.6226949691772461 0.09728709608316422
0.5598942041397095 0.9115695953369141 0.0582200363278389
0.6283766031265259 0.8622491955757141 0.10718585550785065
0.654452919960022 0.830917239189148 0.13440515100955963
0.6058993339538574 0.4808123707771301 0.0004486993420869112
0.5881659984588623 0.48111677169799805 0.0035658334381878376
0.5763179063796997 0.4823439121246338 0.008304828777909279
0.7311296463012695 0.44740110635757446 0.06283116340637207
0.5921338796615601 0.46770793199539185 -0.0012784351129084826
0.6116064786911011 0.4613227844238281 -0.006403621751815081
0.6304420828819275 0.45952263474464417 -0.005296885035932064
0.6487411856651306 0.4618179202079773 0.0010880916379392147
0.660102367401123 0.4660859704017639 0.009790978394448757
0.7526280879974365 0.4303905665874481 0.18565170466899872
0.6542971134185791 0.4774355888366699 0.015359938144683838
0.5945175886154175 0.6761295795440674 -0.033786591142416
0.5698742866516113 0.635521411895752 -0.07687748223543167
0.5426239967346191 0.6763489246368408 -0.061559684574604034
0.6626928448677063 0.8039952516555786 0.10369156301021576
0.6344639658927917 0.8376137614250183 0.07939645648002625
0.5608737468719482 0.8966933488845825 0.026104528456926346
0.7085991501808167 0.7486860752105713 0.2059500813484192
0.5774515867233276 0.47639986872673035 0.004349744413048029
0.5404103994369507 0.5399079322814941 -0.07565134763717651
0.5984494686126709 0.8911097645759583 0.07780174911022186
0.751426637172699 0.631364107131958 0.1755153238773346
0.5554143190383911 0.7662909030914307 -0.008860558271408081
0.5612190365791321 0.7753567695617676 -0.012424313463270664
0.5666002035140991 0.7880700826644897 -0.015284373424947262
0.5708332061767578 0.8025271892547607 -0.010461036115884781
0.5822834968566895 0.8037540912628174 0.008244606666266918
0.6040090322494507 0.729607343673706 0.013204589486122131
0.6084164381027222 0.727217972278595 0.013636470772325993
0.612083375453949 0.7249851226806641 0.012732709757983685
0.6409838199615479 0.6972568035125732 0.013917343690991402
0.7175029516220093 0.6386569738388062 0.047509949654340744
0.5387818813323975 0.5130478143692017 -0.05340547487139702
0.5524718761444092 0.46571987867355347 -0.011379893869161606
0.5674680471420288 0.46840736269950867 -0.0010361323365941644
0.5995708107948303 0.7316121459007263 0.015636727213859558
0.7162747383117676 0.6947488784790039 0.09500361979007721
0.5301327109336853 0.46573829650878906 -0.045574065297842026
0.5918139219284058 0.8224440217018127 0.022755449637770653
0.5221728682518005 0.5290226936340332 -0.09489545226097107
0.5611757040023804 0.5770079493522644 -0.07306159287691116
0.5508050322532654 0.8454098701477051 0.0060935355722904205
0.6461659073829651 0.7564066648483276 0.050767090171575546
0.6173481941223145 0.6324331164360046 -0.017823003232479095
0.6219983696937561 0.7922335863113403 0.03932591900229454
0.6693700551986694 0.6251349449157715 -0.005738596431910992
0.6395862698554993 0.6539180874824524 -0.00560297816991806
0.6891549229621887 0.659550130367279 0.022987553849816322
0.5582006573677063 0.8732355833053589 0.011661387048661709
0.5786123871803284 0.5872002840042114 -0.053108710795640945
0.6609978079795837 0.776254415512085 0.07421740889549255
0.6314115524291992 0.8127158880233765 0.058971937745809555
0.6660043001174927 0.7196140885353088 0.047154322266578674
0.7354919910430908 0.6630095839500427 0.11201586574316025
0.6898399591445923 0.7240689992904663 0.06957195699214935
0.7381106019020081 0.6803467869758606 0.17163434624671936
0.6597579121589661 0.6782038807868958 0.014169283211231232
0.5573926568031311 0.5535719394683838 -0.055770114064216614
0.5628437399864197 0.6312227249145508 -0.10879195481538773
0.5811982154846191 0.6321343779563904 -0.07981143146753311
0.5495644211769104 0.6175151467323303 -0.12842178344726562
0.5708534121513367 0.44524329900741577 -0.019346967339515686
0.608613908290863 0.4288223087787628 -0.024252334609627724
0.642314076423645 0.42436644434928894 -0.022117478772997856
0.6701220273971558 0.42814451456069946 -0.011416689492762089
0.688957154750824 0.4385497570037842 0.004901411943137646
0.6993951201438904 0.47832444310188293 0.04580754414200783
0.7612348794937134 0.5329267382621765 0.16347497701644897
0.6822954416275024 0.5078790783882141 0.02823348343372345
0.6589562892913818 0.5138965249061584 0.013364635407924652
0.628349244594574 0.5142847299575806 0.0028120942879468203
0.5994580984115601 0.5108096599578857 -0.002086097840219736
0.5767835974693298 0.506064772605896 -0.0043889679946005344
0.5611492395401001 0.5001869797706604 -0.006692016497254372
0.7582190632820129 0.5309857130050659 0.25564339756965637
0.5817023515701294 0.6363820433616638 -0.06659956276416779
0.5416038632392883 0.564241349697113 -0.09489312767982483
0.5430524945259094 0.6366758346557617 -0.12857767939567566
0.5294566750526428 0.6483231782913208 -0.11693352460861206
0.5437110066413879 0.6394374370574951 -0.11573377996683121
0.5755267143249512 0.6428561806678772 -0.05707415193319321
0.523766279220581 0.65157151222229 -0.12363136559724808
0.5216687917709351 0.6551721692085266 -0.09234798699617386
0.5621804594993591 0.48343586921691895 0.004065635148435831
0.5490212440490723 0.4886009693145752 -0.011362036690115929
0.5407676100730896 0.492570698261261 -0.029641253873705864
0.666748046875 0.46946078538894653 0.018567189574241638
0.6839894652366638 0.45824307203292847 0.01977129466831684
0.38616031408309937 0.47571414709091187 0.005413443315774202
0.409907728433609 0.47642600536346436 0.005413443315774202
0.3860577940940857 0.45601698756217957 0.005413443315774202
0.36193162202835083 0.4749796986579895 0.005413443315774202
0.38606175780296326 0.49532070755958557 0.005413443315774202
0.6229690313339233 0.46867164969444275 0.007415228057652712
0.645520806312561 0.46780240535736084 0.007415228057652712
0.6215636134147644 0.4485815167427063 0.007415228057652712
0.6005112528800964 0.4693131446838379 0.007415228057652712
0.6243560910224915 0.48848679661750793 0.007415228057652712
