ply
format ascii 1.0
element vertex 478
property float x
property float y
property float z
end_header
0.5214535593986511 0.7175995111465454 -0.03433951362967491
0.5576187372207642 0.6676033735275269 -0.1272725909948349
0.5376753211021423 0.6811294555664062 -0.05518300458788872
0.5245749950408936 0.5780211091041565 -0.12473159283399582
0.5597496628761292 0.6426213383674622 -0.14159844815731049
0.5545319318771362 0.605943500995636 -0.1403883546590805
0.5335643887519836 0.5126122236251831 -0.10133228451013565
0.3354978859424591 0.48253780603408813 -0.061763688921928406
0.5285857915878296 0.44942429661750793 -0.10224596410989761
0.5304298400878906 0.41614586114883423 -0.11784649640321732
0.5224407911300659 0.27012693881988525 -0.13053405284881592
0.5205420255661011 0.7250515222549438 -0.02797991968691349
0.518259584903717 0.7320120334625244 -0.01855577901005745
0.5155763030052185 0.736501157283783 -0.004867262672632933
0.5151244401931763 0.7373337149620056 -0.0004245213349349797
0.5169447660446167 0.7485240697860718 -0.0007115178159438074
0.5173487663269043 0.7617869973182678 -0.0035680984146893024
0.5159828662872314 0.7751164436340332 0.002146126702427864
0.5128897428512573 0.8128879070281982 0.028491465374827385
0.5521640181541443 0.6777822971343994 -0.11176473647356033
0.5171490907669067 0.6753292083740234 -0.08311428129673004
0.17442959547042847 0.3774319291114807 -0.01438823901116848
0.40920838713645935 0.5026732683181763 -0.06022841855883598
0.384015828371048 0.5040619969367981 -0.06595523655414581
0.35656222701072693 0.5050569176673889 -0.0670664981007576
0.3172370493412018 0.49314048886299133 -0.05872788652777672
0.4301277995109558 0.5001235604286194 -0.05175245553255081
0.36874544620513916 0.4496835172176361 -0.09402146190404892
0.39732223749160767 0.4514860510826111 -0.08438961952924728
0.3417627811431885 0.45312511920928955 -0.09198399633169174
0.3227939307689667 0.46072810888290405 -0.08461959660053253
0.2857276201248169 0.512130618095398 -0.04706871509552002
0.40738022327423096 0.8618839979171753 0.045687299221754074
0.3225148618221283 0.47910231351852417 -0.05810118839144707
0.16363295912742615 0.4959094524383545 0.032593511044979095
0.2455204278230667 0.49822181463241577 -0.036622729152441025
0.38221991062164307 0.623947024345398 -0.05358000472187996
0.48593980073928833 0.7155715227127075 -0.04264400526881218
0.4846433699131012 0.7332369089126587 -0.023671995848417282
0.4467623829841614 0.7237762212753296 -0.035689666867256165
0.4178839325904846 0.7298369407653809 -0.01957777328789234
0.4526529908180237 0.7347154021263123 -0.020668640732765198
0.42598962783813477 0.7359418869018555 -0.005916766822338104
0.37272095680236816 0.7622876763343811 0.0262070931494236
0.5355406999588013 0.6682378649711609 -0.13050109148025513
0.5342873334884644 0.6433066129684448 -0.14486393332481384
0.28036344051361084 0.4483378231525421 -0.10107274353504181
0.4406745731830597 0.5595899820327759 -0.06212200969457626
0.45128607749938965 0.6485618948936462 -0.0887427031993866
0.44670218229293823 0.6316055059432983 -0.08488424867391586
0.2874951958656311 0.6183230876922607 -0.04852651432156563
0.530322790145874 0.6087414622306824 -0.14026638865470886
0.3585869371891022 0.42709529399871826 -0.12874358892440796
0.3149600923061371 0.4334600865840912 -0.12056471407413483
0.21970698237419128 0.33530157804489136 -0.06639859825372696
0.4773886799812317 0.4500255584716797 -0.11215062439441681
0.42182955145835876 0.4590833783149719 -0.0678354799747467
0.3494414687156677 0.7381478548049927 0.016723528504371643
0.16142529249191284 0.7301331758499146 0.1809152215719223
0.46906334161758423 0.6637152433395386 -0.06972425431013107
0.4918343424797058 0.6702271103858948 -0.060720086097717285
0.3776581287384033 0.7371542453765869 0.02230045013129711
0.38477814197540283 0.7374604344367981 0.020495891571044922
0.2967645525932312 0.4175724685192108 -0.11818315833806992
0.44393670558929443 0.6540281176567078 -0.07131068408489227
0.41284844279289246 0.4310937523841858 -0.12653271853923798
0.40791553258895874 0.41022294759750366 -0.139329195022583
0.36179792881011963 0.28185057640075684 -0.14108122885227203
0.2598326802253723 0.37353038787841797 -0.09721721708774567
0.3903917968273163 0.34184399247169495 -0.14226555824279785
0.2570697069168091 0.43548402190208435 -0.08938471227884293
0.21541179716587067 0.4066454768180847 -0.05416196212172508
0.48508256673812866 0.725494921207428 -0.0356619656085968
0.4497903287410736 0.7296676635742188 -0.028376294299960136
0.42193520069122314 0.7329840660095215 -0.014064652845263481
0.4734252393245697 0.6662524342536926 -0.06081674247980118
0.3814259171485901 0.7373303771018982 0.02164667285978794
0.39895009994506836 0.7430456280708313 0.014809049665927887
0.38819658756256104 0.7375394105911255 0.02045687846839428
0.4932624101638794 0.664235532283783 -0.1060965284705162
0.42885252833366394 0.7379860877990723 0.0008587001357227564
0.4549393355846405 0.7378721237182617 -0.007322404999285936
0.4844610393047333 0.73768550157547 -0.010743468999862671
0.47488072514533997 0.8134592771530151 0.021851293742656708
0.4794134497642517 0.7758532762527466 -0.005142635200172663
0.4815109074115753 0.7623809576034546 -0.010911266319453716
0.48323845863342285 0.7491680383682251 -0.007553665898740292
0.48433423042297363 0.738600492477417 -0.006490775849670172
0.4286610186100006 0.7381105422973633 0.004148996435105801
0.4247938394546509 0.7430145740509033 0.002815528539940715
0.41989555954933167 0.7497368454933167 0.0015762242255732417
0.4155704379081726 0.7573415040969849 0.0063949208706617355
0.397833913564682 0.7081237435340881 -0.023802820593118668
0.1292475461959839 0.5987536907196045 0.16667482256889343
0.5459051132202148 0.6805724501609802 -0.07621001452207565
0.40905600786209106 0.7376567125320435 0.014011436142027378
0.4044487178325653 0.7401160597801208 0.013907132670283318
0.5010882019996643 0.6788458824157715 -0.056708429008722305
0.44750523567199707 0.6646445989608765 -0.043538473546504974
0.49684014916419983 0.674758791923523 -0.05980084836483002
0.4106045663356781 0.5721486806869507 -0.057478297501802444
0.36324185132980347 0.5891687870025635 -0.058777619153261185
0.43715551495552063 0.6388732194900513 -0.06836876273155212
0.2806730270385742 0.30253055691719055 -0.11026164144277573
0.31664833426475525 0.3507590591907501 -0.12489209324121475
0.3476569354534149 0.4068750739097595 -0.13396607339382172
0.40094029903411865 0.784732460975647 0.0227471012622118
0.4700973331928253 0.41782671213150024 -0.13256914913654327
0.4576837420463562 0.3402961492538452 -0.14205998182296753
0.43922924995422363 0.27214547991752625 -0.14625504612922668
0.332205206155777 0.5009288191795349 -0.06362500041723251
0.24847932159900665 0.5313233733177185 -0.03580719977617264
0.4433886408805847 0.49659228324890137 -0.047368861734867096
0.2884751558303833 0.4714866876602173 -0.07272264361381531
0.46272575855255127 0.546050488948822 -0.07050083577632904
0.4766049087047577 0.64604252576828 -0.11156628280878067
0.20433832705020905 0.5508968830108643 -0.012275725603103638
0.27561861276626587 0.5483808517456055 -0.04776213690638542
0.31786391139030457 0.5583739876747131 -0.057164814323186874
0.3744024336338043 0.5545291900634766 -0.05558369308710098
0.4136318564414978 0.5446131229400635 -0.05237533524632454
0.4413307309150696 0.5349520444869995 -0.054424334317445755
0.5076455473899841 0.5185267329216003 -0.09829602390527725
0.20553357899188995 0.6048382520675659 -0.002630289876833558
0.2601679563522339 0.46981221437454224 -0.07093042135238647
0.5380587577819824 0.6780469417572021 -0.11453877389431
0.4457005262374878 0.5872389674186707 -0.06390337646007538
0.13005343079566956 0.48181045055389404 0.10676894336938858
0.46323660016059875 0.5242445468902588 -0.057127200067043304
0.42822784185409546 0.6361160278320312 -0.042032640427351
0.30623185634613037 0.4814739525318146 -0.056205227971076965
0.47111889719963074 0.625097393989563 -0.10640330612659454
0.13849198818206787 0.6633250117301941 0.1789787858724594
0.44001665711402893 0.48833411931991577 -0.045863207429647446
0.5016953945159912 0.6150871515274048 -0.1290135681629181
0.2599368095397949 0.803240180015564 0.09047603607177734
0.24886329472064972 0.8285356163978577 0.13916519284248352
0.15678158402442932 0.6067141890525818 0.08016837388277054
0.2135346233844757 0.7675130367279053 0.0998736023902893
0.18668358027935028 0.44646209478378296 -0.006231072824448347
0.40023666620254517 0.889247715473175 0.06502600759267807
0.534629762172699 0.6801517009735107 -0.07711230963468552
0.41767993569374084 0.6030588746070862 -0.05504238232970238
0.21243318915367126 0.5029964447021484 -0.018932389095425606
0.3642294108867645 0.4863177239894867 -0.06722015142440796
0.38614422082901 0.4870910346508026 -0.06689732521772385
0.3939477503299713 0.7463998794555664 0.0178593248128891
0.20304438471794128 0.6569858193397522 0.02508598566055298
0.4471636116504669 0.9184573292732239 0.09082427620887756
0.35338717699050903 0.8874757885932922 0.10855558514595032
0.30653485655784607 0.8640227913856506 0.12167847156524658
0.5278123021125793 0.34006449580192566 -0.12707777321338654
0.49956804513931274 0.9169386625289917 0.10095817595720291
0.40549057722091675 0.4867461919784546 -0.062043048441410065
0.423984557390213 0.4865824580192566 -0.05448031798005104
0.43537408113479614 0.4877157211303711 -0.047791652381420135
0.23165342211723328 0.46296510100364685 -0.053909461945295334
0.41725102066993713 0.47358280420303345 -0.06419998407363892
0.3953242301940918 0.4677627384662628 -0.075324147939682
0.37454521656036377 0.4671221971511841 -0.08087116479873657
0.3535597622394562 0.46994549036026 -0.08012770116329193
0.3392913341522217 0.47383391857147217 -0.07430589944124222
0.14621558785438538 0.42346492409706116 0.04847970977425575
0.348378986120224 0.48463237285614014 -0.06491569429636002
0.5329986214637756 0.6952122449874878 -0.04243362322449684
0.43376848101615906 0.6980905532836914 -0.037380650639534
0.47256994247436523 0.6628815531730652 -0.0809573233127594
0.49446314573287964 0.6965940594673157 -0.04950946196913719
0.5272073745727539 0.47774550318717957 -0.09276473522186279
0.3091275691986084 0.836769163608551 0.08797691762447357
0.353105753660202 0.8639598488807678 0.07914397120475769
0.45256999135017395 0.903160572052002 0.0570385679602623
0.20080222189426422 0.7858346700668335 0.1624164879322052
0.4327942728996277 0.48263221979141235 -0.054080307483673096
0.4926186203956604 0.5605353116989136 -0.09722494333982468
0.5063514709472656 0.9021320343017578 0.06786846369504929
0.39998191595077515 0.907267689704895 0.09365279227495193
0.16176381707191467 0.6642481684684753 0.09775474667549133
0.45496296882629395 0.7384606003761292 -0.003452905686572194
0.4515673816204071 0.7465749979019165 -0.0052129970863461494
0.44821879267692566 0.7569029927253723 -0.007147176191210747
0.44561055302619934 0.7690093517303467 -0.001691027544438839
0.434763103723526 0.8027451634407043 0.018147017806768417
0.4035869240760803 0.7366718053817749 0.006885554175823927
0.3988523781299591 0.7352805733680725 0.0038114101625978947
0.3946973979473114 0.7336699366569519 0.0003678568173199892
0.3668292760848999 0.7208866477012634 -0.006826627533882856
0.2505723834037781 0.673430323600769 -0.010146557353436947
0.48574888706207275 0.5308983325958252 -0.08270840346813202
0.4645026922225952 0.47613537311553955 -0.058450039476156235
0.44413986802101135 0.4759456515312195 -0.05610458552837372
0.4084634780883789 0.7378897666931152 0.011628346517682076
0.23606596887111664 0.7325478792190552 0.046055395156145096
0.4934822916984558 0.4812580347061157 -0.08474264293909073
0.4190388023853302 0.8313900828361511 0.03342520073056221
0.5472818613052368 0.5742896199226379 -0.1261017620563507
0.5161976218223572 0.5499855279922485 -0.11373191326856613
0.5405815839767456 0.544779360294342 -0.1133732870221138
0.47214674949645996 0.5992864370346069 -0.089504174888134
0.5102512836456299 0.8769098520278931 0.04628647491335869
0.5112322568893433 0.8431203961372375 0.03737185150384903
0.4662805199623108 0.8441529273986816 0.031782735139131546
0.3489654064178467 0.7799816131591797 0.035648997873067856
0.40151649713516235 0.6549108028411865 -0.036787088960409164
0.3809930086135864 0.8093945980072021 0.03734348341822624
0.33005231618881226 0.6544145345687866 -0.045904070138931274
0.3700227737426758 0.6798659563064575 -0.03024440072476864
0.2957216203212738 0.6929218769073486 -0.01916312798857689
0.458740234375 0.8776401281356812 0.03773012012243271
0.44948717951774597 0.6089307069778442 -0.071245476603508
0.3235371708869934 0.8058731555938721 0.056162621825933456
0.36488407850265503 0.8360025882720947 0.05690500885248184
0.32407718896865845 0.7486879229545593 0.0192523505538702
0.20524418354034424 0.7004526257514954 0.050933972001075745
0.28223493695259094 0.7592500448226929 0.03424103558063507
0.17737127840518951 0.717630922794342 0.10878366976976395
0.3380894958972931 0.7068935632705688 -0.015172570012509823
0.4692004323005676 0.5736446380615234 -0.07917854934930801
0.48616358637809753 0.6601128578186035 -0.11367516219615936
0.46047112345695496 0.6591248512268066 -0.0860055685043335
0.5055691003799438 0.6452075242996216 -0.13126197457313538
0.44590437412261963 0.45813459157943726 -0.07806698977947235
0.40443456172943115 0.445234477519989 -0.0977315828204155
0.3666117489337921 0.4416808784008026 -0.10658130049705505
0.3323390781879425 0.4455068111419678 -0.1044958159327507
0.30611351132392883 0.45539629459381104 -0.09396067261695862
0.2794514298439026 0.49052053689956665 -0.04973775893449783
0.15673086047172546 0.5509932637214661 0.056213829666376114
0.30573976039886475 0.5218111276626587 -0.05229391157627106
0.3377131521701813 0.5293445587158203 -0.05746213719248772
0.37729278206825256 0.5280023217201233 -0.057068727910518646
0.41131967306137085 0.5224463939666748 -0.05271955206990242
0.43642184138298035 0.5166934728622437 -0.04861483722925186
0.4539925754070282 0.5112296938896179 -0.04752481356263161
0.12758377194404602 0.5388810634613037 0.14349381625652313
0.4562643766403198 0.6613210439682007 -0.07173515111207962
0.498995840549469 0.5870844125747681 -0.1096901074051857
0.5124260187149048 0.6650534868240356 -0.12560288608074188
0.5198583602905273 0.6744942665100098 -0.10750222206115723
0.5068479776382446 0.667574405670166 -0.11305653303861618
0.4598156213760376 0.6655011773109436 -0.0578203983604908
0.5280172824859619 0.6769452691078186 -0.11218521744012833
0.5246466994285583 0.6788816452026367 -0.08008355647325516
0.4507925510406494 0.4907599985599518 -0.044388677924871445
0.46759232878685 0.499560683965683 -0.05155879631638527
0.47972482442855835 0.5071508884429932 -0.0648300051689148
0.3300703167915344 0.4769098162651062 -0.06769675016403198
0.3084476888179779 0.47005581855773926 -0.07174189388751984
0.565041720867157 0.5754446387290955 -0.1087455004453659
0.6622520685195923 0.4670889377593994 0.0562095046043396
0.5696220993995667 0.670483410358429 -0.07089381664991379
0.7151330709457397 0.36177298426628113 0.1679418683052063
0.6025619506835938 0.4949725270271301 0.015506098046898842
0.6234368085861206 0.49420833587646484 0.025101231411099434
0.6444301605224609 0.4923573434352875 0.03828296810388565
0.6689705848693848 0.4746394157409668 0.06615591049194336
0.5864201784133911 0.49364036321640015 0.007893072441220284
0.6405363082885742 0.43634966015815735 0.0019271242199465632
0.6151003837585449 0.441312313079834 -0.008821658790111542
0.6623139977455139 0.43689608573913574 0.01871846430003643
0.6743823289871216 0.44232434034347534 0.034860916435718536
0.6855818033218384 0.4897657036781311 0.08728791773319244
0.5836433172225952 0.8396395444869995 0.10038899630308151
0.6690984964370728 0.460113525390625 0.06536278873682022
0.7172460556030273 0.46848970651626587 0.2168128937482834
0.7046791315078735 0.4695904552936554 0.11423829942941666
0.6354856491088867 0.6080471277236938 0.022638775408267975
0.5485338568687439 0.7081519365310669 -0.023019500076770782
0.5413731336593628 0.7263898849487305 -0.00560160493478179
0.5681141018867493 0.7080348134040833 0.004713833332061768
0.5794383883476257 0.7094196081161499 0.0362609326839447
0.5581280589103699 0.7217559814453125 0.01469036191701889
0.5698772072792053 0.7187826633453369 0.04145766422152519
0.6088178753852844 0.7411679029464722 0.098458431661129
0.5758309364318848 0.6643106937408447 -0.12031304836273193
0.5800779461860657 0.6399310231208801 -0.13272623717784882
0.7048914432525635 0.4236246943473816 0.04103924706578255
0.5861383676528931 0.5510020852088928 -0.012537435628473759
0.6099109053611755 0.6362790465354919 -0.04263793304562569
0.6064890623092651 0.6204057335853577 -0.03723563626408577
0.695854902267456 0.592190682888031 0.07813186943531036
0.5737396478652954 0.6058533191680908 -0.12471617013216019
0.664614737033844 0.4142177999019623 -0.030308661982417107
0.6904841661453247 0.4145854115486145 0.0028634783811867237
0.7076147794723511 0.3241921365261078 0.09719853848218918
0.5721497535705566 0.44689658284187317 -0.07965315878391266
0.5930588841438293 0.45171743631362915 -0.006745003163814545
0.629513680934906 0.7144585251808167 0.10414281487464905
0.6645059585571289 0.6853929162025452 0.34963786602020264
0.5942662954330444 0.6530864238739014 -0.03556881472468376
0.577277660369873 0.664431095123291 -0.043591514229774475
0.5948642492294312 0.7116785049438477 0.09810608625411987
0.5891726016998291 0.7136927247047424 0.08740508556365967
0.6997201442718506 0.39631885290145874 0.013544916175305843
0.6069518327713013 0.6420316100120544 -0.026212407276034355
0.6259815692901611 0.42338818311691284 -0.05883421003818512
0.6308000087738037 0.40303879976272583 -0.06970798224210739
0.6491074562072754 0.27808594703674316 -0.04759271815419197
0.7056826949119568 0.3581724762916565 0.04861631616950035
0.6426783800125122 0.33512917160987854 -0.061993446201086044
0.7133957147598267 0.4087105989456177 0.06281212717294693
0.7159003019332886 0.38730674982070923 0.11104962229728699
0.5457515716552734 0.718299925327301 -0.01627049408853054
0.5633476972579956 0.715423583984375 0.009549636393785477
0.5751137733459473 0.7140452861785889 0.037123218178749084
0.5888591408729553 0.656894326210022 -0.03302623704075813
0.5919457077980042 0.7126919031143188 0.0919589251279831
0.5839937329292297 0.7217004299163818 0.07413633912801743
0.5860724449157715 0.7147724628448486 0.08549165725708008
0.5911222696304321 0.6548970341682434 -0.07475832849740982
0.5650011897087097 0.7225942015647888 0.04589856415987015
0.5529789328575134 0.7265094518661499 0.025943322107195854
0.5367262363433838 0.7316787838935852 0.007831037044525146
0.5428534150123596 0.8068699240684509 0.03983636572957039
0.5435458421707153 0.7685453295707703 0.014404093846678734
0.5435212254524231 0.7551811933517456 0.009460216388106346
0.5408576726913452 0.7424061298370361 0.0124393031001091
0.5365324020385742 0.7323705554008484 0.012487966567277908
0.5648979544639587 0.7222429513931274 0.04943576082587242
0.570578932762146 0.7263017296791077 0.048155490309000015
0.5756957530975342 0.7319719791412354 0.048449721187353134
0.5792434215545654 0.7389470934867859 0.05680873990058899
0.6183295249938965 0.6913937926292419 0.04037109389901161
0.6877968311309814 0.5643705129623413 0.3556981086730957
0.5739333629608154 0.7188067436218262 0.0709548145532608
0.5792340040206909 0.7199756503105164 0.071042001247406
0.5676525831222534 0.6748990416526794 -0.03978809714317322
0.598301887512207 0.6542078852653503 -0.007891288958489895
0.5725017189979553 0.6701734662055969 -0.04327639937400818
0.6069724559783936 0.5605270266532898 0.009153205901384354
0.6452757716178894 0.5722216963768005 0.03160450607538223
0.6067979335784912 0.627301812171936 -0.01935894973576069
0.688605546951294 0.2955199182033539 0.02313973382115364
0.6831110715866089 0.33954188227653503 -0.007777353283017874
0.6715368628501892 0.3928864896297455 -0.029754571616649628
0.5916081666946411 0.7665716409683228 0.08194832503795624
0.5807952880859375 0.41611504554748535 -0.09746558219194412
0.5924225449562073 0.336941123008728 -0.10041564702987671
0.595793604850769 0.2702796161174774 -0.0990837886929512
0.6604552268981934 0.4852825999259949 0.054028093814849854
0.7050822973251343 0.5046015381813049 0.1133221909403801
0.5767307281494141 0.491478830575943 0.005781177431344986
0.6913684606552124 0.4473736882209778 0.06397885084152222
0.5735900402069092 0.5393738746643066 -0.030850432813167572
0.6036584973335266 0.6358803510665894 -0.07419735938310623
0.7225273847579956 0.5208904147148132 0.15656471252441406
0.696015477180481 0.525846004486084 0.09229663759469986
0.6731201410293579 0.5404127240180969 0.06187820062041283
0.6335557699203491 0.5410515666007996 0.03530498221516609
0.6042382717132568 0.5340450406074524 0.016496766358613968
0.5845254063606262 0.5272482633590698 -0.0028592566959559917
0.5527217388153076 0.5160112380981445 -0.08142075687646866
0.7259364128112793 0.5714682936668396 0.16514214873313904
0.705894410610199 0.4427127242088318 0.07886391133069992
0.5639406442642212 0.6754069328308105 -0.10634186863899231
0.5896766185760498 0.578654944896698 -0.016033148393034935
0.7027615308761597 0.4567246437072754 0.302087664604187
0.5702634453773499 0.519311785697937 -0.017044512555003166
0.6038249731063843 0.6247131824493408 0.006832536775618792
0.6772174835205078 0.4602234661579132 0.07341912388801575
0.5989397764205933 0.616188108921051 -0.0683865174651146
0.6793004274368286 0.6231197714805603 0.3595510721206665
0.5764651894569397 0.48273420333862305 0.009873497299849987
0.5876036286354065 0.6091335415840149 -0.10138941556215286
0.6523807048797607 0.7600394487380981 0.21530522406101227
0.6323459148406982 0.7833693623542786 0.26648426055908203
0.7178528308868408 0.5700212717056274 0.2635786831378937
0.6754904389381409 0.7222619652748108 0.24676522612571716
0.717282772064209 0.42410385608673096 0.17020323872566223
0.5816375613212585 0.8641619682312012 0.12408749014139175
0.5563094019889832 0.6784564852714539 -0.0720769613981247
0.60675448179245 0.5916765332221985 0.004020628985017538
0.7160991430282593 0.46997541189193726 0.14719045162200928
0.642597496509552 0.47708550095558167 0.036287758499383926
0.6241288781166077 0.4800293445587158 0.024652501568198204
0.5877059698104858 0.7240989804267883 0.08154197037220001
0.7195241451263428 0.6196457743644714 0.18679283559322357
0.541472315788269 0.9045682549476624 0.12396663427352905
0.5891173481941223 0.854192852973938 0.19070039689540863
0.6075071096420288 0.8235807418823242 0.22521106898784637
0.6062337756156921 0.48054081201553345 0.015987947583198547
0.5902626514434814 0.4808160662651062 0.012493275105953217
0.5805615186691284 0.4823889434337616 0.012382186017930508
0.7154937386512756 0.43337517976760864 0.1075536459684372
0.5939094424247742 0.4634299874305725 0.004584686830639839
0.6124774217605591 0.454434871673584 0.004764255601912737
0.6325929760932922 0.4512799084186554 0.012473978102207184
0.6504761576652527 0.4522327184677124 0.02601585164666176
0.6602421998977661 0.45539385080337524 0.039347123354673386
0.7139977812767029 0.4034746289253235 0.23995859920978546
0.6544344425201416 0.47237637639045715 0.04758056253194809
0.6011226773262024 0.68595951795578 0.01154968049377203
0.5966490507125854 0.6518117785453796 -0.04854821413755417
0.5656915903091431 0.6912387013435364 -0.02928106300532818
0.6247051358222961 0.7977080345153809 0.18907618522644043
0.6028213500976562 0.8304383158683777 0.15880614519119263
0.550168514251709 0.8893990516662598 0.08914190530776978
0.6490381956100464 0.7395071983337402 0.3130616545677185
0.5821118354797363 0.47540146112442017 0.0073104905895888805
0.5705009698867798 0.5558303594589233 -0.07043471932411194
0.5694057941436768 0.8827365636825562 0.15433700382709503
0.7081694602966309 0.6229345202445984 0.2731999456882477
0.5528346300125122 0.7268070578575134 0.03024383634328842
0.5584613084793091 0.7341986298561096 0.029570549726486206
0.5625597238540649 0.7438755035400391 0.029545357450842857
0.5648049712181091 0.7559407353401184 0.03660162538290024
0.5706113576889038 0.789489209651947 0.06116204708814621
0.5791097283363342 0.7162327170372009 0.06622223556041718
0.5836074352264404 0.7133145332336426 0.06865938752889633
0.5875843167304993 0.7105377912521362 0.06921735405921936
0.6297252178192139 0.7002162933349609 0.07355604320764542
0.7056879997253418 0.6400688290596008 0.12698599696159363
0.5626840591430664 0.5265388488769531 -0.05473479628562927
0.5647188425064087 0.4726979434490204 -0.022595621645450592
0.5752785801887512 0.4708597958087921 -0.004700821358710527
0.5737766027450562 0.7194629907608032 0.06872007250785828
0.6893026828765869 0.6929453015327454 0.18463893234729767
0.5520440936088562 0.47998756170272827 -0.06342882663011551
0.5766980648040771 0.8132174015045166 0.08075253665447235
0.5594261884689331 0.5473421216011047 -0.09945016354322433
0.5862419009208679 0.592158854007721 -0.05448301136493683
0.5467420816421509 0.8347829580307007 0.05437738820910454
0.6218932271003723 0.7527655959129333 0.11904790252447128
0.6202123165130615 0.6405794620513916 0.02508636750280857
0.5990616679191589 0.7854347229003906 0.10313024371862411
0.6712970733642578 0.6309744119644165 0.05251658707857132
0.6396405100822449 0.6609777212142944 0.04768385738134384
0.6830077171325684 0.6635546684265137 0.09345076233148575
0.5521363615989685 0.8657675385475159 0.06772559881210327
0.5934239625930786 0.599993109703064 -0.027400368824601173
0.6310395002365112 0.7715361714363098 0.15200407803058624
0.6050088405609131 0.8063932657241821 0.1305122822523117
0.6458724141120911 0.7200013399124146 0.12033877521753311
0.7061562538146973 0.6600536704063416 0.2055896520614624
0.6651127338409424 0.7228223085403442 0.1511652171611786
0.6938161849975586 0.6731216311454773 0.2751618027687073
0.6523841023445129 0.6834340691566467 0.07760387659072876
0.5793435573577881 0.5669928193092346 -0.041306670755147934
0.5987045764923096 0.6496576070785522 -0.07970013469457626
0.6052141785621643 0.6470757722854614 -0.047108735889196396
0.593987762928009 0.6377205848693848 -0.10410746932029724
0.5826348066329956 0.4525562524795532 -0.028691191226243973
0.6189193725585938 0.4360169470310211 -0.02507336437702179
0.6507691740989685 0.4295338988304138 -0.011640176177024841
0.6748073101043701 0.42934370040893555 0.010342419147491455
0.6882271766662598 0.43511709570884705 0.03450067341327667
0.6892271041870117 0.4653351604938507 0.08843114227056503
0.7201505303382874 0.5188227295875549 0.24442733824253082
0.6762785911560059 0.5024405717849731 0.07399694621562958
0.6565377712249756 0.5132520198822021 0.052549101412296295
0.6283701062202454 0.5155384540557861 0.033268991857767105
0.6021510362625122 0.5127848982810974 0.01831643097102642
0.5838086009025574 0.5093657374382019 0.004866374656558037
0.5716184973716736 0.5057748556137085 -0.003956839442253113
0.6928077936172485 0.5096290707588196 0.33783042430877686
0.6014789938926697 0.6497779488563538 -0.033630236983299255
0.5774465203285217 0.5820925831794739 -0.08227421343326569
0.5888573527336121 0.6571694016456604 -0.10412344336509705
0.5736147165298462 0.6684838533401489 -0.09496690332889557
0.5854114294052124 0.6593477725982666 -0.09097468107938766
0.5949221849441528 0.6555105447769165 -0.025864852592349052
0.5705661773681641 0.6724623441696167 -0.10199900716543198
0.5637196898460388 0.6752719879150391 -0.07141347229480743
0.570563554763794 0.48652195930480957 0.001831072848290205
0.5619460344314575 0.49616578221321106 -0.01732935756444931
0.5589630603790283 0.5046824216842651 -0.03637201339006424
0.6655387282371521 0.4580557942390442 0.051029056310653687
0.6803013682365417 0.44891583919525146 0.054476164281368256
0.36405208706855774 0.47708481550216675 -0.06410513818264008
0.3880937695503235 0.4761938452720642 -0.06410513818264008
0.3629971742630005 0.4555582106113434 -0.06410513818264008
0.339140385389328 0.47801750898361206 -0.06410513818264008
0.36480146646499634 0.49874061346054077 -0.06410513818264008
0.6177677512168884 0.4644116163253784 0.026647217571735382
0.6422735452651978 0.4625876247882843 0.026647217571735382
0.6161478757858276 0.44289058446884155 0.026647217571735382
0.5930507183074951 0.46630948781967163 0.026647217571735382
0.6196156144142151 0.48596400022506714 0.026647217571735382
