ply
format ascii 1.0
element vertex 478
property float x
property float y
property float z
end_header
0.47171342372894287 0.7052937746047974 -0.07281883805990219
0.4675731956958771 0.6417338252067566 -0.13153760135173798
0.4772564470767975 0.6675761938095093 -0.07233063876628876
0.4579957127571106 0.5541777610778809 -0.09251808375120163
0.4671584367752075 0.6143935918807983 -0.13903243839740753
0.47146695852279663 0.5793957710266113 -0.12845884263515472
0.48618850111961365 0.49366331100463867 -0.059567276388406754
0.3426337242126465 0.4806796610355377 0.06627245247364044
0.4923389256000519 0.4177727699279785 -0.03896760195493698
0.49292653799057007 0.3813748359680176 -0.041868261992931366
0.4987725019454956 0.2657804489135742 -0.013919972814619541
0.47174155712127686 0.7132956981658936 -0.0698290467262268
0.4731330871582031 0.7214810252189636 -0.06253413110971451
0.4753805100917816 0.7270079851150513 -0.05271443724632263
0.47407978773117065 0.7576911449432373 -0.044310107827186584
0.471852570772171 0.7671842575073242 -0.04878394305706024
0.4705195128917694 0.779596209526062 -0.05369054153561592
0.4706364870071411 0.793329656124115 -0.0499039851129055
0.48406726121902466 0.8361918926239014 -0.028071129694581032
0.47066691517829895 0.6557783484458923 -0.11964782327413559
0.4538499712944031 0.6554060578346252 -0.08399905264377594
0.2918277978897095 0.3895660936832428 0.20006224513053894
0.3987799882888794 0.5076924562454224 0.02879602275788784
0.3774759769439697 0.5085431337356567 0.03502654284238815
0.3578824996948242 0.5059419870376587 0.045940157026052475
0.33491066098213196 0.48994702100753784 0.07190096378326416
0.41742581129074097 0.5021659731864929 0.027786996215581894
0.3710429072380066 0.4282892346382141 0.028837908059358597
0.39620161056518555 0.4327051639556885 0.023378539830446243
0.3477681875228882 0.4320722818374634 0.04110221192240715
0.33337700366973877 0.44245266914367676 0.05294833704829216
0.3186143636703491 0.5068056583404541 0.08621985465288162
0.407932847738266 0.8558836579322815 0.016421010717749596
0.33697623014450073 0.473279744386673 0.07643088698387146
0.28016793727874756 0.4981718063354492 0.20624490082263947
0.3005973696708679 0.48776155710220337 0.11613471060991287
0.37406694889068604 0.6150309443473816 0.0017489587189629674
0.4432850778102875 0.6999455094337463 -0.06388628482818604
0.4479360580444336 0.7190824151039124 -0.05338820815086365
0.41938620805740356 0.703887939453125 -0.04261584207415581
0.4050615429878235 0.7110612988471985 -0.017779827117919922
0.4294952154159546 0.7183812260627747 -0.03725803643465042
0.41646134853363037 0.7203484773635864 -0.015072117559611797
0.3846335709095001 0.772627055644989 0.027452463284134865
0.44928884506225586 0.6409093141555786 -0.12657681107521057
0.4459194242954254 0.6146050691604614 -0.13272659480571747
0.3080293536186218 0.4189656376838684 0.06932307034730911
0.4244137108325958 0.5518059134483337 -0.005574838258326054
0.40815114974975586 0.6321515440940857 -0.05823757126927376
0.40839600563049316 0.6178736686706543 -0.05034470185637474
0.31301063299179077 0.6090714931488037 0.04784166067838669
0.4511544704437256 0.5820459723472595 -0.11671482026576996
0.3522692322731018 0.39153972268104553 0.01759766787290573
0.3250020444393158 0.39984428882598877 0.04331950098276138
0.3057657778263092 0.34335944056510925 0.15041238069534302
0.4437008500099182 0.41402003169059753 -0.023067550733685493
0.4173516631126404 0.44555753469467163 0.025727858766913414
0.36873918771743774 0.7436050772666931 0.0353146493434906
0.31627970933914185 0.7310511469841003 0.2560848593711853
0.42540112137794495 0.6478804349899292 -0.05310169607400894
0.44245457649230957 0.6561888456344604 -0.05984523892402649
0.3936365246772766 0.7281697988510132 0.030986329540610313
0.39962005615234375 0.7283703684806824 0.022148380056023598
0.31707483530044556 0.38423216342926025 0.05721231922507286
0.40913325548171997 0.6430062651634216 -0.04571664333343506
0.39038121700286865 0.39353224635124207 -0.005518448073416948
0.387306809425354 0.3729409873485565 -0.009335052222013474
0.3766665458679199 0.28148695826530457 0.041351888328790665
0.30986469984054565 0.3640013635158539 0.09769105911254883
0.38211965560913086 0.32617300748825073 0.01491475384682417
0.3002476096153259 0.4084888994693756 0.0927237868309021
0.29457664489746094 0.4017069935798645 0.14335250854492188
0.44447046518325806 0.7101580500602722 -0.06089963763952255
0.4240137040615082 0.7117831707000732 -0.04071429371833801
0.41035085916519165 0.7160055637359619 -0.018397394567728043
0.43089473247528076 0.6525687575340271 -0.0494762659072876
0.3965775966644287 0.7283069491386414 0.026149580255150795
0.4019794464111328 0.7433303594589233 0.00979664083570242
0.4025912284851074 0.7285232543945312 0.021060779690742493
0.43173104524612427 0.6408423781394958 -0.0861944630742073
0.4221871495246887 0.723210334777832 -0.012473233975470066
0.4346747398376465 0.7227067351341248 -0.029116220772266388
0.4525679647922516 0.7246360182762146 -0.04375378042459488
0.4516034424304962 0.8328182697296143 -0.02105410397052765
0.4407200515270233 0.7899653911590576 -0.041562750935554504
0.44210541248321533 0.7761295437812805 -0.04406195878982544
0.44602054357528687 0.7638667821884155 -0.03885885700583458
0.45120441913604736 0.7553499937057495 -0.03498831018805504
0.4217108488082886 0.7451572418212891 -0.005775338504463434
0.41574740409851074 0.7499489784240723 -0.009550231508910656
0.40884149074554443 0.7569977641105652 -0.012515679933130741
0.4040517508983612 0.7656164169311523 -0.007079980801790953
0.3876010775566101 0.7041192650794983 -0.007715773768723011
0.29566341638565063 0.6076911091804504 0.29857319593429565
0.47390449047088623 0.6620001196861267 -0.08878745138645172
0.4137721061706543 0.738390326499939 0.011035416275262833
0.4075929522514343 0.7403358817100525 0.008776641450822353
0.4483852684497833 0.665579617023468 -0.06139080971479416
0.4178486168384552 0.6574909090995789 -0.031441353261470795
0.4454921782016754 0.6610757112503052 -0.061248939484357834
0.40041583776474 0.5658098459243774 0.006534184794872999
0.36283808946609497 0.5812760591506958 0.019975000992417336
0.40616172552108765 0.6290012001991272 -0.03677014634013176
0.3318204879760742 0.30646777153015137 0.09450969845056534
0.3371761739253998 0.33787816762924194 0.055352095514535904
0.34666281938552856 0.3718247413635254 0.023484207689762115
0.4008658230304718 0.7955659627914429 0.011692426167428493
0.4373858571052551 0.37908655405044556 -0.03030923195183277
0.43329551815986633 0.3245391547679901 -0.013038832694292068
0.43018367886543274 0.2694025933742523 0.004101657774299383
0.34255844354629517 0.49999430775642395 0.06003781780600548
0.2980182468891144 0.5250717997550964 0.10311902314424515
0.42991000413894653 0.4956241846084595 0.029367981478571892
0.3161275386810303 0.4539417028427124 0.07892940938472748
0.4397936463356018 0.5352310538291931 -0.016335804015398026
0.4178152084350586 0.6232590079307556 -0.0838150829076767
0.2795453369617462 0.5455288290977478 0.13422028720378876
0.30680906772613525 0.543502688407898 0.07796595245599747
0.32965087890625 0.5537541508674622 0.04964415729045868
0.369305282831192 0.5507382154464722 0.03133775666356087
0.3998877704143524 0.5411108732223511 0.020028777420520782
0.42308974266052246 0.5295060276985168 0.009501446038484573
0.46581634879112244 0.5001172423362732 -0.045856162905693054
0.27763962745666504 0.5976829528808594 0.12538747489452362
0.30311983823776245 0.4508800804615021 0.09444864839315414
0.4596593379974365 0.6547145247459412 -0.11601803451776505
0.42240363359451294 0.5775114893913269 -0.01836717501282692
0.2885759770870209 0.4962579607963562 0.28604739904403687
0.44015148282051086 0.5153957009315491 0.0033395246136933565
0.4064792990684509 0.6299825310707092 -0.013093317858874798
0.3277468979358673 0.4736196994781494 0.08285953104496002
0.41965430974960327 0.6057279706001282 -0.0742194727063179
0.30296504497528076 0.6679556965827942 0.2840301990509033
0.4321126937866211 0.48622122406959534 0.036282431334257126
0.43460822105407715 0.5909816026687622 -0.09962575882673264
0.33876439929008484 0.7914071679115295 0.12143795192241669
0.35231664776802063 0.8171460628509521 0.162357360124588
0.2766071557998657 0.6038277745246887 0.21405291557312012
0.3158818483352661 0.7583082914352417 0.15582643449306488
0.28680700063705444 0.44716930389404297 0.18218468129634857
0.40902289748191833 0.8757516145706177 0.029689189046621323
0.46486184000968933 0.6609893441200256 -0.08575046062469482
0.4021550118923187 0.5955466032028198 -0.007270937319844961
0.28808093070983887 0.4925718307495117 0.14379772543907166
0.3598637878894806 0.4907172620296478 0.047498878091573715
0.3772262632846832 0.49406054615974426 0.03836250677704811
0.3974243104457855 0.7469333410263062 0.014873693697154522
0.28321823477745056 0.6484349966049194 0.12960176169872284
0.44804173707962036 0.908805251121521 0.026806728914380074
0.39740145206451416 0.8712527751922607 0.0889742448925972
0.3775506913661957 0.8486284017562866 0.12191097438335419
0.4951533079147339 0.3250359892845154 -0.02957877703011036
0.49102988839149475 0.9173746705055237 0.011052859015762806
0.3954579830169678 0.49382835626602173 0.03384610265493393
0.41326162219047546 0.4910408556461334 0.03424010053277016
0.4254509210586548 0.4888969361782074 0.037381213158369064
0.29370027780532837 0.44648024439811707 0.12185625731945038
0.41492336988449097 0.46756595373153687 0.031474679708480835
0.3964409828186035 0.45966866612434387 0.03117288276553154
0.3770526051521301 0.45714110136032104 0.035993531346321106
0.3583449125289917 0.45983240008354187 0.045476604253053665
0.34715956449508667 0.46507975459098816 0.05497533455491066
0.28636032342910767 0.4380446672439575 0.24918609857559204
0.3491349220275879 0.48582231998443604 0.057882796972990036
0.4784688949584961 0.6868786215782166 -0.06675009429454803
0.40736114978790283 0.6922308802604675 -0.02737327106297016
0.42429637908935547 0.6440891623497009 -0.06188808009028435
0.44631704688072205 0.6869922280311584 -0.05855303630232811
0.49116915464401245 0.4567636251449585 -0.04056233912706375
0.3639432191848755 0.8236554265022278 0.09302082657814026
0.38657277822494507 0.8485976457595825 0.06288617104291916
0.4417222738265991 0.8975490927696228 -0.0014153416268527508
0.3334142565727234 0.7814391851425171 0.2115313559770584
0.42677363753318787 0.478516161441803 0.03460333123803139
0.44804635643959045 0.5425090789794922 -0.05330672115087509
0.4869917929172516 0.9048357009887695 -0.01613450050354004
0.4188632369041443 0.8923101425170898 0.05403102934360504
0.28417977690696716 0.6593701243400574 0.20627082884311676
0.4341670274734497 0.7510566711425781 -0.02104458212852478
0.42752605676651 0.758056640625 -0.024782435968518257
0.42186039686203003 0.7684581279754639 -0.028129715472459793
0.4182640314102173 0.7816687226295471 -0.024156030267477036
0.42202872037887573 0.81694096326828 -0.005706547759473324
0.40719592571258545 0.7237621545791626 0.005603074096143246
0.40165433287620544 0.7217518091201782 0.007457801140844822
0.3971509039402008 0.7191196084022522 0.008339179679751396
0.37381577491760254 0.7213010787963867 0.015605786815285683
0.30208614468574524 0.6633183360099792 0.07466281950473785
0.4533594250679016 0.5159705877304077 -0.029439790174365044
0.44626256823539734 0.46383386850357056 0.01481001079082489
0.43462783098220825 0.46815574169158936 0.028224816545844078
0.4131825268268585 0.7251250743865967 0.006747533101588488
0.31081655621528625 0.7235454320907593 0.10983233153820038
0.4624956548213959 0.46072226762771606 -0.019497107714414597
0.41486647725105286 0.8351730108261108 0.006569833029061556
0.4766772389411926 0.5504790544509888 -0.10485406219959259
0.461471289396286 0.5288817882537842 -0.07192220538854599
0.4813368022441864 0.5236271023750305 -0.08126702904701233
0.43033573031425476 0.583161473274231 -0.052965518087148666
0.4848683774471283 0.8844318985939026 -0.027474606409668922
0.48447975516319275 0.8586808443069458 -0.027209820225834846
0.4464138150215149 0.8539760708808899 -0.0156503114849329
0.3716639280319214 0.7807977795600891 0.042848195880651474
0.3885906934738159 0.6495298743247986 -0.0027158097364008427
0.39149725437164307 0.8107525706291199 0.02623933181166649
0.3402242064476013 0.6438590884208679 0.01741749979555607
0.3688797652721405 0.6735011339187622 0.007666887249797583
0.32698625326156616 0.6830063462257385 0.0407431535422802
0.4408624768257141 0.878474235534668 -0.012661452405154705
0.4192410111427307 0.5975242257118225 -0.03416700288653374
0.36107543110847473 0.7981263399124146 0.06646266579627991
0.3852168917655945 0.8271165490150452 0.04406947270035744
0.3533231019973755 0.7469286322593689 0.0484946072101593
0.29352185130119324 0.6917564868927002 0.13497008383274078
0.3336482644081116 0.7510474324226379 0.07442103326320648
0.2967524826526642 0.7112524509429932 0.19273324310779572
0.35516050457954407 0.7028273344039917 0.024531614035367966
0.4360641837120056 0.5598903894424438 -0.034447234123945236
0.42424529790878296 0.635894238948822 -0.09003067016601562
0.41466933488845825 0.6413042545318604 -0.0631578341126442
0.43019595742225647 0.6178666949272156 -0.10808438062667847
0.4291793406009674 0.4366081953048706 0.012335497885942459
0.39383408427238464 0.4180317521095276 0.015736088156700134
0.3622589707374573 0.4142281413078308 0.024471968412399292
0.3373105525970459 0.41935721039772034 0.03996049612760544
0.3215850591659546 0.4321408271789551 0.05811423063278198
0.3160141110420227 0.4802320599555969 0.09519074112176895
0.275214821100235 0.5506734848022461 0.21265539526939392
0.3268560767173767 0.5180211067199707 0.0710301399230957
0.3460351824760437 0.5265894532203674 0.052076179534196854
0.37328267097473145 0.5278304219245911 0.03668009489774704
0.4003463089466095 0.5231791138648987 0.026211347430944443
0.42196130752563477 0.5152743458747864 0.021635670214891434
0.43678852915763855 0.5066877007484436 0.01724887825548649
0.29265081882476807 0.5514125823974609 0.3010619878768921
0.41656437516212463 0.6476848125457764 -0.05171899497509003
0.44287675619125366 0.5660638809204102 -0.07328219711780548
0.43595337867736816 0.6375831365585327 -0.11194778978824615
0.4505307078361511 0.6508009433746338 -0.1051938533782959
0.43878641724586487 0.6423191428184509 -0.10040014237165451
0.4233027696609497 0.6550683975219727 -0.0455203577876091
0.4534875154495239 0.6531303524971008 -0.11218047887086868
0.4583930969238281 0.6592507362365723 -0.08482737839221954
0.43853986263275146 0.48682475090026855 0.03001806139945984
0.4485017955303192 0.4919842481613159 0.01238070335239172
0.453255295753479 0.4949053227901459 -0.005713083781301975
0.34125077724456787 0.46927282214164734 0.0645408183336258
0.32583126425743103 0.45545461773872375 0.06812582910060883
0.4982258379459381 0.5544862151145935 -0.10138513892889023
0.6781384944915771 0.4803922176361084 0.0022925930097699165
0.4979180097579956 0.656204104423523 -0.09081889688968658
0.7901230454444885 0.3859252333641052 0.10315046459436417
0.6084561347961426 0.5058269500732422 -0.012373480945825577
0.6346413493156433 0.5077390670776367 -0.01441315095871687
0.6593552827835083 0.5059879422187805 -0.011344997212290764
0.6904358863830566 0.49017632007598877 0.003934732172638178
0.5850273370742798 0.4995400607585907 -0.004607053007930517
0.6412060856819153 0.4241429567337036 -0.02321614697575569
0.6109981536865234 0.42754238843917847 -0.017724376171827316
0.6694163084030151 0.4287858009338379 -0.019042737782001495
0.6880203485488892 0.4399455785751343 -0.012063820846378803
0.7148198485374451 0.5077224373817444 0.013346172869205475
0.5821480751037598 0.8657060861587524 -0.01359857339411974
0.686980128288269 0.4729892611503601 0.009294348768889904
0.8008831143379211 0.5016995668411255 0.10633397847414017
0.7429921627044678 0.4871302843093872 0.034036196768283844
0.6187291145324707 0.6191467046737671 -0.039678189903497696
0.5074156522750854 0.7026798725128174 -0.07533903419971466
0.5076255798339844 0.721721351146698 -0.06403558701276779
0.5472272634506226 0.7108404636383057 -0.06621330976486206
0.5749973058700562 0.7191678285598755 -0.0499243400990963
0.5396242737770081 0.723808228969574 -0.058016274124383926
0.5655876994132996 0.7271996140480042 -0.042515188455581665
0.6129587888717651 0.7810115218162537 -0.013308391906321049
0.4883326292037964 0.6415786743164062 -0.1322060227394104
0.491499662399292 0.6151782274246216 -0.13955867290496826
0.7223025560379028 0.41521018743515015 -0.008000821806490421
0.5681024789810181 0.5527936816215515 -0.032781150192022324
0.558420717716217 0.6350743174552917 -0.08411061763763428
0.5633118152618408 0.6205452084541321 -0.07705219089984894
0.7003641724586487 0.6155387163162231 -0.0210090484470129
0.4945316016674042 0.5824003219604492 -0.12545442581176758
0.6585310697555542 0.38548171520233154 -0.03532667085528374
0.6956164836883545 0.39483118057250977 -0.023368719965219498
0.7586302757263184 0.3378085494041443 0.063245490193367
0.5436227321624756 0.4094034731388092 -0.04004368185997009
0.5853298306465149 0.44038820266723633 -0.0076044718734920025
0.6326639652252197 0.752189040184021 -0.013262584805488586
0.776726484298706 0.7446863651275635 0.16647441685199738
0.5397104620933533 0.6504573822021484 -0.07238482683897018
0.5191487669944763 0.6580655574798584 -0.06949221342802048
0.6102830171585083 0.7356245517730713 -0.01166305411607027
0.6035749316215515 0.7355149984359741 -0.015680015087127686
0.7085323929786682 0.3768041133880615 -0.014243562705814838
0.5626235604286194 0.6464788913726807 -0.07102364301681519
0.6092517971992493 0.38765376806259155 -0.04170890524983406
0.6121990084648132 0.36544477939605713 -0.04671110957860947
0.6451206207275391 0.2759305536746979 -0.0081971799954772
0.7351148128509521 0.36003392934799194 0.01874641142785549
0.6268174052238464 0.3220213055610657 -0.028292693197727203
0.7371293306350708 0.40281248092651367 0.009873447008430958
0.7662454843521118 0.399450421333313 0.05344716086983681
0.50774085521698 0.7127468585968018 -0.07233457267284393
0.5430687069892883 0.7178152799606323 -0.06306047737598419
0.5700604915618896 0.7233838438987732 -0.04801100492477417
0.5346484184265137 0.65517258644104 -0.06494322419166565
0.6068651080131531 0.7355287671089172 -0.013502968475222588
0.5898807644844055 0.7495667338371277 -0.024082312360405922
0.6003263592720032 0.7355349063873291 -0.01566244289278984
0.5225595831871033 0.642143726348877 -0.10374168306589127
0.5622606873512268 0.7296375632286072 -0.038553088903427124
0.536974310874939 0.7274140119552612 -0.0487116239964962
0.5077430009841919 0.7269821166992188 -0.054748207330703735
0.5219409465789795 0.8359860181808472 -0.03154877573251724
0.5080377459526062 0.7923657298088074 -0.05324062332510948
0.5067692995071411 0.778618574142456 -0.056382253766059875
0.506139874458313 0.7661913633346558 -0.051028914749622345
0.5057465434074402 0.7575733661651611 -0.04643374681472778
0.5605476498603821 0.7508891224861145 -0.03196195513010025
0.5640407800674438 0.7552545070648193 -0.03593460097908974
0.5688077807426453 0.762115478515625 -0.03973270207643509
0.5726972222328186 0.7704083919525146 -0.03609620779752731
0.5967699289321899 0.7102053165435791 -0.04428527131676674
0.8133742213249207 0.6159538626670837 0.199175164103508
0.5801215171813965 0.7451977729797363 -0.021398916840553284
0.5846308469772339 0.7467658519744873 -0.023936189711093903
0.511555552482605 0.66751629114151 -0.07085719704627991
0.5566883683204651 0.6614413857460022 -0.05151916295289993
0.5150488615036011 0.6629948019981384 -0.070524662733078
0.596045196056366 0.5677275657653809 -0.029542990028858185
0.6383225917816162 0.584927499294281 -0.028926389291882515
0.5701253414154053 0.6323343515396118 -0.06426867842674255
0.7125936150550842 0.2999933063983917 0.023442061617970467
0.6910036206245422 0.3329978585243225 -0.007948992773890495
0.666333019733429 0.36366286873817444 -0.032960083335638046
0.5891399383544922 0.803263247013092 -0.021872352808713913
0.5494603514671326 0.3721325397491455 -0.04878492280840874
0.5637004971504211 0.32240161299705505 -0.035240862518548965
0.5759654641151428 0.26615822315216064 -0.020676780492067337
0.679377555847168 0.500501811504364 -0.003996212966740131
0.7447908520698547 0.5268675088882446 0.021866319701075554
0.5690308213233948 0.4931313991546631 0.000507837743498385
0.7138614654541016 0.45220309495925903 0.004665878135710955
0.5490216612815857 0.5356013774871826 -0.038145244121551514
0.5392614603042603 0.6250749826431274 -0.10466675460338593
0.7714816927909851 0.5511151552200317 0.04234817996621132
0.7287560701370239 0.547010064125061 0.001742027117870748
0.695702314376831 0.5573726296424866 -0.015277012251317501
0.6443687677383423 0.5536351799964905 -0.01798793487250805
0.6060168743133545 0.5427266359329224 -0.017477871850132942
0.5767704844474792 0.5302890539169312 -0.018726380541920662
0.5106036067008972 0.5000011324882507 -0.0550471656024456
0.7665290832519531 0.6059014797210693 0.03392195329070091
0.7344059348106384 0.44846245646476746 0.012822061777114868
0.4831150770187378 0.6552373170852661 -0.12053140252828598
0.5627416372299194 0.5789631009101868 -0.044529154896736145
0.8196276426315308 0.49873048067092896 0.18336647748947144
0.5543854236602783 0.5157183408737183 -0.018575230613350868
0.5760565400123596 0.6335287690162659 -0.040312401950359344
0.6996167302131653 0.473270058631897 0.012604526244103909
0.5438114404678345 0.6074978709220886 -0.09542693942785263
0.8007814884185791 0.6790925860404968 0.18871256709098816
0.5674837231636047 0.48349273204803467 0.006370802875608206
0.5191818475723267 0.5920718312263489 -0.11509310454130173
0.6995360851287842 0.8066045641899109 0.05334745720028877
0.7024579048156738 0.8337878584861755 0.09428489208221436
0.7994235754013062 0.6125430464744568 0.11417526006698608
0.737921953201294 0.7725222110748291 0.0755906030535698
0.7849904894828796 0.447436660528183 0.0863606184720993
0.5853648781776428 0.8871151208877563 -0.002747088670730591
0.48352381587028503 0.6612318158149719 -0.08854196220636368
0.5874190926551819 0.5981860160827637 -0.039565011858940125
0.7657610177993774 0.4918234944343567 0.05336478725075722
0.6548871994018555 0.4899647831916809 -0.008570773527026176
0.6336688995361328 0.49237072467803955 -0.011226341128349304
0.5947418212890625 0.753116250038147 -0.021435068920254707
0.7615967988967896 0.6586464643478394 0.04135157912969589
0.5402953028678894 0.9158922433853149 0.009115704335272312
0.6202218532562256 0.8860023021697998 0.044393930584192276
0.6570297479629517 0.8650807738304138 0.06625396013259888
0.6117254495620728 0.49085721373558044 -0.008404834195971489
0.5900547504425049 0.4873109459877014 -0.0019339383579790592
0.5752145648002625 0.4857536554336548 0.005067656747996807
0.7523636221885681 0.4422021806240082 0.03384430333971977
0.5914384126663208 0.46419185400009155 -0.005726171191781759
0.6142449378967285 0.45659226179122925 -0.01217420119792223
0.6367445588111877 0.4554096460342407 -0.014627616852521896
0.6587058901786804 0.45901161432266235 -0.012182237580418587
0.6724521517753601 0.4646555483341217 -0.006729409098625183
0.8091404438018799 0.43701714277267456 0.14812514185905457
0.6687549352645874 0.48535338044166565 -0.003119182074442506
0.5682961344718933 0.6967936158180237 -0.05501778796315193
0.5378021597862244 0.6463156342506409 -0.08014851808547974
0.5150854587554932 0.6890987157821655 -0.07012387365102768
0.6603178977966309 0.8388904333114624 0.03782109171152115
0.624119758605957 0.8629605770111084 0.01905350387096405
0.5389984250068665 0.9040249586105347 -0.01909765601158142
0.7417682409286499 0.7965583801269531 0.13100317120552063
0.5747860074043274 0.47578465938568115 0.0014635100960731506
0.5245785117149353 0.5428860187530518 -0.06803740561008453
0.5820831656455994 0.9040244221687317 0.021109668537974358
0.7895142436027527 0.6705752015113831 0.11078435927629471
0.5347134470939636 0.7551052570343018 -0.04088364914059639
0.5375697612762451 0.7618963122367859 -0.045481521636247635
0.5404465794563293 0.772159993648529 -0.04989854246377945
0.5424588918685913 0.7849594354629517 -0.04665479063987732
0.559325635433197 0.822721004486084 -0.030346199870109558
0.5877206921577454 0.7308071851730347 -0.0282916110008955
0.5921947956085205 0.729101300239563 -0.029480816796422005
0.5965497493743896 0.7270171046257019 -0.030822427943348885
0.6194567084312439 0.7286962866783142 -0.02969091758131981
0.7218313813209534 0.672584593296051 3.270978049840778e-05
0.5293577313423157 0.5160256624221802 -0.04487595707178116
0.547580361366272 0.45994770526885986 -0.004787406884133816
0.563770055770874 0.4643572270870209 0.00038471544394269586
0.5834347009658813 0.7322221994400024 -0.025724422186613083
0.7246233820915222 0.7352611422538757 0.03450978547334671
0.523530125617981 0.45815595984458923 -0.030906401574611664
0.5724405646324158 0.8432871103286743 -0.020054999738931656
0.5043993592262268 0.5290188193321228 -0.07987810671329498
0.5414412617683411 0.5846510529518127 -0.07237502932548523
0.5292267203330994 0.8584384322166443 -0.02830294519662857
0.6328543424606323 0.7911266088485718 -0.0035883623640984297
0.5986374020576477 0.6540967226028442 -0.03712115436792374
0.6059248447418213 0.8208045959472656 -0.010554076172411442
0.6598511934280396 0.6501774191856384 -0.0359092615544796
0.6232537031173706 0.679413914680481 -0.0353681743144989
0.6824164986610413 0.6915460228919983 -0.020548777654767036
0.5358402729034424 0.8840742111206055 -0.029270688071846962
0.5596510171890259 0.5994632840156555 -0.05853216350078583
0.6527553200721741 0.8109394907951355 0.013808674179017544
0.617963969707489 0.8393114805221558 0.0035129517782479525
0.6542701721191406 0.756872296333313 -0.007230120711028576
0.7534691691398621 0.7032968401908875 0.050830770283937454
0.6870178580284119 0.7630014419555664 0.010694310069084167
0.7715439200401306 0.7241220474243164 0.10162940621376038
0.6451022624969482 0.7104434370994568 -0.026847654953598976
0.5432942509651184 0.5608301758766174 -0.05528293922543526
0.5297122001647949 0.6375128626823425 -0.10902230441570282
0.5491626858711243 0.6441057920455933 -0.08505787700414658
0.516003429889679 0.6191927790641785 -0.1233735904097557
0.5671741962432861 0.43238264322280884 -0.014415133744478226
0.6098646521568298 0.41339948773384094 -0.023054394870996475
0.6481577157974243 0.4099664092063904 -0.026398776099085808
0.6799321174621582 0.41581475734710693 -0.02193930186331272
0.7021992206573486 0.4292890429496765 -0.01136625837534666
0.7183447480201721 0.479895681142807 0.020260969176888466
0.80373615026474 0.5567517280578613 0.11013225466012955
0.701578676700592 0.5197746157646179 0.0022455856669694185
0.675296425819397 0.5281189680099487 -0.007708445191383362
0.6402006149291992 0.5285643935203552 -0.012400041334331036
0.6064475178718567 0.5226578712463379 -0.012513742782175541
0.5794751644134521 0.5140760540962219 -0.007573330774903297
0.5605975389480591 0.5051501989364624 -0.00655187526717782
0.8189043998718262 0.5566410422325134 0.19860045611858368
0.5511274337768555 0.6507868766784668 -0.07314764708280563
0.5200168490409851 0.5668317079544067 -0.0885099396109581
0.5083779692649841 0.6389377117156982 -0.12393613904714584
0.4976307153701782 0.6520294547080994 -0.11211834847927094
0.5107228755950928 0.6437066793441772 -0.11266116052865982
0.5462847352027893 0.6583564281463623 -0.06345493346452713
0.49152088165283203 0.654021143913269 -0.11781071126461029
0.4916664659976959 0.6598867774009705 -0.08960852026939392
0.5585485696792603 0.48406335711479187 0.005023878999054432
0.5453732013702393 0.48960667848587036 -0.006324311252683401
0.5368968844413757 0.4940485954284668 -0.021144233644008636
0.6805486679077148 0.46906566619873047 0.00010845169890671968
0.6994892358779907 0.4539068341255188 -0.00037735511432401836
0.3953508734703064 0.4756128191947937 0.0454021617770195
0.4196486473083496 0.47668585181236267 0.0454021617770195
0.3959277272224426 0.4533321261405945 0.0454021617770195
0.37073177099227905 0.4747622013092041 0.0454021617770195
0.39450204372406006 0.49796539545059204 0.0454021617770195
0.6312539577484131 0.47398602962493896 -0.0037560840137302876
0.6574612259864807 0.47356146574020386 -0.0037560840137302876
0.6302309036254883 0.45017290115356445 -0.0037560840137302876
0.6052521467208862 0.4740784764289856 -0.0037560840137302876
0.6323661208152771 0.4975571036338806 -0.0037560840137302876
