ply
format ascii 1.0
element vertex 478
property float x
property float y
property float z
end_header
0.5169124603271484 0.6902011632919312 -0.06680718064308167
0.5481885075569153 0.6106502413749695 -0.13061070442199707
0.535977840423584 0.6323621869087219 -0.07187618315219879
0.516517162322998 0.5348946452140808 -0.10231856256723404
0.5484675168991089 0.5870295763015747 -0.1382075399160385
0.5438084006309509 0.556821882724762 -0.12867994606494904
0.528164267539978 0.48531264066696167 -0.06539184600114822
0.34414929151535034 0.48079413175582886 0.00042106054024770856
0.5228965282440186 0.44066184759140015 -0.04875215142965317
0.5223740339279175 0.41362351179122925 -0.05208592861890793
0.5157422423362732 0.3086175322532654 -0.02802126295864582
0.5166975855827332 0.6972345113754272 -0.06344716995954514
0.515842080116272 0.7035278081893921 -0.056799955666065216
0.5149561762809753 0.7072224617004395 -0.047380231320858
0.5144640803337097 0.7411313056945801 -0.03513316065073013
0.5152660608291626 0.7498754858970642 -0.03998134657740593
0.5153331160545349 0.7606953382492065 -0.04588966444134712
0.5148141384124756 0.7728018164634705 -0.04379041865468025
0.5261073708534241 0.7888518571853638 -0.025745563209056854
0.544903576374054 0.6233649849891663 -0.11884951591491699
0.5136544704437256 0.6223857998847961 -0.09023866802453995
0.21812695264816284 0.4028037190437317 0.09134349972009659
0.4183010160923004 0.4993579089641571 -0.011865794658660889
0.39281344413757324 0.5010004043579102 -0.014499512501060963
0.36713606119155884 0.49921560287475586 -0.012345222756266594
0.3311934471130371 0.4865942597389221 0.001612178748473525
0.43908968567848206 0.4938957691192627 -0.0060665300115942955
0.37729424238204956 0.4394214451313019 -0.025104079395532608
0.40571513772010803 0.44203200936317444 -0.01909574680030346
0.3502885699272156 0.4429740607738495 -0.02186572179198265
0.3321610689163208 0.451340913772583 -0.014730886556208134
0.3089456558227539 0.4985790252685547 0.01047203317284584
0.4212740957736969 0.8266921639442444 -0.008894428610801697
0.333107590675354 0.47494614124298096 0.00628505228087306
0.21130767464637756 0.49827805161476135 0.10065113753080368
0.27467629313468933 0.4837765097618103 0.02926531992852688
0.3923467993736267 0.5862919688224792 -0.03739085793495178
0.4799734055995941 0.6851749420166016 -0.06984502077102661
0.480968713760376 0.701524019241333 -0.05784209072589874
0.4442276656627655 0.6899812817573547 -0.059375517070293427
0.4190637469291687 0.6952338218688965 -0.03966258093714714
0.4509333372116089 0.7010710835456848 -0.049884770065546036
0.4272727072238922 0.702130913734436 -0.03162302449345589
0.38314229249954224 0.7285445928573608 -0.00019062019418925047
0.5259899497032166 0.6100873351097107 -0.13120384514331818
0.5229098796844482 0.5871269106864929 -0.13863106071949005
0.2908559739589691 0.4284191131591797 -0.01749260537326336
0.4468365013599396 0.5320195555686951 -0.033199865370988846
0.44770631194114685 0.5992723703384399 -0.08290855586528778
0.44414404034614563 0.5864651203155518 -0.07565192878246307
0.3129129409790039 0.5810651779174805 -0.01991085521876812
0.5204362273216248 0.5589795112609863 -0.1255323886871338
0.35591837763786316 0.40331941843032837 -0.04640519991517067
0.31876522302627563 0.4121299386024475 -0.035565681755542755
0.2533436417579651 0.36304792761802673 0.05054854974150658
0.47072848677635193 0.42576128244400024 -0.04929592087864876
0.4300316274166107 0.4511181712150574 -0.008459547534584999
0.36039209365844727 0.7003572583198547 -0.0006330534815788269
0.2216501533985138 0.7226516008377075 0.1630498468875885
0.46549567580223083 0.6135254502296448 -0.0709279254078865
0.4879763126373291 0.6210676431655884 -0.06971865892410278
0.3867124617099762 0.7065894603729248 0.0032439378555864096
0.3927316665649414 0.7072456479072571 -4.929149872623384e-05
0.30120033025741577 0.3980562090873718 -0.02602636069059372
0.4416254162788391 0.6077271103858948 -0.06981131434440613
0.40553048253059387 0.4061422348022461 -0.05130855739116669
0.4001106023788452 0.3889473080635071 -0.056657373905181885
0.37189775705337524 0.31381553411483765 -0.02016562595963478
0.28253576159477234 0.38401418924331665 0.008316571824252605
0.39310336112976074 0.35338765382766724 -0.03723844885826111
0.27060025930404663 0.41881054639816284 -6.405910971807316e-05
0.2483534961938858 0.41658705472946167 0.0448751337826252
0.4801144003868103 0.694379448890686 -0.06606495380401611
0.44752267003059387 0.6960015296936035 -0.05500134825706482
0.4231334328651428 0.6988531947135925 -0.03721039369702339
0.4701121151447296 0.6174749135971069 -0.06478510797023773
0.38980576395988464 0.706903874874115 0.0016689308686181903
0.40447691082954407 0.7214950323104858 -0.008746259845793247
0.39547622203826904 0.7076654434204102 -0.00046597508480772376
0.48816537857055664 0.6090014576911926 -0.10277892649173737
0.4309680759906769 0.7043357491493225 -0.02802457846701145
0.4543232023715973 0.7042386531829834 -0.04072972387075424
0.4822540283203125 0.7055095434188843 -0.04874690622091293
0.4846732020378113 0.7867014408111572 -0.028311587870121002
0.4775466322898865 0.769557774066925 -0.046574916690588
0.47896844148635864 0.7575342655181885 -0.048332877457141876
0.4806232750415802 0.7468675374984741 -0.04178805276751518
0.48245546221733093 0.7387841939926147 -0.03687790781259537
0.43153801560401917 0.7261497378349304 -0.018911123275756836
0.4274858236312866 0.7291738986968994 -0.023067990317940712
0.4224895238876343 0.734351396560669 -0.026307182386517525
0.4186491072177887 0.7406764030456543 -0.022546926513314247
0.40010127425193787 0.6646965146064758 -0.03558604419231415
0.19340786337852478 0.6048100590705872 0.1919371485710144
0.5408210158348083 0.6286693215370178 -0.08841954171657562
0.41442757844924927 0.7188889384269714 -0.006715421564877033
0.40958690643310547 0.719697117805481 -0.008983482606709003
0.4971090257167816 0.6300016045570374 -0.07028888165950775
0.4469086229801178 0.6205670237541199 -0.05014481395483017
0.4929371774196625 0.6256437301635742 -0.07074004411697388
0.41961124539375305 0.5432010293006897 -0.029645375907421112
0.3774500787258148 0.556049644947052 -0.02998710609972477
0.4358559548854828 0.5957395434379578 -0.06262146681547165
0.30318284034729004 0.33219224214553833 0.010857058688998222
0.32931777834892273 0.36190590262413025 -0.017863623797893524
0.3446880578994751 0.3871104121208191 -0.043062321841716766
0.4091435968875885 0.7527326941490173 -0.01027708686888218
0.4618750810623169 0.39714711904525757 -0.0583161935210228
0.453865647315979 0.3536403179168701 -0.04371128976345062
0.4402048587799072 0.30726122856140137 -0.032969389110803604
0.34480059146881104 0.49461567401885986 -0.005880436860024929
0.28090420365333557 0.5113962888717651 0.01985052227973938
0.4520794451236725 0.4885343015193939 -0.0015250126598402858
0.303455650806427 0.459195077419281 -0.00011201418965356424
0.46614646911621094 0.5188496708869934 -0.039686042815446854
0.47132548689842224 0.5931687951087952 -0.10365129262208939
0.24458812177181244 0.5339245200157166 0.04016246274113655
0.3031003475189209 0.525331437587738 0.00139381003100425
0.3395935893058777 0.5333895683288574 -0.014156428165733814
0.3891494572162628 0.5317643880844116 -0.018242644146084785
0.4249262511730194 0.5244149565696716 -0.01753387041389942
0.45127323269844055 0.5154183506965637 -0.01992163434624672
0.503946840763092 0.49056124687194824 -0.060044065117836
0.24632690846920013 0.5785226821899414 0.0339873768389225
0.2802939713001251 0.4549570381641388 0.006692573893815279
0.5310899019241333 0.6226096749305725 -0.11962577700614929
0.44874054193496704 0.553442656993866 -0.043207645416259766
0.18891862034797668 0.49953582882881165 0.17355452477931976
0.4711180329322815 0.5052540898323059 -0.020688345655798912
0.42995256185531616 0.596339225769043 -0.03740673512220383
0.3199780583381653 0.47463366389274597 0.008860000409185886
0.467397004365921 0.5777450203895569 -0.09447252005338669
0.2019326388835907 0.6623340845108032 0.18280184268951416
0.44913992285728455 0.48207759857177734 0.004252512939274311
0.49453243613243103 0.5665315389633179 -0.11466716974973679
0.29305922985076904 0.7712676525115967 0.059480998665094376
0.2898253798484802 0.8064603209495544 0.09661466628313065
0.20976167917251587 0.5946254730224609 0.11132252961397171
0.25632986426353455 0.740056574344635 0.07879360020160675
0.22797147929668427 0.45376157760620117 0.07897797226905823
0.41687533259391785 0.8556424379348755 0.000470061699161306
0.5299620032310486 0.6276514530181885 -0.08810391277074814
0.423747718334198 0.5684882402420044 -0.03765716403722763
0.24895894527435303 0.4861910939216614 0.04867253825068474
0.37083613872528076 0.48857730627059937 -0.009197908453643322
0.39296457171440125 0.49061697721481323 -0.011718216352164745
0.40022212266921997 0.7240430116653442 -0.006063719745725393
0.24469813704490662 0.6271345019340515 0.04287564009428024
0.4693036675453186 0.8917152881622314 0.011372392065823078
0.37791696190834045 0.8598071336746216 0.04787116125226021
0.33685338497161865 0.8378192782402039 0.07020840048789978
0.5194305181503296 0.35727182030677795 -0.03900991007685661
0.5257771611213684 0.8940967321395874 0.01356735359877348
0.4135858118534088 0.4892826974391937 -0.009542900137603283
0.4323027431964874 0.4857569932937622 -0.0037505398504436016
0.4439127743244171 0.48361697793006897 0.0024932678788900375
0.25722870230674744 0.4496381878852844 0.026927726343274117
0.4259784519672394 0.4699416756629944 -0.0063543180003762245
0.4040158689022064 0.46537238359451294 -0.013641931116580963
0.38330933451652527 0.46442711353302 -0.01623714342713356
0.3624482750892639 0.46642524003982544 -0.014116235077381134
0.3487476706504822 0.4697965383529663 -0.008376143872737885
0.19789224863052368 0.44550958275794983 0.13694103062152863
0.35555946826934814 0.4848955571651459 -0.004584443289786577
0.5330381393432617 0.6489587426185608 -0.06485404074192047
0.4327089786529541 0.6531471014022827 -0.050495922565460205
0.4684750735759735 0.6105783581733704 -0.07919073849916458
0.4916151463985443 0.6489670276641846 -0.06796829402446747
0.5235586166381836 0.4628930687904358 -0.04786358028650284
0.3338239789009094 0.8035724759101868 0.04411102086305618
0.3731749653816223 0.8301815390586853 0.023810120299458504
0.46928584575653076 0.8719390034675598 -0.017151424661278725
0.2529306411743164 0.7709571719169617 0.12946408987045288
0.4419645071029663 0.47709667682647705 -0.0002513956860639155
0.4897233843803406 0.5251102447509766 -0.0689934566617012
0.5279912352561951 0.8749170303344727 -0.014494402334094048
0.4212324917316437 0.8789596557617188 0.024195926263928413
0.21463587880134583 0.6473934650421143 0.10914930701255798
0.4546641707420349 0.7331292629241943 -0.029901297762989998
0.4508296549320221 0.7388924956321716 -0.034610215574502945
0.44743144512176514 0.7473925948143005 -0.038679759949445724
0.44518548250198364 0.757820725440979 -0.0357021763920784
0.4424973726272583 0.7731673717498779 -0.022390544414520264
0.4072668254375458 0.7042229771614075 -0.015346400439739227
0.40322595834732056 0.7024363279342651 -0.016152476891875267
0.3996877670288086 0.7003288865089417 -0.017522668465971947
0.37403953075408936 0.6796746850013733 -0.017722224816679955
0.2831447720527649 0.6352401375770569 0.002900637686252594
0.48573049902915955 0.5033931732177734 -0.04803843796253204
0.4691181778907776 0.4648655652999878 -0.007437259890139103
0.45259037613868713 0.4681713879108429 -0.0018870624480769038
0.41110649704933167 0.7054638266563416 -0.012822701595723629
0.2714054584503174 0.6978650689125061 0.039042774587869644
0.4950098693370819 0.464374840259552 -0.0360361784696579
0.43062227964401245 0.7984116077423096 -0.01421414315700531
0.5381951928138733 0.5317699909210205 -0.10638222098350525
0.5100655555725098 0.5133932828903198 -0.08257660269737244
0.5331519842147827 0.5089347958564758 -0.0844976007938385
0.47101709246635437 0.5590232610702515 -0.07158323377370834
0.5284212827682495 0.8476238250732422 -0.026149244979023933
0.5269746780395508 0.8157032132148743 -0.02613086812198162
0.4785442650318146 0.8136435747146606 -0.02600768394768238
0.36322930455207825 0.7431245446205139 0.0075411610305309296
0.4068773686885834 0.6152045726776123 -0.03378556668758392
0.3935423791408539 0.7744830846786499 -0.0012341149849817157
0.3475608229637146 0.612864077091217 -0.0326448455452919
0.3793007433414459 0.6383786201477051 -0.02922886237502098
0.3192973732948303 0.6507526636123657 -0.013784090988337994
0.4724230170249939 0.8447437286376953 -0.027039144188165665
0.45027005672454834 0.5699185132980347 -0.057016726583242416
0.342953622341156 0.7688561677932739 0.022625844925642014
0.381020724773407 0.7997387051582336 0.010498398914933205
0.3406769037246704 0.708991527557373 0.0033002165146172047
0.24667119979858398 0.6700692772865295 0.053216662257909775
0.3072456121444702 0.7208226323127747 0.01929507590830326
0.2277764230966568 0.6964729428291321 0.10160952061414719
0.3518889248371124 0.6646801829338074 -0.018501272425055504
0.4698619246482849 0.5394074320793152 -0.05498518422245979
0.4806760251522064 0.6045262813568115 -0.10797958076000214
0.45654237270355225 0.6077742576599121 -0.08400265127420425
0.49696287512779236 0.5897858142852783 -0.12350974231958389
0.44803041219711304 0.4437101185321808 -0.01714693382382393
0.4062986373901367 0.42875605821609497 -0.02794710174202919
0.3696705102920532 0.4258604049682617 -0.032822418957948685
0.3382583260536194 0.4309999346733093 -0.028713800013065338
0.3155903220176697 0.44150400161743164 -0.017781130969524384
0.3001435399055481 0.479322224855423 0.01562723144888878
0.2079172134399414 0.5456008315086365 0.10633128881454468
0.3258105516433716 0.5072888135910034 0.0011289137182757258
0.35419750213623047 0.5139028429985046 -0.008665112778544426
0.389538049697876 0.514936089515686 -0.01303192786872387
0.4216246008872986 0.510748565196991 -0.011484229937195778
0.4459114670753479 0.5039286613464355 -0.008931203745305538
0.46245136857032776 0.49758097529411316 -0.007910161279141903
0.1903471052646637 0.5517112016677856 0.18994545936584473
0.45314642786979675 0.6125771999359131 -0.07220323383808136
0.494259238243103 0.5451971292495728 -0.08849889039993286
0.5043298006057739 0.6072765588760376 -0.12284785509109497
0.5151748657226562 0.6194270849227905 -0.11126859486103058
0.5013861060142517 0.6114692687988281 -0.11168742924928665
0.457573801279068 0.6189385652542114 -0.06262058019638062
0.5218971371650696 0.621333122253418 -0.11689350754022598
0.5205703973770142 0.6260631084442139 -0.08911959081888199
0.4597088694572449 0.4821280241012573 0.0025683538988232613
0.474768728017807 0.4865013360977173 -0.008825743570923805
0.4851750135421753 0.48998284339904785 -0.025242185220122337
0.34022241830825806 0.47259578108787537 -0.002339326310902834
0.3200446367263794 0.4613567590713501 -0.0034178877249360085
0.556371808052063 0.5354836583137512 -0.09402641654014587
0.6605011224746704 0.48821669816970825 0.06002197414636612
0.5637434720993042 0.6224727630615234 -0.08369280397891998
0.7204591035842896 0.4180155098438263 0.18343886733055115
0.6038680076599121 0.5021892189979553 0.026687894016504288
0.623539924621582 0.5044689774513245 0.03185738995671272
0.6425629258155823 0.5046087503433228 0.04140092805027962
0.6673434972763062 0.4953235387802124 0.06507080793380737
0.5877586007118225 0.4973503053188324 0.024012131616473198
0.6385120153427124 0.4535523056983948 0.022883882746100426
0.6154487133026123 0.45438170433044434 0.018475810065865517
0.6587213277816772 0.45766156911849976 0.03384454920887947
0.6707714200019836 0.46527770161628723 0.04554358497262001
0.682113528251648 0.5075412392616272 0.07879778742790222
0.612482488155365 0.8218991756439209 0.020381473004817963
0.6675394773483276 0.48403608798980713 0.06866222620010376
0.7260417938232422 0.5094091892242432 0.19434349238872528
0.7033728957176208 0.4954250752925873 0.10601310431957245
0.6369492411613464 0.5894491076469421 0.0025401313323527575
0.5510952472686768 0.6844017505645752 -0.05834082141518593
0.5470532774925232 0.7008113265037537 -0.04704877361655235
0.5793644189834595 0.6879115700721741 -0.03589598089456558
0.5972754955291748 0.6924236416816711 -0.007730862591415644
0.5710234642028809 0.6994297504425049 -0.0291256345808506
0.5881773233413696 0.6998270153999329 -0.0041389125399291515
0.6325606107711792 0.7272204756736755 0.04003401845693588
0.5675026178359985 0.6103347539901733 -0.12580673396587372
0.5695410370826721 0.587510347366333 -0.13227130472660065
0.6988387107849121 0.4500783085823059 0.05430113524198532
0.5864903926849365 0.5345529913902283 -0.007302416954189539
0.6115145683288574 0.6001337170600891 -0.058039937168359756
0.6096411943435669 0.5877246260643005 -0.05002608522772789
0.6948158740997314 0.5863322615623474 0.04560621455311775
0.5638164281845093 0.559415340423584 -0.11731001734733582
0.6579509973526001 0.4296090006828308 0.002274169586598873
0.6834100484848022 0.43669694662094116 0.02613360993564129
0.707064688205719 0.3792615532875061 0.1328703910112381
0.5689294338226318 0.44412925839424133 -0.03391379117965698
0.5950069427490234 0.4610304832458496 0.022007586434483528
0.6503688097000122 0.6994932889938354 0.0473056435585022
0.7056400179862976 0.7190249562263489 0.2498670369386673
0.5946446657180786 0.6138111352920532 -0.05192423611879349
0.5765771865844727 0.6216968297958374 -0.06016764044761658
0.6175117492675781 0.7028195261955261 0.0454852357506752
0.6115296483039856 0.7037636637687683 0.03771834075450897
0.6934770941734314 0.42419689893722534 0.04031148925423622
0.6112297773361206 0.6085827946662903 -0.04537830129265785
0.6209989786148071 0.4305933713912964 -0.017915166914463043
0.6257734894752502 0.41452622413635254 -0.021995285525918007
0.6345586180686951 0.3255121111869812 0.025672921910881996
0.6991764307022095 0.39933180809020996 0.082003153860569
0.6262826323509216 0.36471816897392273 0.0028010266833007336
0.7085360288619995 0.4409293532371521 0.07719600945711136
0.7144063711166382 0.4309591054916382 0.1286359280347824
0.5496019124984741 0.6936913728713989 -0.05455572158098221
0.5753442049026489 0.6942123174667358 -0.032839324325323105
0.5929349064826965 0.6962524652481079 -0.007662103045731783
0.589153528213501 0.617687463760376 -0.0497184656560421
0.6145380735397339 0.7032890319824219 0.041097916662693024
0.6040671467781067 0.7181926965713501 0.025145551189780235
0.6087421178817749 0.7043220400810242 0.03638071194291115
0.5860821604728699 0.6095577478408813 -0.08589119464159012
0.5836277008056641 0.7020753622055054 -0.001761167193762958
0.5666258931159973 0.7025837898254395 -0.021095387637615204
0.5438914895057678 0.7047185301780701 -0.037630196660757065
0.5609414577484131 0.7858633995056152 -0.017613951116800308
0.5487673878669739 0.7686023712158203 -0.0344257727265358
0.5480026602745056 0.7564104795455933 -0.03561771288514137
0.5461578965187073 0.7457293272018433 -0.029276307672262192
0.5430461764335632 0.7376825213432312 -0.02499203383922577
0.5819882154464722 0.7236223816871643 0.007589512504637241
0.5870118141174316 0.7265684604644775 0.0035681079607456923
0.5922449827194214 0.7315704822540283 0.0011029759189113975
0.5957987308502197 0.7378939390182495 0.006435490678995848
0.6302918791770935 0.6648935079574585 0.0002390458103036508
0.7137635946273804 0.6099154353141785 0.28787389397621155
0.5937995314598083 0.7160722613334656 0.025966642424464226
0.5991314053535461 0.7166012525558472 0.02383923903107643
0.568661093711853 0.630473256111145 -0.06103880703449249
0.6023563146591187 0.6209381818771362 -0.030714381486177444
0.572711169719696 0.6263272166252136 -0.061543598771095276
0.608559250831604 0.5464750528335571 0.00484453747048974
0.6444301605224609 0.5604953169822693 0.0166799183934927
0.6123775243759155 0.5971624851226807 -0.036184679716825485
0.6804147958755493 0.3474762439727783 0.0774373710155487
0.6711130142211914 0.37664783000946045 0.04102328419685364
0.6654024124145508 0.4140476584434509 0.009034426882863045
0.6150474548339844 0.7511656284332275 0.022995950654149055
0.5776153802871704 0.41863131523132324 -0.041467808187007904
0.5773837566375732 0.3597237169742584 -0.02321196347475052
0.5819287896156311 0.313851535320282 -0.010105758905410767
0.6581354141235352 0.5017827153205872 0.05417368561029434
0.7015427947044373 0.5212264060974121 0.09597233682870865
0.5778801441192627 0.49258238077163696 0.025229521095752716
0.6879667639732361 0.4731791615486145 0.06877541542053223
0.5718203186988831 0.520963191986084 -0.019035086035728455
0.5994806289672852 0.5940834879875183 -0.083623968064785
0.7248246073722839 0.5426437854766846 0.1263348013162613
0.6895575523376465 0.533974289894104 0.07320255041122437
0.6660807132720947 0.540661633014679 0.04701531305909157
0.6287993788719177 0.5372205376625061 0.028270689770579338
0.6005456447601318 0.5288029313087463 0.017682235687971115
0.5802075266838074 0.5196782350540161 0.006695491261780262
0.5477002263069153 0.4917043447494507 -0.05154261738061905
0.7300848364830017 0.5849595665931702 0.11997363716363907
0.7021004557609558 0.47061318159103394 0.08287720382213593
0.5566807389259338 0.6226131319999695 -0.11529214680194855
0.5914350748062134 0.555472731590271 -0.017980964854359627
0.7189639806747437 0.5105918049812317 0.27265602350234985
0.5658414959907532 0.5094860196113586 -0.00028486287919804454
0.6113741993904114 0.5978155732154846 -0.011486878618597984
0.6753465533256531 0.48528802394866943 0.074252650141716
0.5966751575469971 0.578790545463562 -0.0741548091173172
0.7125465869903564 0.6631872653961182 0.2749572992324829
0.5784313678741455 0.4858360290527344 0.03209363669157028
0.5803195834159851 0.567296028137207 -0.10002480447292328
0.6891010403633118 0.7641311883926392 0.12403348088264465
0.67789626121521 0.79538494348526 0.1621258556842804
0.7330566644668579 0.6003918647766113 0.20506326854228973
0.7096896767616272 0.7352030873298645 0.1547897905111313
0.7202600836753845 0.4669121205806732 0.16871266067028046
0.6159324645996094 0.8486728668212891 0.031723275780677795
0.5510684251785278 0.6277480125427246 -0.0854514017701149
0.610604465007782 0.5710526704788208 -0.006586572155356407
0.7178794741630554 0.4991793632507324 0.1333353966474533
0.641585111618042 0.49304884672164917 0.04311445727944374
0.6247047185897827 0.4934315085411072 0.034538764506578445
0.6080470085144043 0.7206518054008484 0.02993907779455185
0.7312700152397156 0.6306459307670593 0.12653939425945282
0.5752555727958679 0.8864321708679199 0.029216468334197998
0.6332937479019165 0.8492236137390137 0.09116478264331818
0.6545087099075317 0.825972318649292 0.12397674471139908
0.6082552075386047 0.4915068745613098 0.029902871698141098
0.5928304195404053 0.4885310232639313 0.02995787188410759
0.5830549001693726 0.48712605237960815 0.03265554830431938
0.7136891484260559 0.466257244348526 0.10920224338769913
0.5968623161315918 0.4744113087654114 0.028193363919854164
0.614081084728241 0.4705406427383423 0.026542866602540016
0.6315833330154419 0.4704057574272156 0.030682409182190895
0.648296594619751 0.4737216830253601 0.039330895990133286
0.6582528352737427 0.4782288372516632 0.04876527935266495
0.7235947251319885 0.4590771794319153 0.2339673787355423
0.652771532535553 0.49089857935905457 0.05233444273471832
0.6105326414108276 0.6534087657928467 -0.023123804479837418
0.5952868461608887 0.6109494566917419 -0.06161684915423393
0.568694531917572 0.6490006446838379 -0.05650109797716141
0.664609432220459 0.7954201698303223 0.09697483479976654
0.6408858895301819 0.8216453790664673 0.06594505906105042
0.5786804556846619 0.8679141402244568 6.582779315067455e-05
0.6935712695121765 0.7631421089172363 0.2078104019165039
0.5846317410469055 0.48093903064727783 0.03046494722366333
0.5652357339859009 0.5264970660209656 -0.05520747974514961
0.6089078783988953 0.8703344464302063 0.0562269501388073
0.7308584451675415 0.649724006652832 0.1994628608226776
0.5653804540634155 0.7311625480651855 -0.009534790180623531
0.5703864693641663 0.7368965148925781 -0.013479969464242458
0.5739900469779968 0.7452911138534546 -0.016650676727294922
0.5763548612594604 0.7558966279029846 -0.013043112121522427
0.5925754308700562 0.7717593312263489 0.0025192692410200834
0.6014320254325867 0.7013405561447144 0.01882857084274292
0.6057889461517334 0.6993423700332642 0.02089371159672737
0.6095770597457886 0.6970844864845276 0.02144138514995575
0.6448275446891785 0.679533064365387 0.026742272078990936
0.7124539613723755 0.6381723284721375 0.07452034950256348
0.5589162111282349 0.5052276849746704 -0.033634793013334274
0.5652893781661987 0.47225672006607056 0.01075894758105278
0.5767792463302612 0.4747338891029358 0.023734664544463158
0.5970385670661926 0.7028366327285767 0.01994962804019451
0.7119539380073547 0.6966000199317932 0.11135267466306686
0.5491508841514587 0.4721963405609131 -0.025544557720422745
0.601616382598877 0.7950602173805237 0.012006806209683418
0.5523852705955505 0.5141648650169373 -0.07523782551288605
0.5839136838912964 0.5604546070098877 -0.05303599685430527
0.5675424337387085 0.8116130232810974 -0.01360239926725626
0.6476058959960938 0.7405529618263245 0.053004488348960876
0.6269805431365967 0.6168166399002075 -0.00040180518408305943
0.6265853643417358 0.7709569931030273 0.03471602126955986
0.6720134019851685 0.6161345839500427 0.01897001639008522
0.6457313895225525 0.6401742100715637 0.012738607823848724
0.6895359754562378 0.6527132391929626 0.04539920389652252
0.5760397911071777 0.8419605493545532 -0.010955986566841602
0.596329927444458 0.5715286731719971 -0.033697664737701416
0.6629229784011841 0.7639106512069702 0.0735539048910141
0.6370941996574402 0.7938814759254456 0.04985889047384262
0.6661749482154846 0.7078923583030701 0.057919811457395554
0.7266919612884521 0.6706700921058655 0.13367421925067902
0.6895745992660522 0.7180982828140259 0.08111085742712021
0.7239424586296082 0.6952905654907227 0.18800464272499084
0.6624342799186707 0.6660149097442627 0.03190108761191368
0.5773438215255737 0.5411607027053833 -0.03515113890171051
0.593601644039154 0.6050548553466797 -0.0897933840751648
0.6052981615066528 0.6082752346992493 -0.06297191232442856
0.5861509442329407 0.590258777141571 -0.10865802317857742
0.5827510952949524 0.45630842447280884 0.00770118972286582
0.6171538829803467 0.4456321597099304 0.007845685817301273
0.6466069221496582 0.44464588165283203 0.013937028124928474
0.6693817377090454 0.4495457410812378 0.028489964082837105
0.6833379864692688 0.4588756263256073 0.04663269594311714
0.6871442198753357 0.49020010232925415 0.08564189076423645
0.7311157584190369 0.554457426071167 0.20253852009773254
0.671938419342041 0.5154565572738647 0.06558486074209213
0.6525952816009521 0.5204127430915833 0.04746418818831444
0.6263495087623596 0.5196443796157837 0.03303844854235649
0.6013116836547852 0.5144771933555603 0.024684423580765724
0.5825076103210449 0.5078986287117004 0.01818576082587242
0.5700106620788574 0.5015372037887573 0.014041529968380928
0.7141581773757935 0.5601332187652588 0.2893408238887787
0.6037099361419678 0.6130918264389038 -0.05150310695171356
0.5710799098014832 0.5462390780448914 -0.07413727045059204
0.581260621547699 0.6073404550552368 -0.11150796711444855
0.5665233135223389 0.6192928552627563 -0.10465993732213974
0.5785900354385376 0.6116388440132141 -0.09993375092744827
0.5971187353134155 0.6191970705986023 -0.0451769158244133
0.5633017420768738 0.6213501691818237 -0.11157365143299103
0.5584465265274048 0.6259869933128357 -0.084493488073349
0.571485161781311 0.4867188334465027 0.02572409063577652
0.5607683658599854 0.49116647243499756 0.008301041088998318
0.5554536581039429 0.49483075737953186 -0.01094942819327116
0.6637222766876221 0.481551855802536 0.05742187798023224
0.6774707436561584 0.4740620255470276 0.06040283665060997
0.3920762240886688 0.4752935767173767 -0.005416163243353367
0.4135006070137024 0.47478336095809937 -0.005416163243353367
0.3903017044067383 0.45866626501083374 -0.005416163243353367
0.37021249532699585 0.475754976272583 -0.005416163243353367
0.39391401410102844 0.49188750982284546 -0.005416163243353367
0.621151328086853 0.48017483949661255 0.04029271379113197
0.6434782147407532 0.4809258282184601 0.04029271379113197
0.621686577796936 0.46339577436447144 0.04029271379113197
0.5985664129257202 0.4792554974555969 0.04029271379113197
0.6206645965576172 0.49672794342041016 0.04029271379113197
