ply
format ascii 1.0
element vertex 478
property float x
property float y
property float z
end_header
0.5083698630332947 0.7077627778053284 -0.06438729912042618
0.5054439306259155 0.631227433681488 -0.13233502209186554
0.5044044256210327 0.6512392163276672 -0.06709069013595581
0.48475322127342224 0.5487265586853027 -0.10495441406965256
0.5057113766670227 0.6068734526634216 -0.14194992184638977
0.5056414604187012 0.5735429525375366 -0.1340072751045227
0.5047003626823425 0.4915528893470764 -0.07415829598903656
0.33164912462234497 0.4809395670890808 0.01887599565088749
0.5040708184242249 0.43075793981552124 -0.062587209045887
0.5040245652198792 0.3990308940410614 -0.07022665441036224
0.5032549500465393 0.2838497757911682 -0.053369950503110886
0.5084441304206848 0.7144158482551575 -0.060830071568489075
0.5083237886428833 0.7200955748558044 -0.052323903888463974
0.5082114338874817 0.7235863208770752 -0.03969397768378258
0.5080737471580505 0.7494051456451416 -0.027549345046281815
0.5086217522621155 0.7585198879241943 -0.029135309159755707
0.508972704410553 0.7697446942329407 -0.031992923468351364
0.5092862248420715 0.7817871570587158 -0.02458071894943714
0.5066670775413513 0.8216965198516846 0.003448618110269308
0.5051319003105164 0.6426418423652649 -0.11907700449228287
0.4821784794330597 0.6399272680282593 -0.08546406030654907
0.2305307686328888 0.3849777281284332 0.1242835521697998
0.40329381823539734 0.5033028721809387 -0.004226157441735268
0.37864312529563904 0.5063149333000183 -0.0029325622599571943
0.35483598709106445 0.5048089623451233 0.0033125211484730244
0.32314491271972656 0.48826655745506287 0.023026717826724052
0.42402997612953186 0.4965687394142151 -0.0017132776556536555
0.3598761558532715 0.427800714969635 -0.017166515812277794
0.389835000038147 0.4300331473350525 -0.01659967191517353
0.33364689350128174 0.4337676763534546 -0.00923252571374178
0.31786733865737915 0.4446565508842468 0.0010760808363556862
0.30404579639434814 0.50262451171875 0.03564415127038956
0.4158124625682831 0.8455369472503662 0.03246759623289108
0.3226759433746338 0.4720664620399475 0.026435036212205887
0.2283809781074524 0.4875068962574005 0.14288124442100525
0.2736780345439911 0.48272788524627686 0.058714184910058975
0.38370904326438904 0.6030935049057007 -0.019229141995310783
0.47935765981674194 0.7007801532745361 -0.061640799045562744
0.48233407735824585 0.717745304107666 -0.04909397289156914
0.4518609046936035 0.7073174118995667 -0.047007739543914795
0.4330749213695526 0.7148835062980652 -0.02730201557278633
0.4598228931427002 0.7181968092918396 -0.039305876940488815
0.4421728551387787 0.7210100889205933 -0.021253086626529694
0.39817169308662415 0.7607975006103516 0.019754773005843163
0.4853173792362213 0.6301824450492859 -0.13056378066539764
0.48248425126075745 0.6068178415298462 -0.13945764303207397
0.2795901894569397 0.4238058626651764 0.00541563518345356
0.43204227089881897 0.5420799255371094 -0.02748309075832367
0.4299880862236023 0.6189637184143066 -0.07150714844465256
0.4281997084617615 0.6057405471801758 -0.06476428359746933
0.31268590688705444 0.5986185073852539 0.009305719286203384
0.48361724615097046 0.5758203268051147 -0.126787930727005
0.33546119928359985 0.3980804681777954 -0.03793441504240036
0.3016771078109741 0.40682440996170044 -0.01908215321600437
0.2540367841720581 0.3444490134716034 0.07292825728654861
0.4488229751586914 0.4193864166736603 -0.05610585957765579
0.41599684953689575 0.4418417811393738 -0.008507070131599903
0.38200142979621887 0.7335606813430786 0.020860614255070686
0.26816326379776 0.7075988054275513 0.22761623561382294
0.44780951738357544 0.6322671175003052 -0.06056048348546028
0.4666568636894226 0.6398626565933228 -0.061765603721141815
0.4085581302642822 0.7288850545883179 0.017748190090060234
0.41446226835250854 0.7288707494735718 0.011007287539541721
0.2859296202659607 0.390862375497818 -0.008523897267878056
0.4292069971561432 0.628730833530426 -0.057021401822566986
0.3834218978881836 0.39991021156311035 -0.05086252838373184
0.37754395604133606 0.3808475136756897 -0.05770913138985634
0.357524573802948 0.2927606403827667 -0.023703482002019882
0.2729399800300598 0.3690265715122223 0.026693208143115044
0.37301743030548096 0.3382451832294464 -0.04206554591655731
0.26345157623291016 0.411519855260849 0.025663724169135094
0.24886329472064972 0.40164440870285034 0.07224060595035553
0.48035183548927307 0.710796594619751 -0.058182332664728165
0.45580607652664185 0.7134827971458435 -0.04414510354399681
0.4374609589576721 0.7182122468948364 -0.026297060772776604
0.4534579813480377 0.6364911794662476 -0.05507335439324379
0.4115299880504608 0.7288740277290344 0.014062338508665562
0.4236268103122711 0.7376457452774048 0.0029314227867871523
0.4174373745918274 0.7288532853126526 0.010417696088552475
0.4592742323875427 0.6263200044631958 -0.0956849604845047
0.4460579752922058 0.7226563096046448 -0.016418803483247757
0.4634395241737366 0.7207976579666138 -0.028418689966201782
0.4844155013561249 0.7214977145195007 -0.03725046664476395
0.4724080562591553 0.8182091116905212 0.0035680453293025494
0.4797019958496094 0.7782834768295288 -0.024021299555897713
0.48055213689804077 0.7661269307136536 -0.030004054307937622
0.4822005033493042 0.7552207708358765 -0.02672836184501648
0.4842507839202881 0.7465823888778687 -0.025210855528712273
0.4464721083641052 0.7372662425041199 -0.007452372927218676
0.44233405590057373 0.7409535050392151 -0.009469457902014256
0.4374964237213135 0.7468252182006836 -0.011490827426314354
0.4336046874523163 0.7541028261184692 -0.006396121811121702
0.4062868654727936 0.691336989402771 -0.02137441188097
0.23535269498825073 0.588101327419281 0.2522737681865692
0.5047498345375061 0.6469578146934509 -0.0857408195734024
0.43339449167251587 0.7336186766624451 0.0037028449587523937
0.4285770654678345 0.7351369857788086 0.0023969225585460663
0.4736996591091156 0.6493628621101379 -0.06098375841975212
0.43764427304267883 0.6421594619750977 -0.03698787838220596
0.4703414738178253 0.6447587013244629 -0.062257204204797745
0.40656664967536926 0.5554094314575195 -0.018336070701479912
0.3669634461402893 0.5714085102081299 -0.010705148801207542
0.42418166995048523 0.615900993347168 -0.05000832676887512
0.2944907248020172 0.31249698996543884 0.02043168619275093
0.3123891353607178 0.34644991159439087 -0.010431461967527866
0.3248363137245178 0.37931472063064575 -0.035268306732177734
0.41588151454925537 0.7830349206924438 0.012218703515827656
0.43864038586616516 0.3875357508659363 -0.06810224056243896
0.43462756276130676 0.3386739194393158 -0.059269968420267105
0.4248896837234497 0.284549742937088 -0.04846217483282089
0.33468568325042725 0.4991026818752289 0.013498910702764988
0.2792268991470337 0.5185860395431519 0.05002493038773537
0.43736961483955383 0.4903550148010254 0.0013173582265153527
0.29521480202674866 0.4550463557243347 0.022190380841493607
0.44914570450782776 0.5270330309867859 -0.03715861216187477
0.44442474842071533 0.6115800738334656 -0.09605824202299118
0.25134724378585815 0.5350944995880127 0.07806415855884552
0.2982622981071472 0.538002610206604 0.02931792475283146
0.3312928080558777 0.5485411286354065 0.008003863506019115
0.3777879476547241 0.5446021556854248 -0.002470741281285882
0.41108858585357666 0.5342297554016113 -0.007885301485657692
0.43545669317245483 0.5230485200881958 -0.015113350935280323
0.48144418001174927 0.49688780307769775 -0.06482241302728653
0.25891369581222534 0.5856567025184631 0.07495184242725372
0.27482903003692627 0.45027363300323486 0.032748475670814514
0.4929268956184387 0.6416187882423401 -0.11794794350862503
0.43447911739349365 0.5667575597763062 -0.03598069027066231
0.21973028779029846 0.48290157318115234 0.2241687774658203
0.45369404554367065 0.510956346988678 -0.01960790902376175
0.42185381054878235 0.6162654161453247 -0.024496184661984444
0.31205880641937256 0.4727075695991516 0.03102710098028183
0.44344982504844666 0.5954205393791199 -0.08773482590913773
0.24842345714569092 0.6458726525306702 0.24620406329631805
0.43688061833381653 0.48161160945892334 0.006788643542677164
0.46295982599258423 0.5832230448722839 -0.11199779808521271
0.3181992173194885 0.774851381778717 0.10905428230762482
0.3188667297363281 0.7988552451133728 0.1538725644350052
0.2382640540599823 0.5880486965179443 0.16318024694919586
0.29107680916786194 0.7385158538818359 0.13339084386825562
0.23728322982788086 0.4410153031349182 0.11424396932125092
0.4104299247264862 0.8702075481414795 0.04839981719851494
0.4952027499675751 0.6458426117897034 -0.08429139852523804
0.4125775098800659 0.5838242769241333 -0.025680411607027054
0.2529726028442383 0.48470568656921387 0.08323721587657928
0.35567665100097656 0.49230989813804626 0.004887441173195839
0.3768702745437622 0.49423107504844666 -0.0008734478615224361
0.41924166679382324 0.7410895228385925 0.00696245301514864
0.26725906133651733 0.6335814595222473 0.08733450621366501
0.4539504647254944 0.9081814289093018 0.06047939881682396
0.3810997009277344 0.8635337948799133 0.10032622516155243
0.3516694903373718 0.8359659910202026 0.12352371960878372
0.5035741329193115 0.34078797698020935 -0.06345099210739136
0.5070677995681763 0.9150246381759644 0.05540909990668297
0.397861123085022 0.4914620816707611 -0.0017694458365440369
0.4178119897842407 0.4865436553955078 0.0016369032673537731
0.4308294653892517 0.48394080996513367 0.006428255699574947
0.2562996745109558 0.44312071800231934 0.05717191845178604
0.4125763177871704 0.4594939947128296 -0.0034481564071029425
0.38992372155189514 0.45046094059944153 -0.00859460886567831
0.3672696352005005 0.4496026039123535 -0.007772392127662897
0.3461471498012543 0.45476841926574707 -0.0016539555508643389
0.33416515588760376 0.46196702122688293 0.006740407552570105
0.2202872931957245 0.428716242313385 0.17934931814670563
0.3413604497909546 0.48714566230773926 0.01234745979309082
0.504540205001831 0.6698919534683228 -0.059668440371751785
0.42816850543022156 0.6776847839355469 -0.03576156497001648
0.4478779137134552 0.6286917924880981 -0.07056739181280136
0.4715448021888733 0.6707302927970886 -0.05747922509908676
0.504199743270874 0.46067166328430176 -0.05887006223201752
0.3472377061843872 0.8105143308639526 0.09118563681840897
0.3774307370185852 0.8398305177688599 0.07151905447244644
0.45356059074401855 0.8923046588897705 0.02844512276351452
0.29282739758491516 0.7590219378471375 0.19212473928928375
0.42916473746299744 0.47302913665771484 0.0024038490373641253
0.4659743905067444 0.5357876420021057 -0.06993982940912247
0.5075401663780212 0.899652898311615 0.024390388280153275
0.4138667583465576 0.8893579840660095 0.07587186992168427
0.25023287534713745 0.6408371329307556 0.16434738039970398
0.46374988555908203 0.7418500185012817 -0.017484379932284355
0.459961473941803 0.7481905221939087 -0.019360145553946495
0.45657989382743835 0.7570083737373352 -0.021447308361530304
0.4542638063430786 0.7681987881660461 -0.016281282529234886
0.43998292088508606 0.8036036491394043 0.004698033910244703
0.4273865520954132 0.7247864603996277 -0.00470644049346447
0.4227089583873749 0.7234311103820801 -0.00485265115275979
0.41887229681015015 0.7216668128967285 -0.005245355423539877
0.3905426561832428 0.7102922797203064 -0.0016320482827723026
0.2990932762622833 0.6492961049079895 0.03998837247490883
0.46567222476005554 0.5102318525314331 -0.04936359077692032
0.45256346464157104 0.4616774618625641 -0.011758385226130486
0.43817824125289917 0.4644176959991455 -0.002537562744691968
0.4319365322589874 0.7256202101707458 -0.0016964462120085955
0.29928362369537354 0.7064642310142517 0.08378614485263824
0.4742230772972107 0.46144530177116394 -0.04256788641214371
0.4273463189601898 0.8222337961196899 0.020847879350185394
0.5054239630699158 0.545383632183075 -0.11298076063394547
0.48291462659835815 0.5239696502685547 -0.08732572197914124
0.5050897598266602 0.5192763209342957 -0.09277430921792984
0.44959211349487305 0.5737085938453674 -0.06741569936275482
0.5073515176773071 0.8748060464859009 0.009895759634673595
0.5069426894187927 0.8456763625144958 0.0075537231750786304
0.4654906988143921 0.8406018018722534 0.011325410567224026
0.3747771978378296 0.7677968740463257 0.035540156066417694
0.4021211564540863 0.6354368329048157 -0.016847465187311172
0.3978920876979828 0.7978467345237732 0.029661089181900024
0.34785324335098267 0.6317459940910339 -0.006699555087834597
0.38135769963264465 0.6600335240364075 -0.0100321676582098
0.3312176764011383 0.6696333289146423 0.016651161015033722
0.45743030309677124 0.868011474609375 0.014663410373032093
0.4352373778820038 0.5862138271331787 -0.04889070615172386
0.35427090525627136 0.7851535677909851 0.060565654188394547
0.38458243012428284 0.8165029883384705 0.05042882263660431
0.3574258089065552 0.7346545457839966 0.03253483399748802
0.2763146758079529 0.674359917640686 0.10075155645608902
0.32792139053344727 0.7367315888404846 0.05630739405751228
0.2659810185432434 0.6906110048294067 0.1592896729707718
0.3654085099697113 0.6906536221504211 0.004659134428948164
0.45073169469833374 0.5509102940559387 -0.051772501319646835
0.45202046632766724 0.6224159002304077 -0.10094936937093735
0.43750709295272827 0.6269395351409912 -0.07355594635009766
0.46208614110946655 0.6082286834716797 -0.11918526142835617
0.4308911859989166 0.43723762035369873 -0.020918019115924835
0.38755562901496887 0.42023804783821106 -0.02660517208278179
0.35035526752471924 0.4184345304965973 -0.02522164396941662
0.3214151859283447 0.4248962998390198 -0.015200778841972351
0.3026166558265686 0.4367111921310425 0.0004834116261918098
0.2955567240715027 0.47750431299209595 0.040815677493810654
0.2298170030117035 0.5372610688209534 0.1540520191192627
0.3187468647956848 0.5144136548042297 0.02410632185637951
0.3445848226547241 0.5228886604309082 0.010078124701976776
0.37730544805526733 0.5231680870056152 0.0005695452564395964
0.4075480103492737 0.5169854164123535 -0.0035008827690035105
0.430708110332489 0.5085235238075256 -0.0050354888662695885
0.44655078649520874 0.5009118914604187 -0.006811120547354221
0.22615358233451843 0.5350246429443359 0.24640895426273346
0.43801045417785645 0.6327189803123474 -0.0608556903898716
0.4662396311759949 0.5590068697929382 -0.08753577619791031
0.4684780538082123 0.6256014704704285 -0.11941100656986237
0.48076122999191284 0.6367810368537903 -0.10833490639925003
0.4686005711555481 0.6285459399223328 -0.10728603601455688
0.4447363615036011 0.6394254565238953 -0.05143604427576065
0.4854188561439514 0.6396925449371338 -0.11463722586631775
0.4876144230365753 0.6438915133476257 -0.08485724031925201
0.44538336992263794 0.482500821352005 0.0032445986289530993
0.45821234583854675 0.48776984214782715 -0.010972720570862293
0.46664902567863464 0.49252766370773315 -0.027600714936852455
0.32774338126182556 0.4673153758049011 0.015339639969170094
0.30931520462036133 0.45675164461135864 0.015924198552966118
0.5255646705627441 0.5488005876541138 -0.10383715480566025
0.6763186454772949 0.4823995530605316 0.02605453133583069
0.5268280506134033 0.6400006413459778 -0.08450940251350403
0.758288562297821 0.3907179534435272 0.13697858154773712
0.6010348796844482 0.505312442779541 0.0005985058378428221
0.6271015405654907 0.5078548192977905 0.002836457919329405
0.6515543460845947 0.5066940188407898 0.009961751289665699
0.6829668283462524 0.489484578371048 0.030691958963871002
0.5793473720550537 0.4990662634372711 0.0019873245619237423
0.6478133201599121 0.4322182536125183 -0.011314896866679192
0.6160560846328735 0.434794545173645 -0.011974157765507698
0.6746398210525513 0.43735161423683167 -0.002410874469205737
0.6900591850280762 0.44769173860549927 0.008387134410440922
0.6995095014572144 0.5055060982704163 0.04394418001174927
0.5960188508033752 0.8458684086799622 0.0354587621986866
0.6851557493209839 0.47326958179473877 0.033955078572034836
0.7641390562057495 0.492265909910202 0.15388470888137817
0.724812388420105 0.4869222044944763 0.06810425221920013
0.6202830076217651 0.6037645936012268 -0.014369390904903412
0.536666750907898 0.7020939588546753 -0.06034846603870392
0.5336753726005554 0.7186550498008728 -0.04794428497552872
0.5622626543045044 0.709926962852478 -0.04436953738331795
0.5789660215377808 0.7177679538726807 -0.023950880393385887
0.5543973445892334 0.7200660705566406 -0.037202343344688416
0.5703797340393066 0.7232271432876587 -0.018518617376685143
0.6121485233306885 0.7608716487884521 0.023397063836455345
0.5252118706703186 0.6301513910293579 -0.12977942824363708
0.5285907983779907 0.6068465113639832 -0.1385929137468338
0.7212595343589783 0.42813000082969666 0.014344639144837856
0.5726111531257629 0.5426396727561951 -0.023943927139043808
0.5769879221916199 0.6194140315055847 -0.06797938793897629
0.5783002972602844 0.6060149669647217 -0.06115029752254486
0.6882545948028564 0.599908709526062 0.016932951286435127
0.527245819568634 0.575842022895813 -0.1256895363330841
0.6721068620681763 0.40459179878234863 -0.032153114676475525
0.703120768070221 0.411933034658432 -0.011713048443198204
0.7381202578544617 0.35026076436042786 0.08427644520998001
0.5617011189460754 0.4252018928527832 -0.05422936752438545
0.5882466435432434 0.44632869958877563 -0.004648623522371054
0.6276284456253052 0.7337368726730347 0.025423603132367134
0.7282180190086365 0.7111135125160217 0.23924244940280914
0.5591617226600647 0.6327068209648132 -0.05793776735663414
0.5411102175712585 0.6402655243873596 -0.06039286032319069
0.6007398366928101 0.7303950786590576 0.02158714272081852
0.5947263240814209 0.7303801774978638 0.014451666735112667
0.7150805592536926 0.39713263511657715 -0.0005984152667224407
0.5772281289100647 0.6290491819381714 -0.05362226441502571
0.6270894408226013 0.40693625807762146 -0.04691964387893677
0.6329569816589355 0.389100581407547 -0.053502388298511505
0.6442251205444336 0.29667797684669495 -0.017524708062410355
0.7224512100219727 0.3748929798603058 0.035550378262996674
0.6306632161140442 0.34248802065849304 -0.03718801587820053
0.7335193157196045 0.41720080375671387 0.03515219688415527
0.7439272403717041 0.4072062373161316 0.08231999725103378
0.5357085466384888 0.7119285464286804 -0.05692317336797714
0.5584353804588318 0.7157476544380188 -0.041782815009355545
0.5750259160995483 0.7207343578338623 -0.023271756246685982
0.5535012483596802 0.6369019150733948 -0.05298275500535965
0.597700297832489 0.7304256558418274 0.017602097243070602
0.5873790383338928 0.7386401891708374 0.005920798052102327
0.5916997790336609 0.7303164005279541 0.013730576261878014
0.5490894317626953 0.6267176270484924 -0.0932210385799408
0.5662620067596436 0.7245256900787354 -0.013883082196116447
0.5507400035858154 0.7223225235939026 -0.02637675032019615
0.5315574407577515 0.7222997546195984 -0.03603009507060051
0.5399397611618042 0.8182669878005981 0.004395648837089539
0.5384603142738342 0.7787078619003296 -0.02299601584672928
0.5367692112922668 0.7664742469787598 -0.02876799926161766
0.5343822240829468 0.7555480003356934 -0.02553512342274189
0.5315179824829102 0.7469059228897095 -0.02404489926993847
0.5658520460128784 0.7382413148880005 -0.004932232666760683
0.5706851482391357 0.7417380213737488 -0.006967674009501934
0.5758174657821655 0.7473141551017761 -0.008883531205356121
0.5798429846763611 0.7542552351951599 -0.0037503570783883333
0.6015806198120117 0.6915528178215027 -0.017547158524394035
0.7551152110099792 0.5924155116081238 0.2651243209838867
0.5771742463111877 0.7347058057785034 0.0067298030480742455
0.5823606252670288 0.7362222075462341 0.005301324184983969
0.5344393849372864 0.6497995853424072 -0.05970729514956474
0.5689117312431335 0.6425698399543762 -0.03435204550623894
0.5376042127609253 0.6452720165252686 -0.060975540429353714
0.596763014793396 0.5560503602027893 -0.013880167156457901
0.6356894373893738 0.5723443627357483 -0.005189130082726479
0.5819308757781982 0.6161508560180664 -0.046332407742738724
0.7025478482246399 0.31786391139030457 0.029630886390805244
0.686881422996521 0.3522871136665344 -0.003271913854405284
0.6812676191329956 0.3869345486164093 -0.029094425961375237
0.5952090620994568 0.7830855846405029 0.015159553848206997
0.5729982852935791 0.39536160230636597 -0.06618299335241318
0.5713701844215393 0.34064602851867676 -0.05667915940284729
0.5800172090530396 0.28655967116355896 -0.04539315775036812
0.6716405749320984 0.5008307695388794 0.02085454761981964
0.7228734493255615 0.5224487781524658 0.05920805037021637
0.5653272867202759 0.49319031834602356 0.00461949547752738
0.7083874940872192 0.45808130502700806 0.030578788369894028
0.55675208568573 0.527498185634613 -0.0343075655400753
0.5637567639350891 0.6119990348815918 -0.0931076854467392
0.7447202205657959 0.5384457111358643 0.088253915309906
0.7080026268959045 0.5407206416130066 0.03810577094554901
0.6781481504440308 0.550436794757843 0.015464442782104015
0.6313021779060364 0.5460083484649658 0.003152774181216955
0.5966780185699463 0.5356533527374268 -0.0034105500672012568
0.5717920660972595 0.5249647498130798 -0.01154800783842802
0.5271531939506531 0.4972212612628937 -0.06375394761562347
0.7384488582611084 0.5884541273117065 0.08503425866365433
0.7248905301094055 0.45484495162963867 0.042235977947711945
0.5171247720718384 0.6415965557098389 -0.11728435754776001
0.5704771876335144 0.5671878457069397 -0.03239687532186508
0.7682508230209351 0.4878576397895813 0.2375124841928482
0.5536700487136841 0.5133281946182251 -0.01683451607823372
0.5833543539047241 0.6165310740470886 -0.020980248227715492
0.6936937570571899 0.4739174246788025 0.038960933685302734
0.5641790628433228 0.5957359671592712 -0.08463309705257416
0.7448671460151672 0.6496326327323914 0.258759081363678
0.5652682185173035 0.48465701937675476 0.010108002461493015
0.5465734004974365 0.5833314657211304 -0.10993465781211853
0.6880289912223816 0.7778462767601013 0.11619444191455841
0.6848052740097046 0.8026590943336487 0.16259115934371948
0.7563871145248413 0.5916552543640137 0.17415043711662292
0.7120638489723206 0.7419054508209229 0.14205065369606018
0.7550652027130127 0.4459558129310608 0.12501615285873413
0.60174560546875 0.8708756566047668 0.05185103416442871
0.5142869353294373 0.6459050178527832 -0.08388037979602814
0.5914248824119568 0.5843132138252258 -0.021561162546277046
0.7417349815368652 0.4897657632827759 0.09348958730697632
0.6515182852745056 0.49414944648742676 0.01127715315669775
0.6290196776390076 0.4961628317832947 0.004746476653963327
0.5917370319366455 0.7419309020042419 0.010139594785869122
0.7318452596664429 0.6362568140029907 0.09721772372722626
0.5588621497154236 0.9085507392883301 0.06248188763856888
0.628056526184082 0.8652929067611694 0.10584482550621033
0.6554738879203796 0.8387638926506042 0.13044123351573944
0.6065836548805237 0.49380773305892944 0.0029880960937589407
0.5851081013679504 0.4892570972442627 0.0055748457089066505
0.5713317394256592 0.4869511127471924 0.009928942658007145
0.7387673258781433 0.448733925819397 0.06720120459794998
0.5913435220718384 0.46442747116088867 0.0008163866586983204
0.6156796813011169 0.4556466341018677 -0.0036370560992509127
0.6402328014373779 0.4541902542114258 -0.0019986152183264494
0.6624190807342529 0.45818719267845154 0.004803951364010572
0.6746853590011597 0.46455568075180054 0.013660780154168606
0.7674872875213623 0.4339406490325928 0.19252605736255646
0.6664599776268005 0.48884594440460205 0.01919328235089779
0.5799204111099243 0.6780264973640442 -0.03258265554904938
0.5593953132629395 0.6291882395744324 -0.06801526993513107
0.5375136137008667 0.6710160970687866 -0.05611308664083481
0.6609081029891968 0.8125829100608826 0.09705211967229843
0.632988452911377 0.841448962688446 0.07617232203483582
0.5599333643913269 0.8924131989479065 0.030230125412344933
0.7071341872215271 0.762759268283844 0.2026056945323944
0.5735480785369873 0.4769483804702759 0.006108053959906101
0.5422326326370239 0.5360289812088013 -0.06794782727956772
0.5972813367843628 0.8902443647384644 0.07970160990953445
0.7467073202133179 0.6441932916641235 0.17516891658306122
0.5504872798919678 0.7424983978271484 -0.01538168452680111
0.5551396012306213 0.7487077713012695 -0.017268052324652672
0.5591952204704285 0.7574452757835388 -0.019354287534952164
0.5622747540473938 0.7685036659240723 -0.014344084076583385
0.5717597007751465 0.8035139441490173 0.006702410522848368
0.583103358745575 0.7266358137130737 -0.0015177056193351746
0.587746262550354 0.7255445718765259 -0.0013761461013928056
0.5914599299430847 0.7240859270095825 -0.001543105230666697
0.6180214285850525 0.710491418838501 0.002898372709751129
0.7025432586669922 0.6511356830596924 0.04812411218881607
0.5415802597999573 0.5107390880584717 -0.04741250351071358
0.5521495938301086 0.4654768705368042 -0.009169026277959347
0.5647386312484741 0.46804144978523254 0.0008220322197303176
0.5784052014350891 0.7273454070091248 0.001404886250384152
0.7043850421905518 0.7089058756828308 0.091869056224823
0.5337230563163757 0.4652171730995178 -0.0410933718085289
0.5842725038528442 0.8225268125534058 0.023194875568151474
0.5266499519348145 0.52409827709198 -0.08635903894901276
0.5573731064796448 0.5741214752197266 -0.06463406980037689
0.5472779870033264 0.8406037092208862 0.012403427623212337
0.6341198682785034 0.7684670686721802 0.039788443595170975
0.6028192639350891 0.6356804966926575 -0.012653118930757046
0.6124874353408813 0.7983362674713135 0.032920267432928085
0.6558305621147156 0.6325430870056152 -0.0008878519874997437
0.6242470741271973 0.6603497266769409 -0.0052403733134269714
0.6728273630142212 0.6707902550697327 0.022957338020205498
0.5556468367576599 0.868078351020813 0.016183972358703613
0.5702527165412903 0.5865516662597656 -0.0455162413418293
0.6541773676872253 0.7863949537277222 0.06573716551065445
0.626128077507019 0.8175010681152344 0.054449908435344696
0.6504603028297424 0.7356363534927368 0.03787250444293022
0.7247170209884644 0.6771901249885559 0.1100902110338211
0.6785061955451965 0.7385483384132385 0.06280621141195297
0.7335762977600098 0.6939947605133057 0.16950388252735138
0.6412952542304993 0.6911859512329102 0.009880864061415195
0.5557138919830322 0.5513477325439453 -0.04886043816804886
0.5563225150108337 0.6228272914886475 -0.09825680404901505
0.5696191787719727 0.6273836493492126 -0.07057376950979233
0.5475258827209473 0.6084107160568237 -0.11714715510606766
0.5754410624504089 0.4417460560798645 -0.01759711094200611
0.6199377179145813 0.4255494475364685 -0.022147372364997864
0.6578202247619629 0.4233778119087219 -0.019620738923549652
0.686417281627655 0.4290009140968323 -0.008266128599643707
0.7033697366714478 0.43999892473220825 0.008418519049882889
0.7064377069473267 0.4803730845451355 0.04931524023413658
0.7630066275596619 0.5413573980331421 0.16521577537059784
0.6870964169502258 0.516686201095581 0.032025136053562164
0.6623108386993408 0.525101900100708 0.01691688410937786
0.6292784214019775 0.5248236656188965 0.006215977016836405
0.5977493524551392 0.518665075302124 0.0011139464331790805
0.5739002227783203 0.5107273459434509 -0.0015038208803161979
0.5579907298088074 0.5034080743789673 -0.0038641004357486963
0.7624034881591797 0.5395903587341309 0.25961971282958984
0.5685901641845703 0.6331139206886292 -0.057945676147937775
0.5426779389381409 0.5591638684272766 -0.0854501724243164
0.541103184223175 0.6256392002105713 -0.11776938289403915
0.528649091720581 0.6368399262428284 -0.10729087144136429
0.5404207110404968 0.6288509964942932 -0.10549822449684143
0.5620923638343811 0.6397626996040344 -0.04893198981881142
0.5244045257568359 0.6396773457527161 -0.11381157487630844
0.5215044021606445 0.6439546942710876 -0.08413776755332947
0.5570783615112305 0.48560458421707153 0.00619019940495491
0.5462480783462524 0.49068403244018555 -0.00855213776230812
0.5404441356658936 0.4954950213432312 -0.02564164809882641
0.6808733344078064 0.46927884221076965 0.022474708035588264
0.6970837712287903 0.4589705467224121 0.023646093904972076
0.37438058853149414 0.4680202901363373 0.004860726650804281
0.40207546949386597 0.4663347601890564 0.004860726650804281
0.3731284737586975 0.4435901641845703 0.004860726650804281
0.34635329246520996 0.4697275757789612 0.004860726650804281
0.3755217492580414 0.4925702214241028 0.004860726650804281
0.632996678352356 0.47081369161605835 0.010378413833677769
0.6631122827529907 0.4722641110420227 0.010378413833677769
0.6340680122375488 0.4458281993865967 0.010378413833677769
0.6023473739624023 0.4690803289413452 0.010378413833677769
0.6318169832229614 0.4958255887031555 0.010378413833677769
