ply
format ascii 1.0
element vertex 478
property float x
property float y
property float z
end_header
0.5477713346481323 0.6818321943283081 -0.07377910614013672
0.5756068229675293 0.5977696180343628 -0.10388854891061783
0.5519526600837708 0.6270058751106262 -0.06474467366933823
0.5401828289031982 0.5310447216033936 -0.07383584976196289
0.5766876935958862 0.5748424530029297 -0.10603772103786469
0.5680419206619263 0.5489580631256104 -0.09318358451128006
0.539456307888031 0.4883076250553131 -0.029053453356027603
0.36635756492614746 0.4749009609222412 -0.01690945215523243
0.5303089618682861 0.44270533323287964 -0.005461795721203089
0.5309001207351685 0.4146439731121063 -0.0013440323527902365
0.5216861367225647 0.3035617768764496 0.04464982822537422
0.5474706292152405 0.6905393004417419 -0.07355787605047226
0.5441632270812988 0.6994494795799255 -0.06950278580188751
0.539756715297699 0.705039381980896 -0.0630435049533844
0.5389446020126343 0.7650222778320312 -0.05113915726542473
0.541003942489624 0.7744009494781494 -0.05586821585893631
0.5413798093795776 0.7870568037033081 -0.061127226799726486
0.5390331745147705 0.8001721501350403 -0.05953143909573555
0.5343685746192932 0.805650532245636 -0.046535905450582504
0.5683524012565613 0.6125331521034241 -0.09687791019678116
0.5394316911697388 0.6150748133659363 -0.07995801419019699
0.22691743075847626 0.3940271735191345 0.05723349750041962
0.42464694380760193 0.4917788803577423 -0.015601214952766895
0.40554070472717285 0.4925420880317688 -0.02328789047896862
0.3844555616378784 0.4924119710922241 -0.026330407708883286
0.3511461019515991 0.48298361897468567 -0.020728204399347305
0.44007736444473267 0.4882499873638153 -0.0049434928223490715
0.4007013440132141 0.43668118119239807 -0.023987311869859695
0.4225977063179016 0.4390389919281006 -0.012073555961251259
0.3776346743106842 0.4395950436592102 -0.027567146345973015
0.3601597547531128 0.4471249580383301 -0.025860443711280823
0.32624733448028564 0.4966178834438324 -0.020083855837583542
0.43835875391960144 0.8431596755981445 -0.06467262655496597
0.35560277104377747 0.47072288393974304 -0.013417309150099754
0.21517325937747955 0.49797165393829346 0.0360741950571537
0.2919940948486328 0.4820793867111206 -0.007596956100314856
0.4227726459503174 0.5880597829818726 -0.055930186063051224
0.5199258327484131 0.6769288182258606 -0.0818706825375557
0.5192582607269287 0.6987476944923401 -0.07681003212928772
0.4869214594364166 0.6914321184158325 -0.08301637321710587
0.46359193325042725 0.7070062756538391 -0.07619193196296692
0.49378275871276855 0.7055642008781433 -0.07773249596357346
0.4732952415943146 0.7153149843215942 -0.06985021382570267
0.41280055046081543 0.7478512525558472 -0.059365805238485336
0.5581704378128052 0.5974106788635254 -0.1077609732747078
0.5560240745544434 0.5753576159477234 -0.11045274138450623
0.3253393769264221 0.4317435026168823 -0.02913551591336727
0.46593981981277466 0.5337539315223694 -0.03218190744519234
0.482864111661911 0.5957386493682861 -0.08199165761470795
0.4769446849822998 0.5844097137451172 -0.07499232143163681
0.344624400138855 0.5867798328399658 -0.06059131398797035
0.5489864945411682 0.5510425567626953 -0.09625352174043655
0.39514294266700745 0.4108783006668091 -0.03363831341266632
0.35733944177627563 0.41735756397247314 -0.034410376101732254
0.2727373540401459 0.35098767280578613 0.04054706171154976
0.4903334081172943 0.4312390089035034 -0.015829389914870262
0.4399673342704773 0.4471789300441742 0.00015452953812200576
0.39541518688201904 0.7194163799285889 -0.061531614512205124
0.2022164762020111 0.7442290186882019 0.03980378434062004
0.49717020988464355 0.6100978255271912 -0.07082302123308182
0.5153067111968994 0.617522120475769 -0.06671902537345886
0.4352182447910309 0.7400986552238464 -0.05618201941251755
0.44202837347984314 0.7399407625198364 -0.05567670240998268
0.34169864654541016 0.4042302966117859 -0.025858374312520027
0.47493433952331543 0.6068204641342163 -0.07369789481163025
0.43926191329956055 0.41379836201667786 -0.027257347479462624
0.43722471594810486 0.39716723561286926 -0.02774219587445259
0.3983573913574219 0.3011604845523834 0.018114697188138962
0.31087422370910645 0.3742572069168091 0.0022805766202509403
0.42296820878982544 0.3447835147380829 -0.005127808544784784
0.3044814467430115 0.4224172830581665 -0.01589110679924488
0.2678906321525574 0.4087798297405243 0.019066356122493744
0.5201539993286133 0.6887511014938354 -0.08163315802812576
0.49094367027282715 0.6986536979675293 -0.08138088881969452
0.46869832277297974 0.7110451459884644 -0.07456181943416595
0.499919056892395 0.614930272102356 -0.06501848250627518
0.4388326406478882 0.7400714755058289 -0.05554940178990364
0.4495093822479248 0.7510925531387329 -0.060008853673934937
0.4449879825115204 0.7397050857543945 -0.05527244880795479
0.5200876593589783 0.6011881232261658 -0.09229831397533417
0.4756706953048706 0.7173823118209839 -0.06662929803133011
0.4952453374862671 0.7087966203689575 -0.07087332755327225
0.5175228118896484 0.704209566116333 -0.07085926830768585
0.5003299713134766 0.8030019998550415 -0.05601823329925537
0.5076509714126587 0.7954891324043274 -0.06932263821363449
0.5115047693252563 0.782602846622467 -0.07037690281867981
0.5139234662055969 0.7700984477996826 -0.06456100940704346
0.515375018119812 0.7617496848106384 -0.05954490974545479
0.4735657572746277 0.752991795539856 -0.058285169303417206
0.46937453746795654 0.7561466097831726 -0.062161535024642944
0.4637966752052307 0.7614914774894714 -0.06646239757537842
0.4583030343055725 0.7680370807647705 -0.0661497488617897
0.4361704885959625 0.6711088418960571 -0.07125701010227203
0.1706826090812683 0.6152569055557251 0.08265693485736847
0.5602327585220337 0.6203045845031738 -0.07577324658632278
0.4585571885108948 0.7481367588043213 -0.05559799075126648
0.4545145630836487 0.7491011619567871 -0.05835196375846863
0.5220178961753845 0.626402735710144 -0.06936562806367874
0.4762967526912689 0.6217077374458313 -0.05835827440023422
0.519096314907074 0.6221609711647034 -0.0682644173502922
0.4416687786579132 0.545540988445282 -0.038461606949567795
0.40543991327285767 0.5589396357536316 -0.04994720220565796
0.46793290972709656 0.5953841805458069 -0.06760677695274353
0.3294506371021271 0.3187217116355896 0.025197168812155724
0.36142098903656006 0.35200074315071106 -0.004807491786777973
0.38681668043136597 0.39481931924819946 -0.028285779058933258
0.4351044297218323 0.7702683806419373 -0.062395475804805756
0.4879031777381897 0.4041723608970642 -0.018100541085004807
0.4756193459033966 0.34774208068847656 0.0035619393456727266
0.4599248170852661 0.29761606454849243 0.024984102696180344
0.36409369111061096 0.48951971530914307 -0.025053834542632103
0.29478317499160767 0.5112297534942627 -0.020947471261024475
0.45055148005485535 0.4835466146469116 0.0021746449638158083
0.32936176657676697 0.4568290710449219 -0.020573049783706665
0.4837060868740082 0.5201665759086609 -0.031091008335351944
0.5058623552322388 0.5860924124717712 -0.09302573651075363
0.2606912851333618 0.5365297198295593 -0.016207315027713776
0.31879064440727234 0.5265371799468994 -0.03610505536198616
0.3556538224220276 0.5347652435302734 -0.04278844594955444
0.40197238326072693 0.5314227342605591 -0.03584954887628555
0.43270835280418396 0.5228003263473511 -0.025706781074404716
0.45576730370521545 0.5134705901145935 -0.019315330311655998
0.5192759037017822 0.49252191185951233 -0.03171752393245697
0.26501941680908203 0.585723876953125 -0.03141278401017189
0.30566704273223877 0.45446285605430603 -0.018073691055178642
0.5580106377601624 0.6118041276931763 -0.10026763379573822
0.47178298234939575 0.5540729761123657 -0.043886199593544006
0.175868421792984 0.5013131499290466 0.09220869839191437
0.47441262006759644 0.5027409791946411 -0.013010312803089619
0.4591846466064453 0.5981659889221191 -0.04876822978258133
0.34158945083618164 0.4709901213645935 -0.014102980494499207
0.4989294409751892 0.5727424621582031 -0.08369272202253342
0.17904873192310333 0.6775808930397034 0.06496002525091171
0.4486258327960968 0.4765235483646393 0.008055542595684528
0.5251520872116089 0.5594752430915833 -0.09349606931209564
0.302709698677063 0.7946271896362305 -0.033730387687683105
0.28237396478652954 0.834430456161499 -0.012354511767625809
0.20863835513591766 0.602263867855072 0.022434012964367867
0.2622746527194977 0.7613096833229065 -0.021219175308942795
0.23884664475917816 0.4495311379432678 0.03286639228463173
0.4292459487915039 0.874816358089447 -0.06405455619096756
0.5523049235343933 0.61922287940979 -0.07712873816490173
0.4496409595012665 0.5702303051948547 -0.04681232571601868
0.2609049081802368 0.48517903685569763 0.002024774206802249
0.39050671458244324 0.4787503480911255 -0.020774366334080696
0.4075249135494232 0.4799235165119171 -0.01888556219637394
0.4439865052700043 0.7539152503013611 -0.060404933989048004
0.2631409168243408 0.6377749443054199 -0.033369939774274826
0.47261670231819153 0.9136091470718384 -0.05323348194360733
0.37783417105674744 0.8861058354377747 -0.038390129804611206
0.33372557163238525 0.8656910061836243 -0.02702976204454899
0.5280042886734009 0.355206161737442 0.021482810378074646
0.5234928727149963 0.9144493341445923 -0.040946874767541885
0.42181792855262756 0.4798104763031006 -0.012295493856072426
0.4347060024738312 0.4785180687904358 -0.003434088546782732
0.443496435880661 0.477573037147522 0.004681962542235851
0.2793428897857666 0.44963252544403076 -0.004749364219605923
0.4355865716934204 0.4610757529735565 -0.002486573765054345
0.4208528995513916 0.45500218868255615 -0.011228044517338276
0.4046246111392975 0.453993022441864 -0.017695123329758644
0.3860342502593994 0.4572543501853943 -0.021004823967814445
0.3724753260612488 0.4623757004737854 -0.019856935366988182
0.19617728888988495 0.4412420988082886 0.0785159096121788
0.3773762285709381 0.47710222005844116 -0.019741808995604515
0.5492287874221802 0.6439655423164368 -0.0631202757358551
0.4648081958293915 0.655267596244812 -0.07235381752252579
0.5010206699371338 0.605624258518219 -0.07501019537448883
0.5175260901451111 0.6451371312141418 -0.07286942005157471
0.5306779146194458 0.46638914942741394 -0.009740522131323814
0.34413713216781616 0.8266952037811279 -0.04216156527400017
0.3831811845302582 0.8522710800170898 -0.05232790857553482
0.48047319054603577 0.8889590501785278 -0.06919220089912415
0.23936353623867035 0.797227144241333 0.010997111909091473
0.44456544518470764 0.4704049527645111 0.0037538197357207537
0.5111589431762695 0.5241414308547974 -0.04962211102247238
0.5312386751174927 0.8912767767906189 -0.05619550496339798
0.4244242310523987 0.9026564955711365 -0.05101735144853592
0.2125094085931778 0.6595937013626099 0.01179331075400114
0.49328184127807617 0.7574369311332703 -0.06074132025241852
0.4893803596496582 0.7632102370262146 -0.06545456498861313
0.4846976697444916 0.7725987434387207 -0.07030146569013596
0.48043423891067505 0.7836290597915649 -0.07005274295806885
0.46421584486961365 0.7896686792373657 -0.06389100849628448
0.45495811104774475 0.7271013855934143 -0.06327465921640396
0.45028412342071533 0.7250582575798035 -0.0655699223279953
0.44563981890678406 0.7226858139038086 -0.06711074709892273
0.4121042788028717 0.6922427415847778 -0.06732357293367386
0.3121601939201355 0.6448641419410706 -0.0574435330927372
0.502013087272644 0.5047217011451721 -0.029586803168058395
0.47332096099853516 0.4623154401779175 0.008437651209533215
0.4548426866531372 0.46355199813842773 0.00724091287702322
0.45830318331718445 0.7276869416236877 -0.06073997914791107
0.2932385206222534 0.7140530347824097 -0.041955020278692245
0.5015996694564819 0.4629700779914856 -0.008308027870953083
0.44889503717422485 0.8149871230125427 -0.062108803540468216
0.5578169226646423 0.528249204158783 -0.07088928669691086
0.5299175977706909 0.5127835869789124 -0.05257916450500488
0.5487724542617798 0.5089075565338135 -0.04858418181538582
0.4966931641101837 0.5566670298576355 -0.061203207820653915
0.534564733505249 0.8622333407402039 -0.05920708179473877
0.5341692566871643 0.8313053846359253 -0.0523565337061882
0.4931275248527527 0.8291077613830566 -0.061020076274871826
0.3886178135871887 0.7620558142662048 -0.05779349431395531
0.43784311413764954 0.6180627942085266 -0.054148562252521515
0.41453057527542114 0.792503833770752 -0.05972906947135925
0.383422315120697 0.617170512676239 -0.06584463268518448
0.41446825861930847 0.6434233784675598 -0.06279192864894867
0.3546431064605713 0.6598988175392151 -0.06451866775751114
0.48719584941864014 0.8594174981117249 -0.07038624584674835
0.4766523838043213 0.5694988369941711 -0.056088488548994064
0.3632258176803589 0.7891111969947815 -0.052870795130729675
0.3980284631252289 0.8190943002700806 -0.056552719324827194
0.37154099345207214 0.7269051671028137 -0.062073174864053726
0.26352930068969727 0.6842054128646851 -0.03166433796286583
0.33284854888916016 0.7392485737800598 -0.05451375991106033
0.2276531606912613 0.7132890224456787 -0.002066153334453702
0.38942745327949524 0.6762299537658691 -0.06622009724378586
0.4916928708553314 0.538854718208313 -0.046199530363082886
0.5146628022193909 0.5965383648872375 -0.09629130363464355
0.49107784032821655 0.6033769249916077 -0.08165143430233002
0.5317143201828003 0.579827606678009 -0.10433676093816757
0.46062108874320984 0.4437369704246521 -0.0002462573174852878
0.42967358231544495 0.43030136823654175 -0.01516238134354353
0.4000494182109833 0.4267274737358093 -0.026936300098896027
0.3710649609565735 0.43019556999206543 -0.03169301524758339
0.34669801592826843 0.4400996267795563 -0.02894226275384426
0.31990137696266174 0.4766232967376709 -0.012729662470519543
0.2089565098285675 0.549029529094696 0.027986763045191765
0.3429979383945465 0.5054110288619995 -0.02642190083861351
0.369672566652298 0.5111731290817261 -0.0296913031488657
0.4011227488517761 0.5106583833694458 -0.026768939569592476
0.4279738962650299 0.5063026547431946 -0.017744533717632294
0.447777658700943 0.5004445314407349 -0.008211242966353893
0.46278300881385803 0.4944044351577759 -0.0024523569736629725
0.17058978974819183 0.5580034255981445 0.09294303506612778
0.4861600399017334 0.6103353500366211 -0.07335463911294937
0.5195382237434387 0.5415679216384888 -0.06907428056001663
0.5385345220565796 0.5965263843536377 -0.10427477955818176
0.5435049533843994 0.6102625727653503 -0.09488330036401749
0.5331931710243225 0.6023786664009094 -0.09643418341875076
0.4876653552055359 0.6181394457817078 -0.06546156108379364
0.5501533150672913 0.6110747456550598 -0.09880377352237701
0.5450505614280701 0.6183018684387207 -0.07856694608926773
0.45809206366539 0.4774344563484192 0.009596281684935093
0.47506359219551086 0.483330100774765 0.0034139843191951513
0.4886324405670166 0.4870181679725647 -0.008925477974116802
0.36359941959381104 0.4667898416519165 -0.017664510756731033
0.3457227349281311 0.4575735032558441 -0.020634127780795097
0.5707653760910034 0.5325440764427185 -0.05639753118157387
0.6260920763015747 0.4879259169101715 0.10952827334403992
0.5743482112884521 0.6167285442352295 -0.0665494054555893
0.6427690982818604 0.4315217137336731 0.2464955598115921
0.5828399062156677 0.5030019879341125 0.06584151834249496
0.5994085669517517 0.5058303475379944 0.0745953693985939
0.6137083768844604 0.506761908531189 0.08692257106304169
0.6268171072006226 0.4973374307155609 0.11329039186239243
0.5698085427284241 0.49699729681015015 0.05905291810631752
0.6129983067512512 0.450012743473053 0.0775080993771553
0.5933542251586914 0.4506702423095703 0.06763667613267899
0.6281822919845581 0.454617440700531 0.09031186252832413
0.6350352168083191 0.4634231626987457 0.10166657716035843
0.6344308257102966 0.5149022340774536 0.12419408559799194
0.5899839997291565 0.8362652063369751 -0.0037619827780872583
0.6291396021842957 0.48324820399284363 0.11889489740133286
0.646153450012207 0.5240046977996826 0.23481638729572296
0.6373662948608398 0.5037999153137207 0.15450841188430786
0.6145860552787781 0.5968766212463379 0.02686529979109764
0.5694940090179443 0.6825423240661621 -0.05939788371324539
0.5618643760681152 0.7033599615097046 -0.05604651942849159
0.5861078500747681 0.6976300477981567 -0.037099312990903854
0.5929115414619446 0.7159488797187805 -0.013198035769164562
0.5729724168777466 0.7126176357269287 -0.03746245428919792
0.5790859460830688 0.7238797545433044 -0.016187358647584915
0.6003239750862122 0.7501558065414429 0.021284107118844986
0.5879198908805847 0.5989309549331665 -0.09647152572870255
0.590674638748169 0.5770536661148071 -0.09696916490793228
0.6500391364097595 0.45666080713272095 0.12219513952732086
0.5777504444122314 0.5402278900146484 0.021226583048701286
0.6041970252990723 0.6001752614974976 -0.03113715536892414
0.6013580560684204 0.5892663598060608 -0.02264874055981636
0.6524112224578857 0.6009330749511719 0.07683242112398148
0.5819085836410522 0.5524815917015076 -0.07900706678628922
0.6318958401679993 0.4309356212615967 0.07050712406635284
0.6463847160339355 0.44017261266708374 0.09665323048830032
0.6384276151657104 0.3892848491668701 0.2096896767616272
0.5686253905296326 0.44151365756988525 0.01766313798725605
0.5752801299095154 0.45710641145706177 0.06475090980529785
0.6107671856880188 0.7235944867134094 0.03543317690491676
0.6132936477661133 0.7398312091827393 0.2182939350605011
0.5898152589797974 0.6131443381309509 -0.03247499838471413
0.5770361423492432 0.6197378039360046 -0.047630675137043
0.589840829372406 0.7513149380683899 0.028306597843766212
0.5836601853370667 0.7496923804283142 0.0188649520277977
0.6484221816062927 0.43085527420043945 0.11437049508094788
0.599206805229187 0.610785186290741 -0.02369316667318344
0.6075077056884766 0.43013685941696167 0.04398816078901291
0.6115650534629822 0.415005087852478 0.045902226120233536
0.600383996963501 0.32834184169769287 0.11416422575712204
0.6417213678359985 0.4079725742340088 0.157658189535141
0.600141704082489 0.36777234077453613 0.08004051446914673
0.6505956649780273 0.45167675614356995 0.14676937460899353
0.6485122442245483 0.4423401951789856 0.19556556642055511
0.5676208734512329 0.6940358281135559 -0.0593358650803566
0.5807640552520752 0.7061147093772888 -0.0380527526140213
0.5872422456741333 0.7201005220413208 -0.016628123819828033
0.5842937231063843 0.6172131299972534 -0.03402860835194588
0.5869143605232239 0.7506799697875977 0.022726327180862427
0.5866092443466187 0.7604213953018188 0.006508291698992252
0.5811042785644531 0.7486366033554077 0.017229421064257622
0.5918165445327759 0.6046881079673767 -0.057683058083057404
0.5714646577835083 0.7244684100151062 -0.015660608187317848
0.5654252171516418 0.7152668237686157 -0.03291238099336624
0.5551798343658447 0.7083159685134888 -0.04955526068806648
0.5589434504508972 0.802606999874115 -0.03518213331699371
0.5638789534568787 0.7983934879302979 -0.04623861983418465
0.5644466876983643 0.7857459187507629 -0.04654034599661827
0.5612764358520508 0.7738166451454163 -0.04088451713323593
0.5561355352401733 0.7654708623886108 -0.03715220093727112
0.5723517537117004 0.7604513764381409 -0.006861451081931591
0.578177809715271 0.764443576335907 -0.010516067035496235
0.5843907594680786 0.7697659730911255 -0.01319961342960596
0.5887376070022583 0.7762570381164551 -0.009076671674847603
0.6077916622161865 0.6752790212631226 0.000417835486587137
0.6202497482299805 0.6292825937271118 0.28122368454933167
0.5760135650634766 0.7556644082069397 0.008224603720009327
0.5815882086753845 0.757937490940094 0.005798021797090769
0.5724270939826965 0.6277850866317749 -0.050687599927186966
0.5900192260742188 0.6241908073425293 -0.018416350707411766
0.5747771263122559 0.6240300536155701 -0.04987391456961632
0.5931156873703003 0.5540125370025635 0.03323853015899658
0.6190908551216125 0.5706512331962585 0.047750554978847504
0.5996867418289185 0.6002438068389893 -0.013454130850732327
0.6248272657394409 0.3542703688144684 0.16281579434871674
0.6252328753471375 0.3827708959579468 0.11973550915718079
0.6350088119506836 0.4170549511909485 0.08233321458101273
0.5916006565093994 0.7705686092376709 0.004226659890264273
0.5775449275970459 0.41691383719444275 0.01879173517227173
0.5688372850418091 0.360394150018692 0.04759569838643074
0.5681740045547485 0.3128879964351654 0.07321058958768845
0.6228430271148682 0.5042202472686768 0.1012609601020813
0.6428284645080566 0.5321478247642517 0.13955195248126984
0.5615032911300659 0.49081742763519287 0.05916351079940796
0.6398442387580872 0.47591859102249146 0.12554983794689178
0.5679142475128174 0.5253739356994629 0.011508530005812645
0.6022300720214844 0.5903937220573425 -0.051989562809467316
0.6614128351211548 0.557783842086792 0.16606375575065613
0.6453154683113098 0.5456912517547607 0.11488845199346542
0.6357625126838684 0.5511378645896912 0.08542058616876602
0.6092609167098999 0.5448055863380432 0.06198873743414879
0.5876405239105225 0.5334743857383728 0.04815952852368355
0.5727032423019409 0.5219506621360779 0.03598382696509361
0.5531826615333557 0.49490928649902344 -0.013657922856509686
0.6682449579238892 0.6020365357398987 0.15044483542442322
0.6439653635025024 0.47777122259140015 0.14216826856136322
0.576021134853363 0.6126112937927246 -0.09129603207111359
0.5839263200759888 0.559720516204834 0.00783162098377943
0.6267369389533997 0.5282782316207886 0.29707708954811096
0.5625051259994507 0.5094611048698425 0.029830534011125565
0.5955016016960144 0.6031283736228943 0.0049811373464763165
0.6314408183097839 0.48607730865478516 0.12480370700359344
0.5976476073265076 0.5769872665405273 -0.04212069883942604
0.6184086799621582 0.6827351450920105 0.25531652569770813
0.5586234927177429 0.483256071805954 0.06768869608640671
0.5905836820602417 0.5623068809509277 -0.06305573880672455
0.6261817812919617 0.7845732569694519 0.10263435542583466
0.6094051599502563 0.8172793388366699 0.12301821261644363
0.6549903154373169 0.6176365613937378 0.2209063023328781
0.634365975856781 0.755118191242218 0.13917207717895508
0.6469428539276123 0.48058971762657166 0.22229215502738953
0.5912318825721741 0.8640257716178894 0.0013440322363749146
0.5668843984603882 0.6200832724571228 -0.07162672281265259
0.59535813331604 0.5771718621253967 0.01727152056992054
0.6359403133392334 0.5107313990592957 0.18079471588134766
0.614579975605011 0.4929676949977875 0.09020144492387772
0.6009933352470398 0.4932226538658142 0.07937141507863998
0.5906238555908203 0.7638530135154724 0.010854541324079037
0.6641875505447388 0.6480822563171387 0.14244234561920166
0.5615545511245728 0.90549635887146 -0.017436526715755463
0.5949840545654297 0.868748664855957 0.04944626986980438
0.6028918623924255 0.8468965291976929 0.08316411823034286
0.5860065221786499 0.49113166332244873 0.07161390781402588
0.5721664428710938 0.4875659942626953 0.06857424974441528
0.5632660388946533 0.48538118600845337 0.06919051706790924
0.6426185369491577 0.4781419634819031 0.1681913137435913
0.5735947489738464 0.47059375047683716 0.07089205831289291
0.5886794924736023 0.46506643295288086 0.07402481138706207
0.6052156090736389 0.4633050560951233 0.08164240419864655
0.6192020773887634 0.4668859839439392 0.0921248346567154
0.6257481575012207 0.47339892387390137 0.10129643976688385
0.6379818320274353 0.47502586245536804 0.2786126732826233
0.6220265030860901 0.49082666635513306 0.10098861902952194
0.5977698564529419 0.6583337783813477 -0.01776336133480072
0.5930430889129639 0.6091901063919067 -0.03922925889492035
0.5734748244285583 0.6467886567115784 -0.05031133443117142
0.6151049137115479 0.8147300481796265 0.06886952370405197
0.6034371852874756 0.8389487266540527 0.03567345812916756
0.5685731768608093 0.8829663395881653 -0.03329962119460106
0.6106759309768677 0.7850974202156067 0.17083518207073212
0.5638325810432434 0.4778624176979065 0.0692223310470581
0.5699211359024048 0.5275298953056335 -0.021040696650743484
0.5831747651100159 0.8888249397277832 0.01419997587800026
0.6500833034515381 0.6674110293388367 0.2024162858724594
0.5665613412857056 0.7639535665512085 -0.02172204852104187
0.572831392288208 0.7698895931243896 -0.024999940767884254
0.5780662298202515 0.7785682678222656 -0.027932055294513702
0.5806733965873718 0.7894383668899536 -0.025753693655133247
0.5790486931800842 0.7892051935195923 -0.01472583506256342
0.5823999643325806 0.7360823154449463 0.0035990874748677015
0.5891335010528564 0.7354087829589844 0.007239349186420441
0.5945496559143066 0.7330476641654968 0.010207896120846272
0.61249840259552 0.6972925066947937 0.021910954266786575
0.6567153334617615 0.6540980339050293 0.09190338850021362
0.5597846508026123 0.5087747573852539 0.0001717253471724689
0.5540794730186462 0.46874308586120605 0.04613182693719864
0.559729814529419 0.47069811820983887 0.061564575880765915
0.5763607025146484 0.7347440719604492 0.0031778498087078333
0.645402193069458 0.7149502038955688 0.10961509495973587
0.5503654479980469 0.4684290289878845 0.013620138168334961
0.5830832719802856 0.8107370138168335 -0.008609354496002197
0.5624676942825317 0.5146228075027466 -0.03723738342523575
0.584833562374115 0.5607824921607971 -0.02324446476995945
0.562524676322937 0.826566219329834 -0.03542877733707428
0.6107543706893921 0.7612854242324829 0.034835319966077805
0.6057412624359131 0.6237605810165405 0.014120866544544697
0.5979751348495483 0.7887952923774719 0.013857473619282246
0.6368173956871033 0.6270269751548767 0.04128353297710419
0.6180770397186279 0.6501113772392273 0.022839412093162537
0.6430343389511108 0.6675766110420227 0.05835949629545212
0.5682790875434875 0.8555417060852051 -0.036736056208610535
0.589754581451416 0.5744796395301819 -0.008266046643257141
0.6185734868049622 0.7833386063575745 0.05283775553107262
0.6033806204795837 0.8108653426170349 0.025130461901426315
0.6227630972862244 0.7294350266456604 0.049519557505846024
0.6551278233528137 0.6887516379356384 0.13739530742168427
0.6347769498825073 0.737947940826416 0.07368329167366028
0.6422475576400757 0.7137841582298279 0.17949071526527405
0.6245734095573425 0.682965874671936 0.035951316356658936
0.5763404965400696 0.543475329875946 -0.005430728197097778
0.5983337163925171 0.600131630897522 -0.05888398364186287
0.6001343727111816 0.6072846055030823 -0.03870086744427681
0.598203182220459 0.5825549364089966 -0.07399704307317734
0.5699682235717773 0.4525628685951233 0.05159076303243637
0.5987740159034729 0.4430885314941406 0.06099821254611015
0.6220817565917969 0.4429490566253662 0.0732586532831192
0.6377031803131104 0.4486905336380005 0.09041904658079147
0.6434747576713562 0.4599425196647644 0.10789511352777481
0.6337485313415527 0.49499383568763733 0.13568177819252014
0.6528122425079346 0.5705783367156982 0.23155570030212402
0.632453203201294 0.5223773717880249 0.10918543487787247
0.6222050786018372 0.5266949534416199 0.08848880231380463
0.6035152673721313 0.5240253210067749 0.07031295448541641
0.5836044549942017 0.5171501636505127 0.058497440069913864
0.5689210891723633 0.509006142616272 0.049051519483327866
0.5594921112060547 0.5012837648391724 0.04397717863321304
0.6204424500465393 0.5789045095443726 0.29730328917503357
0.5952248573303223 0.6137124300003052 -0.031128069385886192
0.5791767835617065 0.5444020628929138 -0.039318572729825974
0.5944676399230957 0.5985899567604065 -0.08055137097835541
0.579906165599823 0.6116280555725098 -0.0811493843793869
0.5889763832092285 0.6048111319541931 -0.07212347537279129
0.5881995558738708 0.6205233931541443 -0.029929038137197495
0.5794405937194824 0.6123692393302917 -0.08765316754579544
0.571355938911438 0.6193310022354126 -0.0690230205655098
0.5553754568099976 0.48369407653808594 0.0589352585375309
0.5517807006835938 0.4891955852508545 0.03956267982721329
0.5541839599609375 0.49258190393447876 0.021228346973657608
0.6283202171325684 0.4786494970321655 0.10926943272352219
0.6359913349151611 0.47374653816223145 0.1145835742354393
0.4062632918357849 0.4663326144218445 -0.0111814234405756
0.4250549077987671 0.46623796224594116 -0.0111814234405756
0.4051673710346222 0.4486873149871826 -0.0111814234405756
0.38628697395324707 0.46634483337402344 -0.0111814234405756
0.40707215666770935 0.48423877358436584 -0.0111814234405756
0.6050280332565308 0.47853684425354004 0.08590777218341827
0.6178524494171143 0.4779440760612488 0.08590777218341827
0.6006618738174438 0.4649457335472107 0.08590777218341827
0.5910006761550903 0.4794037342071533 0.08590777218341827
0.6086505055427551 0.49320465326309204 0.08590777218341827
