ply
format ascii 1.0
element vertex 478
property float x
property float y
property float z
end_header
0.47362643480300903 0.6628279089927673 -0.10128175467252731
0.4568614065647125 0.5934470295906067 -0.15051233768463135
0.4703660011291504 0.6277468204498291 -0.09123819321393967
0.4495759606361389 0.5200386643409729 -0.0918787270784378
0.45638203620910645 0.5674126148223877 -0.1549961417913437
0.462549090385437 0.5383176207542419 -0.13858109712600708
0.48357465863227844 0.47107499837875366 -0.0500979945063591
0.33227604627609253 0.4797857403755188 0.1111130341887474
0.49193233251571655 0.4152228832244873 -0.02029854990541935
0.492838978767395 0.382640540599823 -0.017135625705122948
0.5056979656219482 0.273090124130249 0.04024026170372963
0.4740075469017029 0.6754958629608154 -0.10025875270366669
0.47568002343177795 0.6899294853210449 -0.09379083663225174
0.4781755208969116 0.7001201510429382 -0.08432547748088837
0.47854793071746826 0.7698496580123901 -0.06330520659685135
0.4774586260318756 0.783930778503418 -0.06963425874710083
0.4772549867630005 0.8013827204704285 -0.07547997683286667
0.4785154461860657 0.8183189034461975 -0.07009533792734146
0.48343002796173096 0.851249635219574 -0.047085702419281006
0.46162310242652893 0.6100253462791443 -0.1394820213317871
0.44610148668289185 0.613916277885437 -0.09907668828964233
0.28306907415390015 0.4124324321746826 0.28726324439048767
0.39740222692489624 0.4995250403881073 0.0622117854654789
0.3735613226890564 0.501944899559021 0.07056375592947006
0.3515126705169678 0.5011590123176575 0.08404117822647095
0.32448214292526245 0.48807093501091003 0.11589139699935913
0.41828805208206177 0.49345797300338745 0.057722002267837524
0.36774304509162903 0.4264312982559204 0.06980051845312119
0.3947029411792755 0.4301363229751587 0.061866071075201035
0.3427578806877136 0.43015867471694946 0.08421831578016281
0.32648777961730957 0.4406612515449524 0.09838754683732986
0.3085414469242096 0.5040016770362854 0.1300535798072815
0.3938244581222534 0.8699856400489807 0.0006661227089352906
0.3254117965698242 0.4726824164390564 0.12321578711271286
0.2663351893424988 0.5133057832717896 0.27194222807884216
0.29113638401031494 0.4881764054298401 0.16774088144302368
0.36223384737968445 0.5935238003730774 0.01459912583231926
0.4388415217399597 0.659813642501831 -0.08702210336923599
0.44627252221107483 0.6919267773628235 -0.08035127818584442
0.40793704986572266 0.6772211194038391 -0.060681428760290146
0.39164912700653076 0.6969780325889587 -0.02966184914112091
0.42371445894241333 0.6990470290184021 -0.05876113474369049
0.40900078415870667 0.7097282409667969 -0.030849482864141464
0.3697054088115692 0.7733966708183289 0.021510647609829903
0.43722856044769287 0.5938885807991028 -0.14309480786323547
0.43308496475219727 0.5694888830184937 -0.14588800072669983
0.3034568428993225 0.41925182938575745 0.12161438912153244
0.4174872636795044 0.5314978361129761 0.010553620755672455
0.3912312984466553 0.596346378326416 -0.060822706669569016
0.3916943669319153 0.5847532749176025 -0.04971379414200783
0.2996945381164551 0.5955777168273926 0.07133520394563675
0.4405745565891266 0.5419876575469971 -0.12299694120883942
0.35294991731643677 0.3897952735424042 0.06042170524597168
0.3230378031730652 0.39911311864852905 0.09073009341955185
0.29894736409187317 0.36336034536361694 0.2368009388446808
0.447736918926239 0.4104638695716858 0.003803698346018791
0.41753095388412476 0.4409867525100708 0.06204408407211304
0.35336193442344666 0.7389649152755737 0.03455675020813942
0.299174964427948 0.7542376518249512 0.2813432216644287
0.41254162788391113 0.6108631491661072 -0.0590457059442997
0.4329289197921753 0.6185998916625977 -0.07312387228012085
0.38200509548187256 0.7365508079528809 0.027101799845695496
0.3906024396419525 0.7357173562049866 0.016231968998908997
0.3158244788646698 0.3840962052345276 0.1111295223236084
0.3933730125427246 0.6095361113548279 -0.049074381589889526
0.3928830027580261 0.3918686807155609 0.03052624873816967
0.390544056892395 0.37134337425231934 0.030497431755065918
0.375773161649704 0.2939586043357849 0.11555547267198563
0.3022758960723877 0.3775169849395752 0.1655433475971222
0.3797147274017334 0.33188095688819885 0.07105608284473419
0.2949124574661255 0.41010382771492004 0.15186983346939087
0.2849689722061157 0.4180927276611328 0.21553681790828705
0.44102761149406433 0.6765339970588684 -0.0862334743142128
0.4151113033294678 0.6889422535896301 -0.060724347829818726
0.39956754446029663 0.7037748694419861 -0.03273681178689003
0.41944319009780884 0.6161593198776245 -0.05763079598546028
0.38627761602401733 0.7362568974494934 0.020824424922466278
0.39385679364204407 0.7515480518341064 0.002466413890942931
0.3945620059967041 0.7351253032684326 0.014617823995649815
0.4197012186050415 0.599402129650116 -0.09434467554092407
0.41749638319015503 0.7126290798187256 -0.029234927147626877
0.431546688079834 0.7047542929649353 -0.05140718072652817
0.4522779881954193 0.7007371783256531 -0.0710211992263794
0.44399869441986084 0.8458415269851685 -0.03707614541053772
0.441817045211792 0.8126593828201294 -0.05803821608424187
0.4429023265838623 0.796534538269043 -0.061160020530223846
0.44685983657836914 0.7792547345161438 -0.05495203658938408
0.45194125175476074 0.767132580280304 -0.04974541813135147
0.4190080761909485 0.7538766264915466 -0.013798674568533897
0.41166603565216064 0.758892834186554 -0.018378345295786858
0.4031187891960144 0.7664487361907959 -0.021391984075307846
0.39689600467681885 0.7745900750160217 -0.015422352589666843
0.37018898129463196 0.6831784844398499 -0.013553709723055363
0.2819696366786957 0.6318875551223755 0.3551439940929413
0.4664771258831024 0.6189088821411133 -0.10794693231582642
0.40898558497428894 0.7462323307991028 0.004755622241646051
0.4010801613330841 0.7484229207038879 0.001732370932586491
0.43874362111091614 0.6283053159713745 -0.07626006007194519
0.4048956632614136 0.6256800889968872 -0.0369129404425621
0.43607258796691895 0.6236155033111572 -0.07566225528717041
0.39198750257492065 0.5464730858802795 0.023998601362109184
0.3528668284416199 0.5634464025497437 0.039183665066957474
0.38997286558151245 0.597886860370636 -0.03613128885626793
0.327754944562912 0.3227694034576416 0.1755233108997345
0.33222252130508423 0.34780657291412354 0.11822444945573807
0.3482365012168884 0.3708187937736511 0.07291346788406372
0.38631054759025574 0.8002633452415466 0.003242961596697569
0.4418869614601135 0.3767477571964264 0.0020572191569954157
0.4330817461013794 0.3269082009792328 0.03550242260098457
0.43266561627388 0.27900928258895874 0.06842777132987976
0.3337066173553467 0.49709880352020264 0.10098432004451752
0.28692251443862915 0.5218986868858337 0.14842654764652252
0.432157039642334 0.48689013719558716 0.05896284058690071
0.30828791856765747 0.45344865322113037 0.12924769520759583
0.43444520235061646 0.5145555734634399 -0.001295628142543137
0.402757465839386 0.5840467214584351 -0.08876394480466843
0.26430201530456543 0.5479529500007629 0.18197523057460785
0.2956708073616028 0.5371745824813843 0.11696359515190125
0.31989896297454834 0.5440172553062439 0.08197856694459915
0.36238598823547363 0.5391411185264587 0.05733627825975418
0.3955511748790741 0.5288769602775574 0.04346323758363724
0.42078548669815063 0.516992449760437 0.030182797461748123
0.4618329405784607 0.47837597131729126 -0.03275229409337044
0.26022574305534363 0.5966810584068298 0.16366538405418396
0.2957312762737274 0.4515884816646576 0.14853540062904358
0.4499184489250183 0.6097558736801147 -0.13405825197696686
0.4116278290748596 0.5525400638580322 -0.007280228193849325
0.27851659059524536 0.521798849105835 0.36475205421447754
0.4396614730358124 0.5032163262367249 0.02359924651682377
0.39215323328971863 0.6016969680786133 -0.008680349215865135
0.31742119789123535 0.4730093479156494 0.13051128387451172
0.4050537049770355 0.5699049234390259 -0.07560241967439651
0.2863088846206665 0.6909332275390625 0.32567864656448364
0.43460679054260254 0.47885528206825256 0.06922610849142075
0.4223887324333191 0.553272008895874 -0.1033489853143692
0.3194703459739685 0.8018593788146973 0.1265926957130432
0.33241236209869385 0.8374351859092712 0.16247299313545227
0.2577435076236725 0.6160329580307007 0.26119089126586914
0.2971319854259491 0.7698001861572266 0.16882219910621643
0.27615973353385925 0.463092565536499 0.2529362440109253
0.392652690410614 0.8986923694610596 0.010121829807758331
0.45709291100502014 0.6183109879493713 -0.10369059443473816
0.3907986879348755 0.5722307562828064 0.004078967962414026
0.27763620018959045 0.49494701623916626 0.2004195600748062
0.3536786437034607 0.48758506774902344 0.0880158543586731
0.3738000988960266 0.4885980486869812 0.07595399022102356
0.3876866400241852 0.7550787329673767 0.007721760775893927
0.26455193758010864 0.6484761238098145 0.15850813686847687
0.4378429651260376 0.9460757970809937 -0.00588651280850172
0.37751853466033936 0.89776611328125 0.07279817759990692
0.35634535551071167 0.8710215091705322 0.11361028999090195
0.49797067046165466 0.3259722590446472 0.010281359776854515
0.492873877286911 0.9577412605285645 -0.029468677937984467
0.39434945583343506 0.4868294596672058 0.06877324730157852
0.4143393635749817 0.4834379553794861 0.0675056129693985
0.42774343490600586 0.48111236095428467 0.07025490701198578
0.2854968309402466 0.44915229082107544 0.18176910281181335
0.41337260603904724 0.4640658497810364 0.06826336681842804
0.39243221282958984 0.4575440287590027 0.0689636692404747
0.3713630139827728 0.45500534772872925 0.07618100941181183
0.35071903467178345 0.4573208689689636 0.08804688602685928
0.33773553371429443 0.4629816710948944 0.09970515966415405
0.2772688865661621 0.46216922998428345 0.3342074751853943
0.34068626165390015 0.48422086238861084 0.1005655825138092
0.4712030589580536 0.6488441228866577 -0.08759073168039322
0.3901124596595764 0.6642846465110779 -0.036700133234262466
0.41080695390701294 0.6055200695991516 -0.06772372126579285
0.4340471625328064 0.6511891484260559 -0.07509107142686844
0.4907773733139038 0.44529202580451965 -0.0248616524040699
0.3433612585067749 0.8368645906448364 0.08896461129188538
0.36757856607437134 0.8661304712295532 0.05060360208153725
0.4307326376438141 0.9242546558380127 -0.029237056151032448
0.31538712978363037 0.803382158279419 0.22154174745082855
0.42789506912231445 0.4727945625782013 0.06912542879581451
0.44074100255966187 0.5153051614761353 -0.04426891729235649
0.48636624217033386 0.935775101184845 -0.05089784786105156
0.4021157920360565 0.9240453243255615 0.03009861335158348
0.2639440596103668 0.6720026731491089 0.24178051948547363
0.43244749307632446 0.7613714933395386 -0.03222512826323509
0.42534685134887695 0.7699623107910156 -0.036464717239141464
0.41842955350875854 0.7824402451515198 -0.03957054764032364
0.41432392597198486 0.7966598272323608 -0.035191647708415985
0.4094148874282837 0.8262810111045837 -0.01764097437262535
0.39903995394706726 0.7219911813735962 -0.005219434387981892
0.390616774559021 0.7196517586708069 -0.0015765026910230517
0.3835601210594177 0.7159677743911743 0.0010432149283587933
0.3573398292064667 0.7079854607582092 0.014292639680206776
0.28605595231056213 0.6553022265434265 0.09378796070814133
0.4490737020969391 0.4947158396244049 -0.015304424799978733
0.449898362159729 0.45600712299346924 0.04357307776808739
0.43712446093559265 0.46108853816986084 0.06138376146554947
0.40684032440185547 0.7224680781364441 -0.004538549575954676
0.2933518588542938 0.7243485450744629 0.12458464503288269
0.4664064645767212 0.451345294713974 0.0026972091291099787
0.40219905972480774 0.8447117209434509 -0.00673262495547533
0.46984580159187317 0.5154045820236206 -0.10795455425977707
0.4550743103027344 0.5002487897872925 -0.06472409516572952
0.47650790214538574 0.49405068159103394 -0.07707591354846954
0.4189954400062561 0.5525898933410645 -0.048390261828899384
0.48325785994529724 0.906182050704956 -0.057662371546030045
0.48321533203125 0.8754376173019409 -0.05177922546863556
0.43842774629592896 0.867694079875946 -0.03516264632344246
0.3542947769165039 0.7814306020736694 0.03959260508418083
0.3750922679901123 0.6248029470443726 0.0021209893748164177
0.3755239248275757 0.8158861398696899 0.017922118306159973
0.32723885774612427 0.6260660290718079 0.031359754502773285
0.3549862504005432 0.653411328792572 0.012715032324194908
0.31318506598472595 0.6705228686332703 0.05456429719924927
0.43108686804771423 0.8961774110794067 -0.03610658645629883
0.40594640374183655 0.5684877634048462 -0.028580375015735626
0.3420221209526062 0.8035328984260559 0.06396861374378204
0.3680042028427124 0.8373098373413086 0.03428878262639046
0.33661988377571106 0.7426645755767822 0.05135118588805199
0.2745070457458496 0.6946069598197937 0.15675972402095795
0.31589025259017944 0.7506750822067261 0.08161316066980362
0.2771104574203491 0.724285900592804 0.2164727747440338
0.34078943729400635 0.689052939414978 0.029375964775681496
0.4273066520690918 0.533852219581604 -0.024281827732920647
0.4107512831687927 0.5945305228233337 -0.09722216427326202
0.39900219440460205 0.6038850545883179 -0.06886311620473862
0.4166303873062134 0.5752650499343872 -0.11782650649547577
0.43188297748565674 0.4322565793991089 0.04623732715845108
0.39427220821380615 0.41574323177337646 0.05376958101987839
0.36089596152305603 0.41182461380958557 0.065701425075531
0.3336331248283386 0.4170667827129364 0.08466500043869019
0.3155677616596222 0.4307860732078552 0.10636815428733826
0.3065919578075409 0.48016682267189026 0.14388948678970337
0.2585398256778717 0.563974142074585 0.27008527517318726
0.3170919120311737 0.5135822892189026 0.11157732456922531
0.33828866481781006 0.5195832848548889 0.08742478489875793
0.3679015636444092 0.5189344882965088 0.0674377828836441
0.3977012634277344 0.5131803750991821 0.05538865551352501
0.4214624762535095 0.5048346519470215 0.046983323991298676
0.43777555227279663 0.4962448477745056 0.04184965789318085
0.28165438771247864 0.5772571563720703 0.37045958638191223
0.40193337202072144 0.6121717691421509 -0.057305581867694855
0.4334239661693573 0.5337560176849365 -0.07012840360403061
0.4235472083091736 0.5929362773895264 -0.12406448274850845
0.4416823983192444 0.607918381690979 -0.1209065243601799
0.42796653509140015 0.5994752645492554 -0.11184995621442795
0.41061556339263916 0.6207779049873352 -0.05284364894032478
0.4438638389110565 0.6090266704559326 -0.1293877363204956
0.4504643678665161 0.6172605752944946 -0.10131713002920151
0.44170844554901123 0.4784735441207886 0.0598323680460453
0.4510572850704193 0.4818505346775055 0.0370185561478138
0.45484933257102966 0.4834912419319153 0.013522007502615452
0.33047622442245483 0.4679974913597107 0.11013337224721909
0.3170771896839142 0.454622745513916 0.11568928509950638
0.49325016140937805 0.5199732780456543 -0.10720130801200867
0.6854402422904968 0.47770604491233826 0.0002757528272923082
0.4933580160140991 0.6136192679405212 -0.11082436889410019
0.8341972231864929 0.4033213257789612 0.11799594759941101
0.6094281673431396 0.4977450370788574 -0.00948529876768589
0.6361438632011414 0.5001592636108398 -0.015486668795347214
0.6628909707069397 0.49916332960128784 -0.01516908872872591
0.7007081508636475 0.48649853467941284 -0.001189264701679349
0.5871661901473999 0.4903929829597473 0.0008091418421827257
0.6467272639274597 0.42805296182632446 -0.019844500347971916
0.6174255013465881 0.4303329885005951 -0.008997737430036068
0.6756380200386047 0.4323190450668335 -0.019101029261946678
0.6954135298728943 0.44213318824768066 -0.013317315839231014
0.7276678085327148 0.5040143132209778 0.004052748903632164
0.5979739427566528 0.8821035623550415 -0.05074767768383026
0.6964870691299438 0.4715256690979004 0.0072409724816679955
0.8411747217178345 0.5132712125778198 0.10114286094903946
0.7661980986595154 0.4894241690635681 0.026641512289643288
0.6283830404281616 0.5954509973526001 -0.05819304659962654
0.5133256316184998 0.6608588099479675 -0.1061539426445961
0.5119452476501465 0.692362904548645 -0.09792055189609528
0.5566374063491821 0.6810702681541443 -0.09993072599172592
0.5837604403495789 0.7006434798240662 -0.08332720398902893
0.5444305539131165 0.7008491158485413 -0.0930614322423935
0.5693011283874512 0.7118550539016724 -0.07621041685342789
0.6283853650093079 0.7792506814002991 -0.04648283123970032
0.4802297353744507 0.5936362147331238 -0.15292586386203766
0.48312222957611084 0.5692300200462341 -0.15772755444049835
0.7413753867149353 0.421670138835907 -0.01026108767837286
0.5742740631103516 0.5315036773681641 -0.03669780492782593
0.5647691488265991 0.5969283580780029 -0.10556156933307648
0.5702527165412903 0.5854421854019165 -0.09591307491064072
0.7181158065795898 0.5985587239265442 -0.04821747541427612
0.4878901541233063 0.5419191718101501 -0.13816606998443604
0.6655492186546326 0.38937103748321533 -0.03144604712724686
0.7080342769622803 0.40057358145713806 -0.023929806426167488
0.7945805191993713 0.35247161984443665 0.08530306816101074
0.5451570153236389 0.41144341230392456 -0.026668863371014595
0.5925350189208984 0.4398839771747589 0.0042872135527431965
0.6473557949066162 0.7446599006652832 -0.047580279409885406
0.828221321105957 0.7687268257141113 0.12283258885145187
0.5447311401367188 0.611021876335144 -0.09137917309999466
0.520171582698822 0.6194164156913757 -0.08921408653259277
0.6137955784797668 0.7367796897888184 -0.0440303273499012
0.6050770878791809 0.7361915111541748 -0.04649628698825836
0.7283914685249329 0.385556697845459 -0.010583908297121525
0.5708468556404114 0.6108682751655579 -0.09293152391910553
0.6118748784065247 0.3915743827819824 -0.03231590613722801
0.6169517636299133 0.37146902084350586 -0.034044016152620316
0.663000762462616 0.2843839228153229 0.027982907369732857
0.7599844932556152 0.37157702445983887 0.031939927488565445
0.6363056302070618 0.3265736699104309 -0.0030849752947688103
0.765457272529602 0.4132358133792877 0.010960130952298641
0.7986844778060913 0.4131237268447876 0.06318923830986023
0.5131758451461792 0.6768804788589478 -0.10516546666622162
0.5506106615066528 0.6914613246917725 -0.09779536724090576
0.5766759514808655 0.7064946889877319 -0.08197823911905289
0.53904789686203 0.6169216632843018 -0.08453211188316345
0.6093417406082153 0.7366063594818115 -0.04506167024374008
0.5949631929397583 0.7518671751022339 -0.053304996341466904
0.6011881232261658 0.7357743382453918 -0.046282991766929626
0.5220226049423218 0.5984090566635132 -0.12460654228925705
0.5634023547172546 0.7146123647689819 -0.07228628545999527
0.5395655035972595 0.7063753008842468 -0.08351165056228638
0.5109842419624329 0.701239287853241 -0.08905860036611557
0.5279605984687805 0.8485700488090515 -0.05446118116378784
0.520871639251709 0.8132033348083496 -0.07714741677045822
0.517463207244873 0.7972779870033264 -0.08083689957857132
0.5141133069992065 0.7800037860870361 -0.07448878139257431
0.511292040348053 0.767744779586792 -0.06836137175559998
0.5628294944763184 0.7548991441726685 -0.05692993849515915
0.5690644383430481 0.7594586610794067 -0.06156124174594879
0.5770074129104614 0.7665261626243591 -0.06631957739591599
0.5836476683616638 0.7741057276725769 -0.06371960788965225
0.6058415770530701 0.6868636012077332 -0.07537280023097992
0.8636913299560547 0.638175368309021 0.17822420597076416
0.5808035731315613 0.7473969459533691 -0.048857469111680984
0.5877113342285156 0.7491032481193542 -0.052080608904361725
0.5109825134277344 0.6296648383140564 -0.09239084273576736
0.5644610524177551 0.6282833218574524 -0.07198135554790497
0.5153086185455322 0.6248077154159546 -0.09119143337011337
0.6048381328582764 0.5468084812164307 -0.03926395624876022
0.6496255397796631 0.5645217299461365 -0.04634886980056763
0.578690230846405 0.5993478894233704 -0.08380547165870667
0.7395222783088684 0.31135931611061096 0.051823172718286514
0.7080674767494202 0.34174156188964844 0.010460619814693928
0.6778924465179443 0.370382159948349 -0.024226536974310875
0.6037968397140503 0.8066633939743042 -0.05294548720121384
0.5534092783927917 0.3791819214820862 -0.030873320996761322
0.5691999197006226 0.3236616253852844 -0.0030404257122427225
0.5879987478256226 0.2732207775115967 0.024354087188839912
0.6862735748291016 0.4953629970550537 -0.009181409142911434
0.7599464058876038 0.5229212641716003 0.008631639182567596
0.5721166729927063 0.48317521810531616 0.008455764502286911
0.7293609380722046 0.45494869351387024 0.0014449221780523658
0.5526250004768372 0.5142271518707275 -0.03902418166399002
0.5399639010429382 0.5837686657905579 -0.12470988929271698
0.8024164438247681 0.5497502684593201 0.02404261939227581
0.7338656187057495 0.5377277731895447 -0.014730887487530708
0.6927120685577393 0.5435819625854492 -0.03041413612663746
0.6389466524124146 0.5376001596450806 -0.029014762490987778
0.6012293100357056 0.5263746380805969 -0.022376518696546555
0.572512149810791 0.5137275457382202 -0.01894374005496502
0.5098649859428406 0.47805923223495483 -0.04873722046613693
0.7978715896606445 0.6011720299720764 0.006313827354460955
0.756786584854126 0.4538725018501282 0.00945773720741272
0.475147008895874 0.609614908695221 -0.1418725550174713
0.5692978501319885 0.5530102252960205 -0.05299053341150284
0.8690177202224731 0.520557701587677 0.18205663561820984
0.5507141947746277 0.49957746267318726 -0.014858740381896496
0.5862342715263367 0.6034859418869019 -0.056894250214099884
0.7119651436805725 0.47191768884658813 0.009028536267578602
0.5457885265350342 0.5701789855957031 -0.11210024356842041
0.8531589508056641 0.7009216547012329 0.15678656101226807
0.5739195346832275 0.47585785388946533 0.016605518758296967
0.5157696604728699 0.553385317325592 -0.12997958064079285
0.7368022203445435 0.82129967212677 0.010145528241991997
0.7488535046577454 0.8610544800758362 0.042515262961387634
0.8426881432533264 0.6217150092124939 0.09038305282592773
0.7786580920219421 0.7864409685134888 0.03183113783597946
0.822296142578125 0.45985767245292664 0.09016454964876175
0.6061667799949646 0.9140840768814087 -0.045417577028274536
0.4771280884742737 0.6181210279464722 -0.10846839100122452
0.5961536765098572 0.5732850432395935 -0.05253369361162186
0.7974586486816406 0.49631592631340027 0.04564180597662926
0.6578110456466675 0.485375314950943 -0.009445996023714542
0.635070264339447 0.48729419708251953 -0.010364662855863571
0.6017352342605591 0.7549418210983276 -0.05216505751013756
0.7957677841186523 0.6560372710227966 0.006600914988666773
0.5554644465446472 0.9556955099105835 -0.03771239146590233
0.6558300852775574 0.9194972515106201 -0.005005957558751106
0.6991070508956909 0.8950745463371277 0.015909524634480476
0.6137979030609131 0.4856472313404083 -0.004844372160732746
0.5940535068511963 0.4812222719192505 0.004322268068790436
0.5809711217880249 0.47830677032470703 0.013642125762999058
0.7847929000854492 0.45110470056533813 0.03180516138672829
0.5982389450073242 0.4631229639053345 0.003878481686115265
0.6207087635993958 0.4586697220802307 -0.005926310084760189
0.6414952874183655 0.4578455090522766 -0.010920303873717785
0.663269579410553 0.4603177309036255 -0.011114203371107578
0.6780117154121399 0.46442002058029175 -0.0068601034581661224
0.8576999306678772 0.45626455545425415 0.1557864397764206
0.67359459400177 0.4817497134208679 -0.005114800296723843
0.5758351683616638 0.6670578718185425 -0.08367494493722916
0.5420917272567749 0.6050989031791687 -0.09914836287498474
0.5140486359596252 0.6522414684295654 -0.0944812074303627
0.6946061253547668 0.8568764925003052 -0.005041332449764013
0.6529817581176758 0.8858400583267212 -0.023783735930919647
0.5490395426750183 0.9324944019317627 -0.05961207300424576
0.7906922698020935 0.8227827548980713 0.08063138276338577
0.5814552307128906 0.4703879654407501 0.01145528070628643
0.5240922570228577 0.51506108045578 -0.0696728527545929
0.6085077524185181 0.9409571886062622 -0.028126204386353493
0.8351292014122009 0.6811619997024536 0.07849426567554474
0.5392056703567505 0.7621723413467407 -0.06465628743171692
0.5449473261833191 0.7705692648887634 -0.07007391005754471
0.5512086153030396 0.7828638553619385 -0.07518371939659119
0.5564350485801697 0.7963615655899048 -0.07255183905363083
0.5714049935340881 0.8313905000686646 -0.05856527015566826
0.5897765755653381 0.7234510183334351 -0.06079292669892311
0.5966432690620422 0.7213158011436462 -0.06247328966856003
0.6029129028320312 0.7183324694633484 -0.06388725340366364
0.630717396736145 0.7125613689422607 -0.06212691217660904
0.7457064986228943 0.6622739434242249 -0.0346822589635849
0.5307013392448425 0.494350790977478 -0.04159469157457352
0.5520607829093933 0.4536435008049011 0.010157576762139797
0.5694541335105896 0.45860555768013 0.012600741349160671
0.5839265584945679 0.7241939306259155 -0.05820645019412041
0.7563430666923523 0.7363375425338745 -0.004959098529070616
0.523971438407898 0.4506010413169861 -0.017510611563920975
0.5858076214790344 0.8539201617240906 -0.05181695893406868
0.5013442039489746 0.49998584389686584 -0.07837659120559692
0.5435656309127808 0.5530848503112793 -0.081943079829216
0.5347598791122437 0.8725526332855225 -0.05688542500138283
0.6531529426574707 0.7913699150085449 -0.039063259959220886
0.6086528301239014 0.6276468634605408 -0.05763379856944084
0.6245371699333191 0.8265407085418701 -0.04439682140946388
0.6722844839096069 0.6299641728401184 -0.06178915873169899
0.633167564868927 0.6573891043663025 -0.06149107962846756
0.6989136934280396 0.6774408221244812 -0.05181892588734627
0.542235255241394 0.9027543067932129 -0.06466460227966309
0.566477358341217 0.5691432356834412 -0.07088588178157806
0.6801067590713501 0.8184685111045837 -0.02549753710627556
0.6410754919052124 0.8524466156959534 -0.034624453634023666
0.673089861869812 0.7514520883560181 -0.04345265403389931
0.7900446653366089 0.7050386667251587 0.012067682109773159
0.713900089263916 0.7634032964706421 -0.027325060218572617
0.8164784908294678 0.7370158433914185 0.06127822771668434
0.6574621796607971 0.6946851015090942 -0.05800631642341614
0.5462684631347656 0.534018874168396 -0.06045405939221382
0.5297856330871582 0.5937380790710449 -0.12992516160011292
0.5546241998672485 0.6040486097335815 -0.10661453753709793
0.5117231607437134 0.5749802589416504 -0.14320652186870575
0.5719089508056641 0.4310208857059479 0.0005796591867692769
0.6144394874572754 0.4152689278125763 -0.013194754719734192
0.6527984142303467 0.4123520255088806 -0.0228041373193264
0.6872305274009705 0.41891634464263916 -0.02266271598637104
0.7135958671569824 0.4326469898223877 -0.013655532151460648
0.7354430556297302 0.480326771736145 0.014598705805838108
0.8450196385383606 0.566561222076416 0.09498568624258041
0.7085268497467041 0.5130577683448792 -0.007346183527261019
0.6777453422546387 0.5185388922691345 -0.016364427283406258
0.6399883031845093 0.5174264907836914 -0.018224814906716347
0.6057221293449402 0.5109859704971313 -0.012474363669753075
0.5793426036834717 0.5015976428985596 -0.004378809593617916
0.5610480904579163 0.4923758804798126 -0.0001838368334574625
0.8679358959197998 0.5796211957931519 0.18868933618068695
0.5576560497283936 0.6130251884460449 -0.0943957194685936
0.5179945826530457 0.5337789058685303 -0.09631487727165222
0.503353476524353 0.5925014615058899 -0.14484480023384094
0.4916379153728485 0.6079111099243164 -0.13285920023918152
0.5069497227668762 0.599021852016449 -0.13306386768817902
0.5525795817375183 0.6224482655525208 -0.08386676013469696
0.48463863134384155 0.6088755130767822 -0.13913331925868988
0.4864790141582489 0.6171903014183044 -0.10959101468324661
0.562727689743042 0.4746836721897125 0.015897827222943306
0.5471449494361877 0.47816601395606995 0.004023595247417688
0.5350648760795593 0.48030388355255127 -0.013541588559746742
0.6876967549324036 0.46796715259552 -0.001258248696103692
0.7101926207542419 0.4550948739051819 -0.002479038666933775
0.35523921251296997 0.47053468227386475 0.08469019085168839
0.3715377151966095 0.4690849781036377 0.08469019085168839
0.35797441005706787 0.45176994800567627 0.08469019085168839
0.3395652174949646 0.47226089239120483 0.08469019085168839
0.3527343273162842 0.48964130878448486 0.08469019085168839
0.6128151416778564 0.4711581766605377 -0.0005267875385470688
0.6369701623916626 0.47100043296813965 -0.0005267875385470688
0.612662672996521 0.45066994428634644 -0.0005267875385470688
0.5893665552139282 0.47104698419570923 -0.0005267875385470688
0.6133151650428772 0.49113285541534424 -0.0005267875385470688
