ply
format ascii 1.0
element vertex 478
property float x
property float y
property float z
end_header
0.525038480758667 0.6962738633155823 -0.07132785022258759
0.5471088290214539 0.6123130321502686 -0.13906718790531158
0.534372091293335 0.6362878680229187 -0.07659893482923508
0.5196548104286194 0.5267040133476257 -0.11000646650791168
0.5487156510353088 0.5851255655288696 -0.14720116555690765
0.5459269881248474 0.5510335564613342 -0.1372608095407486
0.5346560478210449 0.4708229899406433 -0.0706687644124031
0.33418548107147217 0.45723509788513184 -0.0033206448424607515
0.5314831137657166 0.41009196639060974 -0.052734389901161194
0.5322698354721069 0.37597477436065674 -0.0567593052983284
0.5297533273696899 0.24957388639450073 -0.03328787162899971
0.5244812369346619 0.7031852602958679 -0.06830018758773804
0.5229457020759583 0.7095012664794922 -0.061512745916843414
0.521247923374176 0.7129684686660767 -0.05134563520550728
0.5168156623840332 0.7664622068405151 -0.03254156559705734
0.5178432464599609 0.7742657661437988 -0.036769796162843704
0.5178563594818115 0.7841609716415405 -0.04169458523392677
0.5169228911399841 0.795230507850647 -0.036887481808662415
0.5193532705307007 0.8254362940788269 -0.015090037137269974
0.54314124584198 0.626436173915863 -0.1267080307006836
0.5120271444320679 0.6249805092811584 -0.09677564352750778
0.22232648730278015 0.3635471761226654 0.09232158958911896
0.4077185392379761 0.4800182580947876 -0.01736135594546795
0.38147860765457153 0.48134735226631165 -0.019690725952386856
0.355553537607193 0.4793919622898102 -0.016970479860901833
0.3200241029262543 0.4656006693840027 -0.0017088103340938687
0.4301244020462036 0.4745858907699585 -0.010507247410714626
0.3781655728816986 0.4129577875137329 -0.03096896782517433
0.4059987962245941 0.4171822667121887 -0.024953046813607216
0.3497634530067444 0.41509392857551575 -0.026769066229462624
0.32947200536727905 0.4235597848892212 -0.01888672634959221
0.29649966955184937 0.4813782274723053 0.007680071983486414
0.415343314409256 0.8504114151000977 0.0002709537511691451
0.32406100630760193 0.4513453245162964 0.0034644457045942545
0.2078300416469574 0.47745949029922485 0.10323112457990646
0.2659013271331787 0.46625298261642456 0.028163615614175797
0.38767534494400024 0.5833422541618347 -0.04251411557197571
0.4834121763706207 0.6903795003890991 -0.07434837520122528
0.48291242122650146 0.7053918838500977 -0.06274326890707016
0.4407026767730713 0.6914063096046448 -0.06368526071310043
0.410152792930603 0.6935378909111023 -0.04289930686354637
0.4473896920681 0.7024610638618469 -0.05458368360996246
0.4190963804721832 0.7014406323432922 -0.03520476445555687
0.37736353278160095 0.7447984218597412 0.0021498100832104683
0.5248191356658936 0.6112663149833679 -0.1398366540670395
0.5233880877494812 0.5847285389900208 -0.147763192653656
0.29376718401908875 0.40282517671585083 -0.01951766386628151
0.44675272703170776 0.5236789584159851 -0.03806547448039055
0.44622746109962463 0.5975862145423889 -0.08988364040851593
0.4428352415561676 0.5835118293762207 -0.08249834179878235
0.30382823944091797 0.5774117112159729 -0.024398403242230415
0.5220037698745728 0.5530581474304199 -0.13416112959384918
0.36691007018089294 0.3779146075248718 -0.05031620338559151
0.3255610466003418 0.38489392399787903 -0.03801732137799263
0.25831639766693115 0.31615960597991943 0.04971371591091156
0.4819585084915161 0.4064980447292328 -0.05422811210155487
0.42927858233451843 0.4276958703994751 -0.01393859926611185
0.3561542332172394 0.710516095161438 -0.000728937448002398
0.2105521857738495 0.7281368970870972 0.17121204733848572
0.4640251398086548 0.6139384508132935 -0.0770864337682724
0.4870544970035553 0.6229302287101746 -0.07464855164289474
0.36994293332099915 0.7033109664916992 0.0027877776883542538
0.3769899606704712 0.7052949666976929 -0.0006613113218918443
0.3116913437843323 0.3694702982902527 -0.028053687885403633
0.4397174119949341 0.6071416139602661 -0.07595116645097733
0.4185519814491272 0.38385701179504395 -0.05617586150765419
0.4161447286605835 0.3635852336883545 -0.061976563185453415
0.3794148862361908 0.25578418374061584 -0.025798778980970383
0.28640711307525635 0.3419315814971924 0.006830597296357155
0.40032950043678284 0.30526384711265564 -0.043305061757564545
0.276807963848114 0.3931906223297119 -0.0012979834573343396
0.250441312789917 0.38003236055374146 0.044561076909303665
0.48268550634384155 0.698509156703949 -0.07100226730108261
0.44398877024650574 0.6971600651741028 -0.059599895030260086
0.41465842723846436 0.6975501179695129 -0.04078124091029167
0.46880728006362915 0.6183884143829346 -0.06989450752735138
0.3734997808933258 0.7042734622955322 0.0011551609495654702
0.39095988869667053 0.7290583848953247 -0.00743172038346529
0.38006067276000977 0.7063843011856079 -0.0007652975618839264
0.48582160472869873 0.6092192530632019 -0.1104695051908493
0.42294013500213623 0.704085111618042 -0.031183987855911255
0.45074811577796936 0.7058812975883484 -0.04476466402411461
0.48373982310295105 0.7092594504356384 -0.05299577862024307
0.4763774573802948 0.8215216398239136 -0.018414758145809174
0.47597673535346985 0.7905484437942505 -0.04012324661016464
0.4776028096675873 0.779649555683136 -0.0438871867954731
0.47940921783447266 0.770173966884613 -0.038440193980932236
0.4812808036804199 0.7633247971534729 -0.03433135896921158
0.4222927689552307 0.7434512376785278 -0.017127586528658867
0.4183375835418701 0.7453515529632568 -0.02059919573366642
0.4127790927886963 0.7498230934143066 -0.02358081378042698
0.4087878167629242 0.7556147575378418 -0.019426710903644562
0.3964979350566864 0.6704583168029785 -0.03867273032665253
0.18479132652282715 0.5965834259986877 0.1996375024318695
0.5389883518218994 0.632227897644043 -0.09453350305557251
0.40210267901420593 0.7291803359985352 -0.005731881596148014
0.3966040015220642 0.728366494178772 -0.007614146918058395
0.49529916048049927 0.6327715516090393 -0.07487484812736511
0.4444901645183563 0.621315598487854 -0.05452344939112663
0.49150487780570984 0.6280031800270081 -0.07550434023141861
0.41672971844673157 0.535832405090332 -0.034629929810762405
0.3720516860485077 0.5497041344642639 -0.03463257849216461
0.4339064955711365 0.5940016508102417 -0.06875912845134735
0.30890142917633057 0.2789241075515747 0.007873919792473316
0.3346550762653351 0.3158597946166992 -0.021545104682445526
0.35933351516723633 0.35870271921157837 -0.047363124787807465
0.40211397409439087 0.7752839922904968 -0.005748954601585865
0.4772980809211731 0.3738071322441101 -0.0640510842204094
0.4631844162940979 0.3055131137371063 -0.0506439208984375
0.4502805173397064 0.24743813276290894 -0.039422985166311264
0.3329940438270569 0.47448980808258057 -0.009828591719269753
0.2662503123283386 0.49762555956840515 0.017634626477956772
0.4448508620262146 0.4685255289077759 -0.00570983812212944
0.2991182804107666 0.4347517490386963 -0.002466358244419098
0.46812090277671814 0.5088521242141724 -0.04461272805929184
0.4699222445487976 0.590886652469635 -0.11163239181041718
0.2370564341545105 0.5211800336837769 0.03937283530831337
0.28541243076324463 0.5127331018447876 -0.0020181811414659023
0.32091253995895386 0.521363377571106 -0.0188955869525671
0.3723248541355133 0.5197576284408569 -0.022876596078276634
0.4107155203819275 0.5114040374755859 -0.022258086130023003
0.44042137265205383 0.5008818507194519 -0.024246104061603546
0.5092461705207825 0.4766131043434143 -0.06556902825832367
0.23538145422935486 0.5724693536758423 0.032810576260089874
0.27752482891082764 0.4327678084373474 0.004913617856800556
0.5294870138168335 0.6253561973571777 -0.12760889530181885
0.44839632511138916 0.5473246574401855 -0.04902135953307152
0.18759667873382568 0.47685542702674866 0.1790413111448288
0.46357348561286926 0.4881380796432495 -0.025049638003110886
0.42733827233314514 0.5948312878608704 -0.042643945664167404
0.31128138303756714 0.45169395208358765 0.006458586547523737
0.4664192497730255 0.5736608505249023 -0.1022312194108963
0.19073700904846191 0.6607040762901306 0.1910480558872223
0.4440580904483795 0.4609305262565613 0.00010906544048339128
0.49519482254981995 0.5612034201622009 -0.12305203825235367
0.28744199872016907 0.7858564257621765 0.06522434949874878
0.28242993354797363 0.8208582401275635 0.10444959253072739
0.19848763942718506 0.5877395868301392 0.11510109901428223
0.24785202741622925 0.7514391541481018 0.0840054303407669
0.2274366319179535 0.42495614290237427 0.08031953126192093
0.41122451424598694 0.8774644136428833 0.0108086122199893
0.5281921625137329 0.63102126121521 -0.09433809667825699
0.4210062026977539 0.563816487789154 -0.04320446401834488
0.24092793464660645 0.4710325598716736 0.0484619177877903
0.3606027364730835 0.4646160900592804 -0.014267245307564735
0.3833394944667816 0.46688610315322876 -0.017069898545742035
0.38617047667503357 0.730721116065979 -0.004840357229113579
0.2321869432926178 0.6270824670791626 0.04254092276096344
0.4590516984462738 0.9143325090408325 0.023476960137486458
0.3710390627384186 0.8781925439834595 0.058052655309438705
0.33054491877555847 0.8545246124267578 0.07892122864723206
0.5316042304039001 0.3096791207790375 -0.045342735946178436
0.5129512548446655 0.9187361001968384 0.026668407022953033
0.40477466583251953 0.4663085341453552 -0.01471099816262722
0.42457693815231323 0.4637244939804077 -0.008440470322966576
0.4374369978904724 0.462202787399292 -0.0015524737536907196
0.25651076436042786 0.42874032258987427 0.0260674599558115
0.4225054085254669 0.44709011912345886 -0.011882764287292957
0.40078631043434143 0.441183865070343 -0.019295448437333107
0.37996751070022583 0.4387192130088806 -0.02165376953780651
0.3576586842536926 0.4402780532836914 -0.01898583583533764
0.34185996651649475 0.44439697265625 -0.012929538264870644
0.20015433430671692 0.41416001319885254 0.14023341238498688
0.3452715277671814 0.46102696657180786 -0.008927850984036922
0.531387984752655 0.6553366780281067 -0.0687783882021904
0.42915815114974976 0.6576246023178101 -0.05402896925806999
0.4668434262275696 0.6106699705123901 -0.08573153614997864
0.4894452393054962 0.6542951464653015 -0.0717308446764946
0.5309935212135315 0.4408140778541565 -0.05256126821041107
0.3298061788082123 0.8206615447998047 0.051817748695611954
0.3688589036464691 0.8490309119224548 0.0331859365105629
0.46166542172431946 0.8971091508865356 -0.005739112384617329
0.2435275763273239 0.7821852564811707 0.1374521404504776
0.4373142123222351 0.45508766174316406 -0.004901960492134094
0.49282756447792053 0.5156105160713196 -0.07545129954814911
0.5170592665672302 0.9017248153686523 -0.001958651700988412
0.4128986895084381 0.8994165062904358 0.035261206328868866
0.20134246349334717 0.6473401188850403 0.11352448165416718
0.4496902823448181 0.7553215026855469 -0.02773570828139782
0.4457229673862457 0.759882390499115 -0.031420689076185226
0.44210296869277954 0.7676207423210144 -0.03510463982820511
0.4397627115249634 0.7774022817611694 -0.031026717275381088
0.4340178370475769 0.8024193644523621 -0.01527649350464344
0.39417555928230286 0.7021363973617554 -0.017364202067255974
0.38965246081352234 0.6996845006942749 -0.018172981217503548
0.3858337998390198 0.6970268487930298 -0.019608011469244957
0.37052297592163086 0.6870483756065369 -0.019840475171804428
0.2723350524902344 0.6375994682312012 0.00044674365199171007
0.48937711119651794 0.49114668369293213 -0.05335128679871559
0.46989721059799194 0.4434794485569 -0.012036247178912163
0.4502599835395813 0.4463057518005371 -0.006426368840038776
0.39853474497795105 0.703985333442688 -0.014771424233913422
0.26276499032974243 0.7065312266349792 0.04063090309500694
0.49768856167793274 0.44251638650894165 -0.0411701425909996
0.4233982563018799 0.8242441415786743 -0.005745335016399622
0.5419702529907227 0.5234559774398804 -0.11392483860254288
0.5146263837814331 0.5028581023216248 -0.08922109007835388
0.5383913516998291 0.4981992542743683 -0.09100302308797836
0.47113439440727234 0.5531787872314453 -0.0784168466925621
0.5191102027893066 0.8772119283676147 -0.013477921485900879
0.5192005634307861 0.8488699197769165 -0.014010540209710598
0.4708479344844818 0.844796895980835 -0.014902539551258087
0.3590441942214966 0.7589950561523438 0.011071386747062206
0.4032798707485199 0.6153621077537537 -0.037933725863695145
0.3877057433128357 0.7949318289756775 0.004927832167595625
0.3408772647380829 0.6133437752723694 -0.03695955500006676
0.37526774406433105 0.641369640827179 -0.032832905650138855
0.3123524785041809 0.6553060412406921 -0.017005058005452156
0.46531155705451965 0.8726140856742859 -0.015773650258779526
0.4491913914680481 0.5654228925704956 -0.06326568871736526
0.33925312757492065 0.7852155566215515 0.027864322066307068
0.37622106075286865 0.8192148208618164 0.018215028569102287
0.3366401791572571 0.7200660705566406 0.003930368926376104
0.23522339761257172 0.6748446226119995 0.05451048165559769
0.3016270697116852 0.7326173782348633 0.020898684859275818
0.21592572331428528 0.7025910019874573 0.10681547224521637
0.34811413288116455 0.6706252694129944 -0.021004782989621162
0.47124871611595154 0.531583845615387 -0.061010655015707016
0.4786137044429779 0.6039551496505737 -0.11606364697217941
0.45489853620529175 0.6072023510932922 -0.09080324321985245
0.4965272545814514 0.5873728394508362 -0.1316700130701065
0.45208290219306946 0.422183632850647 -0.022136475890874863
0.41194024682044983 0.4042457342147827 -0.03277057036757469
0.3746531009674072 0.39819401502609253 -0.037383146584033966
0.34073886275291443 0.4017309844493866 -0.03231673687696457
0.314503014087677 0.41369909048080444 -0.02037191204726696
0.29151660203933716 0.45908308029174805 0.013881354592740536
0.2006913423538208 0.5319677591323853 0.10949482768774033
0.31136053800582886 0.4908617436885834 -0.0025649527087807655
0.3396928310394287 0.49809661507606506 -0.012757081538438797
0.375527024269104 0.4992750883102417 -0.01732792891561985
0.40942883491516113 0.4949388802051544 -0.016614824533462524
0.43635231256484985 0.4876861572265625 -0.013054151087999344
0.45530521869659424 0.479995995759964 -0.012253610417246819
0.18519476056098938 0.5363398194313049 0.19693335890769958
0.45146334171295166 0.6125898957252502 -0.07828962802886963
0.49594706296920776 0.5378296375274658 -0.09590984880924225
0.5028896331787109 0.6076263785362244 -0.1313452273607254
0.5132579207420349 0.6215602159500122 -0.11896210163831711
0.49921533465385437 0.6122586727142334 -0.11965575814247131
0.455633282661438 0.619635283946991 -0.06788212060928345
0.5201242566108704 0.6238193511962891 -0.1247919499874115
0.5188823938369751 0.6291914582252502 -0.09548645466566086
0.4547414183616638 0.4612826704978943 -0.0014494284987449646
0.47079095244407654 0.46692854166030884 -0.013324543833732605
0.48151278495788574 0.46995753049850464 -0.029739828780293465
0.33200323581695557 0.4481358528137207 -0.006121259182691574
0.31436866521835327 0.43559789657592773 -0.006584807299077511
0.5611825585365295 0.5277957320213318 -0.10092557966709137
0.6823140382766724 0.47065168619155884 0.062411583960056305
0.5619848966598511 0.6258213520050049 -0.08960194885730743
0.743895411491394 0.3866678476333618 0.19476830959320068
0.6157882809638977 0.4924296736717224 0.025491837412118912
0.6392368078231812 0.49514731764793396 0.03162471950054169
0.66115802526474 0.49331292510032654 0.042236629873514175
0.687834620475769 0.47785982489585876 0.06824001669883728
0.596864640712738 0.4846300184726715 0.023234255611896515
0.6558077931404114 0.42169517278671265 0.022317057475447655
0.6292299032211304 0.4236297309398651 0.01708083227276802
0.6789593696594238 0.4263083338737488 0.03479740396142006
0.6922814846038818 0.4360090494155884 0.04746151715517044
0.7021506428718567 0.49308258295059204 0.08331362903118134
0.603300929069519 0.8486214280128479 0.03241443634033203
0.6895337700843811 0.4629890024662018 0.07233560085296631
0.7487643957138062 0.49454954266548157 0.2060258686542511
0.7216476202011108 0.4764399528503418 0.11266729980707169
0.6474189758300781 0.5907275080680847 0.0016549992142245173
0.5622628331184387 0.6931995153427124 -0.062286049127578735
0.5570212602615356 0.7081016302108765 -0.051414087414741516
0.5933987498283386 0.695621132850647 -0.038951218128204346
0.6128978729248047 0.6995691657066345 -0.008997838012874126
0.5832589864730835 0.706762969493866 -0.032639242708683014
0.6016886830329895 0.7073941230773926 -0.006058984436094761
0.6321092247962952 0.7485480308532715 0.04542091488838196
0.5666771531105042 0.6121834516525269 -0.13397087156772614
0.5707069635391235 0.5859280228614807 -0.1408269703388214
0.7240670919418335 0.4159829020500183 0.05957065522670746
0.5960288047790527 0.5283806920051575 -0.009561131708323956
0.6137778759002686 0.6023958325386047 -0.06311195343732834
0.6135772466659546 0.5885680317878723 -0.054879605770111084
0.7116252183914185 0.5884681344032288 0.04838144779205322
0.5667320489883423 0.5542116165161133 -0.12524738907814026
0.6810547113418579 0.3876148462295532 0.004453829023987055
0.7087795734405518 0.39751002192497253 0.03061915747821331
0.7312420606613159 0.33954358100891113 0.14132612943649292
0.5804849863052368 0.40723520517349243 -0.03621133416891098
0.6053091287612915 0.43324795365333557 0.020118584856390953
0.6511038541793823 0.7155953645706177 0.05139824375510216
0.7044845223426819 0.731023907661438 0.2681182026863098
0.5944603085517883 0.6174763441085815 -0.056949492543935776
0.5751480460166931 0.6255397200584412 -0.06450389325618744
0.6338909268379211 0.7127342224121094 0.04826045781373978
0.6267162561416626 0.7139996290206909 0.03971930965781212
0.7195119261741638 0.3820721507072449 0.045070406049489975
0.6125136613845825 0.6120077967643738 -0.049617160111665726
0.6394234895706177 0.38880687952041626 -0.018593454733490944
0.645402193069458 0.3685450553894043 -0.023367220535874367
0.6573955416679382 0.27189040184020996 0.025711657479405403
0.7234717011451721 0.3606165647506714 0.08764207363128662
0.6475705504417419 0.31711137294769287 0.0008372522424906492
0.7333009243011475 0.4052636921405792 0.083457350730896
0.7385746240615845 0.39960312843322754 0.13626627624034882
0.5605907440185547 0.701449453830719 -0.05891963839530945
0.5886357426643372 0.7018023729324341 -0.036241888999938965
0.60771244764328 0.7036769390106201 -0.009418568573892117
0.5884196758270264 0.6215502023696899 -0.05377419665455818
0.6302763223648071 0.7133536338806152 0.043455809354782104
0.6171706318855286 0.7359192967414856 0.028512082993984222
0.6231498122215271 0.7147687077522278 0.03856098651885986
0.5865899920463562 0.6119951009750366 -0.09225615113973618
0.595848023891449 0.7095069289207458 -0.003538861870765686
0.5776016116142273 0.7098310589790344 -0.024108320474624634
0.5529301762580872 0.7117348313331604 -0.04139779880642891
0.5574694871902466 0.8222663402557373 -0.007206277456134558
0.5531425476074219 0.7925043702125549 -0.027718650177121162
0.5530011057853699 0.781205415725708 -0.030950279906392097
0.550963282585144 0.7714124917984009 -0.02583887241780758
0.5473513603210449 0.7643674612045288 -0.02229614555835724
0.5906675457954407 0.747020959854126 0.010701410472393036
0.596126914024353 0.7496544122695923 0.007286749314516783
0.6021133661270142 0.7548168301582336 0.005110240541398525
0.6060198545455933 0.761322021484375 0.011128026992082596
0.6332474946975708 0.6757736206054688 -0.000369405432138592
0.7272475361824036 0.6082963943481445 0.30657660961151123
0.6048917770385742 0.7345238924026489 0.028947332873940468
0.6113494634628296 0.7344701886177063 0.027100011706352234
0.5677411556243896 0.6349697709083557 -0.06491193920373917
0.6028770208358765 0.6253827214241028 -0.03364820405840874
0.5713655948638916 0.6305196285247803 -0.06574828922748566
0.6201472282409668 0.542252242565155 0.0037980531342327595
0.6590045690536499 0.5584755539894104 0.017644044011831284
0.6158326864242554 0.599327027797699 -0.04022974520921707
0.7047978639602661 0.30032187700271606 0.0822007954120636
0.6949474811553955 0.3321494162082672 0.043111711740493774
0.6894780397415161 0.36812084913253784 0.010476995259523392
0.6145013570785522 0.7776367664337158 0.029765570536255836
0.5909385085105896 0.374067485332489 -0.04458964243531227
0.5948670506477356 0.3119712471961975 -0.02786099910736084
0.6013110280036926 0.2564806342124939 -0.013663473539054394
0.6782959699630737 0.48814964294433594 0.05626850947737694
0.7216684818267822 0.5096484422683716 0.1016373410820961
0.5852713584899902 0.47712284326553345 0.02430874854326248
0.7100223898887634 0.44650280475616455 0.07353309541940689
0.5807540416717529 0.5123575925827026 -0.021798714995384216
0.6022729873657227 0.5946066379547119 -0.09001245349645615
0.7460340857505798 0.5358514785766602 0.13440486788749695
0.710606575012207 0.5263722538948059 0.07709966599941254
0.6861585378646851 0.5353533029556274 0.04882602393627167
0.6457414627075195 0.5323727130889893 0.029056794941425323
0.6148359775543213 0.5220822691917419 0.017154814675450325
0.592182457447052 0.5098215341567993 0.005303734913468361
0.5554836988449097 0.4780659079551697 -0.05600394308567047
0.7489182949066162 0.5852105617523193 0.12770476937294006
0.7237827777862549 0.44373494386672974 0.08838015049695969
0.5553491115570068 0.6257344484329224 -0.12293542176485062
0.5989168882369995 0.5519386529922485 -0.021505199372768402
0.7396270036697388 0.4951518774032593 0.2893703579902649
0.5763083696365356 0.4960530996322632 -0.00227450393140316
0.6150686740875244 0.6003254652023315 -0.014387808740139008
0.6965428590774536 0.4632880687713623 0.07876630872488022
0.6009759902954102 0.5774409770965576 -0.08024981617927551
0.7197620868682861 0.6681689620018005 0.2937413454055786
0.5849056243896484 0.46894925832748413 0.03134411573410034
0.5843140482902527 0.5634815692901611 -0.1071581169962883
0.6815769076347351 0.7841795682907104 0.13647304475307465
0.666159987449646 0.8159515857696533 0.17815881967544556
0.7512152194976807 0.5996299982070923 0.21812917292118073
0.7069011926651001 0.752614438533783 0.1676248461008072
0.7440076470375061 0.4440416693687439 0.17858363687992096
0.6028309464454651 0.8737736344337463 0.04524403065443039
0.5491512417793274 0.6314747333526611 -0.09138950705528259
0.6190462708473206 0.5697954297065735 -0.009146923199295998
0.7335573434829712 0.4816862940788269 0.14146728813648224
0.6606060862541199 0.4808492064476013 0.0436873733997345
0.6401177048683167 0.4828155040740967 0.03429047390818596
0.6218046545982361 0.7381366491317749 0.033478472381830215
0.7447564005851746 0.6369255185127258 0.13467055559158325
0.5608735084533691 0.9115724563598633 0.04335040971636772
0.618151843547821 0.8720945715904236 0.1063450276851654
0.6400012969970703 0.8480186462402344 0.13927021622657776
0.6198697090148926 0.48034775257110596 0.02931998111307621
0.6016957759857178 0.4749881327152252 0.029412979260087013
0.5904110670089722 0.4715679883956909 0.032292190939188004
0.7332481741905212 0.43866032361984253 0.11617253720760345
0.6062407493591309 0.4525820016860962 0.026585346087813377
0.6266584396362305 0.44653064012527466 0.02548864297568798
0.6475781202316284 0.44493216276168823 0.03030194155871868
0.6673836708068848 0.4483439326286316 0.04014702886343002
0.6789669394493103 0.45421743392944336 0.05040610954165459
0.7460687160491943 0.4355863034725189 0.2483585923910141
0.6737449765205383 0.4761044681072235 0.053926825523376465
0.6124973297119141 0.6622079610824585 -0.02483161725103855
0.5955606698989868 0.6142679452896118 -0.06685420125722885
0.5688928365707397 0.65643709897995 -0.05954770743846893
0.653232991695404 0.8172183036804199 0.11005551367998123
0.6281609535217285 0.8445548415184021 0.07947389781475067
0.5660952925682068 0.895031213760376 0.013145173899829388
0.6859134435653687 0.7807329893112183 0.22463302314281464
0.5921183824539185 0.4618460536003113 0.029524920508265495
0.5722466707229614 0.5180656909942627 -0.060250528156757355
0.5939919948577881 0.8945797681808472 0.07105686515569687
0.7429505586624146 0.6556591987609863 0.21254193782806396
0.5716995000839233 0.7574989795684814 -0.006656068842858076
0.5769819021224976 0.7625502347946167 -0.00971823651343584
0.581045389175415 0.7708084583282471 -0.012274160049855709
0.5831453204154968 0.7813131213188171 -0.0074767242185771465
0.5914506912231445 0.8037428855895996 0.010883841663599014
0.6162190437316895 0.7096494436264038 0.01893678493797779
0.6218598484992981 0.7075810432434082 0.021264757961034775
0.6265724897384644 0.705008864402771 0.022000063210725784
0.647254228591919 0.6927433013916016 0.028096571564674377
0.7247565984725952 0.6465405225753784 0.07956302165985107
0.5674175024032593 0.49372631311416626 -0.03728528320789337
0.5727535486221313 0.4473472833633423 0.007761466782540083
0.5841619372367859 0.4519544243812561 0.02226218767464161
0.6104384660720825 0.7109954953193665 0.020096195861697197
0.7145649790763855 0.7112975716590881 0.12017952650785446
0.5582709908485413 0.44572925567626953 -0.029538119211792946
0.5970499515533447 0.8238696455955505 0.0225316621363163
0.5585440397262573 0.5041007995605469 -0.08113263547420502
0.5900300145149231 0.5567317008972168 -0.05826487019658089
0.5614457130432129 0.8444908857345581 -0.0013668994652107358
0.644425630569458 0.7612557411193848 0.0605529323220253
0.6316976547241211 0.6214121580123901 -0.0016635875217616558
0.622363269329071 0.7953982949256897 0.04385532811284065
0.6834893822669983 0.6217610239982605 0.020285714417696
0.6518954634666443 0.6480802297592163 0.012893596664071083
0.6974148154258728 0.6629430055618286 0.048514507710933685
0.5663632154464722 0.8715861439704895 0.002001179149374366
0.6020950675010681 0.5700893998146057 -0.037974342703819275
0.655907392501831 0.7850355505943298 0.08375886082649231
0.6287825107574463 0.817348837852478 0.06128789111971855
0.6660395860671997 0.724511981010437 0.06366658955812454
0.7338937520980835 0.6817033290863037 0.14288990199565887
0.6885278224945068 0.7354756593704224 0.0888289213180542
0.7282284498214722 0.7074054479598999 0.2013300508260727
0.666700541973114 0.6775107979774475 0.03401462361216545
0.584511935710907 0.535128653049469 -0.039351943880319595
0.5948330163955688 0.6070497632026672 -0.09636770933866501
0.6064006090164185 0.6114527583122253 -0.06818738579750061
0.5878782272338867 0.589576244354248 -0.11584275960922241
0.5929575562477112 0.42512047290802 0.00501660630106926
0.6326739192008972 0.4100307524204254 0.007148100063204765
0.6663127541542053 0.4082739055156708 0.015296485275030136
0.6919837594032288 0.4145351052284241 0.03140624985098839
0.7067723274230957 0.42716774344444275 0.050805386155843735
0.7071508169174194 0.4695624113082886 0.09111678600311279
0.7522010803222656 0.5467984080314636 0.21497629582881927
0.6919388175010681 0.5039305090904236 0.06868229806423187
0.6712170839309692 0.511175274848938 0.04953966289758682
0.6424965858459473 0.5118680596351624 0.03382353112101555
0.6141254305839539 0.5057987570762634 0.023694531992077827
0.5925925970077515 0.4963350296020508 0.01727139949798584
0.5785179734230042 0.4872435927391052 0.012355252169072628
0.7317036390304565 0.551619827747345 0.30715522170066833
0.6041695475578308 0.6167603135108948 -0.05602458864450455
0.5766443610191345 0.5400747656822205 -0.08026856929063797
0.5811994075775146 0.6090114116668701 -0.11901487410068512
0.5654379725456238 0.6220450401306152 -0.11173922568559647
0.578520655632019 0.6138095855712891 -0.10690212994813919
0.5970726609230042 0.6233224868774414 -0.04911379888653755
0.5622056126594543 0.62430739402771 -0.11894736438989639
0.5565182566642761 0.6297025084495544 -0.09042862802743912
0.5778063535690308 0.4686526954174042 0.024406759068369865
0.5680788159370422 0.4729847311973572 0.005931902211159468
0.5645831227302551 0.47631973028182983 -0.013661148026585579
0.6851417422294617 0.45893460512161255 0.06009490787982941
0.6993811130523682 0.44777053594589233 0.063626728951931
0.37173178791999817 0.46579068899154663 -0.010030415840446949
0.3951016962528229 0.466525673866272 -0.010030415840446949
0.37416571378707886 0.4460779130458832 -0.010030415840446949
0.3486408591270447 0.4651757478713989 -0.010030415840446949
0.36971044540405273 0.48517417907714844 -0.010030415840446949
0.6340709328651428 0.4605807960033417 0.040723126381635666
0.655664324760437 0.46125996112823486 0.040723126381635666
0.6352992057800293 0.437788188457489 0.040723126381635666
0.6123470067977905 0.459878146648407 0.040723126381635666
0.632847249507904 0.48318445682525635 0.040723126381635666
