ply
format ascii 1.0
element vertex 478
property float x
property float y
property float z
end_header
0.5341609120368958 0.6994979381561279 -0.08197789639234543
0.5382033586502075 0.6000840663909912 -0.12530672550201416
0.5265771150588989 0.6268063187599182 -0.07374535501003265
0.5117714405059814 0.5261555314064026 -0.08534329384565353
0.5398197174072266 0.576359212398529 -0.1298121213912964
0.5372368097305298 0.5472507476806641 -0.1157866045832634
0.5270506739616394 0.4781741499900818 -0.04007955640554428
0.3328359127044678 0.4763065278530121 0.02966292016208172
0.5239561796188354 0.4238412380218506 -0.013760651461780071
0.5244376063346863 0.39328789710998535 -0.011432577855885029
0.5236018300056458 0.2880552113056183 0.03589970991015434
0.5336443781852722 0.7083526849746704 -0.07994217425584793
0.5312266945838928 0.7171305418014526 -0.07342159748077393
0.5277684926986694 0.723206102848053 -0.06327750533819199
0.5274717211723328 0.7235110998153687 -0.06634843349456787
0.528657078742981 0.731797993183136 -0.07127702981233597
0.5285170078277588 0.7420654296875 -0.07962680608034134
0.5265811681747437 0.7530838847160339 -0.08157714456319809
0.514746904373169 0.7713683843612671 -0.06785578280687332
0.5344157218933105 0.6136678457260132 -0.11539309471845627
0.5052524209022522 0.6134421825408936 -0.08734700083732605
0.22844967246055603 0.3816383481025696 0.14299510419368744
0.4000554084777832 0.4907177686691284 0.011114292778074741
0.37622106075286865 0.4928830862045288 0.009549164213240147
0.35241809487342834 0.4925617277622223 0.013267621397972107
0.3191831707954407 0.4842407703399658 0.029680656269192696
0.42083945870399475 0.4859813451766968 0.01755417138338089
0.37087348103523254 0.4334332346916199 0.006750705651938915
0.39717158675193787 0.4365311861038208 0.011910269036889076
0.3444412052631378 0.43597108125686646 0.010393824428319931
0.32565969228744507 0.4441525638103485 0.017257142812013626
0.29705655574798584 0.49654972553253174 0.0366373211145401
0.4139367640018463 0.8142445087432861 -0.056917522102594376
0.32337141036987305 0.472893089056015 0.036624811589717865
0.21436122059822083 0.4815141558647156 0.13125982880592346
0.268588125705719 0.4830554723739624 0.05962105095386505
0.3919733166694641 0.582558810710907 -0.029958100989460945
0.5020701885223389 0.6925708651542664 -0.08275718241930008
0.5015122890472412 0.7149851322174072 -0.07367353141307831
0.4663945436477661 0.699996829032898 -0.07437915354967117
0.4402872920036316 0.7081655263900757 -0.06168188899755478
0.4729364514350891 0.7153582572937012 -0.06805022805929184
0.4487479329109192 0.7172980904579163 -0.05582893639802933
0.3937106430530548 0.7321633100509644 -0.04087934270501137
0.516856849193573 0.5986189246177673 -0.12524648010730743
0.5145750045776367 0.5758817195892334 -0.12936636805534363
0.2931215465068817 0.4208073914051056 0.024302713572978973
0.4440900683403015 0.5274059176445007 -0.017049042508006096
0.44492292404174805 0.5930160880088806 -0.07489805668592453
0.44164079427719116 0.5815114378929138 -0.06641668826341629
0.3134232759475708 0.5787396430969238 -0.009866337291896343
0.5137960314750671 0.5488711595535278 -0.11185577511787415
0.3597959876060486 0.3955800533294678 -0.0032922490499913692
0.3216342329978943 0.40339547395706177 0.0088420445099473
0.2624197006225586 0.3400495648384094 0.10906513780355453
0.46943962574005127 0.4190497398376465 -0.012118019163608551
0.41937199234962463 0.44527506828308105 0.020690996199846268
0.3731820583343506 0.7106995582580566 -0.03266356885433197
0.21817606687545776 0.7101739645004272 0.14756707847118378
0.4625992774963379 0.6069132685661316 -0.06602074950933456
0.4832177758216858 0.615026593208313 -0.06756559759378433
0.4058816134929657 0.7224770188331604 -0.03227201849222183
0.4125674366950989 0.7223424911499023 -0.036744311451911926
0.30907976627349854 0.3889619708061218 0.022108929231762886
0.44060325622558594 0.6039674282073975 -0.06406646221876144
0.4082021415233612 0.3989957571029663 -0.010276434943079948
0.4063868522644043 0.37994831800460815 -0.01139769610017538
0.3778550326824188 0.2895163297653198 0.0441858246922493
0.2883639931678772 0.36229726672172546 0.06104067713022232
0.3960319459438324 0.33160847425460815 0.0174975898116827
0.27792036533355713 0.4120039939880371 0.04469418153166771
0.2546462416648865 0.3955000042915344 0.09286122024059296
0.5018920302391052 0.7047700881958008 -0.0809597373008728
0.47016170620918274 0.7081064581871033 -0.07244401425123215
0.44497644901275635 0.7128215432167053 -0.0607939213514328
0.46740323305130005 0.6118922829627991 -0.06087576597929001
0.40935683250427246 0.722524106502533 -0.03448013588786125
0.42270493507385254 0.7261377573013306 -0.04958247393369675
0.4159427881240845 0.7222278714179993 -0.03726978227496147
0.4808107614517212 0.598426103591919 -0.09530848264694214
0.45070531964302063 0.7201539874076843 -0.05191729590296745
0.47425439953804016 0.7198406457901001 -0.059062276035547256
0.5005795359611511 0.7210459113121033 -0.06414768844842911
0.48195359110832214 0.7689535617828369 -0.07016242295503616
0.4928087890148163 0.7506265640258789 -0.08364511281251907
0.49558374285697937 0.739342987537384 -0.08189797401428223
0.4978577792644501 0.7293016910552979 -0.07266731560230255
0.4997200667858124 0.72150057554245 -0.06734085828065872
0.44945165514945984 0.7208530306816101 -0.05421801656484604
0.4449593722820282 0.7246667742729187 -0.05965503305196762
0.4396355450153351 0.729967474937439 -0.06588240712881088
0.4345510005950928 0.7361803650856018 -0.06434284895658493
0.4085391163825989 0.6676042079925537 -0.05286137014627457
0.19139587879180908 0.5900983810424805 0.20122602581977844
0.530426561832428 0.6203327178955078 -0.08734958618879318
0.4317839741706848 0.721543550491333 -0.044810425490140915
0.42771753668785095 0.7236393690109253 -0.048450808972120285
0.49123337864875793 0.6245745420455933 -0.07154323905706406
0.44657406210899353 0.6189179420471191 -0.04888066276907921
0.48746711015701294 0.6198970675468445 -0.06969979405403137
0.41619226336479187 0.5400139689445496 -0.015235059894621372
0.3753223717212677 0.5535866618156433 -0.015966355800628662
0.4350670278072357 0.592345654964447 -0.05552808940410614
0.3106290400028229 0.30821138620376587 0.07277964800596237
0.333699107170105 0.3402266502380371 0.0369403176009655
0.35292941331863403 0.37756943702697754 0.0045418404042720795
0.4173339009284973 0.7465484142303467 -0.05436563864350319
0.46530699729919434 0.3881518244743347 -0.016221851110458374
0.4569370150566101 0.33353129029273987 0.009215014055371284
0.446529746055603 0.2841118276119232 0.031627196818590164
0.3314882516860962 0.49014556407928467 0.021099140867590904
0.2694597840309143 0.5111796259880066 0.04395190626382828
0.43438056111335754 0.4807971119880676 0.02320488914847374
0.29831230640411377 0.45334023237228394 0.03328191116452217
0.463834285736084 0.5127779245376587 -0.021331921219825745
0.4649862051010132 0.5839160084724426 -0.09417704492807388
0.24288396537303925 0.5230720043182373 0.06150176748633385
0.28584355115890503 0.5236143469810486 0.02164706587791443
0.31795987486839294 0.5297666192054749 0.00307857571169734
0.366873562335968 0.5275503993034363 -0.001545547042042017
0.4036882519721985 0.519752025604248 -0.0006537778535857797
0.4321652352809906 0.5100655555725098 -0.001379558234475553
0.5025327801704407 0.4826599061489105 -0.034995220601558685
0.2456064075231552 0.5719821453094482 0.04626886919140816
0.27863848209381104 0.45033901929855347 0.04274458438158035
0.5213974714279175 0.6121816635131836 -0.11566052585840225
0.44650959968566895 0.5489464402198792 -0.030590156093239784
0.19426271319389343 0.48268455266952515 0.20519067347049713
0.45409607887268066 0.4982084333896637 0.00017766485689207911
0.4300880432128906 0.5947283506393433 -0.03259586542844772
0.31001952290534973 0.4722602963447571 0.03918597847223282
0.4619579613208771 0.5700802206993103 -0.08325046300888062
0.19927331805229187 0.6484977006912231 0.18026624619960785
0.43326297402381897 0.474209189414978 0.030692828819155693
0.48827940225601196 0.5568726062774658 -0.10177583247423172
0.2882452607154846 0.7635431885719299 0.02632301300764084
0.28175780177116394 0.7952762842178345 0.06084446609020233
0.2089797556400299 0.5818276405334473 0.12304957211017609
0.2540481686592102 0.7305968403816223 0.05662962794303894
0.23311379551887512 0.43487194180488586 0.11924764513969421
0.4043385088443756 0.8425456285476685 -0.049830563366413116
0.5201818943023682 0.6188709139823914 -0.08669485151767731
0.4223283529281616 0.5656944513320923 -0.027455242350697517
0.24516287446022034 0.489190936088562 0.0793623998761177
0.35707730054855347 0.4791337251663208 0.017828498035669327
0.37728726863861084 0.4791947305202484 0.014347254298627377
0.4173216223716736 0.7292389273643494 -0.04720446467399597
0.24642392992973328 0.6208040118217468 0.045032232999801636
0.45201337337493896 0.8793522119522095 -0.04317665845155716
0.36382418870925903 0.8489023447036743 -6.746626604581252e-05
0.32528436183929443 0.8272879719734192 0.026710277423262596
0.5239531993865967 0.339654803276062 0.012185837142169476
0.5071711540222168 0.8838595151901245 -0.04370899125933647
0.3964637517929077 0.4777986407279968 0.01612735353410244
0.4147772192955017 0.4756491482257843 0.02197791449725628
0.4268682301044464 0.4749266505241394 0.02890833653509617
0.25963401794433594 0.4477524161338806 0.06484100222587585
0.41175031661987305 0.4669789671897888 0.021695811301469803
0.39159291982650757 0.4644978940486908 0.015864646062254906
0.37343916296958923 0.4636143445968628 0.014340377412736416
0.3540326952934265 0.46520620584487915 0.016763905063271523
0.33992666006088257 0.4681169390678406 0.0220233965665102
0.20728325843811035 0.4263802766799927 0.17984014749526978
0.3431483507156372 0.47791945934295654 0.023691289126873016
0.5248388648033142 0.6457228660583496 -0.07184325903654099
0.4355688691139221 0.6530808806419373 -0.06035498157143593
0.46436774730682373 0.6024922728538513 -0.07260126620531082
0.4887332022190094 0.6454380750656128 -0.0747692734003067
0.523816704750061 0.45226699113845825 -0.017909664660692215
0.3256142735481262 0.7953062057495117 0.0012637615436688066
0.36207282543182373 0.8202000260353088 -0.023604320362210274
0.45478084683418274 0.8575961589813232 -0.07062344253063202
0.24715900421142578 0.7591753005981445 0.10452046990394592
0.42639732360839844 0.4707886278629303 0.027154766023159027
0.4865323305130005 0.5174223780632019 -0.050827234983444214
0.5105755925178528 0.8625539541244507 -0.07038631290197372
0.40549081563949585 0.8666995167732239 -0.027181457728147507
0.21367225050926208 0.635458767414093 0.11034847050905228
0.47296762466430664 0.7204488515853882 -0.062042202800512314
0.4688524305820465 0.7265077233314514 -0.06790337711572647
0.46496039628982544 0.7346314191818237 -0.07558534294366837
0.4614958167076111 0.7446114420890808 -0.07613736391067505
0.44661450386047363 0.7594796419143677 -0.06633590906858444
0.42880475521087646 0.7197459936141968 -0.04573211818933487
0.4244515895843506 0.717818021774292 -0.04661290720105171
0.41994690895080566 0.7153760194778442 -0.04685644805431366
0.3866540193557739 0.6872707009315491 -0.042259637266397476
0.2861558794975281 0.631355881690979 0.0021983319893479347
0.48369336128234863 0.49604856967926025 -0.02617010660469532
0.458886057138443 0.4575960040092468 0.021082308143377304
0.4398221969604492 0.4612314999103546 0.026566095650196075
0.43265238404273987 0.7211641073226929 -0.04348202794790268
0.27486902475357056 0.6922591924667358 0.023713575676083565
0.48688560724258423 0.4552574157714844 -0.006326141767203808
0.42851749062538147 0.786859393119812 -0.060587938874959946
0.5336581468582153 0.5234976410865784 -0.08973344415426254
0.506924033164978 0.5053869485855103 -0.06154819205403328
0.530404806137085 0.50149005651474 -0.06369296461343765
0.46700912714004517 0.5523129105567932 -0.05833538994193077
0.5132100582122803 0.8342784643173218 -0.07833724468946457
0.5139999389648438 0.8011775016784668 -0.07283834367990494
0.4718674123287201 0.7984652519226074 -0.0725630596280098
0.36610519886016846 0.7437768578529358 -0.03215437009930611
0.4075201153755188 0.6134148836135864 -0.03321155905723572
0.3941524624824524 0.7690597772598267 -0.04666465148329735
0.3499513566493988 0.6090875864028931 -0.030840866267681122
0.38314682245254517 0.6368780732154846 -0.03712625801563263
0.3232154846191406 0.64849454164505 -0.02177894115447998
0.46200788021087646 0.8298507332801819 -0.07728860527276993
0.44753965735435486 0.5654542446136475 -0.046288687735795975
0.34034574031829834 0.7645071148872375 -0.01738852635025978
0.3754190504550934 0.7921284437179565 -0.03532949090003967
0.3459550142288208 0.7135146260261536 -0.02570394240319729
0.2495419681072235 0.663138210773468 0.04594327136874199
0.30957478284835815 0.7184692621231079 -0.006746229249984026
0.22606489062309265 0.6852327585220337 0.09156547486782074
0.35978755354881287 0.668702244758606 -0.03395374119281769
0.46691063046455383 0.5329042077064514 -0.039740025997161865
0.47373566031455994 0.5940864682197571 -0.09953344613313675
0.453280508518219 0.6004980802536011 -0.07738511264324188
0.4892561435699463 0.5787697434425354 -0.11326175928115845
0.44091272354125977 0.4374621510505676 0.014623955823481083
0.4021456837654114 0.42180073261260986 0.006844943854957819
0.3669987916946411 0.4173506498336792 0.003011896973475814
0.33557671308517456 0.42143288254737854 0.007337408605962992
0.3116949498653412 0.43302154541015625 0.01799912378191948
0.2923150062561035 0.4767948389053345 0.04603634774684906
0.20832359790802002 0.5307141542434692 0.12740883231163025
0.31050005555152893 0.5044636726379395 0.024807335808873177
0.33658188581466675 0.5091599225997925 0.01308969222009182
0.37025296688079834 0.5091553330421448 0.007275087293237448
0.4021761119365692 0.5046980381011963 0.007756750099360943
0.42767640948295593 0.49812591075897217 0.011956825852394104
0.4457107186317444 0.4911017119884491 0.01387819368392229
0.1913093626499176 0.5360681414604187 0.2109934240579605
0.4512454867362976 0.6074486970901489 -0.06686946004629135
0.48960426449775696 0.5366853475570679 -0.07295537739992142
0.4961051940917969 0.5955142378807068 -0.11558768898248672
0.5063876509666443 0.6088036894798279 -0.10684449225664139
0.4934483468532562 0.6002139449119568 -0.10511194169521332
0.45621177554130554 0.6152699589729309 -0.05953419581055641
0.5126057863235474 0.6106228232383728 -0.1128273755311966
0.5114150047302246 0.6171146631240845 -0.08703390508890152
0.4439701437950134 0.4742039442062378 0.028762411326169968
0.4604117274284363 0.4790952205657959 0.016020437702536583
0.4712940752506256 0.4814178943634033 -0.0008088761824183166
0.3308156132698059 0.47073906660079956 0.027996204793453217
0.3120785653591156 0.45586270093917847 0.0280215535312891
0.5524484515190125 0.5283358693122864 -0.07895518094301224
0.6628065705299377 0.4918064475059509 0.07717423886060715
0.5516386032104492 0.6167644262313843 -0.08240266144275665
0.7292057871818542 0.4145747423171997 0.21841639280319214
0.6060317158699036 0.5027276277542114 0.042076341807842255
0.6267479658126831 0.5072166323661804 0.04657762125134468
0.6462134718894958 0.508270263671875 0.05602298304438591
0.670546293258667 0.5011847615242004 0.08031726628541946
0.5879823565483093 0.4946209192276001 0.04193243756890297
0.640984058380127 0.4407041668891907 0.04457686468958855
0.6170615553855896 0.44142472743988037 0.04154650866985321
0.6627177000045776 0.44639939069747925 0.054421283304691315
0.6755929589271545 0.45743894577026367 0.06493040174245834
0.6872071623802185 0.5161557197570801 0.09171073138713837
0.5960322022438049 0.8178003430366516 -0.033797137439250946
0.6697815656661987 0.487795352935791 0.08651208132505417
0.7353742122650146 0.5118950009346008 0.2074756920337677
0.7090562582015991 0.5019988417625427 0.12146621197462082
0.6306964755058289 0.5955479741096497 0.0008683261694386601
0.5618321895599365 0.6956274509429932 -0.07450748234987259
0.5547896027565002 0.7174424529075623 -0.06612705439329147
0.5843247175216675 0.7039079666137695 -0.05741717293858528
0.5974441766738892 0.7134861350059509 -0.03840498626232147
0.5722429752349854 0.7189590930938721 -0.053317561745643616
0.5852453708648682 0.7216631770133972 -0.03608560934662819
0.6146814823150635 0.7413733601570129 -0.010855983942747116
0.5569391250610352 0.6012979745864868 -0.12104075402021408
0.5612640380859375 0.578649640083313 -0.1244305670261383
0.7086239457130432 0.4319115877151489 0.08147331327199936
0.5864661931991577 0.5356900691986084 0.0031162595842033625
0.6002645492553711 0.6022561192512512 -0.056015804409980774
0.6004745960235596 0.590660572052002 -0.046970196068286896
0.6902801394462585 0.5988487005233765 0.042652565985918045
0.5577729940414429 0.5512697696685791 -0.10549704730510712
0.6658978462219238 0.4017066955566406 0.03590526804327965
0.692707896232605 0.41133344173431396 0.05820682272315025
0.7162191867828369 0.3719686269760132 0.17640817165374756
0.5715805292129517 0.4223754405975342 0.0003718664520420134
0.5951085090637207 0.44935154914855957 0.044734541326761246
0.6325660943984985 0.7222591638565063 0.0034678755328059196
0.7000261545181274 0.7265732884407043 0.2182866334915161
0.581299901008606 0.614406168460846 -0.05175868421792984
0.5632315874099731 0.6201484799385071 -0.06042642146348953
0.6093692183494568 0.7299789190292358 -0.0008276745793409646
0.6032587289810181 0.7288620471954346 -0.009085367433726788
0.7040476202964783 0.3959552049636841 0.07495838403701782
0.5977175831794739 0.6130430698394775 -0.045493289828300476
0.6265244483947754 0.4047854542732239 0.016299977898597717
0.6318143606185913 0.3853602409362793 0.01610373891890049
0.6441761255264282 0.3105597198009491 0.08182010799646378
0.708597719669342 0.3898780345916748 0.11979760229587555
0.6343506574630737 0.34925901889801025 0.04910429194569588
0.7193880081176758 0.4236862063407898 0.10646556317806244
0.7238290309906006 0.42492860555648804 0.15992522239685059
0.559474766254425 0.7077157497406006 -0.07280874252319336
0.5788419246673584 0.7122106552124023 -0.05652816221117973
0.5918761491775513 0.7178093194961548 -0.03945418447256088
0.5747310519218445 0.6183313131332397 -0.04941635951399803
0.6062532067298889 0.7295098900794983 -0.005396091844886541
0.5991333723068237 0.7321333289146423 -0.024891527369618416
0.6003776788711548 0.728219211101532 -0.010350898839533329
0.5753656625747681 0.6051444411277771 -0.08246459811925888
0.5790212154388428 0.7238936424255371 -0.033111151307821274
0.5662198662757874 0.7231830358505249 -0.04506516084074974
0.549418032169342 0.7231568694114685 -0.0563378632068634
0.5443229675292969 0.7709929943084717 -0.06252243369817734
0.554146409034729 0.7524058818817139 -0.07513821870088577
0.5548667907714844 0.7412418127059937 -0.07317031919956207
0.5531946420669556 0.7313191294670105 -0.06405947357416153
0.5494110584259033 0.7233762741088867 -0.059269554913043976
0.5791679620742798 0.7242668867111206 -0.03542422875761986
0.5848707556724548 0.7291634678840637 -0.04064749553799629
0.5899372100830078 0.7349196076393127 -0.046201497316360474
0.5936755537986755 0.7415338754653931 -0.04333935305476189
0.6142297983169556 0.6775116324424744 -0.026483818888664246
0.7195075750350952 0.6158551573753357 0.27988049387931824
0.5887796878814697 0.7258208394050598 -0.021223394200205803
0.5941663384437561 0.7289942502975464 -0.02465924248099327
0.5563743710517883 0.6285476684570312 -0.06458798050880432
0.5868239998817444 0.6264989376068115 -0.034114938229322433
0.5597836971282959 0.6245124936103821 -0.06277688592672348
0.6083733439445496 0.551102876663208 0.011952931992709637
0.6429874897003174 0.5687245726585388 0.02126755565404892
0.6014280915260315 0.6018710136413574 -0.03541062772274017
0.6900680661201477 0.3365779221057892 0.1274399757385254
0.6804479956626892 0.3643093407154083 0.08354615420103073
0.6741883158683777 0.38291624188423157 0.04585730656981468
0.5962166786193848 0.7530072927474976 -0.02973432093858719
0.5810662508010864 0.3927830755710602 -0.0022925769444555044
0.5836925506591797 0.34331804513931274 0.025349661707878113
0.5908958911895752 0.29585757851600647 0.05024266615509987
0.6615419387817383 0.5071239471435547 0.06881524622440338
0.7070615887641907 0.5338069200515747 0.10542632639408112
0.576086163520813 0.48712676763534546 0.04489976912736893
0.6940690279006958 0.4686344265937805 0.08848781883716583
0.5720981359481812 0.5191195607185364 -0.005160865373909473
0.5903452634811401 0.5917525887489319 -0.07890917360782623
0.730635404586792 0.550344705581665 0.13156722486019135
0.6946509480476379 0.546837568283081 0.07931526005268097
0.6703412532806396 0.5508513450622559 0.05199706181883812
0.6318875551223755 0.5431901216506958 0.03571351245045662
0.6030353903770447 0.530836284160614 0.02742612548172474
0.5812634229660034 0.5175197124481201 0.019605208188295364
0.547409176826477 0.48539409041404724 -0.028286758810281754
0.7293289303779602 0.5970314741134644 0.11600849777460098
0.7094359993934631 0.46606093645095825 0.10346890240907669
0.5458616018295288 0.6139064431190491 -0.11228771507740021
0.587536096572876 0.5569085478782654 -0.011371367610991001
0.728591799736023 0.5137423872947693 0.28624916076660156
0.565666913986206 0.5032302141189575 0.01641032099723816
0.6003926992416382 0.6042430400848389 -0.012821848504245281
0.6789425015449524 0.48870500922203064 0.09179177135229111
0.5895827412605286 0.5775092244148254 -0.06774722039699554
0.7120304107666016 0.6701534390449524 0.2561070919036865
0.5755252242088318 0.4794999361038208 0.053256794810295105
0.574431300163269 0.5617694854736328 -0.0905088260769844
0.6795947551727295 0.773719310760498 0.07816247642040253
0.668904185295105 0.8019280433654785 0.11444859951734543
0.7345243692398071 0.6075550317764282 0.19922776520252228
0.7001427412033081 0.7446509003639221 0.11764618754386902
0.7298808097839355 0.46542468667030334 0.19156791269779205
0.599553108215332 0.8449335098266602 -0.024954309687018394
0.5398806929588318 0.6203317046165466 -0.08466480672359467
0.6053633093833923 0.5759136080741882 -0.0036564560141414404
0.7244845032691956 0.5091336369514465 0.14758147299289703
0.6448661088943481 0.49493610858917236 0.059687819331884384
0.6279590129852295 0.49440130591392517 0.05146782472729683
0.6032193899154663 0.7357701659202576 -0.020755836740136147
0.7236602306365967 0.6431000232696533 0.11224408447742462
0.5571172833442688 0.8799998760223389 -0.029223207384347916
0.6190414428710938 0.8502592444419861 0.03478354588150978
0.6433119177818298 0.8304770588874817 0.07032156735658646
0.6103247404098511 0.49086159467697144 0.04805086553096771
0.5930699110031128 0.4854009449481964 0.049456991255283356
0.5814604759216309 0.4821830987930298 0.053462039679288864
0.7215091586112976 0.4637948274612427 0.13064314424991608
0.5969865918159485 0.4701794981956482 0.04920939356088638
0.6159643530845642 0.46836167573928833 0.04791857674717903
0.6335486769676208 0.46972399950027466 0.0515337772667408
0.650100827217102 0.474494069814682 0.059121839702129364
0.6600936055183411 0.4800834655761719 0.06742817908525467
0.7324495315551758 0.45928168296813965 0.2594144940376282
0.6556221842765808 0.4936895966529846 0.06912006437778473
0.5958452820777893 0.6612859964370728 -0.04021558538079262
0.5830124616622925 0.6102516651153564 -0.059283241629600525
0.5567508935928345 0.6494090557098389 -0.06644589453935623
0.654245138168335 0.8022785186767578 0.043522972613573074
0.6278288960456848 0.8236966133117676 0.009961433708667755
0.5613399744033813 0.8591556549072266 -0.05701261758804321
0.6859243512153625 0.7703778743743896 0.1679273545742035
0.5825595259666443 0.4749717712402344 0.05179094523191452
0.5632990002632141 0.5217602849006653 -0.04013862460851669
0.5919886231422424 0.8675111532211304 -0.0015760072274133563
0.7264323830604553 0.6576166749000549 0.18322883546352386
0.5663241744041443 0.7233988642692566 -0.04773808643221855
0.5718411207199097 0.7299346923828125 -0.053077805787324905
0.575430154800415 0.7381056547164917 -0.060027193278074265
0.5772102475166321 0.7482206225395203 -0.05996270850300789
0.5734416842460632 0.763624906539917 -0.04829743504524231
0.5950437784194946 0.7249587178230286 -0.020904777571558952
0.600872278213501 0.7238616943359375 -0.019510794430971146
0.6057922840118408 0.7218695878982544 -0.018047401681542397
0.6273524761199951 0.6985909938812256 -0.009084164164960384
0.7025480270385742 0.6509483456611633 0.05902770534157753
0.559205174446106 0.500605046749115 -0.01483940426260233
0.564471960067749 0.4601476788520813 0.03487974777817726
0.5748575925827026 0.4649839997291565 0.04687129333615303
0.5886120200157166 0.7254750728607178 -0.019803661853075027
0.6997991800308228 0.7087960243225098 0.08135498315095901
0.5490541458129883 0.4566152095794678 0.001487505855038762
0.5849431157112122 0.7903618812561035 -0.040679190307855606
0.5502561926841736 0.5077962875366211 -0.05582095682621002
0.5795091390609741 0.5587365627288818 -0.04419875144958496
0.5514590740203857 0.800078272819519 -0.06301800161600113
0.6349151134490967 0.7535346746444702 0.0023742082994431257
0.6167066097259521 0.624237596988678 -0.008068758994340897
0.6117874383926392 0.7752896547317505 -0.019241521134972572
0.6631999611854553 0.6250336170196533 0.009408860467374325
0.6352521181106567 0.6494380235671997 -0.005553348455578089
0.6786167025566101 0.6651334762573242 0.024289922788739204
0.5593927502632141 0.831844687461853 -0.06460069119930267
0.5903540849685669 0.5735681056976318 -0.02857203222811222
0.6516631245613098 0.7737676501274109 0.022460490465164185
0.6237608194351196 0.7974507212638855 -0.00447444012388587
0.6538535356521606 0.7263418436050415 0.016020923852920532
0.7161858081817627 0.6827704310417175 0.11031860113143921
0.6775801181793213 0.7318627834320068 0.04158612713217735
0.7164133787155151 0.7037318348884583 0.16068251430988312
0.6496397852897644 0.6825069189071655 0.003967949654906988
0.5748633146286011 0.5390812158584595 -0.024496592581272125
0.583179235458374 0.6012868881225586 -0.08561057597398758
0.5930814146995544 0.6091262698173523 -0.061523012816905975
0.5775443911552429 0.5840864777565002 -0.10191299021244049
0.5836920142173767 0.4406127631664276 0.03350279480218887
0.6204161643981934 0.42699766159057617 0.03506064414978027
0.6510709524154663 0.4256918132305145 0.04056726023554802
0.6749012470245361 0.4326731264591217 0.05323449522256851
0.6899058818817139 0.44638592004776 0.06939315795898438
0.6923173666000366 0.49447184801101685 0.10247788578271866
0.7379193305969238 0.5594543218612671 0.20557273924350739
0.6766432523727417 0.5242144465446472 0.07648427039384842
0.6568511724472046 0.5271378755569458 0.05795906484127045
0.6300402879714966 0.5240122675895691 0.04404114559292793
0.6038281917572021 0.5158339142799377 0.03663495555520058
0.5831254720687866 0.5056158900260925 0.03367844596505165
0.5693181753158569 0.4960510730743408 0.03143022581934929
0.7230933904647827 0.5646719932556152 0.2918464243412018
0.5900841951370239 0.6157090067863464 -0.05120145156979561
0.5673219561576843 0.5409885048866272 -0.061949510127305984
0.5708001852035522 0.6003921031951904 -0.10681407898664474
0.5553189516067505 0.6122426390647888 -0.10169890522956848
0.5679888725280762 0.6054595708847046 -0.09603184461593628
0.5817937850952148 0.6223068237304688 -0.046335894614458084
0.5522512793540955 0.6133942604064941 -0.10869178175926208
0.5467695593833923 0.619486927986145 -0.0834183543920517
0.568731963634491 0.4789026379585266 0.047370344400405884
0.5593132972717285 0.48229992389678955 0.029591187834739685
0.5545743703842163 0.48449453711509705 0.010554909706115723
0.6657189130783081 0.48428094387054443 0.07578360289335251
0.6824966669082642 0.47088825702667236 0.0788123607635498
0.37215664982795715 0.46790391206741333 0.022856269031763077
0.3956475257873535 0.4682500958442688 0.022856269031763077
0.37261903285980225 0.45052897930145264 0.022856269031763077
0.34824490547180176 0.4676937460899353 0.022856269031763077
0.3717811107635498 0.48499035835266113 0.022856269031763077
0.6265356540679932 0.47814613580703735 0.05943594127893448
0.6502119898796082 0.4800717234611511 0.05943594127893448
0.6277185082435608 0.45849609375 0.05943594127893448
0.6026556491851807 0.4759848117828369 0.05943594127893448
0.6252979040145874 0.4974879026412964 0.05943594127893448
