ply
format ascii 1.0
element vertex 478
property float x
property float y
property float z
end_header
0.5059901475906372 0.7008094191551208 -0.06799894571304321
0.4991505742073059 0.618691086769104 -0.11761552840471268
0.4997735321521759 0.6430758833885193 -0.061275191605091095
0.4798080623149872 0.5439149141311646 -0.08559640496969223
0.49902990460395813 0.5952023267745972 -0.1251428723335266
0.4990082085132599 0.5650537610054016 -0.11542726308107376
0.49889907240867615 0.49162280559539795 -0.05283290520310402
0.3329703211784363 0.48600220680236816 0.039368342608213425
0.4982193410396576 0.42675966024398804 -0.03723307326436043
0.4979994595050812 0.39351385831832886 -0.04192616045475006
0.49805963039398193 0.27861711382865906 -0.01508208829909563
0.5059718489646912 0.706879734992981 -0.06532393395900726
0.5056142807006836 0.7122381925582886 -0.057223767042160034
0.5052632689476013 0.7158851027488708 -0.04565068706870079
0.5045453310012817 0.7167691588401794 -0.05026058852672577
0.5049336552619934 0.724993109703064 -0.052679192274808884
0.5051044225692749 0.7351735830307007 -0.056759025901556015
0.5051373243331909 0.7461559772491455 -0.05310278385877609
0.5003706216812134 0.7740704417228699 -0.029491880908608437
0.4995141625404358 0.6308335065841675 -0.10612623393535614
0.4814070761203766 0.6312251091003418 -0.07489190995693207
0.2508631944656372 0.38737744092941284 0.15605206787586212
0.39946210384368896 0.5098782777786255 0.012136220932006836
0.3766252398490906 0.5126655697822571 0.015104711055755615
0.3545718193054199 0.5110421776771545 0.022819088771939278
0.32486289739608765 0.4929700493812561 0.04346359521150589
0.4186875820159912 0.5034869909286499 0.014896612614393234
0.3643485903739929 0.4293774366378784 0.006423503160476685
0.3920785188674927 0.432644248008728 0.005088760983198881
0.3392544388771057 0.4349350035190582 0.015273593366146088
0.32341891527175903 0.44631144404411316 0.024906117469072342
0.30828341841697693 0.5081005692481995 0.055577296763658524
0.41949185729026794 0.8114005923271179 -0.003135691164061427
0.32471537590026855 0.4760432243347168 0.04753816872835159
0.2439599335193634 0.4920332431793213 0.16063536703586578
0.283181756734848 0.4875307083129883 0.08022961020469666
0.38787585496902466 0.6047069430351257 -0.009771528653800488
0.4828159809112549 0.697224497795105 -0.06362803280353546
0.4846157133579254 0.7111943960189819 -0.053353097289800644
0.4599933326244354 0.7035858035087585 -0.05030218884348869
0.4432775676250458 0.7097933292388916 -0.035965826362371445
0.4657904803752899 0.7124038338661194 -0.04505956918001175
0.44990259408950806 0.7144556045532227 -0.03152795135974884
0.40757039189338684 0.7468953132629395 -0.004481658339500427
0.48140427470207214 0.618259847164154 -0.1152106449007988
0.47775381803512573 0.5959399938583374 -0.1218157708644867
0.29589325189590454 0.4279065728187561 0.03588786721229553
0.4318256080150604 0.5451164841651917 -0.012545430101454258
0.43496304750442505 0.6163281202316284 -0.05824725702404976
0.4326225519180298 0.60444176197052 -0.051446717232465744
0.3186376690864563 0.6037116646766663 0.02213091403245926
0.4787103533744812 0.5678357481956482 -0.10762527585029602
0.34862038493156433 0.4040091931819916 -0.005270673427730799
0.3173002004623413 0.4113381505012512 0.014639588072896004
0.2705385088920593 0.34476062655448914 0.11005885154008865
0.4476899206638336 0.42412710189819336 -0.0290332343429327
0.4154329001903534 0.4457259178161621 0.01063793059438467
0.39104926586151123 0.7285559773445129 0.002609509276226163
0.27733469009399414 0.7101123929023743 0.21674805879592896
0.45256951451301575 0.6289432048797607 -0.05057023465633392
0.46910345554351807 0.634911835193634 -0.0528925359249115
0.4206560254096985 0.7186899781227112 -0.002034332137554884
0.4250892400741577 0.7183138728141785 -0.00942208431661129
0.30628734827041626 0.3959212899208069 0.025728080421686172
0.4353409707546234 0.6273871660232544 -0.04601520672440529
0.39049404859542847 0.40568527579307556 -0.02043234370648861
0.38691776990890503 0.38696977496147156 -0.024742772802710533
0.3624405264854431 0.28993314504623413 0.017686322331428528
0.2853589653968811 0.36622461676597595 0.059979673475027084
0.37520286440849304 0.3345568776130676 -0.006276158150285482
0.2832183241844177 0.4151504635810852 0.05623297393321991
0.2642337381839752 0.40047454833984375 0.10100232064723969
0.4834638833999634 0.705224335193634 -0.061396270990371704
0.46290022134780884 0.7084300518035889 -0.04917990416288376
0.4464874267578125 0.7122340798377991 -0.035881806164979935
0.4579010009765625 0.6331890821456909 -0.045477334409952164
0.4229120910167694 0.7185110449790955 -0.005928220227360725
0.43281090259552 0.7215687036514282 -0.02133246511220932
0.42759090662002563 0.7181597352027893 -0.01011535432189703
0.4604807496070862 0.6192581057548523 -0.08135897666215897
0.4524592161178589 0.7161186933517456 -0.027166029438376427
0.46808239817619324 0.7149580717086792 -0.03541995957493782
0.485729455947876 0.7148735523223877 -0.04260696843266487
0.4737553596496582 0.773758053779602 -0.028184307739138603
0.4813228249549866 0.7446606159210205 -0.051154255867004395
0.4820866286754608 0.7335087656974792 -0.05415806919336319
0.4832994341850281 0.7235610485076904 -0.04958455264568329
0.4849911630153656 0.7158336639404297 -0.04697956517338753
0.45171740651130676 0.716236412525177 -0.030202271416783333
0.44828036427497864 0.7199106216430664 -0.033534444868564606
0.44458749890327454 0.7251474857330322 -0.03732302784919739
0.44149065017700195 0.7315751910209656 -0.03334091231226921
0.41377705335617065 0.6878008842468262 -0.026514263823628426
0.24954035878181458 0.5943349599838257 0.25558120012283325
0.4996752142906189 0.6363683342933655 -0.07661687582731247
0.4400404989719391 0.7171133756637573 -0.018987679854035378
0.43664780259132385 0.7190489172935486 -0.021307669579982758
0.47492319345474243 0.6434998512268066 -0.05475819855928421
0.44347816705703735 0.6411838531494141 -0.030540548264980316
0.4721981883049011 0.6392627358436584 -0.05410230532288551
0.4077364504337311 0.5595970153808594 -0.004193978384137154
0.36999157071113586 0.5759755373001099 0.004177751950919628
0.42982062697410583 0.6153722405433655 -0.038849957287311554
0.30594268441200256 0.3114328682422638 0.06054920703172684
0.3204770088195801 0.3428846001625061 0.024874579161405563
0.3412596583366394 0.3856796622276306 -0.001323781325481832
0.4246107339859009 0.7577115297317505 -0.015874948352575302
0.44071584939956665 0.39202606678009033 -0.03781304880976677
0.43253785371780396 0.33496254682540894 -0.025131063535809517
0.42461419105529785 0.28045761585235596 -0.008076406084001064
0.33551040291786194 0.5047180652618408 0.033819813281297684
0.28487974405288696 0.5250018835067749 0.0686737522482872
0.4313544034957886 0.49733418226242065 0.01795167103409767
0.3038356602191925 0.4585433602333069 0.04608192294836044
0.4474472403526306 0.5290782451629639 -0.020655978471040726
0.44592738151550293 0.6059674024581909 -0.08054333925247192
0.26197755336761475 0.540666937828064 0.09481757879257202
0.30006203055381775 0.5445671081542969 0.04670964553952217
0.3292447626590729 0.5553610324859619 0.023938819766044617
0.3729158639907837 0.5517464876174927 0.013157034292817116
0.4047619104385376 0.5418076515197754 0.006788287777453661
0.42808905243873596 0.5309771299362183 0.00034135920577682555
0.476929634809494 0.4972726106643677 -0.04362747445702553
0.26802265644073486 0.5922732353210449 0.08720860630273819
0.2874346375465393 0.4543509781360626 0.05827132984995842
0.48901963233947754 0.6300842761993408 -0.10451075434684753
0.43605250120162964 0.5681533217430115 -0.022810406982898712
0.23971614241600037 0.48852360248565674 0.2409265786409378
0.4458164572715759 0.5189608335494995 -0.003065616823732853
0.42794713377952576 0.6173946857452393 -0.016977982595562935
0.3155384659767151 0.476320743560791 0.05228264257311821
0.44458919763565063 0.591729462146759 -0.07189901918172836
0.26028507947921753 0.6515083909034729 0.24291568994522095
0.43159186840057373 0.488189160823822 0.02357342280447483
0.46045613288879395 0.5768165588378906 -0.09384357184171677
0.3250499367713928 0.766032874584198 0.08602458983659744
0.3270885944366455 0.7884721755981445 0.12909594178199768
0.25008830428123474 0.5937279462814331 0.17074011266231537
0.2968960404396057 0.7359497547149658 0.11879321932792664
0.2532272934913635 0.4431748390197754 0.1376613974571228
0.4153500497341156 0.8312625288963318 0.010989179834723473
0.4917568862438202 0.635610044002533 -0.07482757419347763
0.4161674380302429 0.5862146019935608 -0.014374782331287861
0.2645719349384308 0.4900586009025574 0.10388526320457458
0.3558146357536316 0.49819427728652954 0.024278264492750168
0.37579742074012756 0.5000871419906616 0.017889253795146942
0.4293280243873596 0.724905252456665 -0.017099246382713318
0.27583399415016174 0.6390975117683411 0.09248935431241989
0.45533666014671326 0.8594232797622681 0.01700008474290371
0.3905114531517029 0.8326425552368164 0.06453152745962143
0.3615705966949463 0.8152962923049927 0.0921781063079834
0.49785149097442627 0.3363089859485626 -0.03174368664622307
0.5005631446838379 0.8637150526046753 0.008850050158798695
0.3951403498649597 0.4974970817565918 0.01637331396341324
0.41351714730262756 0.4929819107055664 0.019181175157427788
0.4257332384586334 0.49059295654296875 0.023733435198664665
0.27183109521865845 0.44696128368377686 0.08243835717439651
0.41110652685165405 0.46310269832611084 0.015271914191544056
0.390848308801651 0.45200246572494507 0.012573448941111565
0.36936450004577637 0.4500429630279541 0.01446954719722271
0.34857314825057983 0.4552207589149475 0.020979352295398712
0.33623069524765015 0.4636153280735016 0.02865534834563732
0.24161726236343384 0.43307316303253174 0.20416663587093353
0.3421856164932251 0.4927881956100464 0.03251291438937187
0.49991902709007263 0.6620807647705078 -0.05785871669650078
0.4344279170036316 0.6739150881767273 -0.03558110445737839
0.45199263095855713 0.6245502829551697 -0.05856628343462944
0.47291722893714905 0.6642324328422546 -0.05548412352800369
0.4985354244709015 0.46007221937179565 -0.03653557226061821
0.35550230741500854 0.7927638292312622 0.06076103076338768
0.3845975697040558 0.8120250701904297 0.03694694861769676
0.4534113109111786 0.8459940552711487 -0.011934267356991768
0.3002455234527588 0.7559504508972168 0.17574352025985718
0.42516952753067017 0.47878891229629517 0.02028081752359867
0.4629676342010498 0.5343278050422668 -0.05195748805999756
0.5005019903182983 0.8495680093765259 -0.01916695013642311
0.4206911325454712 0.8479413390159607 0.0361524298787117
0.26004040241241455 0.6454275250434875 0.16530759632587433
0.4672209322452545 0.7155569791793823 -0.03931901603937149
0.46384337544441223 0.721571147441864 -0.04281759634613991
0.46135860681533813 0.7294948697090149 -0.04704037308692932
0.45963579416275024 0.7393981218338013 -0.04404914379119873
0.44677668809890747 0.7670620679855347 -0.025362463667988777
0.4367043972015381 0.7164625525474548 -0.019429435953497887
0.4330895245075226 0.7156256437301636 -0.019494984298944473
0.4301508665084839 0.7145230174064636 -0.01930568739771843
0.39877980947494507 0.7069811224937439 -0.012909747660160065
0.30532869696617126 0.6529428958892822 0.04432166367769241
0.4624369740486145 0.5112274885177612 -0.030458519235253334
0.44788238406181335 0.4679977595806122 0.006766917183995247
0.4339825212955475 0.4700092673301697 0.01596750319004059
0.4403568506240845 0.7172990441322327 -0.01704115979373455
0.306121289730072 0.7063284516334534 0.07531405240297318
0.46872255206108093 0.46758416295051575 -0.02147943153977394
0.43146640062332153 0.7901303768157959 -0.012369075790047646
0.49908891320228577 0.5402424335479736 -0.09387350082397461
0.47817927598953247 0.5218983888626099 -0.0670228898525238
0.4990329146385193 0.5169299244880676 -0.0727619156241417
0.44925248622894287 0.571810781955719 -0.052054934203624725
0.5002667307853699 0.8285507559776306 -0.03171715512871742
0.5001855492591858 0.8006546497344971 -0.030485250055789948
0.46461302042007446 0.7995211482048035 -0.02540837600827217
0.38271915912628174 0.7559943795204163 0.0102151557803154
0.40810129046440125 0.635931670665741 -0.011810855939984322
0.40513738989830017 0.7763139605522156 -0.0008863467373885214
0.35254597663879395 0.6325063705444336 -0.0010248650796711445
0.3864894509315491 0.6589043140411377 -0.01005278155207634
0.3359427750110626 0.6702364683151245 0.014458446763455868
0.4562866687774658 0.8259238004684448 -0.024124087765812874
0.437833309173584 0.5863337516784668 -0.036088161170482635
0.36238253116607666 0.7707728147506714 0.03345298022031784
0.39101168513298035 0.7923163771629333 0.017534242942929268
0.36457157135009766 0.7303984761238098 0.015331192873418331
0.2842220962047577 0.6778202652931213 0.09840185940265656
0.33517277240753174 0.7317606210708618 0.04023570567369461
0.27320021390914917 0.6926885843276978 0.15308108925819397
0.37100380659103394 0.6902355551719666 -0.0011084923753514886
0.449834406375885 0.5507511496543884 -0.036253996193408966
0.4534740447998047 0.6155830025672913 -0.08561540395021439
0.4423450231552124 0.6233753561973572 -0.061081357300281525
0.4604736864566803 0.599480390548706 -0.10128042846918106
0.429527223110199 0.4422336518764496 -5.8600810007192194e-05
0.3916723132133484 0.42444539070129395 -0.0019352713134139776
0.3577500581741333 0.42154109477996826 0.0016125087859109044
0.3305210471153259 0.4272165894508362 0.012413037940859795
0.3121887147426605 0.4393182396888733 0.027140246704220772
0.3022438883781433 0.4817844033241272 0.06251530349254608
0.24362117052078247 0.5426468849182129 0.16696500778198242
0.32023316621780396 0.5201271176338196 0.04267868399620056
0.3438538908958435 0.5292862057685852 0.028040779754519463
0.3741937279701233 0.5299001932144165 0.0175313837826252
0.4025706648826599 0.5240755677223206 0.011249718256294727
0.4242786169052124 0.5159693360328674 0.010844441130757332
0.4393770098686218 0.5084622502326965 0.008826764300465584
0.243658185005188 0.5408859848976135 0.2563703954219818
0.44353318214416504 0.630249559879303 -0.049998458474874496
0.46318647265434265 0.5550807118415833 -0.06975947320461273
0.4671797454357147 0.6155030131340027 -0.10372435301542282
0.47932156920433044 0.6268141865730286 -0.09519391506910324
0.4682973027229309 0.6196650862693787 -0.09281622618436813
0.44994479417800903 0.637277364730835 -0.04275338351726532
0.4827408790588379 0.6287181377410889 -0.10131347924470901
0.4856669008731842 0.634385883808136 -0.07482782751321793
0.43937259912490845 0.48925507068634033 0.020018596202135086
0.4512038230895996 0.49510183930397034 0.006149492226541042
0.4591372013092041 0.5001071095466614 -0.008924700319766998
0.32970017194747925 0.470155268907547 0.03703140467405319
0.3146243095397949 0.4596051573753357 0.038384027779102325
0.5183048844337463 0.5438757538795471 -0.08690715581178665
0.6723870038986206 0.48273247480392456 0.02974296547472477
0.5180442333221436 0.6310810446739197 -0.07585787028074265
0.7552943229675293 0.38924992084503174 0.14100302755832672
0.6019763350486755 0.5079472064971924 0.005863850470632315
0.625825047492981 0.5103685855865479 0.007615239825099707
0.6486002206802368 0.5088922381401062 0.014179463498294353
0.6797431707382202 0.4904262125492096 0.03317759558558464
0.5818581581115723 0.501508355140686 0.009944950230419636
0.6388136744499207 0.42652416229248047 -0.0015423643635585904
0.6093730926513672 0.4301907420158386 -0.001317756250500679
0.6653109788894653 0.43163955211639404 0.006169687490910292
0.6817588210105896 0.4428972005844116 0.015053670853376389
0.695723295211792 0.5072610974311829 0.04460686817765236
0.5820263028144836 0.8125974535942078 -0.007636770606040955
0.6809619665145874 0.47222447395324707 0.037471432238817215
0.7632038593292236 0.4946819841861725 0.1462031602859497
0.721250057220459 0.4871072769165039 0.06809903681278229
0.6116002202033997 0.6048097610473633 -0.016178442165255547
0.5281869173049927 0.6975458264350891 -0.06538739055395126
0.5253102779388428 0.7117459774017334 -0.05512994900345802
0.5489241480827332 0.7039724588394165 -0.05388471484184265
0.5631865859031677 0.7106040716171265 -0.040769271552562714
0.5420385003089905 0.7132555842399597 -0.04845566675066948
0.5557889342308044 0.715561032295227 -0.03582613542675972
0.5955114364624023 0.7470454573631287 -0.010625606402754784
0.5170562863349915 0.618301272392273 -0.11592967808246613
0.5200228691101074 0.5958608388900757 -0.12280575931072235
0.709851086139679 0.4260382354259491 0.024274349212646484
0.5674042105674744 0.5449334383010864 -0.016718337312340736
0.5645411014556885 0.6157824397087097 -0.06192710995674133
0.5668557286262512 0.6038087606430054 -0.05533580109477043
0.6816120147705078 0.6044602990150452 0.011550255119800568
0.519393801689148 0.5677151083946228 -0.10889583826065063
0.655048131942749 0.40014365315437317 -0.013500962406396866
0.6878980398178101 0.4083501100540161 0.004261386580765247
0.732424795627594 0.34644633531570435 0.09629923850297928
0.5515493154525757 0.42198944091796875 -0.031849224120378494
0.584948718547821 0.4435901343822479 0.005477514583617449
0.6119188070297241 0.7284439206123352 -0.004624563734978437
0.7307143807411194 0.711485743522644 0.20309844613075256
0.5470411777496338 0.6285086274147034 -0.0534466989338398
0.530627965927124 0.6346375346183777 -0.05431313440203667
0.5816015601158142 0.7205600142478943 -0.008333935402333736
0.5770546197891235 0.71998530626297 -0.015065453015267849
0.6992590427398682 0.39381250739097595 0.014712638221681118
0.5644618272781372 0.6267576217651367 -0.04961001127958298
0.6111597418785095 0.4024207592010498 -0.02625327929854393
0.614868700504303 0.3840026259422302 -0.030553225427865982
0.636602520942688 0.290780246257782 0.009628073312342167
0.7157044410705566 0.3685479760169983 0.04820362105965614
0.622357964515686 0.33587104082107544 -0.012773572467267513
0.7228527665138245 0.4151384234428406 0.04387648403644562
0.7395771145820618 0.40309298038482666 0.08782868832349777
0.5271599888801575 0.7057017087936401 -0.063245989382267
0.545573890209198 0.7091704607009888 -0.05271654576063156
0.5597351789474487 0.7131994962692261 -0.04047314450144768
0.541631817817688 0.6327511668205261 -0.04771360009908676
0.5792928338050842 0.7202943563461304 -0.011817860417068005
0.5704273581504822 0.723130464553833 -0.026364263147115707
0.5744865536689758 0.7197198271751404 -0.015535266138613224
0.5388709306716919 0.6190756559371948 -0.08381833136081696
0.5523974895477295 0.7171104550361633 -0.031231887638568878
0.5390462279319763 0.7157717943191528 -0.038491614162921906
0.5234415531158447 0.7153916954994202 -0.04434298351407051
0.5271205902099609 0.7741543054580688 -0.029987670481204987
0.5278688669204712 0.7451763153076172 -0.0530603751540184
0.5268402695655823 0.733899712562561 -0.056213684380054474
0.5252537131309509 0.7238820791244507 -0.051616083830595016
0.5229417681694031 0.7161503434181213 -0.04894300550222397
0.5523136854171753 0.7170731425285339 -0.03422956168651581
0.5564196109771729 0.7209799289703369 -0.03752516955137253
0.5604490637779236 0.7264406085014343 -0.041414760053157806
0.5638747811317444 0.7330347299575806 -0.0376780666410923
0.5872702598571777 0.6876018047332764 -0.03192032501101494
0.7607359886169434 0.596885085105896 0.24057236313819885
0.5623819828033447 0.7181961536407471 -0.023850880563259125
0.566394031047821 0.7204043865203857 -0.026217974722385406
0.5249754786491394 0.6434174180030823 -0.05612397938966751
0.556599497795105 0.6406678557395935 -0.03343041241168976
0.5276035070419312 0.63914954662323 -0.055456388741731644
0.5915513038635254 0.5595641732215881 -0.009790606796741486
0.6294212937355042 0.5763716697692871 -0.0035312979016453028
0.5700134634971619 0.6147611737251282 -0.042783673852682114
0.6951377391815186 0.3127650320529938 0.04919837787747383
0.6785863637924194 0.3449574410915375 0.015328865498304367
0.6626590490341187 0.3823096752166748 -0.01010082010179758
0.5776169896125793 0.7581979036331177 -0.02088039554655552
0.558984100818634 0.3903977870941162 -0.04081950709223747
0.5639983415603638 0.3355652689933777 -0.02843424119055271
0.5729591250419617 0.28074437379837036 -0.01217930018901825
0.6685371398925781 0.5026956796646118 0.024153323844075203
0.7186221480369568 0.5248368382453918 0.05661509558558464
0.5682469010353088 0.49526306986808777 0.013540525920689106
0.7015407681465149 0.4559428095817566 0.03497122600674629
0.551514744758606 0.528820276260376 -0.024053871631622314
0.5529761910438538 0.6056562066078186 -0.08344801515340805
0.7419585585594177 0.5426605343818665 0.08127234131097794
0.7029868960380554 0.5448412895202637 0.03537498414516449
0.6727120876312256 0.555519163608551 0.014016895554959774
0.6278141736984253 0.5509936809539795 0.0054246471263468266
0.595211386680603 0.5402538776397705 0.0009001046419143677
0.5712385177612305 0.528885006904602 -0.004008118528872728
0.5208739638328552 0.4972483515739441 -0.04510732740163803
0.7352356910705566 0.5939021706581116 0.07362478226423264
0.717910885810852 0.45351457595825195 0.046163611114025116
0.5099051594734192 0.6301044225692749 -0.1050884947180748
0.5632214546203613 0.5678202509880066 -0.02671157382428646
0.7708717584609985 0.49087613821029663 0.2254234254360199
0.5530914664268494 0.5162002444267273 -0.006442521698772907
0.5723373293876648 0.6167831420898438 -0.02089986577630043
0.6895284056663513 0.4730343818664551 0.041800037026405334
0.554445743560791 0.5912635326385498 -0.07491298019886017
0.7490987777709961 0.6536861062049866 0.22866183519363403
0.5679329633712769 0.4860191345214844 0.019036084413528442
0.5378496050834656 0.5766220688819885 -0.09604402631521225
0.6795311570167542 0.7674498558044434 0.07592495530843735
0.6783092617988586 0.7895239591598511 0.11885875463485718
0.756714940071106 0.5959784388542175 0.15617728233337402
0.7082577347755432 0.7371957898139954 0.10691789537668228
0.7525948286056519 0.44570910930633545 0.12376654893159866
0.5865047574043274 0.832768440246582 0.0062375254929065704
0.5076400637626648 0.6355581283569336 -0.0752255767583847
0.5833229422569275 0.5859989523887634 -0.019272878766059875
0.7398290038108826 0.48979151248931885 0.09064780920743942
0.6483072638511658 0.49556466937065125 0.015863724052906036
0.6273735165596008 0.49773094058036804 0.01041992288082838
0.5741031169891357 0.7265941500663757 -0.02251993492245674
0.7276884317398071 0.6404457092285156 0.07934953272342682
0.5459370613098145 0.8602501153945923 0.014135414734482765
0.6128080487251282 0.8339471817016602 0.05766422301530838
0.6429710388183594 0.816651463508606 0.08371251076459885
0.6069217920303345 0.49552130699157715 0.009948677383363247
0.5875057578086853 0.49106937646865845 0.0136426305398345
0.5743750333786011 0.4887846112251282 0.018756134435534477
0.7332227230072021 0.4475741982460022 0.06948884576559067
0.5901369452476501 0.4613944888114929 0.009541572071611881
0.6116381287574768 0.4499424397945404 0.0059087988920509815
0.6343318819999695 0.44742918014526367 0.006727308500558138
0.656342625617981 0.45203113555908203 0.012165358290076256
0.6690437197685242 0.4600972533226013 0.019289935007691383
0.7669937610626221 0.43515750765800476 0.18878015875816345
0.6626735925674438 0.48984962701797485 0.02331961877644062
0.5664561986923218 0.6735875010490417 -0.03957432880997658
0.5475443601608276 0.6241657733917236 -0.0611598864197731
0.5271469950675964 0.6642003655433655 -0.05720078572630882
0.6483319997787476 0.7945157289505005 0.05263654142618179
0.6184168457984924 0.8137679100036621 0.030516473576426506
0.5474476218223572 0.8469042778015137 -0.014733373187482357
0.7062599062919617 0.7568127512931824 0.16348417103290558
0.5747862458229065 0.4768140912055969 0.015186052769422531
0.5354979038238525 0.5341745615005493 -0.054198380559682846
0.5814138650894165 0.849153995513916 0.0309861171990633
0.7463153004646301 0.6472882032394409 0.15146562457084656
0.5389071702957153 0.7161369323730469 -0.04242504760622978
0.5427774786949158 0.7222586870193481 -0.04599882662296295
0.5457327365875244 0.7303602695465088 -0.05040530860424042
0.5481025576591492 0.7404146790504456 -0.047518640756607056
0.5546217560768127 0.7675168514251709 -0.029191656038165092
0.5668015480041504 0.71772301197052 -0.024626009166240692
0.5706521272659302 0.7169148921966553 -0.02507901005446911
0.5738935470581055 0.7157987356185913 -0.025117849931120872
0.6030896902084351 0.7068814635276794 -0.01958705671131611
0.6962785124778748 0.653730034828186 0.03291899710893631
0.535988986492157 0.5111498832702637 -0.032960206270217896
0.5512522459030151 0.46536538004875183 0.0038555413484573364
0.5652545094490051 0.46766793727874756 0.011846317909657955
0.5625142455101013 0.7184681296348572 -0.021919794380664825
0.6971474289894104 0.7071135640144348 0.06405291706323624
0.5300076603889465 0.4648272693157196 -0.023210559040308
0.5698657035827637 0.7908703684806824 -0.01653910055756569
0.5198667049407959 0.5218428373336792 -0.06827802956104279
0.5496554970741272 0.5716220736503601 -0.05494670569896698
0.5359284281730652 0.8000296354293823 -0.02747325785458088
0.6198623180389404 0.7567601799964905 0.003253176109865308
0.5922913551330566 0.6355167627334595 -0.016911817714571953
0.59710693359375 0.7771095633506775 -0.006430717650800943
0.6471590995788574 0.6329295635223389 -0.009202726185321808
0.6140192151069641 0.6589910984039307 -0.016427332535386086
0.664954662322998 0.6708546280860901 0.005059152375906706
0.5441529750823975 0.8267301917076111 -0.02681560628116131
0.5616989135742188 0.5858063697814941 -0.039702072739601135
0.6407264471054077 0.7720915079116821 0.025631384924054146
0.6115617752075195 0.7936157584190369 0.011494504287838936
0.6377504467964172 0.7309840321540833 0.006952386349439621
0.7197570204734802 0.6789259910583496 0.08589880913496017
0.6676038503646851 0.7326186895370483 0.030698373913764954
0.7327386140823364 0.6941765546798706 0.1397635042667389
0.6304342150688171 0.6905748844146729 -0.00891545508056879
0.5490676760673523 0.5505548119544983 -0.03941045328974724
0.5456692576408386 0.6153369545936584 -0.0882648304104805
0.5571601986885071 0.622914731502533 -0.0642048716545105
0.5378404855728149 0.5993821024894714 -0.10349366068840027
0.5700132250785828 0.4398118555545807 -0.004200204741209745
0.6095459461212158 0.4216439723968506 -0.007969384081661701
0.645414412021637 0.4183264374732971 -0.006212431471794844
0.6741938591003418 0.4240027070045471 0.003009936073794961
0.6933436989784241 0.4362061619758606 0.016700690612196922
0.7023857831954956 0.48010629415512085 0.051343269646167755
0.7633788585662842 0.5451628565788269 0.1520565301179886
0.6833953857421875 0.5193712711334229 0.03230174630880356
0.6586726903915405 0.5283584594726562 0.01885058730840683
0.6273376941680908 0.5284313559532166 0.009925592690706253
0.5979832410812378 0.5222446322441101 0.005285929888486862
0.5755042433738708 0.5139800906181335 0.006378138903528452
0.5597403049468994 0.5060477256774902 0.0052092066034674644
0.7671183347702026 0.5434099435806274 0.24080602824687958
0.5560500025749207 0.6296900510787964 -0.053056251257658005
0.5352460741996765 0.5549460053443909 -0.07201998680830002
0.5314998626708984 0.615523099899292 -0.10537639260292053
0.5199362635612488 0.6269184350967407 -0.09609313309192657
0.530937135219574 0.6197341680526733 -0.09446902573108673
0.5497448444366455 0.6366666555404663 -0.04532071575522423
0.5163053870201111 0.6287718415260315 -0.10204026848077774
0.5137308835983276 0.6342632174491882 -0.07550071179866791
0.559648334980011 0.48688650131225586 0.016359802335500717
0.547459602355957 0.4923565089702606 0.003364051226526499
0.539355456829071 0.4970177412033081 -0.011358117684721947
0.6757307052612305 0.4664306044578552 0.027301009744405746
0.6906901001930237 0.4560898244380951 0.02807110920548439
0.37644606828689575 0.47241973876953125 0.02460688352584839
0.4054817259311676 0.4715892970561981 0.02460688352584839
0.376278817653656 0.44305041432380676 0.02460688352584839
0.3471136689186096 0.47325390577316284 0.02460688352584839
0.3764386773109436 0.501853346824646 0.02460688352584839
0.624164342880249 0.46987301111221313 0.017145076766610146
0.6540786623954773 0.4706503748893738 0.017145076766610146
0.6243927478790283 0.4420278072357178 0.017145076766610146
0.5939304232597351 0.4688093960285187 0.017145076766610146
0.6239684224128723 0.4977962076663971 0.017145076766610146
