ply
format ascii 1.0
element vertex 478
property float x
property float y
property float z
end_header
0.4666418135166168 0.7115960121154785 -0.04864911362528801
0.4263741672039032 0.6419082283973694 -0.1177668422460556
0.4533265233039856 0.6619858145713806 -0.05984169989824295
0.42967015504837036 0.5543248057365417 -0.08680921047925949
0.4252728521823883 0.6160790324211121 -0.12702789902687073
0.43381011486053467 0.5810743570327759 -0.12125843018293381
0.46298161149024963 0.495267391204834 -0.07180336117744446
0.3674883246421814 0.4797133505344391 0.08322657644748688
0.47194093465805054 0.43878501653671265 -0.06130778416991234
0.47200220823287964 0.40861716866493225 -0.06828130781650543
0.48503512144088745 0.29334017634391785 -0.0585317499935627
0.46778300404548645 0.720619797706604 -0.0441628023982048
0.47043174505233765 0.7297464609146118 -0.03726690262556076
0.4739372134208679 0.7358136177062988 -0.027328794822096825
0.4748028516769409 0.7348772883415222 -0.020724549889564514
0.47360730171203613 0.7466104030609131 -0.023835476487874985
0.47406333684921265 0.7598190903663635 -0.02878127247095108
0.4769347906112671 0.7725932598114014 -0.026865042746067047
0.4780752658843994 0.8068558573722839 -0.009323674254119396
0.4333970546722412 0.6545921564102173 -0.10570990294218063
0.42166024446487427 0.6514577269554138 -0.06883104145526886
0.34597358107566833 0.40155529975891113 0.20266392827033997
0.41782206296920776 0.4974522888660431 0.03995165973901749
0.3982009291648865 0.4995352625846863 0.049952827394008636
0.3807647228240967 0.499208927154541 0.06349168717861176
0.3653905689716339 0.4882587790489197 0.09115587919950485
0.43316560983657837 0.4922751188278198 0.03176182135939598
0.3838210105895996 0.4421691298484802 0.03900726139545441
0.40691351890563965 0.44352102279663086 0.02768082730472088
0.36539626121520996 0.446294367313385 0.05438541993498802
0.35653284192085266 0.45461708307266235 0.06839632987976074
0.35423484444618225 0.5023864507675171 0.10861706733703613
0.40862494707107544 0.8409383893013 0.058293312788009644
0.3640604019165039 0.47519785165786743 0.09261047095060349
0.34391242265701294 0.4983663558959961 0.22988392412662506
0.34838271141052246 0.4872010350227356 0.13718156516551971
0.3800635039806366 0.6033526659011841 0.02951352298259735
0.4428178071975708 0.7048500776290894 -0.03467131033539772
0.4503065347671509 0.7269738912582397 -0.021881308406591415
0.4265173077583313 0.7079141139984131 -0.006382433697581291
0.416881263256073 0.711556077003479 0.025620486587285995
0.4366401731967926 0.7241276502609253 0.0006495855050161481
0.42683082818984985 0.7221637964248657 0.027878498658537865
0.39989641308784485 0.7439191341400146 0.07921192795038223
0.4103817939758301 0.6403962969779968 -0.110054612159729
0.4082429111003876 0.6153104901313782 -0.11742107570171356
0.336109459400177 0.43996018171310425 0.08069197833538055
0.4234209656715393 0.543876051902771 0.004273202735930681
0.3906857967376709 0.6236053109169006 -0.03595071658492088
0.39522066712379456 0.608691394329071 -0.02914140187203884
0.33647969365119934 0.5946834087371826 0.08643709868192673
0.417593777179718 0.582931399345398 -0.1053740605711937
0.35934901237487793 0.4199720025062561 0.016774320974946022
0.3419102132320404 0.4259272813796997 0.04776795580983162
0.3491457402706146 0.3617885410785675 0.14630402624607086
0.4333351254463196 0.43476778268814087 -0.0372028723359108
0.427437961101532 0.45012709498405457 0.026556797325611115
0.38474711775779724 0.7168391942977905 0.08974379301071167
0.3792361617088318 0.7166278958320618 0.29663151502609253
0.4042583405971527 0.6393119692802429 -0.03292390704154968
0.4176748991012573 0.6488068699836731 -0.044830579310655594
0.4075705111026764 0.7178921699523926 0.0844234749674797
0.41226300597190857 0.7193127870559692 0.07394115626811981
0.3384387195110321 0.4122169613838196 0.0611942782998085
0.39409318566322327 0.6315251588821411 -0.02326306328177452
0.38835954666137695 0.42108869552612305 -0.01213265024125576
0.3835736811161041 0.4029063582420349 -0.01777823083102703
0.39035487174987793 0.3087133467197418 0.02141193114221096
0.34283125400543213 0.38363727927207947 0.09987667948007584
0.3891699016094208 0.35178571939468384 0.0017069540917873383
0.33453330397605896 0.42946457862854004 0.10339167714118958
0.3379211723804474 0.41581714153289795 0.1520485281944275
0.4456729292869568 0.7170175313949585 -0.029771707952022552
0.431210994720459 0.7164992690086365 -0.00298204249702394
0.42163777351379395 0.7169641256332397 0.025141475722193718
0.4089198112487793 0.6433479189872742 -0.032634466886520386
0.40995460748672485 0.718625545501709 0.07831677794456482
0.4155941605567932 0.7271984815597534 0.05902622640132904
0.4146457314491272 0.7200292944908142 0.07185140997171402
0.4037494659423828 0.6371653079986572 -0.0664864033460617
0.43151912093162537 0.7265477180480957 0.03006182797253132
0.44163650274276733 0.7298984527587891 0.008305513300001621
0.455369770526886 0.7334297299385071 -0.011858448386192322
0.449962317943573 0.8032223582267761 0.005513354670256376
0.45149046182632446 0.7686259150505066 -0.010973196476697922
0.44965800642967224 0.7558613419532776 -0.01229456439614296
0.45174238085746765 0.7431703805923462 -0.007241746876388788
0.45643946528434753 0.7326370477676392 -0.004737970884889364
0.43210864067077637 0.7262758016586304 0.03525696322321892
0.4265488386154175 0.730686604976654 0.0322798416018486
0.4218808114528656 0.7363964319229126 0.031155461445450783
0.4192943572998047 0.7431729435920715 0.0382191427052021
0.390313059091568 0.6873216032981873 0.033358652144670486
0.375053346157074 0.6004094481468201 0.32411715388298035
0.44197437167167664 0.6595577001571655 -0.07639407366514206
0.42422008514404297 0.7234440445899963 0.057656094431877136
0.4194382429122925 0.7252202033996582 0.05647561699151993
0.42612752318382263 0.6583383083343506 -0.04409851133823395
0.40305548906326294 0.6445000767707825 -0.01111930888146162
0.4214496314525604 0.6538935303688049 -0.04560237005352974
0.4063987731933594 0.5557533502578735 0.02326897718012333
0.37606221437454224 0.5698566436767578 0.044321950525045395
0.395926296710968 0.6176362633705139 -0.014685715548694134
0.362109899520874 0.32996994256973267 0.08350880444049835
0.35906803607940674 0.361232727766037 0.05077580735087395
0.355080246925354 0.4019956588745117 0.022127926349639893
0.41144317388534546 0.7680597305297852 0.058698516339063644
0.4236588776111603 0.4066150486469269 -0.04662077873945236
0.42758846282958984 0.34956467151641846 -0.03555942326784134
0.42925775051116943 0.2979243993759155 -0.026763275265693665
0.3698737323284149 0.4955548942089081 0.0790148675441742
0.34161776304244995 0.5176032781600952 0.1311165988445282
0.44259077310562134 0.48681753873825073 0.030032359063625336
0.34894105792045593 0.46329808235168457 0.09528244286775589
0.43365949392318726 0.5299952626228333 -0.011206352151930332
0.3936951458454132 0.618842601776123 -0.06357730180025101
0.3284560739994049 0.5387148261070251 0.16784055531024933
0.3404896557331085 0.5340282917022705 0.10883372277021408
0.3527239263057709 0.543388843536377 0.07865440100431442
0.38413265347480774 0.540210485458374 0.05177899822592735
0.4098072648048401 0.5305778980255127 0.033645644783973694
0.427145779132843 0.5205997824668884 0.01619574800133705
0.4478808641433716 0.5006889700889587 -0.05268426984548569
0.3204156160354614 0.5853201150894165 0.16738983988761902
0.34238073229789734 0.46067821979522705 0.11149738729000092
0.42328888177871704 0.6530780792236328 -0.09980636090040207
0.4162645936012268 0.5692989230155945 -0.003701281500980258
0.36505043506622314 0.49717387557029724 0.29988351464271545
0.43908780813217163 0.5094300508499146 0.0045067379251122475
0.40024805068969727 0.6169853210449219 0.00814958568662405
0.3599929213523865 0.4765155613422394 0.09998027980327606
0.40016067028045654 0.6004987359046936 -0.05610952153801918
0.3764604330062866 0.6565314531326294 0.31606659293174744
0.4453750252723694 0.47866082191467285 0.035931799560785294
0.4077719449996948 0.5894928574562073 -0.08459646254777908
0.36576128005981445 0.7749887108802795 0.17574824392795563
0.38344696164131165 0.8052315711975098 0.21007122099399567
0.33653905987739563 0.5951722860336304 0.25184768438339233
0.3540540933609009 0.7412219047546387 0.2092442810535431
0.34114065766334534 0.4542976915836334 0.19758901000022888
0.40607205033302307 0.8677560687065125 0.07281371206045151
0.4325953722000122 0.6580914258956909 -0.07196100801229477
0.402362585067749 0.5849671959877014 0.012928960844874382
0.3462962508201599 0.4906880855560303 0.1674950122833252
0.3812827169895172 0.4854748249053955 0.06319751590490341
0.3976914882659912 0.48643162846565247 0.051604676991701126
0.4129604697227478 0.7297800183296204 0.06583903729915619
0.3226432502269745 0.6329768300056458 0.17728552222251892
0.4356845021247864 0.9063975811004639 0.06019565463066101
0.40082088112831116 0.8671146035194397 0.1323145031929016
0.393047958612442 0.8409885764122009 0.16874505579471588
0.47760868072509766 0.3489643931388855 -0.06378980726003647
0.47700580954551697 0.9163157939910889 0.03460205718874931
0.4152984619140625 0.4848601818084717 0.04267948493361473
0.43115389347076416 0.48157912492752075 0.03876778483390808
0.44080424308776855 0.479968786239624 0.03840285539627075
0.34188219904899597 0.4557355046272278 0.1389497071504593
0.42981231212615967 0.46435752511024475 0.03577786311507225
0.4127209782600403 0.45915687084198 0.037957750260829926
0.3936186134815216 0.4580842852592468 0.046131208539009094
0.3773227334022522 0.46166759729385376 0.05870884284377098
0.36911165714263916 0.46732497215270996 0.07017797231674194
0.35103103518486023 0.4443192481994629 0.2568906247615814
0.37233904004096985 0.48283421993255615 0.07453133165836334
0.4609335958957672 0.678655207157135 -0.05145680904388428
0.4026656150817871 0.6782336831092834 0.0046928985975682735
0.4016205668449402 0.6369442939758301 -0.04363061115145683
0.4314654469490051 0.6773980855941772 -0.036743905395269394
0.47154027223587036 0.46611183881759644 -0.05832767114043236
0.3809177577495575 0.8096741437911987 0.1451105922460556
0.3935081362724304 0.8388306498527527 0.11044054478406906
0.4320847988128662 0.888670802116394 0.034971803426742554
0.38035890460014343 0.7666507959365845 0.25707706809043884
0.4401092529296875 0.4725373387336731 0.03588839992880821
0.4308203458786011 0.5404126644134521 -0.04897480458021164
0.473904550075531 0.8977823853492737 0.010247945785522461
0.41246092319488525 0.8897289037704468 0.09379235655069351
0.3403625786304474 0.6467609405517578 0.2497328221797943
0.44232603907585144 0.7294198274612427 0.014819184318184853
0.43642759323120117 0.7371305227279663 0.01232644822448492
0.4328952431678772 0.7467416524887085 0.010724112391471863
0.43228116631507874 0.7583534121513367 0.01551762968301773
0.42660099267959595 0.7886974811553955 0.033754583448171616
0.41936370730400085 0.7206398844718933 0.05382884293794632
0.4150444269180298 0.7178018093109131 0.05725334212183952
0.4110870957374573 0.7146755456924438 0.058666110038757324
0.3834436535835266 0.6997347474098206 0.06537678092718124
0.32909590005874634 0.6461754441261292 0.12289461493492126
0.4413914680480957 0.5141501426696777 -0.030553359538316727
0.4502543807029724 0.4640439748764038 0.007958147674798965
0.44447964429855347 0.4652034044265747 0.02534787543118
0.4239374101161957 0.7236313819885254 0.05422874912619591
0.340751588344574 0.7048245072364807 0.16295170783996582
0.4536675214767456 0.46534663438796997 -0.030527031049132347
0.41952621936798096 0.8134461045265198 0.046002134680747986
0.4443225562572479 0.5513890981674194 -0.1038026288151741
0.4382534623146057 0.528631865978241 -0.07334024459123611
0.4536905884742737 0.5241329073905945 -0.0869922861456871
0.41538310050964355 0.5779198408126831 -0.0402093231678009
0.4726979434490204 0.8698753714561462 -0.003613433102145791
0.47583475708961487 0.8358185291290283 -0.006673620082437992
0.4432743787765503 0.8307297229766846 0.013504620641469955
0.38773539662361145 0.7571574449539185 0.09554223716259003
0.38853609561920166 0.6356472373008728 0.02491116337478161
0.4031217694282532 0.7886390686035156 0.07333939522504807
0.35251688957214355 0.6292032599449158 0.055699706077575684
0.37567761540412903 0.6581770777702332 0.045687247067689896
0.34354692697525024 0.6655197739601135 0.08914706856012344
0.4337473511695862 0.8624935150146484 0.021314304322004318
0.40986311435699463 0.5890347361564636 -0.017545053735375404
0.37734323740005493 0.779251217842102 0.11997146904468536
0.394989013671875 0.8112849593162537 0.09172593802213669
0.3708552122116089 0.7235788106918335 0.10394539684057236
0.3316197991371155 0.6746907234191895 0.18606726825237274
0.35509181022644043 0.7306742072105408 0.13003963232040405
0.3466644883155823 0.6957883834838867 0.24215880036354065
0.36694586277008057 0.6834821701049805 0.07209356874227524
0.4244973063468933 0.5548694133758545 -0.02475552074611187
0.3970341980457306 0.631922721862793 -0.06978706270456314
0.39428696036338806 0.6333887577056885 -0.04205566272139549
0.39826759696006775 0.6166406869888306 -0.09019536525011063
0.43246549367904663 0.4459778070449829 0.007787391077727079
0.39939290285110474 0.4359356164932251 0.01505262777209282
0.37198716402053833 0.4347425103187561 0.028871551156044006
0.35337647795677185 0.43878841400146484 0.049385711550712585
0.34576332569122314 0.4484923779964447 0.0707804262638092
0.35476234555244446 0.4822247624397278 0.11376678198575974
0.3382279574871063 0.5464476346969604 0.24512255191802979
0.3573121428489685 0.5120664238929749 0.09456176310777664
0.3697466552257538 0.5184921026229858 0.0730527862906456
0.39221954345703125 0.5179827213287354 0.05341574549674988
0.4156433343887329 0.5125316977500916 0.03853397071361542
0.43261441588401794 0.5055214166641235 0.025836583226919174
0.4434624910354614 0.4989689886569977 0.01788337156176567
0.3736717700958252 0.5483462810516357 0.32096198201179504
0.3982323408126831 0.6376296281814575 -0.031160026788711548
0.4207135736942291 0.5642809271812439 -0.0635671317577362
0.40139448642730713 0.635915219783783 -0.09351855516433716
0.41672152280807495 0.6482115983963013 -0.08885230123996735
0.40694570541381836 0.6397696137428284 -0.08238113671541214
0.40476152300834656 0.6439071893692017 -0.02651122584939003
0.4183702766895294 0.6511456370353699 -0.09564391523599625
0.4263026714324951 0.6555985808372498 -0.07033911347389221
0.4491548240184784 0.48016583919525146 0.027110900729894638
0.4522545337677002 0.487094521522522 0.007767904549837112
0.4489319920539856 0.4923294186592102 -0.010979336686432362
0.36550241708755493 0.4716576039791107 0.08029058575630188
0.3546086251735687 0.4638987183570862 0.08499088138341904
0.46508532762527466 0.5547211170196533 -0.10507047921419144
0.6608676314353943 0.48735547065734863 -0.050302017480134964
0.4706982672214508 0.6539196372032166 -0.08286125212907791
0.8072070479393005 0.39070194959640503 0.0037021671887487173
0.590300977230072 0.5034628510475159 -0.04598783701658249
0.6133080124855042 0.5057141184806824 -0.05331692472100258
0.6377074122428894 0.5063037872314453 -0.05617839843034744
0.6761890649795532 0.49513477087020874 -0.05049111321568489
0.57069993019104 0.4990268647670746 -0.035636432468891144
0.6215661764144897 0.44328707456588745 -0.06916312873363495
0.5956234931945801 0.4453575611114502 -0.05764925479888916
0.6472744345664978 0.44718772172927856 -0.07055142521858215
0.6663501858711243 0.45635557174682617 -0.06655629724264145
0.6998563408851624 0.5106963515281677 -0.04358566552400589
0.5786339044570923 0.8545296788215637 -0.007622449658811092
0.673337996006012 0.4812990725040436 -0.047210026532411575
0.8132664561271667 0.49997055530548096 0.021329449489712715
0.7356607913970947 0.4960249662399292 -0.033577799797058105
0.6018314957618713 0.6055598258972168 -0.059940848499536514
0.498733788728714 0.7050945162773132 -0.058950234204530716
0.501576840877533 0.7272132039070129 -0.044756967574357986
0.5357941389083862 0.709990918636322 -0.056090086698532104
0.5622988939285278 0.7131030559539795 -0.04360445216298103
0.5317014455795288 0.7243838310241699 -0.04401244968175888
0.5565425157546997 0.7217894792556763 -0.03200029954314232
0.6277148723602295 0.7499741315841675 -0.011521527543663979
0.44762521982192993 0.6420987844467163 -0.12174279242753983
0.44986841082572937 0.6161965727806091 -0.13146266341209412
0.6973422169685364 0.44051283597946167 -0.07987469434738159
0.5486803650856018 0.5447762608528137 -0.052410464733839035
0.5364094376564026 0.6263303756713867 -0.08891501277685165
0.5418549180030823 0.6102324724197388 -0.08383756130933762
0.685795247554779 0.599431574344635 -0.06077978014945984
0.45628076791763306 0.5832971930503845 -0.12349212169647217
0.6248568296432495 0.41575807332992554 -0.09449341148138046
0.6640912890434265 0.4236340820789337 -0.09217418730258942
0.7612428665161133 0.34817907214164734 -0.03192723169922829
0.5201118588447571 0.4354485273361206 -0.07352642714977264
0.5739323496818542 0.45460009574890137 -0.04229109361767769
0.6510576605796814 0.7225356101989746 -0.019126763567328453
0.8179670572280884 0.7420058250427246 0.11165787279605865
0.5210691690444946 0.6427608132362366 -0.07308737933635712
0.49966177344322205 0.6498776078224182 -0.0649234801530838
0.5996567010879517 0.7158039808273315 -0.011079028248786926
0.5936666131019592 0.7170994281768799 -0.010815761052072048
0.6798658967018127 0.4107092022895813 -0.08820483833551407
0.5460782051086426 0.6336724758148193 -0.07539085298776627
0.5783004760742188 0.41781240701675415 -0.08873015642166138
0.5796866416931152 0.401375412940979 -0.09645663946866989
0.6264347434043884 0.2975231409072876 -0.07940298318862915
0.7215571403503418 0.37708115577697754 -0.06483332812786102
0.5998783111572266 0.3455999195575714 -0.08841699361801147
0.7193047404289246 0.4315524697303772 -0.06875896453857422
0.7644799947738647 0.4113030433654785 -0.0346207395195961
0.50013667345047 0.7171852588653564 -0.05406688153743744
0.533539891242981 0.7175796627998352 -0.050318825989961624
0.5590764284133911 0.717475950717926 -0.03894440457224846
0.5176576375961304 0.6460556983947754 -0.06470225751399994
0.5964298844337463 0.7164946794509888 -0.010577823966741562
0.5813119411468506 0.725215494632721 -0.015943150967359543
0.5907192230224609 0.7177137136459351 -0.01051626168191433
0.4925834834575653 0.6409511566162109 -0.10251825302839279
0.5545414686203003 0.7250128984451294 -0.02702648937702179
0.5303020477294922 0.7291157841682434 -0.03372395038604736
0.5029720067977905 0.7332384586334229 -0.03541721776127815
0.5176600217819214 0.8063191175460815 -0.01821363903582096
0.510577917098999 0.7693400382995605 -0.036579400300979614
0.5068720579147339 0.7564654350280762 -0.03880491852760315
0.5043430924415588 0.7435956001281738 -0.03322741761803627
0.5031676888465881 0.7327879667282104 -0.02945645898580551
0.5544596314430237 0.7251420021057129 -0.022145256400108337
0.5583948493003845 0.7294890880584717 -0.025222934782505035
0.5629130005836487 0.735115110874176 -0.027969788759946823
0.567021369934082 0.7416363954544067 -0.025289444252848625
0.5999546051025391 0.6900055408477783 -0.04508912190794945
0.8516032099723816 0.6132307648658752 0.1185419037938118
0.5734212398529053 0.7216877341270447 -0.014488798566162586
0.5770763158798218 0.7233178615570068 -0.015896277502179146
0.4915233254432678 0.6589439511299133 -0.06400039792060852
0.5444943904876709 0.6462140083312988 -0.05285368859767914
0.49511051177978516 0.654619574546814 -0.06502404808998108
0.5755777955055237 0.5570233464241028 -0.0531836599111557
0.6175311207771301 0.5718377232551575 -0.060565948486328125
0.5528972148895264 0.6190431118011475 -0.07129266858100891
0.7021373510360718 0.3160022795200348 -0.06128551810979843
0.6680111885070801 0.35462889075279236 -0.08139359205961227
0.6332011818885803 0.3998667001724243 -0.09595465660095215
0.5975756645202637 0.7742804288864136 -0.015736863017082214
0.5229188203811646 0.4080730080604553 -0.08618976175785065
0.5391581654548645 0.3456431031227112 -0.08192242681980133
0.5565418004989624 0.29119187593460083 -0.07739724218845367
0.6613620519638062 0.5032673478126526 -0.054536499083042145
0.7318189740180969 0.5264174938201904 -0.03824152052402496
0.5576161742210388 0.49461084604263306 -0.029894109815359116
0.6957159638404846 0.46805286407470703 -0.05887984484434128
0.5287997126579285 0.5307977199554443 -0.05645965784788132
0.5081514716148376 0.6217753887176514 -0.10631364583969116
0.7674312591552734 0.5442134141921997 -0.02408897876739502
0.7063449025154114 0.5417057275772095 -0.05045849457383156
0.6666713953018188 0.5489422082901001 -0.057379476726055145
0.6166880130767822 0.5442960858345032 -0.05214091017842293
0.5827980637550354 0.5347875356674194 -0.044831208884716034
0.5572865605354309 0.5255368947982788 -0.04242369160056114
0.4867155849933624 0.5007908940315247 -0.07201176136732101
0.7644439935684204 0.5940804481506348 -0.02452782541513443
0.7196815609931946 0.46597152948379517 -0.05770336091518402
0.44713473320007324 0.6544823050498962 -0.10918114334344864
0.5436789393424988 0.5700413584709167 -0.05830240249633789
0.8523697853088379 0.49638599157333374 0.08689168095588684
0.5363936424255371 0.5151267051696777 -0.04083336144685745
0.5625511407852173 0.6180478930473328 -0.048194520175457
0.6856987476348877 0.4822707176208496 -0.04653475061058998
0.5148497819900513 0.6022816300392151 -0.0995103120803833
0.8417437076568604 0.676511287689209 0.11928453296422958
0.5603918433189392 0.48785290122032166 -0.026626676321029663
0.48436325788497925 0.5907720923423767 -0.11639971286058426
0.7237720489501953 0.8006999492645264 0.030393308028578758
0.7338155508041382 0.8365697860717773 0.06888673454523087
0.8170800805091858 0.6072381734848022 0.04304677993059158
0.7658106088638306 0.7662615776062012 0.03939852491021156
0.7917144298553467 0.4511067271232605 -0.002017082180827856
0.582944929599762 0.8850734233856201 0.0029767481610178947
0.4528595507144928 0.6587784886360168 -0.0777878537774086
0.5698463320732117 0.5860115885734558 -0.05536637455224991
0.7680972814559937 0.49988800287246704 -0.02069394662976265
0.6316479444503784 0.4932997226715088 -0.05371807888150215
0.6109069585800171 0.4934716820716858 -0.05193261057138443
0.5855873227119446 0.727703332901001 -0.01462981104850769
0.7686257362365723 0.6466113328933716 -0.008871177211403847
0.529774010181427 0.9175876379013062 0.02170642837882042
0.6297839879989624 0.8910167813301086 0.038871292024850845
0.6781536936759949 0.8698650002479553 0.052326202392578125
0.5928441882133484 0.4916830062866211 -0.04566895589232445
0.5758678913116455 0.48911136388778687 -0.03692931681871414
0.5651198029518127 0.48851722478866577 -0.029497293755412102
0.7478258609771729 0.4618861675262451 -0.04350530356168747
0.5824350118637085 0.4719277024269104 -0.042051177471876144
0.6025115847587585 0.4648835062980652 -0.052430301904678345
0.6221084594726562 0.46355611085891724 -0.05925137922167778
0.6426879167556763 0.4668706953525543 -0.06128585711121559
0.6567606329917908 0.47250720858573914 -0.05810368433594704
0.8357964754104614 0.4370081126689911 0.04820958152413368
0.647784948348999 0.49097347259521484 -0.0527486652135849
0.5625178813934326 0.679948091506958 -0.05445954203605652
0.5159956812858582 0.6409421563148499 -0.08078718185424805
0.5010308027267456 0.678787887096405 -0.0613650344312191
0.6768611669540405 0.8344595432281494 0.02643071860074997
0.6326135993003845 0.8612149953842163 0.01649840548634529
0.5284202694892883 0.8987349271774292 -0.0035093841142952442
0.7790622711181641 0.795893132686615 0.09032857418060303
0.5670580863952637 0.48207175731658936 -0.0333784781396389
0.49823811650276184 0.540942370891571 -0.07922685891389847
0.5800079703330994 0.9079863429069519 0.0240965336561203
0.8128921985626221 0.6647467613220215 0.04970197752118111
0.5302070379257202 0.7290365695953369 -0.028210652992129326
0.5337285995483398 0.7369140982627869 -0.03207659721374512
0.5375721454620361 0.74656081199646 -0.035976819694042206
0.5411629676818848 0.7578120827674866 -0.03328284993767738
0.5607829093933105 0.7936211228370667 -0.02128080278635025
0.5771002769470215 0.7190972566604614 -0.022080233320593834
0.5800648331642151 0.7167378067970276 -0.024944771081209183
0.5835771560668945 0.7143165469169617 -0.028048234060406685
0.6324512362480164 0.703445315361023 -0.033992789685726166
0.7230764031410217 0.6570690274238586 -0.038362666964530945
0.5070611834526062 0.5146138668060303 -0.06265266239643097
0.5357099175453186 0.471541166305542 -0.03209462761878967
0.5549408197402954 0.4732796549797058 -0.03203234821557999
0.5739554166793823 0.7214577794075012 -0.01814558170735836
0.7429066896438599 0.722818911075592 0.000474874977953732
0.5050708651542664 0.4719599187374115 -0.0539713129401207
0.5716087818145752 0.8231154084205627 -0.013150306418538094
0.47589248418807983 0.5288511514663696 -0.08965899050235748
0.5157989263534546 0.5791828036308289 -0.07993017137050629
0.5217594504356384 0.8362939357757568 -0.014797508716583252
0.6452391147613525 0.7687937021255493 -0.007787736598402262
0.5884233117103577 0.637264609336853 -0.04843572527170181
0.6119830012321472 0.8001736402511597 -0.008191258646547794
0.6496294736862183 0.6344364881515503 -0.061418015509843826
0.6195502281188965 0.661687970161438 -0.04808543249964714
0.6845638155937195 0.674648642539978 -0.04561419039964676
0.5252120494842529 0.8704097867012024 -0.015314042568206787
0.5394119620323181 0.5898597836494446 -0.06772999465465546
0.6652464866638184 0.7976529598236084 0.004633581731468439
0.6234953999519348 0.8285092115402222 0.003001321339979768
0.6686946153640747 0.7339929342269897 -0.020337289199233055
0.7697057723999023 0.6923652291297913 0.006971040274947882
0.703678548336029 0.7478513121604919 -0.009790141135454178
0.798712968826294 0.7180740833282471 0.051074739545583725
0.6533913612365723 0.6885697841644287 -0.04168671369552612
0.5205904245376587 0.5556368827819824 -0.06769907474517822
0.4986654222011566 0.6360208988189697 -0.10873225331306458
0.5273690223693848 0.6369999051094055 -0.0868908241391182
0.47841280698776245 0.6192499995231628 -0.12214865535497665
0.5518229603767395 0.45073646306991577 -0.04767948389053345
0.5877201557159424 0.4365476369857788 -0.0665728747844696
0.6205244064331055 0.43333137035369873 -0.07795865088701248
0.6513721346855164 0.4379844069480896 -0.08006080240011215
0.6771370768547058 0.44945767521858215 -0.0739734023809433
0.7066438794136047 0.4894826114177704 -0.04246294125914574
0.8179409503936768 0.5529991388320923 0.031129026785492897
0.6819140911102295 0.5193655490875244 -0.04877980053424835
0.6518101096153259 0.5248907804489136 -0.05218273028731346
0.6170095801353455 0.5233204364776611 -0.04941055551171303
0.5869123339653015 0.5177587866783142 -0.042092274874448776
0.5642273426055908 0.511394739151001 -0.034561436623334885
0.5474557876586914 0.505537748336792 -0.0310028288513422
0.8543723821640015 0.5540757775306702 0.10802800953388214
0.5335310101509094 0.6404837965965271 -0.07513264566659927
0.4892248511314392 0.5650796294212341 -0.09480085968971252
0.4715559184551239 0.6396647095680237 -0.11814028024673462
0.46615350246429443 0.6519241333007812 -0.10311006754636765
0.47824060916900635 0.644097089767456 -0.1076761856675148
0.5315765738487244 0.6460409760475159 -0.06357677280902863
0.45737048983573914 0.6536600589752197 -0.10726851224899292
0.46295633912086487 0.6574810743331909 -0.08021792769432068
0.5498437285423279 0.4883977770805359 -0.02448343299329281
0.5336731672286987 0.494113028049469 -0.03034248575568199
0.5197432041168213 0.4988580346107483 -0.04312756285071373
0.6657724976539612 0.47726768255233765 -0.05390274152159691
0.6808019876480103 0.46792370080947876 -0.0578472763299942
0.4099770784378052 0.47047656774520874 0.05536782369017601
0.43241289258003235 0.4723083972930908 0.05536782369017601
0.4113914966583252 0.45114678144454956 0.05536782369017601
0.38770192861557007 0.46882277727127075 0.05536782369017601
0.4084843397140503 0.48984161019325256 0.05536782369017601
0.6267217993736267 0.47788214683532715 -0.04718983173370361
0.6518481373786926 0.4777599573135376 -0.04718983173370361
0.6273325085639954 0.4596339464187622 -0.04718983173370361
0.601924479007721 0.47792714834213257 -0.04718983173370361
0.6261552572250366 0.4960949420928955 -0.04718983173370361
