ply
format ascii 1.0
element vertex 478
property float x
property float y
property float z
end_header
0.5038316249847412 0.6889728307723999 -0.07408364862203598
0.5051809549331665 0.6166717410087585 -0.1298118531703949
0.5041789412498474 0.6429073214530945 -0.07262550294399261
0.4852864742279053 0.5370500683784485 -0.09317018836736679
0.5055215358734131 0.5904591083526611 -0.13644534349441528
0.5054285526275635 0.5584691762924194 -0.12512312829494476
0.5045812129974365 0.4849703013896942 -0.05550326406955719
0.33514919877052307 0.4885120987892151 0.038203973323106766
0.5041074156761169 0.4309574067592621 -0.035000935196876526
0.5042130351066589 0.3989880681037903 -0.03689144179224968
0.5050399899482727 0.28319889307022095 -0.0029623748268932104
0.5036951303482056 0.6977897882461548 -0.07156474888324738
0.5032500624656677 0.707171618938446 -0.06477072089910507
0.5029019117355347 0.7128489017486572 -0.05518835037946701
0.5037639737129211 0.7384956479072571 -0.05048173666000366
0.5038089752197266 0.7468114495277405 -0.05569541081786156
0.5036944150924683 0.7577100396156311 -0.06213885918259621
0.5034263730049133 0.7699618935585022 -0.0605517216026783
0.5012182593345642 0.7993022799491882 -0.04147985577583313
0.5048794746398926 0.6306304931640625 -0.11855009943246841
0.4820558428764343 0.6303424835205078 -0.08686275035142899
0.2589724659919739 0.4065238833427429 0.15664248168468475
0.400682270526886 0.5005207061767578 0.013395627960562706
0.3786625862121582 0.5036447048187256 0.01480061188340187
0.35675084590911865 0.5050486326217651 0.021174577996134758
0.3250623643398285 0.49823319911956787 0.0411478616297245
0.4192982614040375 0.49572113156318665 0.016336359083652496
0.3676490783691406 0.43758225440979004 0.007331076543778181
0.39380931854248047 0.4392973780632019 0.008529511280357838
0.3430721163749695 0.4434587359428406 0.014643300324678421
0.3265209496021271 0.4550248384475708 0.024100948125123978
0.3074316680431366 0.5126621723175049 0.05181729421019554
0.41005778312683105 0.8411810398101807 -0.01470908522605896
0.3255298435688019 0.48439696431159973 0.04629850760102272
0.24394479393959045 0.5106662511825562 0.1574239581823349
0.2819625735282898 0.49966928362846375 0.07677912712097168
0.3832552433013916 0.6004881858825684 -0.017273057252168655
0.4707928001880646 0.6853047609329224 -0.07103089243173599
0.47394394874572754 0.7071873545646667 -0.060868971049785614
0.4373304545879364 0.6950899958610535 -0.0565720871090889
0.41633665561676025 0.7068920135498047 -0.03692419454455376
0.448906809091568 0.7104336619377136 -0.049983132630586624
0.43000662326812744 0.715901255607605 -0.03185438737273216
0.38930007815361023 0.7509105205535889 -0.0014412571908906102
0.4852589964866638 0.6160895824432373 -0.12784777581691742
0.4826624393463135 0.5909045934677124 -0.13378535211086273
0.2990977168083191 0.4397321939468384 0.033022865653038025
0.43364980816841125 0.5411291122436523 -0.01587667502462864
0.42717403173446655 0.6102425456047058 -0.06984436511993408
0.42547717690467834 0.5976748466491699 -0.0618266724050045
0.31202322244644165 0.5994362831115723 0.01359723974019289
0.4840518832206726 0.5613983869552612 -0.11796291172504425
0.3573528230190277 0.4107990264892578 -0.006192427594214678
0.32310712337493896 0.4204135239124298 0.0116957426071167
0.28090691566467285 0.3600175082683563 0.11332251876592636
0.45736682415008545 0.4281589686870575 -0.02753620781004429
0.41587454080581665 0.4487268626689911 0.015278114937245846
0.3703225255012512 0.725103497505188 0.004701335448771715
0.25994816422462463 0.7468742728233337 0.20325374603271484
0.4450165927410126 0.6245691180229187 -0.06141926348209381
0.4650120735168457 0.6319414377212524 -0.064750075340271
0.396257609128952 0.7296075820922852 0.004254477098584175
0.4032208323478699 0.7289353013038635 -0.001701387227512896
0.31233397126197815 0.4072989225387573 0.024686172604560852
0.4252508878707886 0.6210446357727051 -0.05754953995347023
0.4013828635215759 0.4118143320083618 -0.01966114155948162
0.39823150634765625 0.39287829399108887 -0.023186663165688515
0.37327873706817627 0.29668036103248596 0.025990886613726616
0.29624566435813904 0.379613995552063 0.06351550668478012
0.38681548833847046 0.3394131064414978 0.0013119543436914682
0.2862458825111389 0.4307703673839569 0.05421541631221771
0.27282142639160156 0.4173506498336792 0.10295166075229645
0.4716857373714447 0.6970142126083374 -0.0683741495013237
0.44307294487953186 0.7034661769866943 -0.054134055972099304
0.4228894114494324 0.711664080619812 -0.036266542971134186
0.4504479467868805 0.6289072036743164 -0.05688643082976341
0.39984753727912903 0.7292855978012085 0.001134390477091074
0.4116835594177246 0.7362362146377563 -0.013827580958604813
0.4066399931907654 0.7286307215690613 -0.002518115798011422
0.4579603374004364 0.616459846496582 -0.09354577213525772
0.4354899525642395 0.7181161642074585 -0.028681397438049316
0.453652024269104 0.7142136096954346 -0.041470933705568314
0.4764803647994995 0.7125685811042786 -0.05169351398944855
0.4676467776298523 0.7982423305511475 -0.039517369121313095
0.47050490975379944 0.7675854563713074 -0.05795696750283241
0.47233831882476807 0.7554687261581421 -0.058930475264787674
0.47485458850860596 0.7447007298469543 -0.0518646314740181
0.47755539417266846 0.7373552322387695 -0.04674217849969864
0.43681180477142334 0.733843207359314 -0.024706194177269936
0.43195271492004395 0.7371264696121216 -0.029478296637535095
0.42573726177215576 0.7425930500030518 -0.033676959574222565
0.42065298557281494 0.7493345141410828 -0.02991296350955963
0.3983422517776489 0.6840342879295349 -0.028514165431261063
0.2386881709098816 0.6259233951568604 0.24628865718841553
0.5044490098953247 0.6368889212608337 -0.08843261003494263
0.42315155267715454 0.7320695519447327 -0.010927152819931507
0.4175742268562317 0.7336451411247253 -0.013915840536355972
0.4723694622516632 0.6414844393730164 -0.06666360050439835
0.4332354962825775 0.6352955102920532 -0.04125469550490379
0.4689186215400696 0.6368467211723328 -0.06624727696180344
0.40775755047798157 0.5551152229309082 -0.00898890383541584
0.3685648441314697 0.5705145001411438 -0.00326927425339818
0.4207373261451721 0.6088775992393494 -0.049090657383203506
0.31721964478492737 0.3221934139728546 0.06661716103553772
0.3324891924858093 0.35244038701057434 0.03046024776995182
0.35072964429855347 0.39336252212524414 -3.623582233558409e-05
0.409080445766449 0.76987224817276 -0.01542789489030838
0.4511275291442871 0.39719611406326294 -0.03462317958474159
0.4421851933002472 0.3367440402507782 -0.015378272160887718
0.4338684380054474 0.2851218283176422 0.0022790126968175173
0.3370232582092285 0.5039407014846802 0.031401146203279495
0.28359729051589966 0.5297467708587646 0.06403407454490662
0.43137580156326294 0.49043625593185425 0.019879387691617012
0.3050439953804016 0.4690362811088562 0.044666338711977005
0.4510001838207245 0.524988055229187 -0.02371092513203621
0.4430381655693054 0.6008508205413818 -0.09240785241127014
0.26007014513015747 0.5490014553070068 0.08854953199625015
0.299374520778656 0.5432433485984802 0.04159657284617424
0.3293876349925995 0.5486968755722046 0.019659096375107765
0.3736594617366791 0.5431363582611084 0.009012077935039997
0.4061453938484192 0.5328245759010315 0.004428358748555183
0.43043166399002075 0.5215298533439636 -0.00107188755646348
0.4823583662509918 0.49134689569473267 -0.046554435044527054
0.2601984739303589 0.5981131792068481 0.07866491377353668
0.28877222537994385 0.46738696098327637 0.0562460757791996
0.4927331209182739 0.6295702457427979 -0.1172332689166069
0.4342207908630371 0.5634238719940186 -0.02808634378015995
0.23858818411827087 0.5149301290512085 0.2364281713962555
0.44897109270095825 0.5086333155632019 -0.0036434463690966368
0.4184286296367645 0.6111447215080261 -0.024853531271219254
0.31578341126441956 0.4864780008792877 0.05060431361198425
0.4420182704925537 0.5856676697731018 -0.08241093903779984
0.24505063891410828 0.6855647563934326 0.23097586631774902
0.43091607093811035 0.48296046257019043 0.026626495644450188
0.46304094791412354 0.5708854794502258 -0.10456091910600662
0.30838334560394287 0.7924749851226807 0.07686596363782883
0.3112247586250305 0.8261140584945679 0.11647497117519379
0.2398180365562439 0.6137896180152893 0.16177645325660706
0.27872389554977417 0.7627233862876892 0.10709650814533234
0.25835487246513367 0.4606967568397522 0.1371951848268509
0.4051562547683716 0.8680435419082642 -0.0042874813079833984
0.4949800372123718 0.6359453201293945 -0.08683545887470245
0.41205692291259766 0.5813812017440796 -0.020653152838349342
0.26248621940612793 0.5054231882095337 0.10023190826177597
0.3589444160461426 0.490458607673645 0.023899506777524948
0.3782060742378235 0.4892585873603821 0.018151532858610153
0.40636271238327026 0.7396435737609863 -0.010198225267231464
0.2615760564804077 0.6490281820297241 0.08263936638832092
0.4486003518104553 0.9005327820777893 -0.0005588989588432014
0.37734460830688477 0.8743011951446533 0.050751373171806335
0.34679609537124634 0.8549215197563171 0.08003082871437073
0.5046250820159912 0.3381344676017761 -0.020443519577383995
0.49817290902137756 0.903514564037323 -0.007716627325862646
0.396501362323761 0.4870556592941284 0.017300628125667572
0.41369473934173584 0.48478975892066956 0.02091962657868862
0.42508605122566223 0.4841150939464569 0.026090623810887337
0.27287137508392334 0.46423467993736267 0.08027254045009613
0.41013115644454956 0.465413898229599 0.018596332520246506
0.3911569118499756 0.45769065618515015 0.014210709370672703
0.3717566728591919 0.4565183222293854 0.015112892724573612
0.35154491662979126 0.46229517459869385 0.020656637847423553
0.3384634852409363 0.4712287187576294 0.028103195130825043
0.2463088035583496 0.4553436040878296 0.20222695171833038
0.34532061219215393 0.490016371011734 0.0314386747777462
0.5042008757591248 0.6619319915771484 -0.06758224964141846
0.4231809377670288 0.6701081991195679 -0.04299498721957207
0.4454687237739563 0.6204857230186462 -0.06969670206308365
0.46988263726234436 0.6624967455863953 -0.06568765640258789
0.5041346549987793 0.45879143476486206 -0.03605661913752556
0.3411164879798889 0.8226994276046753 0.051836322993040085
0.37180984020233154 0.8460347056388855 0.025146786123514175
0.4478662610054016 0.8824101686477661 -0.029279321432113647
0.28339341282844543 0.7935842871665955 0.16121189296245575
0.42414870858192444 0.47613105177879333 0.023437274619936943
0.4669881761074066 0.5287001729011536 -0.05667368695139885
0.4987560510635376 0.8849221467971802 -0.035430874675512314
0.4099530875682831 0.8901716470718384 0.020100731402635574
0.2449817955493927 0.6690198183059692 0.1540626883506775
0.4551320970058441 0.7354443669319153 -0.03684726357460022
0.4505389332771301 0.7410066723823547 -0.04201827943325043
0.44596216082572937 0.7494549751281738 -0.047037556767463684
0.44256192445755005 0.7600800395011902 -0.04471839219331741
0.434383749961853 0.78654944896698 -0.030023174360394478
0.4149811267852783 0.7222000360488892 -0.015511724166572094
0.40834540128707886 0.7205127477645874 -0.015234318561851978
0.4028152823448181 0.7181606888771057 -0.01530195027589798
0.37921375036239624 0.7022226452827454 -0.010845042765140533
0.2907872796058655 0.656385600566864 0.0348840057849884
0.4673004150390625 0.5064011216163635 -0.03335016965866089
0.4514678418636322 0.46418285369873047 0.011062280274927616
0.4349004924297333 0.4673174023628235 0.019857162609696388
0.4208817481994629 0.7229318618774414 -0.013666399754583836
0.2875848412513733 0.7204983234405518 0.06624313443899155
0.47429323196411133 0.46193450689315796 -0.019982341676950455
0.4213849902153015 0.8135093450546265 -0.021079255267977715
0.505172073841095 0.5330528020858765 -0.1009618416428566
0.4837154150009155 0.5151023268699646 -0.07184811681509018
0.5048670768737793 0.5096813440322876 -0.07710754871368408
0.4491416811943054 0.5663453340530396 -0.05936086177825928
0.49940919876098633 0.8587716221809387 -0.04600599408149719
0.500227689743042 0.8272208571434021 -0.04378899186849594
0.45943427085876465 0.8261783123016357 -0.0383366122841835
0.3688034415245056 0.7654250860214233 0.009787545539438725
0.3991691470146179 0.631259024143219 -0.019502708688378334
0.39286744594573975 0.7934868335723877 -0.004563366994261742
0.34370097517967224 0.6295272707939148 -0.009410733357071877
0.37605148553848267 0.6557782292366028 -0.015091896057128906
0.32235443592071533 0.6707305312156677 0.008209898136556149
0.4513552486896515 0.8568437695503235 -0.039015211164951324
0.43353623151779175 0.5807174444198608 -0.043588895350694656
0.34892767667770386 0.7894154191017151 0.028714442625641823
0.3791884779930115 0.8172476291656494 0.00961296632885933
0.3488348722457886 0.7329059839248657 0.013713555410504341
0.2666003108024597 0.6929835677146912 0.08812021464109421
0.31859123706817627 0.7429311275482178 0.035431522876024246
0.2560863792896271 0.719551682472229 0.14038680493831635
0.355745792388916 0.6864753365516663 -0.004247879143804312
0.45135125517845154 0.5459072589874268 -0.0411885529756546
0.4507002830505371 0.6120034456253052 -0.09789469838142395
0.43477004766464233 0.6183739900588989 -0.07301075756549835
0.4619383215904236 0.5949170589447021 -0.11414047330617905
0.43442294001579285 0.44428062438964844 0.005408759228885174
0.39749646186828613 0.43008485436439514 0.0014577064430341125
0.3640047311782837 0.4278896749019623 0.0024112153332680464
0.33553266525268555 0.43433427810668945 0.011579207144677639
0.3150785565376282 0.4482611417770386 0.025994956493377686
0.3016466796398163 0.4927911162376404 0.05984971299767494
0.23886153101921082 0.5615666508674622 0.16080734133720398
0.3201136589050293 0.520695149898529 0.03933359310030937
0.34474194049835205 0.5243624448776245 0.02500642091035843
0.37538981437683105 0.522140622138977 0.015300529077649117
0.40391069650650024 0.5158157348632812 0.01147916354238987
0.4260214865207672 0.5083357095718384 0.011150586418807507
0.44160735607147217 0.5006533861160278 0.010138146579265594
0.2374154031276703 0.5702709555625916 0.24974538385868073
0.43458402156829834 0.6248051524162292 -0.061628181487321854
0.46684232354164124 0.5491799712181091 -0.077255479991436
0.4681846499443054 0.6129616498947144 -0.11635100841522217
0.4807576537132263 0.6259532570838928 -0.10764486342668533
0.4680554270744324 0.6177539229393005 -0.10514525324106216
0.44073325395584106 0.6319859027862549 -0.05409466475248337
0.485273152589798 0.6279903650283813 -0.11401773989200592
0.487438440322876 0.6341467499732971 -0.08680280297994614
0.4396197199821472 0.4832179546356201 0.022783949971199036
0.4540112316608429 0.4875885844230652 0.008161075413227081
0.46305620670318604 0.49026942253112793 -0.009348695166409016
0.33100447058677673 0.47835904359817505 0.035923443734645844
0.31593549251556396 0.4694518744945526 0.03737162798643112
0.5245848298072815 0.5370364785194397 -0.09273351728916168
0.666474461555481 0.4831790626049042 0.04173474386334419
0.5268086194992065 0.6305692791938782 -0.08654262870550156
0.7416847944259644 0.40954503417015076 0.1627519726753235
0.6001863479614258 0.49875694513320923 0.015699757263064384
0.6219566464424133 0.5005955100059509 0.017585407942533493
0.643695592880249 0.5016651749610901 0.02433859184384346
0.6756154298782349 0.49375027418136597 0.044754572212696075
0.5822464227676392 0.49490243196487427 0.018190622329711914
0.6348849534988403 0.4331037998199463 0.009982863441109657
0.6092235445976257 0.4361361265182495 0.010499304160475731
0.6592084765434265 0.4379507303237915 0.017859909683465958
0.6750305891036987 0.44922327995300293 0.027542278170585632
0.6918298602104187 0.5108256340026855 0.05582253634929657
0.5878332853317261 0.8397476077079773 -0.013691220432519913
0.6761084198951721 0.4786592721939087 0.04992131516337395
0.7551878690719604 0.513429582118988 0.16319510340690613
0.7177556753158569 0.4989114999771118 0.08126833289861679
0.6219297647476196 0.6009442806243896 -0.015613017603754997
0.537007212638855 0.6861154437065125 -0.07087704539299011
0.5328355431556702 0.7078359723091125 -0.06090189144015312
0.5698931217193604 0.6966586112976074 -0.05610677972435951
0.5896233320236206 0.7083225250244141 -0.036168742924928665
0.5575395226478577 0.7115220427513123 -0.04986760765314102
0.5758619904518127 0.7169999480247498 -0.031453847885131836
0.6145294904708862 0.7499281764030457 -0.0004254349914845079
0.5248995423316956 0.6163051128387451 -0.12748709321022034
0.5277263522148132 0.590948760509491 -0.13350537419319153
0.7052912712097168 0.43579643964767456 0.0369139164686203
0.572741687297821 0.5411564111709595 -0.014634818769991398
0.5807666182518005 0.6100606918334961 -0.06873060017824173
0.582044243812561 0.5973304510116577 -0.06070561707019806
0.6907626390457153 0.6004423499107361 0.01666589267551899
0.5264473557472229 0.5613782405853271 -0.11754941195249557
0.6513186097145081 0.4058651328086853 -0.0036727290134876966
0.6835715770721436 0.41574737429618835 0.014854715205729008
0.7212859988212585 0.3631055951118469 0.11869044601917267
0.5509524941444397 0.4257492423057556 -0.026721306145191193
0.5873079895973206 0.44708138704299927 0.016995862126350403
0.634286642074585 0.7244056463241577 0.00603136420249939
0.7330418825149536 0.7461748719215393 0.20876891911029816
0.56284499168396 0.6245404481887817 -0.06064682453870773
0.5430729985237122 0.6321232914924622 -0.06439299881458282
0.6090535521507263 0.7301411628723145 0.005442264024168253
0.6020481586456299 0.7294876575469971 -0.0007224426954053342
0.6948411464691162 0.4041970372200012 0.02819022163748741
0.5821162462234497 0.6208484768867493 -0.05647127702832222
0.6082080602645874 0.4074316620826721 -0.01803610846400261
0.6124891042709351 0.39011359214782715 -0.021363692358136177
0.6339058876037598 0.29902365803718567 0.029145292937755585
0.7072399854660034 0.38203445076942444 0.06768929958343506
0.6200997829437256 0.3414185643196106 0.003564885351806879
0.7178236246109009 0.42938557267189026 0.058520637452602386
0.7294740080833435 0.4199092388153076 0.10776349902153015
0.535767674446106 0.6977512836456299 -0.06830258667469025
0.5639764070510864 0.7047351002693176 -0.053893595933914185
0.5832131505012512 0.7128194570541382 -0.03577839583158493
0.5570743083953857 0.6288458108901978 -0.05620948597788811
0.6055378913879395 0.7298488020896912 0.002194196917116642
0.5943070650100708 0.7373325824737549 -0.01290072314441204
0.5986329913139343 0.7291697263717651 -0.0014649978838860989
0.5508527755737305 0.6167593598365784 -0.0927736908197403
0.5695955753326416 0.7189552187919617 -0.02815941348671913
0.5519058704376221 0.7150994539260864 -0.04121629148721695
0.5295523405075073 0.7131348848342896 -0.051558952778577805
0.5347044467926025 0.7982041835784912 -0.03943496197462082
0.5362376570701599 0.7683145403862 -0.05777553841471672
0.5347604155540466 0.7561894059181213 -0.05883089825510979
0.532593846321106 0.7454415559768677 -0.05179966613650322
0.5299321413040161 0.7381377220153809 -0.046737637370824814
0.569235622882843 0.7352643013000488 -0.024153748527169228
0.5742994546890259 0.73858243227005 -0.028816042467951775
0.5805355310440063 0.7440699338912964 -0.03292986378073692
0.5855187177658081 0.7507454752922058 -0.02908044308423996
0.6080828905105591 0.6838229298591614 -0.02749282866716385
0.7556778192520142 0.628389835357666 0.25311848521232605
0.582412600517273 0.7331790328025818 -0.01014509703963995
0.5882599353790283 0.7347671985626221 -0.013043515384197235
0.5358741879463196 0.6416669487953186 -0.06637156009674072
0.5737559795379639 0.63510662317276 -0.040441423654556274
0.5392394065856934 0.6370900273323059 -0.06589128822088242
0.597732663154602 0.5554314851760864 -0.007313096895813942
0.63605797290802 0.5712937712669373 -0.0011237530270591378
0.5864644050598145 0.6086596250534058 -0.04789407178759575
0.6875600218772888 0.32513928413391113 0.0711134597659111
0.6726082563400269 0.3549639582633972 0.033740028738975525
0.6590137481689453 0.39005714654922485 0.0025975231546908617
0.5938034057617188 0.7690103054046631 -0.014411498792469501
0.5591797828674316 0.39621663093566895 -0.03371526673436165
0.5660502314567566 0.3378358781337738 -0.014224269427359104
0.5751648545265198 0.28640198707580566 0.0038512058090418577
0.6634372472763062 0.4999101758003235 0.03484779968857765
0.7147663831710815 0.5293883085250854 0.06844110786914825
0.5705780386924744 0.49028921127319336 0.02161760814487934
0.696883499622345 0.46466439962387085 0.048644889146089554
0.5561414957046509 0.5249385833740234 -0.022742170840501785
0.5654317736625671 0.6009402275085449 -0.09144961833953857
0.7407009601593018 0.5510318279266357 0.0936802476644516
0.6981256008148193 0.5422561764717102 0.04575462266802788
0.6678387522697449 0.5474345684051514 0.022925090044736862
0.6244582533836365 0.5414415597915649 0.011347508057951927
0.5934171676635742 0.5310214757919312 0.006210551597177982
0.5703330039978027 0.5197508335113525 0.0002318460465176031
0.5262621641159058 0.4914509654045105 -0.046187907457351685
0.7403199672698975 0.5995842218399048 0.08346889913082123
0.7134835720062256 0.46515148878097534 0.060578685253858566
0.5167616605758667 0.6297770738601685 -0.11695549637079239
0.5723332166671753 0.5633137226104736 -0.026806967332959175
0.7583022713661194 0.5179839134216309 0.24335560202598572
0.5529522895812988 0.5066359043121338 -0.00263589178211987
0.5882993340492249 0.6109452843666077 -0.02369525097310543
0.685552716255188 0.4812434911727905 0.05453994497656822
0.5662039518356323 0.5855110883712769 -0.08143994957208633
0.7485995292663574 0.6867882013320923 0.2374642789363861
0.5713054537773132 0.48308688402175903 0.028552701696753502
0.5462578535079956 0.5708853006362915 -0.10381710529327393
0.6877427101135254 0.7898826003074646 0.079706110060215
0.6823543310165405 0.8226513862609863 0.12032106518745422
0.7579801082611084 0.6155301332473755 0.16714882850646973
0.7169795036315918 0.7608091831207275 0.1105794757604599
0.7424477338790894 0.46339893341064453 0.1425573080778122
0.5907330513000488 0.8660364747047424 -0.00316906557418406
0.5139225125312805 0.6360253095626831 -0.0867161974310875
0.5937982797622681 0.5815147161483765 -0.0192259531468153
0.7362352609634399 0.5070943236351013 0.10521133989095688
0.6423382759094238 0.48630186915397644 0.027068864554166794
0.6230523586273193 0.4862464666366577 0.020970067009329796
0.5995204448699951 0.7406978607177734 -0.009256044402718544
0.7381123900413513 0.649772584438324 0.08699900656938553
0.5469114780426025 0.8992834091186523 -3.2343963539460674e-05
0.6168252229690552 0.8706052303314209 0.052595533430576324
0.6473049521446228 0.851019024848938 0.08278733491897583
0.6048108339309692 0.48534446954727173 0.01978827826678753
0.5881816148757935 0.4842313826084137 0.023108158260583878
0.5771028995513916 0.48422086238861084 0.02811720222234726
0.7286586761474609 0.4643101692199707 0.08498769998550415
0.591370701789856 0.4638355076313019 0.020671961829066277
0.6098545789718628 0.45466703176498413 0.016582218930125237
0.6297722458839417 0.45206767320632935 0.01782575622200966
0.6503943204879761 0.4565819501876831 0.0236537866294384
0.6632863879203796 0.4649478495121002 0.03141104802489281
0.7525852918624878 0.45836013555526733 0.20887163281440735
0.6561521291732788 0.4851498305797577 0.034796204417943954
0.5840381383895874 0.6698276400566101 -0.042079754173755646
0.5627068281173706 0.6205661296844482 -0.06889871507883072
0.5384521484375 0.662647008895874 -0.06539875268936157
0.6549671292304993 0.8199724555015564 0.054059822112321854
0.6237477660179138 0.843231737613678 0.02671387977898121
0.5491142868995667 0.8815828561782837 -0.028948647901415825
0.7095665335655212 0.7910243272781372 0.16583849489688873
0.5779286623001099 0.47572100162506104 0.02540072798728943
0.5413505434989929 0.5286755561828613 -0.05595727264881134
0.5846073627471924 0.887405514717102 0.021189985796809196
0.7516951560974121 0.6697139739990234 0.1591135859489441
0.5517148971557617 0.7367262840270996 -0.0365261547267437
0.5563082098960876 0.7422791123390198 -0.04160472750663757
0.5607942938804626 0.7506644129753113 -0.046617310494184494
0.5642014145851135 0.7612746357917786 -0.04423314705491066
0.567786693572998 0.7858973741531372 -0.029311737045645714
0.590710461139679 0.7228886485099792 -0.014830930158495903
0.597247838973999 0.7212820053100586 -0.014436678029596806
0.6028163433074951 0.7189992666244507 -0.014402695931494236
0.626505970954895 0.7019250392913818 -0.009603425860404968
0.7103089690208435 0.656932532787323 0.038121819496154785
0.5406076908111572 0.5065059065818787 -0.03275143355131149
0.5528031587600708 0.46365660429000854 0.012161756865680218
0.5680681467056274 0.467117577791214 0.021583326160907745
0.5844691395759583 0.7235127091407776 -0.012865560129284859
0.7111717462539673 0.7196662425994873 0.06963539868593216
0.5311949849128723 0.4608162045478821 -0.019366685301065445
0.5783278346061707 0.8122283220291138 -0.02036776952445507
0.5255287289619446 0.5150688290596008 -0.07148744910955429
0.5585293173789978 0.5663259029388428 -0.05848086625337601
0.5406758189201355 0.8256983757019043 -0.03818713128566742
0.6327375173568726 0.764196515083313 0.011104402132332325
0.6069071888923645 0.6311874985694885 -0.01823006570339203
0.6075116395950317 0.7918950915336609 -0.003445923328399658
0.6600918173789978 0.6301778554916382 -0.007352880202233791
0.6293983459472656 0.6560378074645996 -0.013606125488877296
0.6803172826766968 0.6711256504058838 0.010382103733718395
0.5471751689910889 0.8563737869262695 -0.03876195102930069
0.5734239220619202 0.5804460048675537 -0.04252590984106064
0.6499686241149902 0.7875446677207947 0.030600594356656075
0.6187577247619629 0.8151026964187622 0.010996066965162754
0.653663158416748 0.7322683930397034 0.015391988679766655
0.7321098446846008 0.6928595304489136 0.09219465404748917
0.681124210357666 0.7416826486587524 0.037920478731393814
0.7398096919059753 0.7189193964004517 0.1447693109512329
0.6490861773490906 0.6867052316665649 -0.002831644145771861
0.5559856295585632 0.5458704829216003 -0.04017958045005798
0.558128297328949 0.612123429775238 -0.09704320132732391
0.5732689499855042 0.6183581352233887 -0.07212096452713013
0.547615110874176 0.5950843691825867 -0.1134425476193428
0.5709222555160522 0.4418914318084717 0.006820283830165863
0.6080568432807922 0.42567896842956543 0.003476787358522415
0.6414546370506287 0.42257755994796753 0.005031147971749306
0.6691656112670898 0.4287872910499573 0.014845332130789757
0.6882364153862 0.4429706335067749 0.02971547469496727
0.6989167332649231 0.4898768663406372 0.06400808691978455
0.759432315826416 0.5639885663986206 0.16653573513031006
0.6790170669555664 0.5183976888656616 0.04298532009124756
0.6543974280357361 0.5223113894462585 0.028163030743598938
0.6242624521255493 0.5200495719909668 0.017830774188041687
0.596386730670929 0.5141379237174988 0.013466824777424335
0.5750885009765625 0.5073007345199585 0.012671507894992828
0.5601912140846252 0.4997294545173645 0.011338981799781322
0.7579120397567749 0.573161244392395 0.2565453350543976
0.5729499459266663 0.6246962547302246 -0.060731373727321625
0.5420756936073303 0.5491334199905396 -0.07654856145381927
0.5413900017738342 0.6132906079292297 -0.1157684475183487
0.5284297466278076 0.6263355016708374 -0.10725107043981552
0.5412590503692627 0.6182035207748413 -0.10448358207941055
0.5664781928062439 0.6317819952964783 -0.053306352347135544
0.5240610241889954 0.6282871961593628 -0.11369732767343521
0.5213344097137451 0.6342605352401733 -0.08656385540962219
0.5627105236053467 0.48337507247924805 0.024455616250634193
0.5487534999847412 0.48682403564453125 0.00916184764355421
0.5401192903518677 0.4884147644042969 -0.008655375801026821
0.670573353767395 0.47229331731796265 0.03940150514245033
0.6853615045547485 0.4639131724834442 0.0411241315305233
0.3609411120414734 0.47075551748275757 0.025310629978775978
0.3844051659107208 0.46957388520240784 0.025310629978775978
0.36150264739990234 0.4498237371444702 0.025310629978775978
0.33787885308265686 0.47195178270339966 0.025310629978775978
0.36023369431495667 0.4917662739753723 0.025310629978775978
0.6134201288223267 0.4653019309043884 0.028062783181667328
0.6356337070465088 0.4653210937976837 0.028062783181667328
0.6141017079353333 0.44609522819519043 0.028062783181667328
0.5917866826057434 0.4652307331562042 0.028062783181667328
0.613050639629364 0.4848262667655945 0.028062783181667328
