ply
format ascii 1.0
element vertex 478
property float x
property float y
property float z
end_header
0.49277108907699585 0.6864665150642395 -0.05023327097296715
0.49750247597694397 0.634651243686676 -0.1242399588227272
0.49690067768096924 0.6501551270484924 -0.061591986566782
0.4796764552593231 0.5522955656051636 -0.10209236294031143
0.4980059266090393 0.6104768514633179 -0.13436970114707947
0.4986266791820526 0.5772464871406555 -0.12853887677192688
0.5005101561546326 0.49567094445228577 -0.07696495205163956
0.33771127462387085 0.48153629899024963 0.013844401575624943
0.5021665096282959 0.4351010322570801 -0.0676082968711853
0.5029319524765015 0.40308982133865356 -0.07624644786119461
0.5059753656387329 0.2752939760684967 -0.07015972584486008
0.4925793707370758 0.6927396059036255 -0.04622345790266991
0.4926046133041382 0.6984175443649292 -0.038936395198106766
0.4929313659667969 0.701820433139801 -0.028648385778069496
0.49103835225105286 0.7434223890304565 -0.01774299144744873
0.49080681800842285 0.7504931092262268 -0.020542725920677185
0.49036750197410583 0.759813666343689 -0.024505671113729477
0.4901677370071411 0.7712527513504028 -0.019725032150745392
0.49335765838623047 0.8001546859741211 0.002434160327538848
0.4972747564315796 0.6451941132545471 -0.11124037206172943
0.4731546938419342 0.6409753561019897 -0.07915695756673813
0.2537933886051178 0.3753040134906769 0.10738062113523483
0.4022454023361206 0.5033292770385742 -0.007527488749474287
0.38009122014045715 0.5055170655250549 -0.005696999840438366
0.35852867364883423 0.5035544633865356 0.00041642304859124124
0.329570472240448 0.4872809052467346 0.01846741884946823
0.42065075039863586 0.49770593643188477 -0.005463037174195051
0.3663692772388458 0.4333053529262543 -0.020473122596740723
0.39275532960891724 0.436312735080719 -0.020540250465273857
0.3428131937980652 0.4380972385406494 -0.0126320980489254
0.3279373049736023 0.4478341042995453 -0.002903142012655735
0.31215381622314453 0.4997618794441223 0.0313728004693985
0.4052952527999878 0.8289317488670349 0.03802226483821869
0.32944369316101074 0.4726402461528778 0.020777318626642227
0.24514254927635193 0.48013734817504883 0.13026884198188782
0.2859870493412018 0.4814040958881378 0.051968641579151154
0.3777027428150177 0.5950887799263 -0.017224421724677086
0.4587346613407135 0.6819942593574524 -0.04798875376582146
0.4602985680103302 0.6961865425109863 -0.03503306955099106
0.42628389596939087 0.684878945350647 -0.0323496051132679
0.4036802053451538 0.6895620226860046 -0.010151629336178303
0.43348878622055054 0.6951981782913208 -0.023539088666439056
0.412369966506958 0.6962007284164429 -0.0037627192214131355
0.37966400384902954 0.7327570915222168 0.03646402060985565
0.4779632091522217 0.6333386898040771 -0.12235702574253082
0.4758586585521698 0.6096569895744324 -0.131708025932312
0.2989167869091034 0.4301634132862091 -0.0012700462248176336
0.42978453636169434 0.5403661131858826 -0.027461005374789238
0.4222267270088196 0.6150668263435364 -0.06622210144996643
0.4214109182357788 0.6013107895851135 -0.06033164635300636
0.30804020166397095 0.5866190791130066 0.011682086624205112
0.4776574671268463 0.5788819789886475 -0.1213630884885788
0.3505564332008362 0.40808242559432983 -0.0430113822221756
0.32003268599510193 0.41509389877319336 -0.024637306109070778
0.2760384678840637 0.3361719250679016 0.057486165314912796
0.4488116502761841 0.4305535554885864 -0.061175402253866196
0.41544660925865173 0.4477200210094452 -0.013186654075980186
0.3609503507614136 0.7044907808303833 0.03671950101852417
0.26454615592956543 0.7002193331718445 0.22389434278011322
0.43809404969215393 0.629478394985199 -0.05593667924404144
0.4568331241607666 0.6372708082199097 -0.0565737783908844
0.3762189447879791 0.7020595669746399 0.03652896359562874
0.3820347785949707 0.7027468681335449 0.03068346157670021
0.30799058079719543 0.40028858184814453 -0.01584562472999096
0.4199029207229614 0.6219505071640015 -0.05214836075901985
0.3924005627632141 0.41117870807647705 -0.055790338665246964
0.38860374689102173 0.39330190420150757 -0.06343519687652588
0.3690812587738037 0.28557080030441284 -0.03765904903411865
0.292959988117218 0.3653060793876648 0.015250288881361485
0.3833542466163635 0.3366329073905945 -0.05188087373971939
0.2851444482803345 0.4179987609386444 0.016223106533288956
0.26952850818634033 0.39591485261917114 0.05862843990325928
0.4588794410228729 0.6898013353347778 -0.043497372418642044
0.4297841787338257 0.6905322074890137 -0.028183983638882637
0.4079582095146179 0.6931010484695435 -0.0084088034927845
0.442873477935791 0.6328130960464478 -0.050610050559043884
0.3791145086288452 0.7023619413375854 0.033451780676841736
0.39129650592803955 0.7209054231643677 0.022112710401415825
0.38472044467926025 0.7032456994056702 0.030042491853237152
0.4509947896003723 0.6279808282852173 -0.08939222246408463
0.4163099527359009 0.698235034942627 -0.00011090609041275457
0.4370166063308716 0.6981117725372314 -0.014229314401745796
0.46251824498176575 0.6997923851013184 -0.025030961260199547
0.45821911096572876 0.7968329787254333 0.004736909177154303
0.4560534656047821 0.7686502933502197 -0.017038311809301376
0.4572226405143738 0.757202684879303 -0.0208563394844532
0.45920392870903015 0.7480663061141968 -0.0165678970515728
0.4619036912918091 0.7417285442352295 -0.013993561267852783
0.41630828380584717 0.728769838809967 0.00839310884475708
0.4121984839439392 0.7314004898071289 0.005823156330734491
0.4068872332572937 0.7365013957023621 0.003920898772776127
0.40329113602638245 0.7432793974876404 0.009132138453423977
0.388930082321167 0.6732022166252136 -0.006906397640705109
0.24294206500053406 0.5791549682617188 0.2389732450246811
0.49704018235206604 0.6483609080314636 -0.07939507067203522
0.4017201066017151 0.7190627455711365 0.022241977974772453
0.39633679389953613 0.7192716002464294 0.021036289632320404
0.4643802046775818 0.6459262371063232 -0.05532725527882576
0.4258069097995758 0.6332338452339172 -0.033050406724214554
0.4607723653316498 0.6417837142944336 -0.05686356872320175
0.4044746160507202 0.5509440302848816 -0.017959579825401306
0.3646008372306824 0.5634933710098267 -0.010002519004046917
0.41638505458831787 0.6092153787612915 -0.04591740295290947
0.3124726116657257 0.30548521876335144 0.006947782356292009
0.32926222681999207 0.3445010185241699 -0.020632591098546982
0.3427048921585083 0.3904534578323364 -0.041788723319768906
0.3992103040218353 0.7583631277084351 0.026081064715981483
0.44186073541641235 0.40090569853782654 -0.07393199950456619
0.4396957755088806 0.3361715078353882 -0.06910012662410736
0.4313923120498657 0.27647149562835693 -0.063340924680233
0.34003525972366333 0.49780285358428955 0.009904257953166962
0.2883915901184082 0.5137355327606201 0.04604277014732361
0.43266475200653076 0.4925166964530945 -0.00314340996555984
0.3080810308456421 0.45764368772506714 0.016386892646551132
0.44682759046554565 0.5275366902351379 -0.03749828413128853
0.4374629557132721 0.6115250587463379 -0.09015008807182312
0.2615004777908325 0.526987612247467 0.07351623475551605
0.3046605587005615 0.5310172438621521 0.027929671108722687
0.3338633179664612 0.5409684777259827 0.008151518180966377
0.3762606680393219 0.5392088294029236 -0.002673920476809144
0.4071798026561737 0.5312284827232361 -0.008777305483818054
0.42975276708602905 0.5221020579338074 -0.016378456726670265
0.4783197343349457 0.5006622076034546 -0.0672188326716423
0.26099884510040283 0.5748588442802429 0.07376745343208313
0.2907087802886963 0.4529743194580078 0.025742679834365845
0.48489275574684143 0.6439929604530334 -0.1099625676870346
0.4298573434352875 0.5642113089561462 -0.03478279337286949
0.2382802963256836 0.47236520051956177 0.2059471160173416
0.4469779133796692 0.5120684504508972 -0.021642163395881653
0.4133719205856323 0.6081123352050781 -0.022035062313079834
0.32044708728790283 0.47291821241378784 0.025167202576994896
0.43704184889793396 0.5944572687149048 -0.08290693908929825
0.2504860758781433 0.6377399563789368 0.23708537220954895
0.4324556589126587 0.484724223613739 0.0013542743399739265
0.4571293294429779 0.5847358107566833 -0.10677428543567657
0.3093196749687195 0.7638136148452759 0.11411939561367035
0.3116910457611084 0.7914249300956726 0.15748196840286255
0.24403619766235352 0.5795748829841614 0.15546421706676483
0.28141868114471436 0.7296337485313416 0.13534587621688843
0.25612884759902954 0.43416425585746765 0.10032738000154495
0.40204328298568726 0.8542195558547974 0.053181543946266174
0.4870138168334961 0.647157609462738 -0.07788768410682678
0.40756911039352417 0.57820063829422 -0.024189485237002373
0.26638078689575195 0.48238611221313477 0.074798583984375
0.36024558544158936 0.49277639389038086 0.0009847201872617006
0.37959960103034973 0.49472862482070923 -0.004484240431338549
0.38723328709602356 0.723614513874054 0.02617015317082405
0.26195794343948364 0.6229199171066284 0.08826298266649246
0.4439593255519867 0.8890306353569031 0.06271298974752426
0.3755356967449188 0.8512759208679199 0.10535869002342224
0.34616702795028687 0.8264764547348022 0.12885697185993195
0.5044525861740112 0.3377209007740021 -0.07450882345438004
0.49185582995414734 0.8945517539978027 0.056374724954366684
0.3982325494289398 0.49246978759765625 -0.005734751466661692
0.415767103433609 0.48843497037887573 -0.0028956050518900156
0.42713016271591187 0.48649832606315613 0.0012391398195177317
0.27407681941986084 0.4453050494194031 0.04758588224649429
0.4109545648097992 0.4630332589149475 -0.008135485462844372
0.3909304141998291 0.4536266326904297 -0.01254094298928976
0.37080222368240356 0.45178115367889404 -0.011535555124282837
0.3516126573085785 0.4558699131011963 -0.005575324408710003
0.34024578332901 0.46261313557624817 0.0022986442781984806
0.24220764636993408 0.4183047413825989 0.1609235405921936
0.34687697887420654 0.48775026202201843 0.007868319749832153
0.49653467535972595 0.664188027381897 -0.05239183455705643
0.41443735361099243 0.6641058325767517 -0.025437338277697563
0.4386073052883148 0.6275354623794556 -0.06566131860017776
0.46124380826950073 0.6628586649894714 -0.04935331270098686
0.5013697743415833 0.4640423357486725 -0.06382230669260025
0.34119778871536255 0.7976117134094238 0.09812747687101364
0.3703879714012146 0.8260074853897095 0.07758939266204834
0.44283440709114075 0.8736164569854736 0.032283276319503784
0.2859805226325989 0.7520915865898132 0.1927335113286972
0.4255216717720032 0.4764678180217743 -0.002686386229470372
0.46219468116760254 0.5382143259048462 -0.06912977993488312
0.4918317198753357 0.8797544240951538 0.027410976588726044
0.40680891275405884 0.8735306262969971 0.07989942282438278
0.2493441253900528 0.6326925158500671 0.1594099998474121
0.437161386013031 0.7366605401039124 -0.004093241412192583
0.4326433837413788 0.7415258288383484 -0.00666732108220458
0.4290829300880432 0.7493278980255127 -0.008940278552472591
0.4267774224281311 0.7598687410354614 -0.004326078575104475
0.42445212602615356 0.7812420129776001 0.013633755035698414
0.3942722678184509 0.6986522078514099 0.014494075439870358
0.39008963108062744 0.697029709815979 0.01474072691053152
0.3866546154022217 0.6950392723083496 0.013884219340980053
0.369506299495697 0.6860648393630981 0.01495396625250578
0.28801998496055603 0.6371802687644958 0.043981343507766724
0.4630209803581238 0.5127193927764893 -0.05070415884256363
0.44818854331970215 0.46742546558380127 -0.016771219670772552
0.4343351423740387 0.4688751995563507 -0.007566493004560471
0.39856451749801636 0.6997358798980713 0.016709765419363976
0.2865051031112671 0.6945595741271973 0.08803768455982208
0.4687848687171936 0.4681927561759949 -0.04747217521071434
0.41402408480644226 0.8032870888710022 0.027015259489417076
0.49925658106803894 0.549626350402832 -0.1102217435836792
0.47887200117111206 0.5280387997627258 -0.0870773047208786
0.49986714124679565 0.5239793062210083 -0.09288159757852554
0.44401711225509644 0.5730345249176025 -0.06478732079267502
0.49226367473602295 0.8557931184768677 0.012639284133911133
0.4928171932697296 0.8259440064430237 0.008177719078958035
0.45181113481521606 0.8216451406478882 0.013376093469560146
0.3632873594760895 0.7448786497116089 0.04918611794710159
0.39308956265449524 0.6247478723526001 -0.012657465413212776
0.38623154163360596 0.7771483063697815 0.040239471942186356
0.33786341547966003 0.620496928691864 -0.003410821547731757
0.36939379572868347 0.6462439894676208 -0.0019310836214572191
0.3177536725997925 0.65543532371521 0.022488897666335106
0.445416122674942 0.8500008583068848 0.018384596332907677
0.429180383682251 0.5828680992126465 -0.04633096605539322
0.34661343693733215 0.7675353288650513 0.07065548002719879
0.37550193071365356 0.7997558116912842 0.05829066410660744
0.34337490797042847 0.7114156484603882 0.04511354863643646
0.26721659302711487 0.6641615629196167 0.10265745222568512
0.3158244490623474 0.7202175259590149 0.06530924141407013
0.2604438364505768 0.6828307509422302 0.15771526098251343
0.3491080403327942 0.670468807220459 0.015573102980852127
0.44656920433044434 0.5510755181312561 -0.050564128905534744
0.44413745403289795 0.6236692070960999 -0.09452934563159943
0.42882123589515686 0.6241506934165955 -0.06806604564189911
0.4555676281452179 0.6105017066001892 -0.11209557950496674
0.43018409609794617 0.4451223611831665 -0.025623032823204994
0.39308300614356995 0.4285855293273926 -0.030880358070135117
0.3605315685272217 0.425503134727478 -0.029110871255397797
0.3342464566230774 0.43056148290634155 -0.019014209508895874
0.31649553775787354 0.4411107003688812 -0.00420426856726408
0.306066632270813 0.4773523807525635 0.034784600138664246
0.24236589670181274 0.5294146537780762 0.14418712258338928
0.32485735416412354 0.5106188058853149 0.021133411675691605
0.34805095195770264 0.5188624262809753 0.008299373090267181
0.37761014699935913 0.5201935172080994 -0.0008426037966273725
0.40514814853668213 0.5156030058860779 -0.005773576442152262
0.4260597825050354 0.5087416172027588 -0.007681528106331825
0.440632700920105 0.5025142431259155 -0.010016202926635742
0.23995834589004517 0.5247673988342285 0.2299235761165619
0.428428590297699 0.6277181506156921 -0.05594062805175781
0.4613199234008789 0.5609005689620972 -0.08475268632173538
0.4610244929790497 0.6285231709480286 -0.11195908486843109
0.4721699059009552 0.6388535499572754 -0.10095648467540741
0.46024319529533386 0.6310039758682251 -0.10036354511976242
0.4334384500980377 0.6330142617225647 -0.04691672697663307
0.4771019220352173 0.6419309973716736 -0.10678774118423462
0.4789685010910034 0.6449571251869202 -0.07844875007867813
0.4400343894958496 0.48575061559677124 -0.0019247112795710564
0.4518581032752991 0.4911647439002991 -0.015079543925821781
0.4597302973270416 0.4959668219089508 -0.030752331018447876
0.3341648280620575 0.4679298996925354 0.010317819193005562
0.31955263018608093 0.4588204026222229 0.01084129512310028
0.5187368392944336 0.5525413751602173 -0.10211723297834396
0.6655210852622986 0.4829522669315338 0.01419328898191452
0.5212083458900452 0.6413506269454956 -0.07920005172491074
0.7529593706130981 0.37983599305152893 0.10485871881246567
0.5976839065551758 0.5016499757766724 -0.007329120300710201
0.6199814081192017 0.503944456577301 -0.005444705951958895
0.6419516801834106 0.5033061504364014 0.0006396985845640302
0.67327880859375 0.48942700028419495 0.01876796968281269
0.5791594982147217 0.4970991909503937 -0.005302711855620146
0.6372919082641602 0.43618232011795044 -0.020440004765987396
0.6097500324249268 0.43862736225128174 -0.020529627799987793
0.6618566513061523 0.4409739375114441 -0.01247385423630476
0.6769951581954956 0.4506150186061859 -0.0026551971677690744
0.6887340545654297 0.5020096302032471 0.03195459395647049
0.5803873538970947 0.8296521306037903 0.03831501677632332
0.6747313737869263 0.47542232275009155 0.021153384819626808
0.7569050788879395 0.48470333218574524 0.13157843053340912
0.7159414887428284 0.48411911725997925 0.052586864680051804
0.6183869242668152 0.5970134735107422 -0.017131082713603973
0.5275477766990662 0.682541012763977 -0.048116378486156464
0.5259738564491272 0.696628749370575 -0.03519441932439804
0.5611811876296997 0.6860233545303345 -0.03259184956550598
0.5841175317764282 0.6907574534416199 -0.010295768268406391
0.5538020730018616 0.6961318850517273 -0.023873966187238693
0.5753797292709351 0.6973687410354614 -0.0039978474378585815
0.6100929975509644 0.7333815097808838 0.03652731329202652
0.5170705914497375 0.6336154937744141 -0.12230152636766434
0.5199791789054871 0.6099176406860352 -0.13173018395900726
0.7074061632156372 0.4330288767814636 -0.0009675720357336104
0.5691613554954529 0.5413536429405212 -0.027445834130048752
0.5731793642044067 0.6160584092140198 -0.06627467274665833
0.574615478515625 0.602292001247406 -0.06047544628381729
0.6881846189498901 0.5898224711418152 0.01226077601313591
0.5194604992866516 0.5790672302246094 -0.12136010825634003
0.6550846099853516 0.41055062413215637 -0.042696863412857056
0.6866954565048218 0.4181671142578125 -0.024376533925533295
0.7338811159133911 0.3402271866798401 0.05496954172849655
0.5522360801696777 0.4281007945537567 -0.061044421046972275
0.5862337350845337 0.44925135374069214 -0.013196252286434174
0.6300071477890015 0.7052316665649414 0.037029512226581573
0.7258245348930359 0.7028918266296387 0.22223445773124695
0.5561769604682922 0.6302005648612976 -0.056152451783418655
0.5372825860977173 0.6378170251846313 -0.056658316403627396
0.6115578413009644 0.7028447985649109 0.036808062344789505
0.6051990389823914 0.7035698890686035 0.030925782397389412
0.6999970078468323 0.40342977643013 -0.015578599646687508
0.5747495889663696 0.6228298544883728 -0.05215059593319893
0.6115165948867798 0.411502867937088 -0.055615365505218506
0.6162880659103394 0.393695592880249 -0.06326223164796829
0.6431482434272766 0.2878173887729645 -0.03930014371871948
0.7166424989700317 0.3683403730392456 0.015710262581706047
0.6264661550521851 0.3382890224456787 -0.05165579915046692
0.7214986085891724 0.4212469756603241 0.01664578728377819
0.7377315759658813 0.39969128370285034 0.059202320873737335
0.5271537899971008 0.6903569102287292 -0.043689996004104614
0.5573710799217224 0.6916672587394714 -0.028509169816970825
0.5798186659812927 0.6942808032035828 -0.00865175575017929
0.5510778427124023 0.6333801746368408 -0.05061792954802513
0.6083980798721313 0.7031519412994385 0.033655695617198944
0.5944655537605286 0.7211004495620728 0.022221995517611504
0.6022047400474548 0.7040219306945801 0.030307330191135406
0.5440343618392944 0.6287218928337097 -0.08939582854509354
0.5717102289199829 0.6991269588470459 -0.000240815119468607
0.5505359172821045 0.698679506778717 -0.014480765908956528
0.5244373083114624 0.7001122832298279 -0.025205817073583603
0.5287220478057861 0.7972747683525085 0.00459167268127203
0.5251394510269165 0.7686494588851929 -0.017241155728697777
0.5244675874710083 0.7571222186088562 -0.021087175235152245
0.5233438014984131 0.7479169368743896 -0.016827920451760292
0.5213342308998108 0.7415744066238403 -0.01425061747431755
0.5687128305435181 0.7290334105491638 0.008274328894913197
0.572754979133606 0.7314274311065674 0.005731887184083462
0.5775054693222046 0.7363529801368713 0.003961560782045126
0.5808057188987732 0.7430529594421387 0.009213901124894619
0.603420615196228 0.674209713935852 -0.006878115236759186
0.7522071599960327 0.5835244655609131 0.23745492100715637
0.5843042135238647 0.7196254134178162 0.02230808325111866
0.5894978046417236 0.7196180820465088 0.02105707675218582
0.5295527577400208 0.6464717388153076 -0.055352527648210526
0.5681836605072021 0.6339981555938721 -0.03306064382195473
0.5332815647125244 0.6423681974411011 -0.05692450329661369
0.5936686992645264 0.5524064898490906 -0.017799174413084984
0.632909893989563 0.5657671093940735 -0.009696876630187035
0.5791426301002502 0.6102149486541748 -0.045980654656887054
0.6994606852531433 0.3087936341762543 0.00464211031794548
0.6813109517097473 0.3468935489654541 -0.020374447107315063
0.6642107367515564 0.39298880100250244 -0.0416562557220459
0.5893213748931885 0.7589939832687378 0.026211010292172432
0.560646653175354 0.39829808473587036 -0.07373565435409546
0.5695056915283203 0.33716610074043274 -0.06894325464963913
0.5807199478149414 0.27770739793777466 -0.06411217898130417
0.6615118980407715 0.49871283769607544 0.010110974311828613
0.7115066051483154 0.5163862705230713 0.046719130128622055
0.5672447085380554 0.4927302300930023 -0.0029765162616968155
0.6968030333518982 0.46015143394470215 0.01683541014790535
0.5529459714889526 0.5281937122344971 -0.037560708820819855
0.5582917332649231 0.612478494644165 -0.09021582454442978
0.7384310960769653 0.5312772989273071 0.07447590678930283
0.6940789222717285 0.5332249402999878 0.02855403907597065
0.6637439131736755 0.5427293181419373 0.00855761393904686
0.6206968426704407 0.5402112007141113 -0.002407740568742156
0.5901185274124146 0.5317581295967102 -0.008660748600959778
0.5678949356079102 0.522716224193573 -0.016360720619559288
0.5226261019706726 0.5008735656738281 -0.06721027940511703
0.7359579801559448 0.5791056752204895 0.07470975816249847
0.7138450741767883 0.4557719826698303 0.02608327940106392
0.50966477394104 0.6441391110420227 -0.1099056601524353
0.5678393840789795 0.5651408433914185 -0.03476336970925331
0.7626907229423523 0.47699108719825745 0.20402100682258606
0.5510925650596619 0.5123730301856995 -0.02169717475771904
0.5819679498672485 0.609136700630188 -0.021993616595864296
0.6837875843048096 0.475661963224411 0.025731632485985756
0.5594222545623779 0.5952746868133545 -0.08301426470279694
0.7422693371772766 0.6414018869400024 0.2355709969997406
0.5681040287017822 0.4849940240383148 0.0016386520583182573
0.5397667288780212 0.5852704644203186 -0.10681038349866867
0.6795967221260071 0.7653592228889465 0.11484644562005997
0.6753714680671692 0.7919889688491821 0.1561395525932312
0.7522066235542297 0.5838955640792847 0.15667885541915894
0.708554744720459 0.7318692803382874 0.1361737996339798
0.7481571435928345 0.4384596347808838 0.10116280615329742
0.5824267864227295 0.8546823859214783 0.05354059115052223
0.507082998752594 0.6473014950752258 -0.07788970321416855
0.5892603993415833 0.5795242786407471 -0.024193694815039635
0.7351218461990356 0.4862557053565979 0.07556866109371185
0.6416534185409546 0.4917680621147156 0.0013299185084179044
0.6217396259307861 0.4925013482570648 -0.0042001293040812016
0.598615288734436 0.7237685322761536 0.026292864233255386
0.7326066493988037 0.6267406344413757 0.08922294527292252
0.539469838142395 0.8890033960342407 0.062227219343185425
0.6091535687446594 0.8508067727088928 0.10402511805295944
0.6398616433143616 0.8262312412261963 0.12747722864151
0.6027767658233643 0.49022167921066284 -0.00545577984303236
0.5850158929824829 0.4872770309448242 -0.002594951307401061
0.5734076499938965 0.4864486753940582 0.0015249868156388402
0.7301392555236816 0.44861119985580444 0.04811077564954758
0.5908873081207275 0.46601349115371704 -0.008101943880319595
0.6114718914031982 0.457457959651947 -0.01248290203511715
0.6321256160736084 0.4558720588684082 -0.011488032527267933
0.6518423557281494 0.4596763551235199 -0.005474877543747425
0.6634623408317566 0.46609270572662354 0.002488758647814393
0.7615174651145935 0.42290443181991577 0.15875999629497528
0.6555895805358887 0.48797622323036194 0.00822073221206665
0.5787227153778076 0.6649550199508667 -0.025363214313983917
0.555916965007782 0.6283546090126038 -0.06573707610368729
0.5321208834648132 0.6633931398391724 -0.04945748671889305
0.6462302207946777 0.7987222671508789 0.09865812957286835
0.6154121160507202 0.8265944123268127 0.07795457541942596
0.5409908890724182 0.8740130662918091 0.03235869109630585
0.7025573253631592 0.7535762190818787 0.19107846915721893
0.5753602385520935 0.47787559032440186 -0.0025165104307234287
0.5369870066642761 0.5386797785758972 -0.0691826343536377
0.5769354104995728 0.8731051683425903 0.07875474542379379
0.7440907955169678 0.6365616917610168 0.1605900228023529
0.5470943450927734 0.7365802526473999 -0.00426033278927207
0.5510188937187195 0.7412163019180298 -0.006825249642133713
0.5540177822113037 0.7489219903945923 -0.009107440710067749
0.5557715892791748 0.7594842910766602 -0.004394671879708767
0.5630667209625244 0.781650960445404 0.013655956834554672
0.5932154655456543 0.6996386647224426 0.014366930350661278
0.5974536538124084 0.6980152726173401 0.014693861827254295
0.6013205647468567 0.6960731744766235 0.013925940729677677
0.6221175193786621 0.6870061159133911 0.0151146175339818
0.7059256434440613 0.6404135823249817 0.044604863971471786
0.5373460650444031 0.5132492780685425 -0.05086709186434746
0.5520288944244385 0.46686023473739624 -0.016921769827604294
0.5662976503372192 0.4693903625011444 -0.007445539813488722
0.588933527469635 0.7006940841674805 0.016722269356250763
0.7052850723266602 0.6971704959869385 0.08883219212293625
0.5304033756256104 0.46700313687324524 -0.047456368803977966
0.5725891590118408 0.8038413524627686 0.027035055682063103
0.5206952691078186 0.5282174348831177 -0.0871240571141243
0.5533669590950012 0.57392817735672 -0.06493988633155823
0.5341342687606812 0.8220263123512268 0.013340036384761333
0.6259453296661377 0.7460943460464478 0.049394212663173676
0.6015169620513916 0.6260662078857422 -0.012713148258626461
0.601513147354126 0.7779428958892822 0.04033389315009117
0.6569589376449585 0.6230018734931946 -0.0031587921548634768
0.6244462132453918 0.6480643153190613 -0.0018709321739152074
0.6755801439285278 0.6580924391746521 0.022878143936395645
0.5394468307495117 0.8505309820175171 0.018335027620196342
0.567626953125 0.58375084400177 -0.04646560922265053
0.6420166492462158 0.7689118385314941 0.07108509540557861
0.6114258170127869 0.8006201386451721 0.058574218302965164
0.6473864316940308 0.7130210995674133 0.045511242002248764
0.7257662415504456 0.6674233078956604 0.10364999622106552
0.6748114228248596 0.7222183346748352 0.06594225019216537
0.7311311364173889 0.6859434843063354 0.1586311310529709
0.6435888409614563 0.6723649501800537 0.015647107735276222
0.5518571138381958 0.5518380999565125 -0.05063754320144653
0.5510264039039612 0.6244834661483765 -0.09456170350313187
0.5660072565078735 0.6250591278076172 -0.06814279407262802
0.5402302742004395 0.6111060976982117 -0.11224383115768433
0.5713624358177185 0.44493263959884644 -0.025702571496367455
0.6099574565887451 0.4302208423614502 -0.03076241724193096
0.644086480140686 0.42809605598449707 -0.0287784393876791
0.671281099319458 0.43336158990859985 -0.018554018810391426
0.6893148422241211 0.44388025999069214 -0.003748266026377678
0.6969879865646362 0.48016291856765747 0.03540875017642975
0.7567740678787231 0.534023106098175 0.14546997845172882
0.6753823757171631 0.5124666094779968 0.021509960293769836
0.6508524417877197 0.5197800993919373 0.008587935008108616
0.6208105087280273 0.5200415253639221 -0.0005867115105502307
0.5933334827423096 0.5150569081306458 -0.005655449349433184
0.5726152658462524 0.5087931752204895 -0.007646332960575819
0.5581824779510498 0.5026596784591675 -0.010013596154749393
0.7581528425216675 0.5293857455253601 0.2281065136194229
0.5658239126205444 0.6284603476524353 -0.05599769949913025
0.536686360836029 0.5614198446273804 -0.084810771048069
0.5340613722801208 0.6290481090545654 -0.11191482096910477
0.5224744081497192 0.6393206119537354 -0.10091039538383484
0.5347100496292114 0.6316888332366943 -0.10032843053340912
0.5605537295341492 0.6336138844490051 -0.04694946110248566
0.5174936652183533 0.6422075629234314 -0.10674230754375458
0.5151533484458923 0.645134449005127 -0.07844969630241394
0.5600115656852722 0.4859403669834137 -0.0017016298370435834
0.5473147630691528 0.49094364047050476 -0.015055542811751366
0.5386794209480286 0.4957641363143921 -0.030817173421382904
0.6697855591773987 0.47107866406440735 0.01061638817191124
0.6853662729263306 0.46155983209609985 0.011225990019738674
0.3791780173778534 0.4741836190223694 0.0003185216337442398
0.4016232490539551 0.4739839434623718 0.0003185216337442398
0.3784446716308594 0.4528059959411621 0.0003185216337442398
0.35601043701171875 0.47429269552230835 0.0003185216337442398
0.379779189825058 0.4954794943332672 0.0003185216337442398
0.6256365776062012 0.47516658902168274 0.0005531865172088146
0.6488351821899414 0.47535890340805054 0.0005531865172088146
0.6255042552947998 0.4551321864128113 0.0005531865172088146
0.6025125980377197 0.4748123586177826 0.0005531865172088146
0.6257858872413635 0.49512338638305664 0.0005531865172088146
