ply
format ascii 1.0
element vertex 478
property float x
property float y
property float z
end_header
0.508945882320404 0.7141504287719727 -0.05264464393258095
0.5241973400115967 0.649641752243042 -0.14243997633457184
0.518336832523346 0.6673731803894043 -0.07233770191669464
0.49681946635246277 0.5623613595962524 -0.12205151468515396
0.5241344571113586 0.6235861778259277 -0.15407951176166534
0.5216518044471741 0.5883612036705017 -0.1485859751701355
0.5132818818092346 0.5027403831481934 -0.09343315660953522
0.3340141773223877 0.4848746061325073 -0.009666912257671356
0.5093241930007935 0.44665399193763733 -0.08427266031503677
0.5085289478302002 0.41511547565460205 -0.09380935877561569
0.5031344890594482 0.2883637547492981 -0.08989926427602768
0.5086723566055298 0.7207542657852173 -0.04759760946035385
0.5080331563949585 0.7266331911087036 -0.04022679105401039
0.5073673129081726 0.7300383448600769 -0.03046387992799282
0.5061536431312561 0.7722721099853516 -0.006018857005983591
0.506294846534729 0.7825319766998291 -0.010392795316874981
0.5060015916824341 0.7951464653015137 -0.014834773726761341
0.5054590702056885 0.8093663454055786 -0.00931738130748272
0.5142776966094971 0.8474067449569702 0.012938993982970715
0.5226390957832336 0.6619236469268799 -0.1279209405183792
0.49231797456741333 0.6585184931755066 -0.09441488981246948
0.21195152401924133 0.39751335978507996 0.07648542523384094
0.4037982225418091 0.4992450475692749 -0.024552730843424797
0.38107216358184814 0.501399576663971 -0.025237439200282097
0.3568911850452423 0.5023122429847717 -0.021370237693190575
0.3206806480884552 0.49250051379203796 -0.0055227745324373245
0.42217570543289185 0.49570611119270325 -0.02082093246281147
0.36399292945861816 0.4518375098705292 -0.044427983462810516
0.38979795575141907 0.45317739248275757 -0.04056632146239281
0.3395042419433594 0.45520108938217163 -0.03830140829086304
0.3225962519645691 0.4623063802719116 -0.02867148444056511
0.2982289791107178 0.5062876343727112 0.007328586652874947
0.40900322794914246 0.8772403001785278 0.04770901799201965
0.3224335312843323 0.481512188911438 -0.003341443371027708
0.20218589901924133 0.5039052963256836 0.10770606994628906
0.2642565965652466 0.4929278492927551 0.026488881558179855
0.3722367584705353 0.6085473299026489 -0.034094687551259995
0.465310662984848 0.7058230042457581 -0.05397764593362808
0.46741995215415955 0.7216566801071167 -0.03842640295624733
0.42575550079345703 0.7046298384666443 -0.03771097585558891
0.39888620376586914 0.7053972482681274 -0.009442809969186783
0.43375301361083984 0.716593861579895 -0.02553023211658001
0.40848687291145325 0.7139069437980652 -0.0004179146490059793
0.36272943019866943 0.75391685962677 0.04937566816806793
0.5013970732688904 0.6488568782806396 -0.14193977415561676
0.4986254870891571 0.6233030557632446 -0.1531187891960144
0.28658127784729004 0.44789618253707886 -0.03419472277164459
0.43249696493148804 0.5508009791374207 -0.04271732270717621
0.4264141619205475 0.6286025047302246 -0.08588702231645584
0.424066960811615 0.6134098768234253 -0.07945599406957626
0.29007095098495483 0.5990158319473267 -0.010114319622516632
0.4978024959564209 0.5905903577804565 -0.14316244423389435
0.3513812720775604 0.4271611273288727 -0.07357857376337051
0.31464552879333496 0.4342820346355438 -0.058045893907547
0.24279417097568512 0.35601091384887695 0.02415499836206436
0.4603922963142395 0.4436551332473755 -0.08257324993610382
0.4122706949710846 0.4596632421016693 -0.02979809045791626
0.3385511040687561 0.717299222946167 0.04418546333909035
0.22311091423034668 0.7407552003860474 0.2176736444234848
0.44484081864356995 0.6446360349655151 -0.07208385318517685
0.4681378901004791 0.6535067558288574 -0.07039238512516022
0.3629419207572937 0.7109059691429138 0.048590876162052155
0.3702722191810608 0.7133852243423462 0.04430925101041794
0.2991698980331421 0.4205535650253296 -0.04999144375324249
0.42082253098487854 0.6350388526916504 -0.0698763057589531
0.39937955141067505 0.4284864664077759 -0.08222059160470963
0.394551157951355 0.4108876585960388 -0.0915951058268547
0.35512885451316833 0.3005135655403137 -0.06821359694004059
0.26885169744491577 0.38523197174072266 -0.017028776928782463
0.3763052225112915 0.3507586121559143 -0.08022249490022659
0.2673381567001343 0.43672609329223633 -0.017115872353315353
0.23770888149738312 0.4182085394859314 0.02856951765716076
0.46580979228019714 0.7146191596984863 -0.04802294448018074
0.4296952486038208 0.7109949588775635 -0.03119579330086708
0.4036528170108795 0.709698498249054 -0.006207046564668417
0.449753075838089 0.6481770873069763 -0.06541213393211365
0.3666927218437195 0.7121386528015137 0.04642130061984062
0.38314759731292725 0.735526978969574 0.03753024339675903
0.37367182970046997 0.7147037982940674 0.043847791850566864
0.4658167064189911 0.6442397832870483 -0.10917024314403534
0.41275113821029663 0.7170032262802124 0.0028960839845240116
0.4379003643989563 0.7204465270042419 -0.01597384735941887
0.4696024954319 0.7258991599082947 -0.028761105611920357
0.46812453866004944 0.8428881168365479 0.01336285937577486
0.4634913504123688 0.8049760460853577 -0.0089704729616642
0.4651956558227539 0.790651798248291 -0.01343019399791956
0.4677037000656128 0.7782063484191895 -0.008607994765043259
0.4705106019973755 0.7687022089958191 -0.0045314086601138115
0.4145417809486389 0.7468863129615784 0.021111873909831047
0.40947389602661133 0.7505747079849243 0.017986847087740898
0.40302520990371704 0.7571344971656799 0.016741104423999786
0.3982447385787964 0.7652405500411987 0.022797103971242905
0.3773391544818878 0.6882057785987854 -0.009236386977136135
0.19324740767478943 0.6125984191894531 0.22627469897270203
0.5206518769264221 0.6658346056938171 -0.09272737056016922
0.3959735035896301 0.7338347434997559 0.03708752989768982
0.3894541561603546 0.7338708639144897 0.03593594208359718
0.47734537720680237 0.6628908514976501 -0.06800609081983566
0.4262801706790924 0.6468506455421448 -0.04625127464532852
0.4730353355407715 0.6584280133247375 -0.07045778632164001
0.4038524627685547 0.5613834261894226 -0.03460918366909027
0.3584773540496826 0.5740250945091248 -0.0301852785050869
0.41596853733062744 0.6214429140090942 -0.06333254277706146
0.28873252868652344 0.32259050011634827 -0.026069337502121925
0.3134322166442871 0.3617910146713257 -0.05209870636463165
0.3415180742740631 0.41019207239151 -0.0733780562877655
0.38952693343162537 0.7898924350738525 0.03935740515589714
0.45265501737594604 0.4155632257461548 -0.09696457535028458
0.43783941864967346 0.34783196449279785 -0.09265784174203873
0.42390644550323486 0.29022330045700073 -0.08908791840076447
0.33474117517471313 0.4992067515850067 -0.013495842926204205
0.26940616965293884 0.5211951732635498 0.021831396967172623
0.4334638714790344 0.49176910519599915 -0.017875511199235916
0.2947186231613159 0.4706173241138458 -0.010610315017402172
0.45223894715309143 0.5377146601676941 -0.053145330399274826
0.44896531105041504 0.6256899833679199 -0.11119990050792694
0.22979244589805603 0.5455014705657959 0.04961864650249481
0.2919796109199524 0.535885751247406 0.0043692453764379025
0.32803875207901 0.5444941520690918 -0.013204921036958694
0.3770941495895386 0.5416181087493896 -0.02130732499063015
0.4115040600299835 0.5330906510353088 -0.02452971413731575
0.4358552396297455 0.5241835117340088 -0.03094489499926567
0.48873189091682434 0.5087137222290039 -0.08483107388019562
0.22895503044128418 0.5928276777267456 0.05210006237030029
0.2723039388656616 0.4679355025291443 -0.003214279655367136
0.5084870457649231 0.6610632538795471 -0.12775173783302307
0.432372510433197 0.5752955079078674 -0.050205644220113754
0.1863841712474823 0.49895474314689636 0.18483911454677582
0.45473337173461914 0.5141755938529968 -0.03586127981543541
0.4103972315788269 0.6197962164878845 -0.03549250587821007
0.30927279591560364 0.4819120168685913 0.000593124539591372
0.4463074207305908 0.6069103479385376 -0.10340898483991623
0.20279690623283386 0.6748837828636169 0.22736258804798126
0.42905518412590027 0.4849822521209717 -0.013461812399327755
0.4727611541748047 0.5971854329109192 -0.12864716351032257
0.2883152961730957 0.8009165525436401 0.11735812574625015
0.290901780128479 0.8355715870857239 0.15910619497299194
0.20092490315437317 0.6072643995285034 0.13876482844352722
0.25088953971862793 0.7658220529556274 0.13203179836273193
0.2184678316116333 0.4568939507007599 0.07409331202507019
0.40740469098091125 0.9078521728515625 0.06252609938383102
0.5092008709907532 0.6648319363594055 -0.0918346717953682
0.40583112835884094 0.5897382497787476 -0.03988604620099068
0.2383359968662262 0.4957652688026428 0.04929150640964508
0.3607516586780548 0.48816218972206116 -0.02061629109084606
0.3808998763561249 0.4879600405693054 -0.02454286813735962
0.3778606355190277 0.7381457090377808 0.04129815846681595
0.2272791564464569 0.6451037526130676 0.07134168595075607
0.45860278606414795 0.9495068788528442 0.07348505407571793
0.37329745292663574 0.9039373397827148 0.11258549243211746
0.33575740456581116 0.8743866682052612 0.13458089530467987
0.5060459971427917 0.34839460253715515 -0.09259729087352753
0.5147284865379333 0.9547735452651978 0.0725584626197815
0.3986622095108032 0.48638540506362915 -0.02402433007955551
0.4149271249771118 0.48493698239326477 -0.019587259739637375
0.4249056279659271 0.48495423793792725 -0.014372802339494228
0.2490481287240982 0.46178799867630005 0.01839691959321499
0.40748751163482666 0.475472092628479 -0.02545146271586418
0.38720405101776123 0.4719730019569397 -0.03281405568122864
0.3687179684638977 0.47153136134147644 -0.0339905247092247
0.34997642040252686 0.4736628532409668 -0.02949066460132599
0.33720338344573975 0.4768810272216797 -0.02182023413479328
0.19401341676712036 0.442141592502594 0.13441705703735352
0.34598517417907715 0.4868288040161133 -0.015111375600099564
0.5172193050384521 0.6826329231262207 -0.05982957407832146
0.41136622428894043 0.6800044775009155 -0.033713068813085556
0.44723212718963623 0.6430138349533081 -0.08299151808023453
0.4722616374492645 0.6811302304267883 -0.059246473014354706
0.5103419423103333 0.47342127561569214 -0.07939451187849045
0.3293774724006653 0.8393718600273132 0.10680919885635376
0.3671463131904602 0.873145580291748 0.08718404173851013
0.4580506682395935 0.9306108355522156 0.043086808174848557
0.254794180393219 0.7947192192077637 0.18891975283622742
0.42217472195625305 0.4810207784175873 -0.0186245609074831
0.47304806113243103 0.5483955144882202 -0.08643106371164322
0.516089141368866 0.9366701245307922 0.04300037771463394
0.41287627816200256 0.930962860584259 0.08806447684764862
0.20677220821380615 0.6642289757728577 0.14636079967021942
0.44010603427886963 0.7593079209327698 0.006038786843419075
0.4351429045200348 0.766350507736206 0.0027315220795571804
0.43063005805015564 0.7768562436103821 0.0009882068261504173
0.4274863302707672 0.7901920080184937 0.0068342857994139194
0.4233051538467407 0.8214821815490723 0.024637028574943542
0.38683539628982544 0.7130073308944702 0.022940564900636673
0.38217487931251526 0.7101812958717346 0.022901788353919983
0.378159761428833 0.7072707414627075 0.02107064425945282
0.3504355847835541 0.6987944841384888 0.018184460699558258
0.26127195358276367 0.6563312411308289 0.02745739556849003
0.4711862802505493 0.522027850151062 -0.06724275648593903
0.45271679759025574 0.4722543954849243 -0.03054158203303814
0.4336191415786743 0.4737292528152466 -0.022724417969584465
0.3915986716747284 0.7155106663703918 0.025190113112330437
0.2566688060760498 0.7218872904777527 0.08087173849344254
0.48021575808525085 0.47441810369491577 -0.063730388879776
0.41571760177612305 0.8460972905158997 0.03728732094168663
0.5186933279037476 0.5589885711669922 -0.12876532971858978
0.4928286373615265 0.5368868112564087 -0.10552093386650085
0.5160707831382751 0.532008945941925 -0.10987099260091782
0.45261481404304504 0.5846824049949646 -0.08249267935752869
0.5162085294723511 0.9085654020309448 0.026620984077453613
0.5151400566101074 0.8749842643737793 0.02007215842604637
0.46408611536026 0.8699008226394653 0.02321670949459076
0.34957849979400635 0.7707854509353638 0.05968832969665527
0.38719555735588074 0.6388005018234253 -0.02501184120774269
0.3795894682407379 0.8118023872375488 0.05215269699692726
0.3245619833469391 0.6360132694244385 -0.020062975585460663
0.35862255096435547 0.6621221899986267 -0.01031496375799179
0.2979200482368469 0.6736559867858887 0.011497422121465206
0.4594619870185852 0.9026539325714111 0.028335724025964737
0.4321947395801544 0.5942180156707764 -0.06281482428312302
0.3338845372200012 0.8012365102767944 0.07917457818984985
0.3710375726222992 0.8404266238212585 0.06863559037446976
0.32453179359436035 0.7301107048988342 0.04855770617723465
0.2320103943347931 0.6909304261207581 0.09096402674913406
0.29405975341796875 0.7463526725769043 0.06556069850921631
0.2220425307750702 0.7178581357002258 0.14872774481773376
0.3310227394104004 0.6846771836280823 0.011233524419367313
0.45355114340782166 0.5620827078819275 -0.06680483371019363
0.4578336775302887 0.6393726468086243 -0.11539429426193237
0.43506190180778503 0.6388856768608093 -0.08672583848237991
0.4732975363731384 0.624751091003418 -0.13433919847011566
0.4333939850330353 0.4557930827140808 -0.042124707251787186
0.3944401741027832 0.4444451332092285 -0.05245283246040344
0.36028602719306946 0.4422837495803833 -0.054840780794620514
0.3300181031227112 0.4465707540512085 -0.046942491084337234
0.30776792764663696 0.4559299945831299 -0.03246968984603882
0.2899913191795349 0.4873256981372833 0.00960821844637394
0.19904786348342896 0.5549196600914001 0.12430090457201004
0.31514090299606323 0.5149099230766296 -0.001821301062591374
0.3432231545448303 0.5209953784942627 -0.012889651581645012
0.3775937557220459 0.5201115012168884 -0.01942269876599312
0.4076159596443176 0.5150437355041504 -0.021151559427380562
0.42982620000839233 0.5091874003410339 -0.02187994308769703
0.4452453851699829 0.503674328327179 -0.02329312264919281
0.18879294395446777 0.5547956824302673 0.21331709623336792
0.4322936534881592 0.6419157981872559 -0.07304494082927704
0.4749707877635956 0.572121798992157 -0.10402872413396835
0.48041144013404846 0.6445853114128113 -0.13238750398159027
0.49275702238082886 0.6564750671386719 -0.11854900419712067
0.47822797298431396 0.6478167772293091 -0.11964114010334015
0.43685322999954224 0.6474611163139343 -0.06177826598286629
0.49926117062568665 0.6593676209449768 -0.124541737139225
0.4995006024837494 0.6627176403999329 -0.0930483341217041
0.4400935471057892 0.48629993200302124 -0.015937265008687973
0.4570768475532532 0.4929896593093872 -0.02845768630504608
0.4687008559703827 0.4986496865749359 -0.04559166729450226
0.32904988527297974 0.479598730802536 -0.014109345152974129
0.3103463649749756 0.47096002101898193 -0.014534901827573776
0.5394670367240906 0.5617251396179199 -0.11712708324193954
0.6691260933876038 0.4795535206794739 0.0265335813164711
0.5468049049377441 0.6573724746704102 -0.09058471024036407
0.7526572942733765 0.3956480026245117 0.13157735764980316
0.6058367490768433 0.49632370471954346 -0.0010079871863126755
0.627091646194458 0.49876415729522705 0.002933191368356347
0.6487032175064087 0.49929240345954895 0.011045102961361408
0.6783818006515503 0.4863291084766388 0.03292851522564888
0.5884504318237305 0.491896390914917 -0.002284057205542922
0.6407232880592346 0.4438897669315338 -0.014978364109992981
0.6157495975494385 0.44569364190101624 -0.017380645498633385
0.6636068820953369 0.4471282362937927 -0.004379048012197018
0.678318202495575 0.4542921185493469 0.007894105277955532
0.6973670721054077 0.5000379085540771 0.04889948293566704
0.6106856465339661 0.8719457387924194 0.06546887755393982
0.6784808039665222 0.4735967516899109 0.034624453634023666
0.7660145163536072 0.4988834261894226 0.16435454785823822
0.7234550714492798 0.4834251403808594 0.0728478953242302
0.6445291042327881 0.6062694787979126 -0.009835384786128998
0.5521335601806641 0.7064855098724365 -0.04720413312315941
0.5480906963348389 0.7219092845916748 -0.031955286860466
0.5883756279945374 0.7057392597198486 -0.023829324170947075
0.6110679507255554 0.7060438990592957 0.009684978984296322
0.5790811777114868 0.7170686721801758 -0.013085341081023216
0.6009249687194824 0.7141359448432922 0.016135653480887413
0.6453906893730164 0.7502782344818115 0.07378284633159637
0.5456635355949402 0.6480811238288879 -0.1387864649295807
0.5481824278831482 0.6225101947784424 -0.1493786871433258
0.707942545413971 0.4372320771217346 0.009409994818270206
0.5844846367835999 0.5492644906044006 -0.027119651436805725
0.6044038534164429 0.6270002126693726 -0.07135079801082611
0.604013204574585 0.6120250821113586 -0.06453891098499298
0.71613609790802 0.5950027108192444 0.02999139577150345
0.5440957546234131 0.5898444652557373 -0.1383078545331955
0.655005156993866 0.42033666372299194 -0.043024931102991104
0.6859599351882935 0.42520955204963684 -0.019949229434132576
0.7307681441307068 0.35485541820526123 0.07337973266839981
0.5570446252822876 0.4411166310310364 -0.07239389419555664
0.594295084476471 0.4533466398715973 -0.010984734632074833
0.6670374870300293 0.7134383916854858 0.07348203659057617
0.7355955839157104 0.7298133969306946 0.27034831047058105
0.586189866065979 0.6431965827941895 -0.06133321300148964
0.565248429775238 0.6528105735778809 -0.06492525339126587
0.6389907002449036 0.7097361087799072 0.0743887647986412
0.631406307220459 0.7122414708137512 0.06745599955320358
0.6973584890365601 0.41029438376426697 -0.009437967091798782
0.6064945459365845 0.6337560415267944 -0.05550585314631462
0.6130379438400269 0.4239487648010254 -0.061204150319099426
0.6163419485092163 0.40660908818244934 -0.0700194388628006
0.6403988003730774 0.3005165159702301 -0.040595222264528275
0.71797776222229 0.3817000389099121 0.02758636698126793
0.6284675002098083 0.3485894203186035 -0.05577760562300682
0.721248984336853 0.4252641201019287 0.029594631865620613
0.7408655285835266 0.4145658016204834 0.07919399440288544
0.5508003234863281 0.715173602104187 -0.041198138147592545
0.5839233994483948 0.7118843793869019 -0.018070749938488007
0.6064128279685974 0.7101481556892395 0.011539671570062637
0.5809478759765625 0.6469666957855225 -0.05667482689023018
0.635195791721344 0.7109775543212891 0.07050947844982147
0.6203083992004395 0.7333835363388062 0.058247122913599014
0.6279041171073914 0.7135258316993713 0.0664573609828949
0.5720458626747131 0.642565906047821 -0.09934639185667038
0.5957409143447876 0.7167627215385437 0.018797630444169044
0.5739675164222717 0.7203412055969238 -0.004113183822482824
0.544600248336792 0.7258257269859314 -0.022039879113435745
0.5573713183403015 0.8419704437255859 0.01988392136991024
0.5470876097679138 0.8038577437400818 -0.0015505712945014238
0.5461847186088562 0.7896305322647095 -0.005671405699104071
0.5441824793815613 0.7772863507270813 -0.0010874795261770487
0.5415480136871338 0.7679265737533569 0.002579105319455266
0.5920740962028503 0.7454936504364014 0.037203099578619
0.5972979068756104 0.7486113905906677 0.03419100493192673
0.6031554341316223 0.7544140219688416 0.03357812017202377
0.6071115732192993 0.7619928121566772 0.040606219321489334
0.639316976070404 0.6862128376960754 0.012276607565581799
0.7577552795410156 0.6048821806907654 0.28445032238960266
0.6080384850502014 0.7323511242866516 0.05701395496726036
0.6144850850105286 0.7321345806121826 0.05596287176012993
0.5566543340682983 0.6625386476516724 -0.06254634261131287
0.5996890068054199 0.6457971334457397 -0.034838028252124786
0.560825526714325 0.6579309701919556 -0.06516162306070328
0.6110427379608154 0.5595085024833679 -0.013521317392587662
0.6545671224594116 0.5715032815933228 -0.0014883751282468438
0.6091092228889465 0.6202132701873779 -0.047798581421375275
0.6957193613052368 0.32200396060943604 0.013742215000092983
0.6821386814117432 0.35862141847610474 -0.01629483327269554
0.6621271967887878 0.40276390314102173 -0.041199155151844025
0.6236928105354309 0.7868689894676208 0.059685807675123215
0.5629358291625977 0.4139661192893982 -0.08607987314462662
0.5720852613449097 0.3469390869140625 -0.07996872812509537
0.5788482427597046 0.29044660925865173 -0.07522712647914886
0.6673205494880676 0.49498772621154785 0.022706815972924232
0.7226867079734802 0.5143158435821533 0.06787367165088654
0.5777396559715271 0.48757827281951904 -0.0013621941907331347
0.6998111605644226 0.4613608121871948 0.031131809577345848
0.5669253468513489 0.5363163352012634 -0.04070034623146057
0.5877509713172913 0.6239870190620422 -0.09952061623334885
0.7554702162742615 0.5400423407554626 0.1017003133893013
0.7064231038093567 0.5317731499671936 0.04768895357847214
0.6772267818450928 0.542525053024292 0.02394632063806057
0.6338500380516052 0.5395959615707397 0.0072171613574028015
0.6028319001197815 0.5303513407707214 -0.0028555644676089287
0.5808169841766357 0.5216920971870422 -0.014738049358129501
0.5361774563789368 0.5080297589302063 -0.07957861572504044
0.760078489780426 0.5869102478027344 0.1041676327586174
0.7172936201095581 0.457480251789093 0.042617734521627426
0.5360232591629028 0.660398006439209 -0.12518005073070526
0.5884280800819397 0.5740137696266174 -0.035188134759664536
0.7657490968704224 0.49451297521591187 0.24455302953720093
0.5638191103935242 0.51231849193573 -0.023389307782053947
0.6107587218284607 0.6187267899513245 -0.019896958023309708
0.6874436140060425 0.47394970059394836 0.040397629141807556
0.5866928100585938 0.6054429411888123 -0.09154371172189713
0.7505321502685547 0.6653236150741577 0.2830403447151184
0.579495370388031 0.479824960231781 0.003770266892388463
0.5652569532394409 0.5958577394485474 -0.12001089751720428
0.7010372877120972 0.789878249168396 0.15631593763828278
0.6892445683479309 0.82279372215271 0.1987326294183731
0.7701208591461182 0.5996535420417786 0.19547978043556213
0.7290182113647461 0.7547853589057922 0.17777682840824127
0.7540738582611084 0.4530704617500305 0.1282014548778534
0.6117058396339417 0.9011709690093994 0.0814180001616478
0.5317715406417847 0.6643964052200317 -0.09027909487485886
0.6122785210609436 0.5882357954978943 -0.02126156911253929
0.7433415651321411 0.48524728417396545 0.1003531664609909
0.6460154056549072 0.4860365390777588 0.011193818412721157
0.6272578239440918 0.48616456985473633 0.0036921969149261713
0.6250519156455994 0.7357429265975952 0.06329022347927094
0.7602016925811768 0.6379626989364624 0.12208215892314911
0.5667006969451904 0.9455316066741943 0.08442927896976471
0.6324180960655212 0.8941742777824402 0.13858488202095032
0.6582503914833069 0.8626229763031006 0.16697879135608673
0.6099514961242676 0.48390570282936096 0.00014262287004385144
0.5937700271606445 0.48104649782180786 0.001208235276862979
0.5837851166725159 0.4803023338317871 0.004288192838430405
0.7336145639419556 0.4498932659626007 0.06799782067537308
0.5990461707115173 0.46631428599357605 -0.00432728324085474
0.6175669431686401 0.4611552357673645 -0.008172212168574333
0.636717677116394 0.4605979323387146 -0.005403950810432434
0.6552562713623047 0.4634306728839874 0.003063737880438566
0.6668465733528137 0.46773308515548706 0.013033527880907059
0.7638431787490845 0.43924421072006226 0.19275981187820435
0.6592728495597839 0.4833658039569855 0.01944054663181305
0.6120085120201111 0.6786873936653137 -0.01741248369216919
0.585561215877533 0.6413813233375549 -0.07278525829315186
0.5597289800643921 0.6806676983833313 -0.052439216524362564
0.6694501638412476 0.8293024897575378 0.1386381983757019
0.6408660411834717 0.8641793131828308 0.11249476671218872
0.5699673295021057 0.927029013633728 0.05346214771270752
0.7136824131011963 0.7825995683670044 0.2360188513994217
0.5859419703483582 0.4744889736175537 0.0003100222966168076
0.5546844601631165 0.5473375916481018 -0.07820665836334229
0.6041050553321838 0.9237154722213745 0.10736744850873947
0.7638887166976929 0.6552731394767761 0.20089273154735565
0.5698815584182739 0.7581431865692139 0.01841859146952629
0.5747904181480408 0.764622151851654 0.01552524883300066
0.5789368748664856 0.7744619250297546 0.014507023617625237
0.5814331769943237 0.7873877882957458 0.02076628804206848
0.5962622165679932 0.8191854357719421 0.039943188428878784
0.6180295944213867 0.7125029563903809 0.043551284819841385
0.6231402158737183 0.7097859978675842 0.04527900367975235
0.6275602579116821 0.7070852518081665 0.0444914847612381
0.6598883867263794 0.6960808634757996 0.045045752078294754
0.7375411987304688 0.6504247784614563 0.07101558148860931
0.5506768226623535 0.521086573600769 -0.058494724333286285
0.5607654452323914 0.4688897728919983 -0.01953183300793171
0.5757644176483154 0.46891844272613525 -0.006775513757020235
0.6126639246940613 0.7148063778877258 0.04519226402044296
0.7333962917327881 0.7134906053543091 0.12461528927087784
0.5392794013023376 0.47304269671440125 -0.05715004727244377
0.6029719114303589 0.842174768447876 0.05319833755493164
0.5380445122718811 0.5361329317092896 -0.10112329572439194
0.575584888458252 0.5836131572723389 -0.07156556844711304
0.562329888343811 0.8679574728012085 0.030690565705299377
0.6564412117004395 0.7653536200523376 0.08735187351703644
0.6308519244194031 0.6369065046310425 -0.004976211581379175
0.6317967772483826 0.806686520576477 0.0740131214261055
0.6878360509872437 0.6324421763420105 0.011494841426610947
0.6557800769805908 0.6595107316970825 0.015045875683426857
0.7081944346427917 0.6687639355659485 0.047709785401821136
0.5687565803527832 0.899895429611206 0.03802381455898285
0.5917734503746033 0.5930114984512329 -0.04911993816494942
0.6693953275680542 0.793312132358551 0.11002960801124573
0.639280378818512 0.8333110809326172 0.09246156364679337
0.679353654384613 0.7248660326004028 0.08187314122915268
0.752606987953186 0.6825124621391296 0.13963072001934052
0.7040162682533264 0.7384811639785767 0.10309676080942154
0.7505847215652466 0.707606315612793 0.20071911811828613
0.6775298118591309 0.681435227394104 0.041781291365623474
0.5703865885734558 0.5609764456748962 -0.05502934753894806
0.5802124738693237 0.6374890804290771 -0.10477965325117111
0.5969881415367126 0.6372053623199463 -0.07447746396064758
0.5690079927444458 0.6231899261474609 -0.12590716779232025
0.5776686668395996 0.45112448930740356 -0.02709285169839859
0.6134805083274841 0.43874847888946533 -0.030291249975562096
0.6456575393676758 0.4359453320503235 -0.025599529966711998
0.6721733808517456 0.4392439126968384 -0.011707901023328304
0.6902989149093628 0.4474077522754669 0.006797399837523699
0.7026388645172119 0.4788529574871063 0.05208246037364006
0.7705082893371582 0.5486317873001099 0.18237443268299103
0.6844774484634399 0.5104176998138428 0.0373055599629879
0.661400556564331 0.518044114112854 0.021270791068673134
0.6311977505683899 0.5173722505569458 0.008653027936816216
0.6037110686302185 0.5118171572685242 0.0010044070659205317
0.5835276246070862 0.5056943297386169 -0.005230160895735025
0.5694313049316406 0.5003964900970459 -0.009760958142578602
0.7615665197372437 0.5487295985221863 0.2731879949569702
0.597074031829834 0.6404914855957031 -0.060928598046302795
0.5578482151031494 0.5710173845291138 -0.09552714228630066
0.5628890991210938 0.6428568363189697 -0.12573350965976715
0.5484699010848999 0.6550590395927429 -0.11466776579618454
0.562106192111969 0.6461336612701416 -0.11276298016309738
0.5916475057601929 0.6463161706924438 -0.05151553452014923
0.5439341068267822 0.6582541465759277 -0.1214333325624466
0.5403689742088318 0.6617535352706909 -0.0902852714061737
0.571086049079895 0.48203110694885254 -0.0015865457244217396
0.5580713748931885 0.49014824628829956 -0.017779257148504257
0.5503061413764954 0.49729400873184204 -0.036722369492053986
0.673643171787262 0.4711483120918274 0.022358624264597893
0.6875447630882263 0.46258607506752014 0.02412782609462738
0.3704082667827606 0.4777279794216156 -0.02006412111222744
0.3962412178516388 0.47736480832099915 -0.02006412111222744
0.36977922916412354 0.4590908885002136 -0.02006412111222744
0.3443965017795563 0.478274405002594 -0.02006412111222744
0.371040016412735 0.496503621339798 -0.02006412111222744
0.6281235814094543 0.4705549478530884 0.007859773933887482
0.6539735794067383 0.4703299403190613 0.007859773933887482
0.6283718347549438 0.44998258352279663 0.007859773933887482
0.6021361947059631 0.47059768438339233 0.007859773933887482
0.6279690265655518 0.49111559987068176 0.007859773933887482
