ply
format ascii 1.0
element vertex 478
property float x
property float y
property float z
end_header
0.5299495458602905 0.7282732129096985 -0.05269826203584671
0.5856547355651855 0.6546435356140137 -0.12931956350803375
0.5581793785095215 0.6743922829627991 -0.06405729800462723
0.5455646514892578 0.5657781362533569 -0.11706093698740005
0.5875763893127441 0.6287286877632141 -0.1400068998336792
0.5792953968048096 0.592748761177063 -0.13418197631835938
0.5497715473175049 0.502117395401001 -0.08143449574708939
0.33355480432510376 0.48394453525543213 -0.059579554945230484
0.5419629812240601 0.4342282712459564 -0.07192277163267136
0.543450653553009 0.40046849846839905 -0.08050860464572906
0.5312740206718445 0.2777665853500366 -0.07583057135343552
0.5287256836891174 0.735139787197113 -0.047974396497011185
0.5259720087051392 0.7412064075469971 -0.03990140184760094
0.5227426886558533 0.7445693016052246 -0.02814846858382225
0.5233085751533508 0.7722076773643494 -0.017979618161916733
0.5251511931419373 0.7801299095153809 -0.020346464589238167
0.5254600048065186 0.7898398637771606 -0.02425723522901535
0.5240484476089478 0.8005093932151794 -0.019651493057608604
0.5342562794685364 0.8346705436706543 0.0033456303644925356
0.5782561898231506 0.6670886278152466 -0.11583679914474487
0.5386928915977478 0.6665664315223694 -0.09030050039291382
0.161117285490036 0.3809952735900879 -0.006187178194522858
0.4146949052810669 0.5023006200790405 -0.054677218198776245
0.38971033692359924 0.5058107972145081 -0.06274861842393875
0.36223500967025757 0.5071697235107422 -0.06581145524978638
0.3169889748096466 0.4922640323638916 -0.05941861867904663
0.4351169466972351 0.4972524046897888 -0.043209612369537354
0.37390345335006714 0.43467414379119873 -0.08233939111232758
0.40381744503974915 0.4375631809234619 -0.0694008320569992
0.3453724980354309 0.43944668769836426 -0.08351671695709229
0.3242635130882263 0.4495440125465393 -0.0785621926188469
0.2899054288864136 0.510612428188324 -0.05162989720702171
0.4220644533634186 0.8779555559158325 0.00431919377297163
0.3187157213687897 0.4756392240524292 -0.055978767573833466
0.15618476271629333 0.4982866644859314 0.02161886729300022
0.24502825736999512 0.49295586347579956 -0.04063120111823082
0.39609837532043457 0.6189720630645752 -0.06609293818473816
0.49169811606407166 0.7240119576454163 -0.06321500241756439
0.4891055226325989 0.7402937412261963 -0.047736190259456635
0.44874969124794006 0.7298792600631714 -0.06007259711623192
0.41680216789245605 0.7350631356239319 -0.04680464416742325
0.453836590051651 0.7406353950500488 -0.04712853208184242
0.42454278469085693 0.7417184710502625 -0.03426658362150192
0.3795604407787323 0.7771589756011963 -0.00880083255469799
0.562248945236206 0.6554157137870789 -0.13383740186691284
0.5605002045631409 0.6296706199645996 -0.14492103457450867
0.28451383113861084 0.43534988164901733 -0.09237708151340485
0.4533795714378357 0.5531077980995178 -0.06022200733423233
0.46650806069374084 0.6407249569892883 -0.09770448505878448
0.4606587588787079 0.6241469979286194 -0.09251868724822998
0.3021155595779419 0.6136981844902039 -0.0681234747171402
0.5540914535522461 0.5956713557243347 -0.1365877091884613
0.3702647387981415 0.41384822130203247 -0.10902686417102814
0.32341718673706055 0.4192935824394226 -0.10599685460329056
0.21208345890045166 0.3371695578098297 -0.04740069434046745
0.4878350496292114 0.4436158835887909 -0.08550954610109329
0.4281952679157257 0.4482095241546631 -0.05220618098974228
0.35607433319091797 0.7492688894271851 -0.017978191375732422
0.15282991528511047 0.7434796690940857 0.1277623176574707
0.4841812551021576 0.6565248370170593 -0.07951100170612335
0.5083092451095581 0.6635544300079346 -0.07002121210098267
0.37232130765914917 0.744560956954956 -0.01103783119469881
0.37943223118782043 0.7454487681388855 -0.011275973170995712
0.3030661344528198 0.40289270877838135 -0.10187870264053345
0.45707687735557556 0.6485331654548645 -0.08230788260698318
0.42530253529548645 0.4219232201576233 -0.10275722295045853
0.4221039116382599 0.4024360179901123 -0.11175595968961716
0.36541736125946045 0.2847648859024048 -0.1015624850988388
0.2589092254638672 0.36942487955093384 -0.07752116769552231
0.39650169014930725 0.3360470235347748 -0.10557128489017487
0.2569114565849304 0.422687292098999 -0.07988312095403671
0.21122974157333374 0.4052378833293915 -0.04284026101231575
0.49025383591651917 0.7332068085670471 -0.05811849236488342
0.45141279697418213 0.7357378005981445 -0.05405149981379509
0.42082637548446655 0.7385585308074951 -0.04194367304444313
0.4883739948272705 0.6600391268730164 -0.0702984407544136
0.37605348229408264 0.7449737787246704 -0.010761870071291924
0.39628398418426514 0.7580548524856567 -0.015636973083019257
0.3826492130756378 0.7459837198257446 -0.010970532894134521
0.5138685703277588 0.6540984511375427 -0.11266397684812546
0.4273989796638489 0.7436476945877075 -0.028391113504767418
0.4559454917907715 0.7433880567550659 -0.035265106707811356
0.48827749490737915 0.7440016865730286 -0.03665337339043617
0.49248620867729187 0.8344030380249023 -0.0065371328964829445
0.4864777624607086 0.7993309497833252 -0.030152661725878716
0.4883224666118622 0.788559079170227 -0.03462114930152893
0.4896078109741211 0.7791612148284912 -0.03011833131313324
0.490127295255661 0.7717788219451904 -0.027136923745274544
0.429019957780838 0.7622324228286743 -0.021277975291013718
0.42577433586120605 0.7649246454238892 -0.023731660097837448
0.42105281352996826 0.7699381113052368 -0.02625204063951969
0.41704222559928894 0.7761213779449463 -0.02303793467581272
0.4080100357532501 0.710231602191925 -0.048525311052799225
0.11371156573295593 0.6085572838783264 0.13052664697170258
0.5694109797477722 0.6717672944068909 -0.08296570926904678
0.40640535950660706 0.7556511759757996 -0.014330844394862652
0.40168535709381104 0.7563263773918152 -0.015552605502307415
0.5177919268608093 0.6731249094009399 -0.06817582249641418
0.4600626826286316 0.6613596677780151 -0.0563543364405632
0.5135366320610046 0.6685343980789185 -0.06991902738809586
0.4229535162448883 0.5664209723472595 -0.06092613935470581
0.3770809769630432 0.5835645794868469 -0.06820036470890045
0.4495755434036255 0.6333125233650208 -0.07825474441051483
0.2784299850463867 0.30396223068237305 -0.08098170906305313
0.3186878561973572 0.34528133273124695 -0.09690821915864944
0.359167218208313 0.3944195508956909 -0.11134301871061325
0.4104712903499603 0.801546573638916 -0.010991005226969719
0.483401358127594 0.4141969084739685 -0.10021709650754929
0.4670712351799011 0.33676064014434814 -0.09876611083745956
0.44644859433174133 0.2774861454963684 -0.09839896112680435
0.3347046375274658 0.5027692914009094 -0.06387408822774887
0.25431370735168457 0.5302566885948181 -0.04535021260380745
0.4488890767097473 0.4924071431159973 -0.03694780170917511
0.2896469235420227 0.4628804326057434 -0.06954707950353622
0.4762490391731262 0.5384896397590637 -0.06462519615888596
0.4963068664073944 0.6354584693908691 -0.11718646436929703
0.20729923248291016 0.549638569355011 -0.028724970296025276
0.28706228733062744 0.5493879914283752 -0.059053461998701096
0.3345183730125427 0.5586822032928467 -0.0665971115231514
0.3902033269405365 0.5515565872192383 -0.06044613569974899
0.4260563254356384 0.5392004251480103 -0.052489057183265686
0.4517597258090973 0.5282807946205139 -0.049897704273462296
0.5233906507492065 0.508187472820282 -0.0817146822810173
0.21210937201976776 0.603641927242279 -0.027987319976091385
0.26051396131515503 0.46095263957977295 -0.06820003688335419
0.5633671879768372 0.6673663854598999 -0.11969295889139175
0.4586884081363678 0.5804610848426819 -0.0661495178937912
0.11128056049346924 0.489285945892334 0.09081640094518661
0.4733521640300751 0.517405092716217 -0.04827339947223663
0.4392540454864502 0.6318975687026978 -0.0527823306620121
0.3033965826034546 0.47672146558761597 -0.05527064576745033
0.4890400171279907 0.6151922345161438 -0.11014001816511154
0.12530457973480225 0.6740475296974182 0.13394059240818024
0.4451731741428375 0.48411011695861816 -0.03389598801732063
0.5230834484100342 0.6033768653869629 -0.1287519484758377
0.2633776068687439 0.8154181241989136 0.04040402173995972
0.2480136901140213 0.8462048768997192 0.0843430832028389
0.15304222702980042 0.6105719208717346 0.048919469118118286
0.21574777364730835 0.7774224877357483 0.049272168427705765
0.17992205917835236 0.4471322298049927 -0.00555473892018199
0.4142457842826843 0.9092467427253723 0.01752331666648388
0.5575505495071411 0.6713064312934875 -0.08452743291854858
0.43004825711250305 0.5976101160049438 -0.06216002628207207
0.2069968581199646 0.49693533778190613 -0.025831768289208412
0.36769726872444153 0.49203717708587646 -0.0635838508605957
0.3913574516773224 0.49176228046417236 -0.061679236590862274
0.3913334012031555 0.7606676816940308 -0.014124302193522453
0.21021823585033417 0.6573312282562256 -0.008926037698984146
0.46838563680648804 0.9457645416259766 0.0464804582297802
0.3605639636516571 0.9102297425270081 0.05891992524266243
0.3088696599006653 0.884157121181488 0.06979150325059891
0.5393447875976562 0.3388325572013855 -0.07807589322328568
0.5279101729393005 0.9444468021392822 0.06166299059987068
0.41064149141311646 0.4888807535171509 -0.05465971305966377
0.4286641478538513 0.4855903089046478 -0.04517950490117073
0.44038522243499756 0.48477524518966675 -0.036847494542598724
0.22637620568275452 0.45389461517333984 -0.0519624799489975
0.4196944534778595 0.46175825595855713 -0.051673587411642075
0.3965930640697479 0.4518499970436096 -0.06346611678600311
0.3743518888950348 0.45088595151901245 -0.07085251808166504
0.351636677980423 0.45611000061035156 -0.0726991519331932
0.3365691900253296 0.4638111889362335 -0.06895304471254349
0.12902551889419556 0.42863595485687256 0.04509337618947029
0.348848819732666 0.4890527129173279 -0.06239468231797218
0.5519911646842957 0.691010594367981 -0.054453231394290924
0.44516319036483765 0.6975429654121399 -0.057782042771577835
0.48899179697036743 0.6544632315635681 -0.08863775432109833
0.5102516412734985 0.6929689645767212 -0.06458429247140884
0.5409463047981262 0.4670545756816864 -0.06772845983505249
0.3135095238685608 0.8518572449684143 0.03802194446325302
0.3614450693130493 0.8814651966094971 0.02991928718984127
0.473138689994812 0.9252246618270874 0.01216655969619751
0.19676366448402405 0.8016310930252075 0.10636363178491592
0.43725183606147766 0.47617536783218384 -0.041655272245407104
0.5096113085746765 0.5505893230438232 -0.08935751765966415
0.5331847667694092 0.9249387979507446 0.02747507579624653
0.41370490193367004 0.9325554966926575 0.046389516443014145
0.15888085961341858 0.6698627471923828 0.0576961524784565
0.4582672715187073 0.7678823471069336 -0.026722388342022896
0.4556270241737366 0.7731500864028931 -0.02984829805791378
0.45272132754325867 0.7809866666793823 -0.03313950449228287
0.45047369599342346 0.790702223777771 -0.029293879866600037
0.4479099214076996 0.8219221830368042 -0.01373419351875782
0.398358553647995 0.7432717680931091 -0.02338775433599949
0.3941110372543335 0.7414748668670654 -0.026774603873491287
0.3902750313282013 0.7393498420715332 -0.03012145683169365
0.37607815861701965 0.7270980477333069 -0.036096252501010895
0.26414406299591064 0.6717065572738647 -0.04086042195558548
0.5003949403762817 0.5218995809555054 -0.07129734754562378
0.4700692296028137 0.4705781638622284 -0.040605369955301285
0.4492247402667999 0.4692055881023407 -0.040551766753196716
0.402407705783844 0.7445525527000427 -0.019110262393951416
0.2440742701292038 0.7370418906211853 0.004507525824010372
0.503026008605957 0.4746396541595459 -0.0637127161026001
0.43325358629226685 0.8474776744842529 -0.002799570094794035
0.5689020156860352 0.5619221925735474 -0.11556149274110794
0.5344430804252625 0.5386576652526855 -0.10070757567882538
0.5595553517341614 0.5332919955253601 -0.097760409116745
0.48872798681259155 0.590348482131958 -0.08946956694126129
0.5357558727264404 0.895948588848114 0.011510457843542099
0.5344126224517822 0.8621066808700562 0.0076162200421094894
0.4856475591659546 0.8621547818183899 -0.001444520428776741
0.3551511764526367 0.791409432888031 -0.0025524678640067577
0.4125031530857086 0.65253746509552 -0.052065134048461914
0.389861136674881 0.8232658505439758 -0.0005106424214318395
0.34642326831817627 0.6504786610603333 -0.06627147644758224
0.38251861929893494 0.6789029836654663 -0.05156095698475838
0.3108714520931244 0.6919198036193848 -0.04780096188187599
0.47925639152526855 0.8956723213195801 -0.001313034794293344
0.46292176842689514 0.60172039270401 -0.07555123418569565
0.32924604415893555 0.8176774978637695 0.012395178899168968
0.37404659390449524 0.8500823378562927 0.013574824668467045
0.3313879370689392 0.7563961744308472 -0.01776452362537384
0.2110518366098404 0.7034263610839844 0.01032673567533493
0.2895733714103699 0.7663202881813049 -0.006008587311953306
0.17629927396774292 0.7252596020698547 0.06091347709298134
0.3499007225036621 0.7091646790504456 -0.04320845752954483
0.4842839539051056 0.5653470754623413 -0.07665283232927322
0.5067003965377808 0.6495180726051331 -0.11961068958044052
0.4764024317264557 0.6511173844337463 -0.0951361283659935
0.5289462804794312 0.632785439491272 -0.13441681861877441
0.4533170461654663 0.4505806565284729 -0.058335404843091965
0.41370782256126404 0.4338454306125641 -0.07918976247310638
0.37587738037109375 0.4285317361354828 -0.09139108657836914
0.34034663438796997 0.4326809048652649 -0.09347116202116013
0.31058377027511597 0.4441530704498291 -0.08636705577373505
0.27908092737197876 0.48484909534454346 -0.05087486281991005
0.1514020562171936 0.5539615154266357 0.03419959172606468
0.31251010298728943 0.521708607673645 -0.057284217327833176
0.3479180335998535 0.5292004346847534 -0.060890406370162964
0.3869224488735199 0.5264922976493835 -0.057843443006277084
0.4191838800907135 0.5190006494522095 -0.04997430741786957
0.442640095949173 0.5115324258804321 -0.04172317683696747
0.45993533730506897 0.5054616928100586 -0.037986092269420624
0.11025097966194153 0.5479071140289307 0.11702161282300949
0.4705112874507904 0.6550649404525757 -0.08194410055875778
0.5184174180030823 0.5761704444885254 -0.10583429783582687
0.5366002917289734 0.653298020362854 -0.1299576759338379
0.5434081554412842 0.6646761894226074 -0.11307436227798462
0.5296512842178345 0.6570782661437988 -0.11831385642290115
0.47366026043891907 0.6607651114463806 -0.06870531290769577
0.5524804592132568 0.6665849685668945 -0.11761406064033508
0.5467624068260193 0.6702771186828613 -0.08740726858377457
0.45645105838775635 0.48588860034942627 -0.031442929059267044
0.4735250174999237 0.4937983453273773 -0.037630900740623474
0.4892546534538269 0.5005559325218201 -0.05083749443292618
0.32710081338882446 0.47014808654785156 -0.06393415480852127
0.308146595954895 0.46193623542785645 -0.06839009374380112
0.58637535572052 0.5639482736587524 -0.09686429798603058
0.6627177000045776 0.4700416922569275 0.08870484679937363
0.5931646227836609 0.6623660326004028 -0.07489556819200516
0.7020448446273804 0.3775651156902313 0.22077308595180511
0.6054960489273071 0.4962456226348877 0.04062783718109131
0.627056360244751 0.49612605571746826 0.0519484244287014
0.6470209360122681 0.4947696924209595 0.06686749309301376
0.6669428944587708 0.47922778129577637 0.09773177653551102
0.5887824296951294 0.4935063123703003 0.03161345049738884
0.6443296670913696 0.4337390959262848 0.037631064653396606
0.61833655834198 0.4376143217086792 0.024885009974241257
0.6650437712669373 0.43642503023147583 0.0553198866546154
0.6754253506660461 0.44413918256759644 0.07136814296245575
0.6814900636672974 0.4962441623210907 0.11743868887424469
0.6089298725128174 0.857154130935669 0.07480965554714203
0.6675481200218201 0.46384721994400024 0.09921830892562866
0.7012488842010498 0.48097461462020874 0.2533648908138275
0.6923332810401917 0.47904372215270996 0.14911337196826935
0.6466933488845825 0.6084333658218384 0.031178666278719902
0.559599757194519 0.7216811180114746 -0.03764117881655693
0.5514634251594543 0.7377794981002808 -0.023934025317430496
0.579716145992279 0.7241320013999939 -0.007595707196742296
0.5905730128288269 0.7281097173690796 0.02562885731458664
0.5687645673751831 0.7361096739768982 -0.0007770368247292936
0.5798228979110718 0.7364134788513184 0.02760124020278454
0.6219885349273682 0.7605102062225342 0.08504848927259445
0.6036936044692993 0.6522265672683716 -0.12086845934391022
0.6074917912483215 0.6271030902862549 -0.12949387729167938
0.7011474370956421 0.43074074387550354 0.08585404604673386
0.5986527800559998 0.5475860238075256 0.0024579765740782022
0.6315479278564453 0.6314123868942261 -0.03929334506392479
0.6271377205848694 0.6161527037620544 -0.03217305243015289
0.6976507902145386 0.5960910320281982 0.09302537143230438
0.5982071161270142 0.593616247177124 -0.1167522445321083
0.6710288524627686 0.41436487436294556 0.014223695732653141
0.6922088861465454 0.4180120825767517 0.04909449815750122
0.6996409893035889 0.3381582796573639 0.15598632395267487
0.5863777995109558 0.439622700214386 -0.04519407078623772
0.595450222492218 0.44795435667037964 0.023857910186052322
0.63861083984375 0.7313154339790344 0.09527351707220078
0.6585923433303833 0.7050521969795227 0.33869868516921997
0.6154873371124268 0.6480511426925659 -0.035699378699064255
0.5990798473358154 0.6590926051139832 -0.048134125769138336
0.6004860401153564 0.7381198406219482 0.08736690878868103
0.5945164561271667 0.7395389080047607 0.07565208524465561
0.6982526183128357 0.40253543853759766 0.06368721276521683
0.6272853016853333 0.6396501064300537 -0.024970537051558495
0.6374385356903076 0.4198768734931946 -0.0180041566491127
0.6429522037506104 0.40023672580718994 -0.02463354729115963
0.6503316164016724 0.2890757620334625 0.014221839606761932
0.703178882598877 0.3647436201572418 0.10542219877243042
0.6499025821685791 0.3363679051399231 -0.005179308354854584
0.7061474323272705 0.41863125562667847 0.111027792096138
0.7076888084411621 0.39653322100639343 0.16423934698104858
0.556344747543335 0.7309226989746094 -0.032691504806280136
0.5746190547943115 0.7308249473571777 -0.004495854489505291
0.5857262015342712 0.7324116826057434 0.024669475853443146
0.6097704172134399 0.6525474786758423 -0.03485104814171791
0.5975301265716553 0.7388356924057007 0.08057517558336258
0.5909237861633301 0.7514061331748962 0.0614168718457222
0.5914132595062256 0.7403094172477722 0.0735306441783905
0.6146743893623352 0.6465185284614563 -0.07285589724779129
0.5737351775169373 0.7391462326049805 0.030364923179149628
0.5627766251564026 0.7394884824752808 0.008223836310207844
0.5460129380226135 0.7417544722557068 -0.012396004982292652
0.5652511119842529 0.8280256390571594 0.017457664012908936
0.552564799785614 0.7955921292304993 -0.004121094010770321
0.552715539932251 0.7847772836685181 -0.007599396165460348
0.5504006147384644 0.7756520509719849 -0.0034676978830248117
0.5461598634719849 0.7686843276023865 -0.0017978415125980973
0.5732779502868652 0.7564182877540588 0.037997469305992126
0.5785087943077087 0.7586565017700195 0.03551901876926422
0.583644688129425 0.7630308270454407 0.03481980785727501
0.5869944095611572 0.768896222114563 0.04255170002579689
0.6318098902702332 0.6976476907730103 0.03418312594294548
0.6697220802307129 0.5819088220596313 0.3661642074584961
0.5807314515113831 0.7498082518577576 0.059777092188596725
0.5862278938293457 0.7500007748603821 0.05877355858683586
0.5892055034637451 0.6700607538223267 -0.04661663621664047
0.617315948009491 0.6535890698432922 -0.010765180923044682
0.5943598747253418 0.6650708317756653 -0.048740871250629425
0.6180674433708191 0.5590810179710388 0.0235223937779665
0.6530083417892456 0.5728075504302979 0.04668135941028595
0.6262891292572021 0.6252495646476746 -0.01602037250995636
0.6855311393737793 0.3077203929424286 0.08448798209428787
0.6859242916107178 0.3435317277908325 0.04995905980467796
0.676812469959259 0.3948397636413574 0.01945362612605095
0.6087685823440552 0.7863308787345886 0.06597479432821274
0.59767746925354 0.40946751832962036 -0.0563722662627697
0.6019542813301086 0.33731505274772644 -0.046776581555604935
0.6008676290512085 0.28026634454727173 -0.04011346399784088
0.6605786085128784 0.4888867735862732 0.08422645926475525
0.6970981359481812 0.5125205516815186 0.14241698384284973
0.5783153176307678 0.4898224472999573 0.02959650382399559
0.6872212290763855 0.4537196755409241 0.10213486850261688
0.5867701172828674 0.53419429063797 -0.014652212150394917
0.6270160675048828 0.6275869011878967 -0.069875068962574
0.7145971655845642 0.5293407440185547 0.1839856505393982
0.6945129632949829 0.5316622257232666 0.1176137775182724
0.6772209405899048 0.5432354211807251 0.08379919081926346
0.6398481726646423 0.5417030453681946 0.054538629949092865
0.6107643246650696 0.533358097076416 0.03437893092632294
0.5914570093154907 0.5249248147010803 0.015044178813695908
0.5680553913116455 0.5066245198249817 -0.06057239696383476
0.720462441444397 0.5797050595283508 0.18400214612483978
0.6974201202392578 0.4513576626777649 0.11997300386428833
0.5899900197982788 0.665094792842865 -0.10932476818561554
0.605364203453064 0.574683427810669 -0.005547970533370972
0.6813545823097229 0.4741854965686798 0.33502161502838135
0.5781034827232361 0.5147950649261475 0.0019843594636768103
0.6215199828147888 0.6241259574890137 0.009151805192232132
0.6737374067306519 0.46544840931892395 0.10761044174432755
0.6207413077354431 0.6086921691894531 -0.062021877616643906
0.6667619943618774 0.6406076550483704 0.3591218590736389
0.5757225155830383 0.48103976249694824 0.03579423949122429
0.6107582449913025 0.5989497303962708 -0.09363369643688202
0.6635518074035645 0.7772630453109741 0.19903632998466492
0.6457008123397827 0.8054760098457336 0.24446889758110046
0.7055440545082092 0.5824390649795532 0.2798632085323334
0.6780099868774414 0.7381141185760498 0.23552365601062775
0.7043970227241516 0.4353559613227844 0.2160390317440033
0.6109874248504639 0.8847897052764893 0.09310358017683029
0.5800538063049316 0.6699703335762024 -0.07821526378393173
0.6209245324134827 0.5901784300804138 0.012899219058454037
0.698032021522522 0.4812488555908203 0.18312352895736694
0.6464074850082397 0.47888121008872986 0.06649782508611679
0.6283819675445557 0.48160630464553833 0.05342848598957062
0.5945472717285156 0.7537082433700562 0.06856066733598709
0.7155712246894836 0.6284584999084473 0.19583168625831604
0.5746039152145386 0.9310259819030762 0.08917289227247238
0.6190304756164551 0.8784669637680054 0.16321022808551788
0.631417989730835 0.8467284440994263 0.20060071349143982
0.6093695163726807 0.48202037811279297 0.04346455633640289
0.5917670726776123 0.48136821389198303 0.03892388567328453
0.5808733701705933 0.4817485213279724 0.038583219051361084
0.7018845081329346 0.4450109004974365 0.1507256031036377
0.5937298536300659 0.46164751052856445 0.034619685262441635
0.6127657890319824 0.4525638222694397 0.0368628092110157
0.6341568231582642 0.44915059208869934 0.046191971749067307
0.6521263122558594 0.45108872652053833 0.06049814447760582
0.6613336801528931 0.4560381770133972 0.07362385839223862
0.696233868598938 0.42020872235298157 0.2841144800186157
0.65671306848526 0.4746738374233246 0.07903583347797394
0.6189037561416626 0.6884616613388062 0.005138125736266375
0.6185309886932373 0.6455556154251099 -0.047545865178108215
0.5854974985122681 0.6887527704238892 -0.03850918263196945
0.6447651386260986 0.8162215948104858 0.16699060797691345
0.6281457543373108 0.8500499725341797 0.13171367347240448
0.5804868936538696 0.9111842513084412 0.05362566187977791
0.6520609855651855 0.7609560489654541 0.29534080624580383
0.5816937685012817 0.4733942747116089 0.03517112880945206
0.5879402160644531 0.5474539399147034 -0.05579040199518204
0.6026475429534912 0.9079627394676208 0.12378151714801788
0.6994747519493103 0.6360504627227783 0.278953492641449
0.5624523162841797 0.7629183530807495 0.017800241708755493
0.5677022933959961 0.7675275206565857 0.016042640432715416
0.5716379880905151 0.7748807668685913 0.015000923536717892
0.5737677812576294 0.7846647500991821 0.020985674113035202
0.591422975063324 0.8100367784500122 0.04279816523194313
0.5877329111099243 0.7376779913902283 0.054131828248500824
0.5929271578788757 0.7352184653282166 0.05773250386118889
0.597163736820221 0.7326043248176575 0.05949947610497475
0.6391263008117676 0.7116638422012329 0.06769143044948578
0.7045258283615112 0.6466310024261475 0.134104385972023
0.5768646001815796 0.5192220211029053 -0.03622720018029213
0.5695761442184448 0.4679453372955322 0.003953681793063879
0.576869785785675 0.4672413468360901 0.02323649451136589
0.5820168852806091 0.7397280335426331 0.055148836225271225
0.6909849643707275 0.7044750452041626 0.18117843568325043
0.5623129606246948 0.47196298837661743 -0.03745659440755844
0.5983577966690063 0.8310608863830566 0.05891118943691254
0.578059196472168 0.5368461608886719 -0.08274194598197937
0.6051397919654846 0.5853409171104431 -0.045296959578990936
0.5706670880317688 0.8530948758125305 0.02811475098133087
0.6367855072021484 0.7687510848045349 0.10530735552310944
0.6351515054702759 0.6425514221191406 0.02712194249033928
0.6183471083641052 0.8025842308998108 0.08474621176719666
0.6769256591796875 0.6339719295501709 0.05981037765741348
0.6498717069625854 0.6654245853424072 0.048434220254421234
0.6857765913009644 0.6699897050857544 0.0965728759765625
0.5793483853340149 0.8839588165283203 0.03758247569203377
0.6117493510246277 0.5955921411514282 -0.020044980570673943
0.6486414670944214 0.7876500487327576 0.13546374440193176
0.626990556716919 0.8233624696731567 0.10823407769203186
0.6555785536766052 0.733613908290863 0.11281207948923111
0.7043314576148987 0.6705846786499023 0.20682932436466217
0.6739002466201782 0.7359910011291504 0.1437915712594986
0.6898216009140015 0.6875002980232239 0.2712739408016205
0.6585948467254639 0.6920875310897827 0.07639076560735703
0.5957928895950317 0.5608484745025635 -0.028905898332595825
0.6224107146263123 0.641008198261261 -0.07658416777849197
0.627007007598877 0.6416073441505432 -0.04582081735134125
0.6197269558906555 0.6267669200897217 -0.09958729147911072
0.5894485712051392 0.4470602571964264 0.003155349288135767
0.6259618997573853 0.4317256808280945 0.011467929929494858
0.6567273139953613 0.42753955721855164 0.027297303080558777
0.6782362461090088 0.43031615018844604 0.05058383569121361
0.6881664991378784 0.43902990221977234 0.0748400092124939
0.6821029186248779 0.4730627238750458 0.12297196686267853
0.7053266763687134 0.5312217473983765 0.27123039960861206
0.6756658554077148 0.5073301196098328 0.101695716381073
0.6594011187553406 0.5162734985351562 0.07783117145299911
0.6328030824661255 0.5172200202941895 0.056147895753383636
0.6064303517341614 0.513359785079956 0.03948543220758438
0.5878281593322754 0.508331298828125 0.025416769087314606
0.5760096311569214 0.5029942989349365 0.016430828720331192
0.6717413663864136 0.527466893196106 0.3602256178855896
0.6223447322845459 0.6461544632911682 -0.03351188078522682
0.5976430773735046 0.572672426700592 -0.07122575491666794
0.6152186393737793 0.6465099453926086 -0.10272947698831558
0.5982826948165894 0.6592959761619568 -0.09722995012998581
0.6100764274597168 0.6500339508056641 -0.09034653007984161
0.6149390935897827 0.6530768871307373 -0.028045741841197014
0.5960237383842468 0.6627280116081238 -0.10482326149940491
0.5874786376953125 0.6670979261398315 -0.07645431160926819
0.5713239908218384 0.483573317527771 0.02611415460705757
0.5664947032928467 0.4917820990085602 0.004909236915409565
0.5674477219581604 0.49841904640197754 -0.01526304055005312
0.6654786467552185 0.46023833751678467 0.085183285176754
0.6785717010498047 0.4532763361930847 0.09037458896636963
0.3590194284915924 0.472356915473938 -0.056689538061618805
0.3879701793193817 0.4702675938606262 -0.056689538061618805
0.35773766040802 0.4475102424621582 -0.056689538061618805
0.32949453592300415 0.47440728545188904 -0.056689538061618805
0.3604237735271454 0.4969266951084137 -0.056689538061618805
0.6111510992050171 0.46629494428634644 0.05723763257265091
0.6376116275787354 0.465137243270874 0.05723763257265091
0.6110324263572693 0.4440052807331085 0.05723763257265091
0.5849152207374573 0.4676635265350342 0.05723763257265091
0.6115484833717346 0.4886198043823242 0.05723763257265091
