ply
format ascii 1.0
element vertex 478
property float x
property float y
property float z
end_header
0.4479372501373291 0.7135182023048401 -0.054803479462862015
0.4178747236728668 0.6255339980125427 -0.0978461280465126
0.4494892656803131 0.6531016826629639 -0.05174096301198006
0.43017444014549255 0.5420230627059937 -0.058785200119018555
0.41658201813697815 0.5996212363243103 -0.10418311506509781
0.428914874792099 0.5667328834533691 -0.0965319573879242
0.4689319133758545 0.4847658574581146 -0.04582411050796509
0.38879579305648804 0.4701281189918518 0.1287180334329605
0.48069068789482117 0.4081431031227112 -0.032399389892816544
0.4787828326225281 0.37132012844085693 -0.03593040630221367
0.4967944025993347 0.25472861528396606 -0.014914813451468945
0.4479838013648987 0.7234612107276917 -0.05209345370531082
0.4505380690097809 0.7341328859329224 -0.04532202333211899
0.455056369304657 0.7418181896209717 -0.03542982414364815
0.45472681522369385 0.7422922849655151 -0.03867213428020477
0.4517641067504883 0.7536488771438599 -0.04018354415893555
0.4503306746482849 0.7675865888595581 -0.0436721071600914
0.4521629810333252 0.782008171081543 -0.04096559062600136
0.46761906147003174 0.8046581745147705 -0.023450683802366257
0.4273800253868103 0.6399879455566406 -0.08843734860420227
0.4246722459793091 0.638559103012085 -0.052813805639743805
0.3961148262023926 0.37400442361831665 0.2749207317829132
0.4309364855289459 0.50272136926651 0.07114636152982712
0.41251808404922485 0.501270592212677 0.08669839054346085
0.39734601974487305 0.4962725043296814 0.10489282757043839
0.38676080107688904 0.4779839813709259 0.137796089053154
0.4461936950683594 0.4983392357826233 0.05998610705137253
0.409342497587204 0.41523122787475586 0.08130975812673569
0.4304535984992981 0.421918660402298 0.06375115364789963
0.3913039267063141 0.4181554913520813 0.10162851959466934
0.3817499577999115 0.4294767379760742 0.11752397567033768
0.3751462697982788 0.4933837354183197 0.1556902378797531
0.42755794525146484 0.8325685858726501 0.0457894466817379
0.3877374529838562 0.4622144103050232 0.14014002680778503
0.40051957964897156 0.47764843702316284 0.2854810059070587
0.3736575245857239 0.4718768000602722 0.19024750590324402
0.39805057644844055 0.5987507104873657 0.053894106298685074
0.4307368993759155 0.7074586749076843 -0.03578699007630348
0.43747368454933167 0.7327988147735596 -0.027820933610200882
0.41896575689315796 0.7141606211662292 -0.006927761249244213
0.41419094800949097 0.7245771288871765 0.019139649346470833
0.42985695600509644 0.7334508895874023 -0.006251973565667868
0.42539551854133606 0.7360131740570068 0.01573706977069378
0.41473978757858276 0.7571467161178589 0.06059303879737854
0.4059637784957886 0.6237655282020569 -0.08705183118581772
0.4030373990535736 0.5991156697273254 -0.09099023789167404
0.3670785129070282 0.4003566801548004 0.1447726935148239
0.43581172823905945 0.536950945854187 0.029189880937337875
0.4016537070274353 0.6143763661384583 -0.01056697964668274
0.40671342611312866 0.6003862023353577 -0.0038779759779572487
0.36657750606536865 0.5926334857940674 0.12263457477092743
0.4155992865562439 0.5682803392410278 -0.07685241103172302
0.387096107006073 0.37067335844039917 0.07487864047288895
0.3722638487815857 0.37879592180252075 0.11218523979187012
0.3873963952064514 0.3290303647518158 0.22157138586044312
0.4514477849006653 0.39762842655181885 0.0006559928879141808
0.44823604822158813 0.43679794669151306 0.056556086987257004
0.40461820363998413 0.7345801591873169 0.07906785607337952
0.4444047510623932 0.7089776396751404 0.318124383687973
0.41447585821151733 0.6301363110542297 -0.014451218768954277
0.42629122734069824 0.6395602226257324 -0.03058060072362423
0.41768166422843933 0.7444210648536682 0.06570021063089371
0.42177820205688477 0.7434746623039246 0.05190807953476906
0.3710916042327881 0.3624141216278076 0.12758870422840118
0.4082033038139343 0.6253957152366638 -0.001306803897023201
0.4113059639930725 0.3742688298225403 0.0367397740483284
0.4090697169303894 0.35227131843566895 0.03480183333158493
0.4119255840778351 0.2710511386394501 0.08925293385982513
0.3748815059661865 0.34836775064468384 0.16715465486049652
0.40380069613456726 0.3131594955921173 0.05892046168446541
0.36671051383018494 0.3894560933113098 0.16965335607528687
0.3803984522819519 0.3858436942100525 0.21761655807495117
0.43248942494392395 0.7213029861450195 -0.0335388258099556
0.42359375953674316 0.724858283996582 -0.007515961304306984
0.41904404759407043 0.7307483553886414 0.015227772295475006
0.4200982451438904 0.6352159380912781 -0.015139956958591938
0.4197003245353699 0.7440018653869629 0.057695262134075165
0.4198836088180542 0.7471209168434143 0.03542320802807808
0.42369112372398376 0.7429882287979126 0.04965873807668686
0.4071299433708191 0.6227763295173645 -0.041659120470285416
0.431496262550354 0.7397428750991821 0.017384463921189308
0.43595045804977417 0.7391695380210876 0.0001363971969112754
0.443408727645874 0.7400404214859009 -0.018223756924271584
0.4481980800628662 0.8000585436820984 -0.007948051206767559
0.4345567226409912 0.7779499888420105 -0.024270012974739075
0.4339407682418823 0.7637327909469604 -0.02632138505578041
0.43763571977615356 0.7505975961685181 -0.02239590510725975
0.4432980418205261 0.7407526969909668 -0.021480577066540718
0.4314269423484802 0.7403646111488342 0.015032532624900341
0.4259467124938965 0.7453560829162598 0.012356456369161606
0.42098507285118103 0.7514164447784424 0.010588187724351883
0.417577862739563 0.7591637969017029 0.017463253811001778
0.4024007320404053 0.6907654404640198 0.033594321459531784
0.4464796781539917 0.5858789086341858 0.3656729757785797
0.4382006525993347 0.6469261646270752 -0.0646418109536171
0.4280952513217926 0.7413163185119629 0.03486330062150955
0.423545241355896 0.7442020773887634 0.03331638500094414
0.43157804012298584 0.6497282385826111 -0.03219197690486908
0.41841620206832886 0.6408934593200684 0.0039541833102703094
0.42886561155319214 0.6449671983718872 -0.03193768858909607
0.42170658707618713 0.5505910515785217 0.05016593262553215
0.3956744968891144 0.5662277936935425 0.07676079124212265
0.4100049138069153 0.6113930344581604 0.007722264621406794
0.3920898735523224 0.2938512861728668 0.1566622257232666
0.3824625015258789 0.3226926326751709 0.11475751549005508
0.3848021924495697 0.3498653471469879 0.08275207132101059
0.4216705858707428 0.7725964784622192 0.039484452456235886
0.4450409710407257 0.36166712641716003 -0.003657147055491805
0.43712905049324036 0.3139893114566803 0.01172586064785719
0.44545987248420715 0.25953203439712524 0.02992265112698078
0.3888663947582245 0.48879918456077576 0.12381281703710556
0.3627912104129791 0.5096298456192017 0.1793699860572815
0.45654499530792236 0.49218985438346863 0.05653884634375572
0.37502798438072205 0.4396406412124634 0.14996562898159027
0.4438655972480774 0.5215367674827576 0.014165283180773258
0.39902833104133606 0.6058229207992554 -0.03615185245871544
0.3745634853839874 0.5264466404914856 0.21850423514842987
0.35908716917037964 0.5279499292373657 0.15371888875961304
0.36850932240486145 0.5387833118438721 0.1168120875954628
0.39727988839149475 0.5387759804725647 0.08461032062768936
0.4220104515552521 0.531908392906189 0.061081189662218094
0.43974342942237854 0.5220568776130676 0.04153914004564285
0.45534560084342957 0.48968538641929626 -0.024129031226038933
0.36632099747657776 0.5789588689804077 0.2123524397611618
0.3703630566596985 0.43391209840774536 0.1702890545129776
0.41932788491249084 0.6382250189781189 -0.0802503302693367
0.428328275680542 0.5622432231903076 0.019467536360025406
0.43364793062210083 0.47568899393081665 0.3567715287208557
0.45221784710884094 0.5091659426689148 0.029102729633450508
0.4171655476093292 0.6130284070968628 0.02566285990178585
0.3835686445236206 0.4613512456417084 0.14927399158477783
0.4070487916469574 0.5890423655509949 -0.028748029842972755
0.4462171792984009 0.6455552577972412 0.34902697801589966
0.46218806505203247 0.482911616563797 0.06296312063932419
0.4094697833061218 0.5758448243141174 -0.055369097739458084
0.40843769907951355 0.7726781368255615 0.17887498438358307
0.43235331773757935 0.8001359701156616 0.2132517397403717
0.39785751700401306 0.5831515192985535 0.295063316822052
0.40514108538627625 0.7372813820838928 0.2236727923154831
0.3917694389820099 0.42916339635849 0.2583004832267761
0.4303740859031677 0.8566040992736816 0.06172144412994385
0.43175560235977173 0.6452217102050781 -0.05891791731119156
0.4183475971221924 0.5799102187156677 0.03572265803813934
0.3721293807029724 0.47679975628852844 0.22275763750076294
0.3980928659439087 0.48268789052963257 0.10428493469953537
0.4124281108379364 0.48827433586120605 0.08908345550298691
0.4169309437274933 0.75121009349823 0.04284217953681946
0.3721925616264343 0.6291563510894775 0.21193064749240875
0.45711249113082886 0.8957775831222534 0.04041643813252449
0.43858182430267334 0.8563594222068787 0.12216319888830185
0.4353988766670227 0.8334031105041504 0.1632838100194931
0.4842655062675476 0.31500840187072754 -0.028592227026820183
0.48756706714630127 0.908035159111023 0.006429764442145824
0.42929989099502563 0.4899943470954895 0.07619062066078186
0.4454043507575989 0.48824796080589294 0.06912513077259064
0.4561674892902374 0.4859791696071625 0.0669327899813652
0.37060102820396423 0.4296432137489319 0.19972851872444153
0.4491938352584839 0.4605771601200104 0.06684599071741104
0.43382760882377625 0.44977498054504395 0.07373811304569244
0.41569286584854126 0.44445785880088806 0.08635301142930984
0.40006735920906067 0.44574177265167236 0.1026138886809349
0.39222434163093567 0.4514831304550171 0.1154421791434288
0.41198211908340454 0.4201047420501709 0.32256510853767395
0.3913648724555969 0.47624334692955017 0.11850281059741974
0.45126640796661377 0.6719474792480469 -0.04837159812450409
0.4104975759983063 0.676895022392273 0.011428832076489925
0.40993747115135193 0.626139760017395 -0.022409657016396523
0.4298132658004761 0.6714791059494019 -0.029826082289218903
0.4816012382507324 0.4474555552005768 -0.032345809042453766
0.4170123338699341 0.8049914836883545 0.13868334889411926
0.424623042345047 0.8305625915527344 0.10067872703075409
0.44458407163619995 0.8781940937042236 0.019256476312875748
0.4382701516151428 0.761263906955719 0.26990219950675964
0.4581161141395569 0.4738146960735321 0.064818374812603
0.43618831038475037 0.5299319624900818 -0.022330302745103836
0.47565388679504395 0.8895328044891357 -0.01388872042298317
0.4431505799293518 0.8777046799659729 0.08053718507289886
0.4020403027534485 0.6377038359642029 0.2842862904071808
0.43586593866348267 0.7399739027023315 -0.00281782285310328
0.42972394824028015 0.7475875616073608 -0.0044185081496834755
0.42505818605422974 0.7573002576828003 -0.006628876086324453
0.4231274724006653 0.7697558999061584 -0.0022275643423199654
0.4323265552520752 0.7876831889152527 0.01647898554801941
0.4231007695198059 0.7395412921905518 0.03676799312233925
0.41813236474990845 0.737625241279602 0.04157476872205734
0.41387882828712463 0.7346228361129761 0.04555686190724373
0.39960333704948425 0.7110576629638672 0.059870775789022446
0.36820074915885925 0.6447624564170837 0.15086935460567474
0.4501313865184784 0.5039716958999634 -0.004275154788047075
0.46597403287887573 0.45592960715293884 0.03251129388809204
0.4615480899810791 0.4617576599121094 0.05304574593901634
0.4283331632614136 0.7409562468528748 0.03635363653302193
0.3850068747997284 0.7040648460388184 0.1797257363796234
0.46967118978500366 0.450957715511322 -0.0030687276739627123
0.4318734407424927 0.809575080871582 0.03104413114488125
0.4430891275405884 0.5393573045730591 -0.07911884039640427
0.441786527633667 0.5178056955337524 -0.04531348496675491
0.4556117057800293 0.5137136578559875 -0.06200367212295532
0.4222138822078705 0.5679813027381897 -0.01520499400794506
0.46946409344673157 0.8635483980178833 -0.02459026873111725
0.4689754247665405 0.8323580622673035 -0.024185266345739365
0.44634053111076355 0.8256491422653198 -0.000724419835023582
0.4072800576686859 0.7641350030899048 0.08217312395572662
0.4061375856399536 0.632696270942688 0.040957506746053696
0.4199278950691223 0.7897394299507141 0.057655420154333115
0.3764570653438568 0.6265552043914795 0.08001038432121277
0.3924340307712555 0.6574528813362122 0.05685780569911003
0.37397584319114685 0.6660671830177307 0.10611410439014435
0.44111353158950806 0.8540279865264893 0.007286902982741594
0.421185702085495 0.5814371109008789 0.005470228381454945
0.40605559945106506 0.7793849110603333 0.11186700314283371
0.41924142837524414 0.8071097135543823 0.07962674647569656
0.394306480884552 0.7339010834693909 0.10030031204223633
0.38141751289367676 0.6720119714736938 0.21171873807907104
0.38956931233406067 0.7338019609451294 0.13367754220962524
0.40508681535720825 0.6887990236282349 0.26717203855514526
0.3876050114631653 0.6903801560401917 0.07763456553220749
0.43303757905960083 0.5455981492996216 6.11189243500121e-05
0.4011501967906952 0.6176619529724121 -0.04306706786155701
0.40410253405570984 0.6233590245246887 -0.018912313506007195
0.39863353967666626 0.6010333299636841 -0.06145179644227028
0.45096516609191895 0.42436543107032776 0.03845348209142685
0.4221804141998291 0.40353530645370483 0.05601944029331207
0.39760810136795044 0.3984573483467102 0.07773105055093765
0.3806299865245819 0.40331795811653137 0.10395703464746475
0.3730486333370209 0.4171368479728699 0.12781085073947906
0.3788961172103882 0.46711820363998413 0.1649526059627533
0.3975626528263092 0.530198335647583 0.29538440704345703
0.3760574758052826 0.5050365328788757 0.1380457729101181
0.38605764508247375 0.514595091342926 0.11277441680431366
0.40612712502479553 0.5181712508201599 0.0882275179028511
0.4282470941543579 0.5160598158836365 0.0667981505393982
0.44532716274261475 0.5095674991607666 0.052148014307022095
0.4564249515533447 0.5016493797302246 0.04159832000732422
0.4450632333755493 0.5300891399383545 0.3691479563713074
0.4102374315261841 0.6300217509269714 -0.010519619099795818
0.42409342527389526 0.5524654984474182 -0.036106571555137634
0.4005642235279083 0.6194910407066345 -0.06813068687915802
0.41688084602355957 0.6335136294364929 -0.06894581019878387
0.4079197347164154 0.6244338750839233 -0.058829277753829956
0.41813182830810547 0.6380653977394104 -0.009722658433020115
0.41648048162460327 0.6361098885536194 -0.07590702176094055
0.4275605380535126 0.6428462266921997 -0.055895790457725525
0.4644146263599396 0.4831293821334839 0.05213712528347969
0.46606919169425964 0.48689013719558716 0.031021157279610634
0.46294283866882324 0.4887993335723877 0.013963869772851467
0.3890799880027771 0.45667868852615356 0.1269664615392685
0.37947893142700195 0.44269198179244995 0.13492360711097717
0.46142998337745667 0.5439241528511047 -0.08677665144205093
0.6675657629966736 0.4747714102268219 -0.07584568858146667
0.4602486491203308 0.6434949040412903 -0.07416296750307083
0.8469997644424438 0.3667272925376892 -0.03846835717558861
0.5960968732833862 0.5011206269264221 -0.05937400087714195
0.620678186416626 0.5031689405441284 -0.07083626091480255
0.6459379196166992 0.5015257000923157 -0.07743414491415024
0.6837756633758545 0.48439526557922363 -0.07837434858083725
0.5752911567687988 0.4938376843929291 -0.04289550706744194
0.6240183711051941 0.40374308824539185 -0.08312253654003143
0.5958465337753296 0.40819358825683594 -0.0656030923128128
0.6532151699066162 0.4096637964248657 -0.08890511840581894
0.6745463609695435 0.4240127205848694 -0.08893604576587677
0.7109144926071167 0.504218578338623 -0.07654358446598053
0.5606973767280579 0.8574062585830688 -0.049126192927360535
0.6787567734718323 0.46565335988998413 -0.07409098744392395
0.8490484952926636 0.4932363033294678 -0.035173844546079636
0.7501465082168579 0.48290523886680603 -0.07181239873170853
0.589678943157196 0.6123637557029724 -0.07706449925899506
0.4731866121292114 0.7107306718826294 -0.06836750358343124
0.47413456439971924 0.7356600761413574 -0.057436782866716385
0.5044021606445312 0.7246529459953308 -0.07500290870666504
0.5276657342910767 0.7365886569023132 -0.07494423538446426
0.4996158182621002 0.7397514581680298 -0.06481167674064636
0.5216423273086548 0.7446038722991943 -0.06288225203752518
0.5822362303733826 0.7770282626152039 -0.06185111403465271
0.4360222816467285 0.6269866228103638 -0.10524968057870865
0.4375070631504059 0.6016833782196045 -0.11259417980909348
0.7153496742248535 0.39363962411880493 -0.1013357937335968
0.5503577589988708 0.5431857109069824 -0.05568179115653038
0.5193312168121338 0.6257833242416382 -0.09064187854528427
0.5281118154525757 0.6109248399734497 -0.08648176491260529
0.6789841651916504 0.6145201325416565 -0.095865897834301
0.44883179664611816 0.5704034566879272 -0.10446519404649734
0.6363204717636108 0.3510544002056122 -0.09643689543008804
0.6789949536323547 0.36558997631073 -0.10231243073940277
0.7920960187911987 0.31721222400665283 -0.05957157909870148
0.5250681638717651 0.38255995512008667 -0.0556330569088459
0.5735808610916138 0.4239000082015991 -0.04792273789644241
0.6003068685531616 0.7556455731391907 -0.07055117934942245
0.8554193377494812 0.7527174949645996 0.02554178051650524
0.5042142868041992 0.640648603439331 -0.07381260395050049
0.4853421449661255 0.6468706130981445 -0.060052018612623215
0.5597580671310425 0.7538141012191772 -0.06263796985149384
0.5540879964828491 0.7531033754348755 -0.0599469318985939
0.6989117860794067 0.3478676974773407 -0.10070231556892395
0.5285695195198059 0.6374146938323975 -0.07946597784757614
0.585591197013855 0.3538798689842224 -0.08095671236515045
0.5876572728157043 0.3308897018432617 -0.08633129298686981
0.6400802135467529 0.25899896025657654 -0.07316415756940842
0.7428414225578308 0.3453923463821411 -0.08512184023857117
0.6087124943733215 0.3084295392036438 -0.08122959733009338
0.7408525943756104 0.3840845823287964 -0.09371981024742126
0.7927533388137817 0.3867139220237732 -0.06852796673774719
0.47299724817276 0.7241514325141907 -0.06584694236516953
0.5012246966362 0.7325049638748169 -0.0711779072880745
0.5240416526794434 0.7406599521636963 -0.07022196799516678
0.5010716915130615 0.6452010869979858 -0.06377336382865906
0.5566455721855164 0.7535023093223572 -0.06042299419641495
0.5432098507881165 0.7558864951133728 -0.06298080831766129
0.5512998104095459 0.7526482343673706 -0.05887986719608307
0.47896242141723633 0.6310825943946838 -0.09662429988384247
0.5207121968269348 0.7471487522125244 -0.05692332610487938
0.4994749426841736 0.7441343665122986 -0.05451364442706108
0.4767456650733948 0.7425370216369629 -0.04835592582821846
0.49609872698783875 0.807643711566925 -0.0373295359313488
0.47893643379211426 0.782285213470459 -0.05544931814074516
0.47617292404174805 0.7675986886024475 -0.05806110054254532
0.4755704998970032 0.753455638885498 -0.05420653894543648
0.47630393505096436 0.7427863478660583 -0.05162220075726509
0.5203734040260315 0.7469468116760254 -0.0593598335981369
0.5231225490570068 0.7520881295204163 -0.061769962310791016
0.5265015959739685 0.7591170072555542 -0.06589240580797195
0.530086100101471 0.767168402671814 -0.06602540612220764
0.557224452495575 0.7068787217140198 -0.07597547769546509
0.9007161855697632 0.6147326231002808 0.03833359479904175
0.5372183918952942 0.7498130798339844 -0.059497151523828506
0.5395911931991577 0.7525627613067627 -0.06132784113287926
0.47789064049720764 0.6560112833976746 -0.061214011162519455
0.5262011289596558 0.6527564525604248 -0.05813709273934364
0.4812379479408264 0.651750922203064 -0.060454800724983215
0.5763592720031738 0.5593552589416504 -0.06379584968090057
0.6134173274040222 0.5793972611427307 -0.07829435914754868
0.5377258062362671 0.6229647994041443 -0.0770842656493187
0.7241243720054626 0.28016528487205505 -0.0729200467467308
0.6835246682167053 0.3178984820842743 -0.08871794492006302
0.6474462747573853 0.32956379652023315 -0.0987432599067688
0.5574309825897217 0.7912892699241638 -0.06002553924918175
0.5278058648109436 0.3432959020137787 -0.06553220748901367
0.5451081395149231 0.3112519383430481 -0.061481766402721405
0.5670467615127563 0.25230398774147034 -0.05230690911412239
0.6696027517318726 0.49586042761802673 -0.0793353021144867
0.7445502281188965 0.525507926940918 -0.07916976511478424
0.5605276823043823 0.48630088567733765 -0.034884028136730194
0.7087048292160034 0.44047367572784424 -0.08773224800825119
0.53104567527771 0.52580326795578 -0.05369216203689575
0.4936109781265259 0.6145578622817993 -0.10132803022861481
0.7860673666000366 0.5479459762573242 -0.07512003183364868
0.7173454761505127 0.5441415309906006 -0.08891324698925018
0.6749356985092163 0.5521187782287598 -0.08828287571668625
0.6224348545074463 0.5463554859161377 -0.07157732546329498
0.5875011682510376 0.5344091653823853 -0.056958552449941635
0.5607562065124512 0.5208417177200317 -0.046770431101322174
0.4901372790336609 0.4911561608314514 -0.053345657885074615
0.7758217453956604 0.6071696877479553 -0.07997375726699829
0.7361860871315002 0.436876118183136 -0.08955047279596329
0.4380331337451935 0.6404941082000732 -0.09455025941133499
0.540038526058197 0.5693904161453247 -0.06257740408182144
0.9042815566062927 0.4867756962776184 0.020096590742468834
0.5388842225074768 0.505293071269989 -0.03989657759666443
0.549138605594635 0.6246673464775085 -0.058808572590351105
0.6944321990013123 0.465135395526886 -0.07573390007019043
0.5039306879043579 0.5968974828720093 -0.09481655806303024
0.8869453072547913 0.682712733745575 0.03547782450914383
0.5618667006492615 0.47744590044021606 -0.03291083872318268
0.4744771122932434 0.5806836485862732 -0.10389404743909836
0.7192642092704773 0.8162618279457092 -0.0399114191532135
0.7445346117019653 0.8461255431175232 -0.008837932720780373
0.8470548391342163 0.6137886643409729 -0.02486438676714897
0.7727257609367371 0.7821497321128845 -0.03368037939071655
0.8251718878746033 0.4357914328575134 -0.047627925872802734
0.5723579525947571 0.8848540782928467 -0.0418100580573082
0.4465973377227783 0.6467159986495972 -0.06768463551998138
0.5636388659477234 0.5897363424301147 -0.06566479802131653
0.7847747802734375 0.4904913604259491 -0.0658179223537445
0.6395255923271179 0.48634111881256104 -0.07496926188468933
0.6179254651069641 0.48914551734924316 -0.06923611462116241
0.5474501252174377 0.7599197030067444 -0.06355415284633636
0.774354875087738 0.6628705859184265 -0.06879634410142899
0.5328518152236938 0.9124153852462769 -0.015921561047434807
0.6287288665771484 0.8928728103637695 -0.020661819726228714
0.6795895099639893 0.8755042552947998 -0.01709114946424961
0.5986260175704956 0.48777779936790466 -0.058282747864723206
0.5806969404220581 0.4832920730113983 -0.04627377912402153
0.5684095621109009 0.48036301136016846 -0.036613352596759796
0.7667320966720581 0.43338245153427124 -0.07970796525478363
0.5824840664863586 0.4545440673828125 -0.05133652687072754
0.6030884981155396 0.44497618079185486 -0.0634552389383316
0.6232561469078064 0.443550705909729 -0.07390464842319489
0.6447352170944214 0.4475845992565155 -0.0801691934466362
0.6595772504806519 0.4542577862739563 -0.08064695447683334
0.8826830983161926 0.4201855957508087 -0.006869555916637182
0.6554350256919861 0.4810131788253784 -0.07641515880823135
0.5308386087417603 0.6896088719367981 -0.07149377465248108
0.49943432211875916 0.6362406611442566 -0.07871373742818832
0.47908663749694824 0.676946759223938 -0.06380605697631836
0.6679174900054932 0.8459923267364502 -0.03809375688433647
0.6215901970863342 0.8669379949569702 -0.0383487343788147
0.5216776132583618 0.8942369222640991 -0.03679585084319115
0.8044108748435974 0.807692289352417 0.008805740624666214
0.5677299499511719 0.4688935875892639 -0.040521133691072464
0.49672335386276245 0.5330135226249695 -0.06833049654960632
0.5790656805038452 0.9061274528503418 -0.02528197504580021
0.8388981819152832 0.6752669215202332 -0.021882811561226845
0.4989660382270813 0.7441420555114746 -0.05740819126367569
0.5007803440093994 0.752509593963623 -0.06083032861351967
0.5030145645141602 0.7634856700897217 -0.0656844973564148
0.5056884288787842 0.7764233350753784 -0.0650547444820404
0.5282033681869507 0.8019028306007385 -0.05444749817252159
0.5399180054664612 0.7489615678787231 -0.06212102249264717
0.5429844856262207 0.7475444078445435 -0.06720548868179321
0.54668790102005 0.7458176612854004 -0.0713348388671875
0.5816843509674072 0.729868471622467 -0.07764468342065811
0.7133480906486511 0.6752716302871704 -0.08562510460615158
0.5102924108505249 0.5066105127334595 -0.05180155858397484
0.5384355783462524 0.4470377266407013 -0.028536813333630562
0.5556557178497314 0.4530143141746521 -0.03471929952502251
0.5373916625976562 0.7500662207603455 -0.0579243041574955
0.7332626581192017 0.7418524622917175 -0.06114537641406059
0.5089075565338135 0.442990243434906 -0.03924454003572464
0.5469240546226501 0.8297158479690552 -0.04985848069190979
0.47549551725387573 0.5194729566574097 -0.07008982449769974
0.5099149346351624 0.5743409991264343 -0.07559191435575485
0.5045300126075745 0.8364171385765076 -0.03987622633576393
0.6122190356254578 0.7921711206436157 -0.06122688204050064
0.5695652365684509 0.6466799974441528 -0.06527891010046005
0.5831887125968933 0.815380334854126 -0.05522425100207329
0.6296905875205994 0.6470774412155151 -0.08925194293260574
0.5899961590766907 0.6751993298530579 -0.07681429386138916
0.6607482433319092 0.6930972337722778 -0.0878906100988388
0.5119641423225403 0.8680039644241333 -0.04514814913272858
0.5322277545928955 0.5896849036216736 -0.07031064480543137
0.6443243026733398 0.8150288462638855 -0.05467521771788597
0.6034349203109741 0.838706374168396 -0.04806974157691002
0.6323190331459045 0.7622617483139038 -0.07330192625522614
0.7719685435295105 0.7097655534744263 -0.05719902738928795
0.6812648177146912 0.7696517705917358 -0.06830181926488876
0.8192015886306763 0.7315691709518433 -0.023357931524515152
0.6137630343437195 0.7126807570457458 -0.08083799481391907
0.5184972286224365 0.55074143409729 -0.065032958984375
0.48391854763031006 0.6268281936645508 -0.10245045274496078
0.5095490217208862 0.634601354598999 -0.08660749346017838
0.4647204875946045 0.6073072552680969 -0.10920845717191696
0.5536752939224243 0.4120025038719177 -0.046235501766204834
0.5911624431610107 0.38853973150253296 -0.06907352060079575
0.6271297335624695 0.38422220945358276 -0.08641993254423141
0.6608445048332214 0.39260923862457275 -0.09543868154287338
0.6891871690750122 0.4107247591018677 -0.09571898728609085
0.7185239195823669 0.4735940396785736 -0.07515407353639603
0.8509927988052368 0.5531985759735107 -0.032406315207481384
0.6918824911117554 0.5156433582305908 -0.07963938266038895
0.6606976985931396 0.5231113433837891 -0.07688335329294205
0.6244568228721619 0.5225536227226257 -0.0676022619009018
0.5927649140357971 0.516110360622406 -0.055526237934827805
0.5686594247817993 0.5065097808837891 -0.040189728140830994
0.5508474707603455 0.49679625034332275 -0.03332819417119026
0.9063401222229004 0.5500974059104919 0.03435514494776726
0.5156389474868774 0.6414701342582703 -0.07660387456417084
0.4844845235347748 0.5563238859176636 -0.08372925221920013
0.4573856592178345 0.6263748407363892 -0.10613943636417389
0.4546414315700531 0.6393804550170898 -0.09090005606412888
0.46475541591644287 0.6320741772651672 -0.09757249802350998
0.5136908888816833 0.6489253044128418 -0.06487355381250381
0.4467476010322571 0.640178918838501 -0.0937793105840683
0.4542621970176697 0.6464565992355347 -0.07094873487949371
0.5508371591567993 0.47612881660461426 -0.02722194977104664
0.5362616181373596 0.4797798693180084 -0.027702905237674713
0.522322416305542 0.4823262095451355 -0.0347825363278389
0.6693428158760071 0.4599372148513794 -0.07836855202913284
0.6905817985534668 0.4420661926269531 -0.08425941318273544
0.4389314353466034 0.46569523215293884 0.09329493343830109
0.46303945779800415 0.4675700068473816 0.09329493343830109
0.4406268000602722 0.440874844789505 0.09329493343830109
0.4142066240310669 0.46373891830444336 0.09329493343830109
0.43700793385505676 0.48966485261917114 0.09329493343830109
0.6342844367027283 0.46520498394966125 -0.0633150115609169
0.6609809398651123 0.4650721848011017 -0.0633150115609169
0.6344794631004333 0.44149598479270935 -0.0633150115609169
0.608011782169342 0.46508529782295227 -0.0633150115609169
0.6342620253562927 0.48893141746520996 -0.0633150115609169
