ply
format ascii 1.0
element vertex 478
property float x
property float y
property float z
end_header
0.5095398426055908 0.7075598239898682 -0.06677348911762238
0.51630699634552 0.6196622848510742 -0.1277409940958023
0.5093328356742859 0.6407603621482849 -0.07026726752519608
0.4926973879337311 0.5389964580535889 -0.09660079330205917
0.5172933340072632 0.5948054790496826 -0.13489201664924622
0.5158736705780029 0.5626632571220398 -0.12486819177865982
0.5099272727966309 0.4871678352355957 -0.05990498512983322
0.33638015389442444 0.4700714945793152 0.017514599487185478
0.508232057094574 0.44005900621414185 -0.040779631584882736
0.5086557269096375 0.41174739599227905 -0.043051112443208694
0.5083663463592529 0.29529869556427 -0.010730202309787273
0.5095059871673584 0.7142561674118042 -0.06340982019901276
0.5084620714187622 0.7201763987541199 -0.05659825727343559
0.5070818662643433 0.7237526178359985 -0.04612816497683525
0.5063693523406982 0.7444714307785034 -0.043122775852680206
0.50726318359375 0.7528575658798218 -0.04731316864490509
0.5070995092391968 0.7631212472915649 -0.054674603044986725
0.5060626268386841 0.7738857865333557 -0.05483291670680046
0.49831128120422363 0.7911775708198547 -0.039086926728487015
0.5141113996505737 0.631790816783905 -0.11622855067253113
0.4846805930137634 0.6294376850128174 -0.086556077003479
0.24992789328098297 0.39272022247314453 0.11847762018442154
0.40136638283729553 0.4824211001396179 0.0007261804421432316
0.38073572516441345 0.4851283133029938 -0.00059840502217412
0.3588516116142273 0.48702287673950195 0.0029370421543717384
0.32535845041275024 0.47793781757354736 0.018826596438884735
0.41845467686653137 0.47897666692733765 0.00520039489492774
0.3663824498653412 0.43448758125305176 -0.009714324027299881
0.3915467858314514 0.435252845287323 -0.005264507606625557
0.34274667501449585 0.4386858344078064 -0.005501744337379932
0.32669052481651306 0.4465118646621704 0.002435825066640973
0.3060663342475891 0.49235212802886963 0.027606401592493057
0.4016099274158478 0.8284300565719604 -0.01665239967405796
0.3253489136695862 0.46620744466781616 0.02383992075920105
0.23160305619239807 0.49072515964508057 0.12205879390239716
0.27660295367240906 0.47885555028915405 0.04845745116472244
0.38015687465667725 0.588356077671051 -0.028076719492673874
0.47343185544013977 0.702838659286499 -0.0676419660449028
0.4746987223625183 0.7181925773620605 -0.05582865700125694
0.43764975666999817 0.7069246768951416 -0.056635331362485886
0.4121570289134979 0.7116819620132446 -0.03902047872543335
0.4448770582675934 0.7178199291229248 -0.04781027138233185
0.4210125803947449 0.7185713648796082 -0.031752344220876694
0.3760085105895996 0.7362567782402039 -0.0064655751921236515
0.49477988481521606 0.6182525753974915 -0.1273229718208313
0.49272236227989197 0.5940386652946472 -0.1341499239206314
0.296466201543808 0.43379515409469604 0.003891014726832509
0.4322523772716522 0.5327954292297363 -0.024995505809783936
0.4251909852027893 0.6042013764381409 -0.07489626109600067
0.4232288599014282 0.5910009145736694 -0.0673435777425766
0.30832237005233765 0.5824675559997559 -0.006166062317788601
0.49299830198287964 0.5642755031585693 -0.12009309232234955
0.3564600348472595 0.4129619002342224 -0.028733354061841965
0.3217501640319824 0.4202152490615845 -0.015469427220523357
0.27761852741241455 0.3532232344150543 0.0787159875035286
0.4586905837059021 0.4264386296272278 -0.03787556663155556
0.41258424520492554 0.4417504668235779 0.004069581162184477
0.35634130239486694 0.7108715176582336 -0.0022175502963364124
0.23222601413726807 0.7145227193832397 0.17246520519256592
0.44221749901771545 0.6191335320472717 -0.06441705673933029
0.46358492970466614 0.6274868845939636 -0.06574305891990662
0.3791959881782532 0.7218334078788757 -0.0005955922533757985
0.3854826092720032 0.7224103212356567 -0.0050538694486021996
0.30902230739593506 0.4070037305355072 -0.003794286632910371
0.42111265659332275 0.613151490688324 -0.06239715963602066
0.4013930559158325 0.41315823793411255 -0.036264702677726746
0.39853838086128235 0.39648276567459106 -0.040470026433467865
0.3761272430419922 0.30202415585517883 0.004663905128836632
0.2973725199699402 0.37846845388412476 0.03284239396452904
0.3923797905445099 0.3476923406124115 -0.017863940447568893
0.28120267391204834 0.4232544004917145 0.022948499768972397
0.26898354291915894 0.40950751304626465 0.06939052045345306
0.47370445728302 0.7114475965499878 -0.06409583985805511
0.44131356477737427 0.7128463983535767 -0.05282154679298401
0.41658586263656616 0.7153500318527222 -0.03706736117601395
0.44723936915397644 0.6232694387435913 -0.059540774673223495
0.3824363648891449 0.7221445441246033 -0.0028606534469872713
0.39715176820755005 0.7322033047676086 -0.016283901408314705
0.38866883516311646 0.7227590680122375 -0.005755932070314884
0.4599587917327881 0.6148982048034668 -0.09640446305274963
0.4247300624847412 0.7208887934684753 -0.027710365131497383
0.4480453133583069 0.720892071723938 -0.03822294622659683
0.4757027328014374 0.7218942642211914 -0.04581553488969803
0.4628145694732666 0.7884608507156372 -0.039911843836307526
0.4688430726528168 0.7704269886016846 -0.05548715218901634
0.47094446420669556 0.7598927021026611 -0.055361758917570114
0.4730471074581146 0.7498527765274048 -0.04721688851714134
0.47515925765037537 0.7422673106193542 -0.042861875146627426
0.42447054386138916 0.7344070672988892 -0.025387240573763847
0.4202181398868561 0.7370781898498535 -0.029695341363549232
0.4150197505950928 0.7414631247520447 -0.03401731699705124
0.41072505712509155 0.7466316223144531 -0.031050821766257286
0.3899506628513336 0.6730860471725464 -0.034129537642002106
0.2136141061782837 0.5946976542472839 0.20790447294712067
0.511786937713623 0.6367573142051697 -0.08599438518285751
0.4070660471916199 0.7297216653823853 -0.013626825995743275
0.4022289216518402 0.7306396961212158 -0.01616594009101391
0.4726082980632782 0.6371430158615112 -0.06717436760663986
0.427495539188385 0.6266761422157288 -0.044853951781988144
0.4682994484901428 0.6325016617774963 -0.06704763323068619
0.4065610468387604 0.5442641377449036 -0.02028135024011135
0.3675382733345032 0.557569146156311 -0.018616121262311935
0.41682329773902893 0.6004278063774109 -0.05471692606806755
0.31782370805740356 0.32197344303131104 0.03800448030233383
0.3369104266166687 0.3571101129055023 0.005025641061365604
0.34891706705093384 0.39670559763908386 -0.023213068023324013
0.3987055718898773 0.7567651271820068 -0.019085312262177467
0.4534348249435425 0.3992269039154053 -0.04604041948914528
0.44757962226867676 0.3466644883155823 -0.028205905109643936
0.43752115964889526 0.2940613925457001 -0.011627891100943089
0.3381859064102173 0.4845600128173828 0.010558114387094975
0.27925777435302734 0.5079708695411682 0.03787778317928314
0.4293518662452698 0.47506067156791687 0.009671799838542938
0.3030664920806885 0.45545244216918945 0.018663687631487846
0.4506341218948364 0.519432783126831 -0.03193487599492073
0.44499707221984863 0.5984875559806824 -0.09638255834579468
0.25140297412872314 0.529762327671051 0.05893111228942871
0.29910808801651 0.523127555847168 0.018090812489390373
0.3318982720375061 0.5313073396682739 0.00012386168236844242
0.3766630291938782 0.5266363620758057 -0.006774242501705885
0.40776628255844116 0.5167807340621948 -0.007808533497154713
0.43049901723861694 0.5075809955596924 -0.011161318980157375
0.4863530397415161 0.4918864965438843 -0.053109172731637955
0.2502043545246124 0.5763603448867798 0.05094924569129944
0.2843834161758423 0.4534781277179718 0.02718486450612545
0.5003511905670166 0.6304478645324707 -0.11616324633359909
0.4324054718017578 0.5557783246040344 -0.035270512104034424
0.21992921829223633 0.490085244178772 0.19518554210662842
0.4486863613128662 0.49751827120780945 -0.012282660230994225
0.4130886197090149 0.6010555624961853 -0.030426252633333206
0.3146345913410187 0.466974139213562 0.02670357935130596
0.4430166780948639 0.58230060338974 -0.08692125231027603
0.21786218881607056 0.6524972915649414 0.19563348591327667
0.42665261030197144 0.46803373098373413 0.016216516494750977
0.4684980511665344 0.5710933208465576 -0.10813889652490616
0.2874308228492737 0.7708967924118042 0.06221045181155205
0.28504687547683716 0.8034974932670593 0.09764530509710312
0.22177118062973022 0.5876156091690063 0.12919685244560242
0.25700318813323975 0.7370754480361938 0.08671192079782486
0.24973222613334656 0.44617706537246704 0.10205923765897751
0.394302636384964 0.8572728633880615 -0.0064997621811926365
0.5006517171859741 0.6354697346687317 -0.085207499563694
0.40914928913116455 0.5711945295333862 -0.02900703251361847
0.25447356700897217 0.48173052072525024 0.0691182017326355
0.3615974485874176 0.4728180766105652 0.006529233884066343
0.3805793225765228 0.47181612253189087 0.0028880794998258352
0.39247626066207886 0.7343437671661377 -0.01330022793263197
0.24814781546592712 0.6251169443130493 0.05763920024037361
0.4399546682834625 0.8939787745475769 -1.1967920727329329e-05
0.3585391044616699 0.8609984517097473 0.042030464857816696
0.3238227367401123 0.837543249130249 0.06700421124696732
0.5087435245513916 0.35004550218582153 -0.02728598192334175
0.4935925602912903 0.8982462882995605 -0.0016408037627115846
0.3971835970878601 0.46983277797698975 0.003907935693860054
0.4125351309776306 0.4681890606880188 0.008897052146494389
0.4222722053527832 0.46812599897384644 0.014790172688663006
0.26611989736557007 0.44762784242630005 0.04868381470441818
0.40770503878593445 0.45644432306289673 0.006736051291227341
0.38890597224235535 0.4522736966609955 0.00025818750145845115
0.3700927197933197 0.4524632394313812 -0.0010144497500732541
0.35108014941215515 0.4558846950531006 0.0020451070740818977
0.3385738730430603 0.4602409601211548 0.008264482021331787
0.23195123672485352 0.4356653094291687 0.16169890761375427
0.34753331542015076 0.47199365496635437 0.011986586265265942
0.5074850916862488 0.6581876873970032 -0.06450162827968597
0.41696590185165405 0.6609379053115845 -0.04772854968905449
0.44377461075782776 0.6160581111907959 -0.07276879996061325
0.4693143367767334 0.6571066975593567 -0.06598988175392151
0.5080838799476624 0.462619423866272 -0.04109489172697067
0.3220275640487671 0.8047493100166321 0.04200579598546028
0.3559015393257141 0.8320826888084412 0.01916961371898651
0.44179946184158325 0.8736245036125183 -0.027140967547893524
0.2560090720653534 0.7652952671051025 0.13535656034946442
0.42058444023132324 0.46349093317985535 0.012159154750406742
0.4702487289905548 0.52738356590271 -0.06233983486890793
0.49581441283226013 0.878216028213501 -0.028049111366271973
0.3963779807090759 0.8807529211044312 0.01586250402033329
0.22399753332138062 0.6408235430717468 0.12461727857589722
0.44766658544540405 0.7386491298675537 -0.035556793212890625
0.44363847374916077 0.7438939213752747 -0.040187858045101166
0.4396590292453766 0.7513945698738098 -0.04580121114850044
0.43682876229286194 0.7603028416633606 -0.044469770044088364
0.42671751976013184 0.7752788662910461 -0.03257858753204346
0.40097954869270325 0.7200422883033752 -0.01788789965212345
0.39647820591926575 0.7183109521865845 -0.01850426197052002
0.39248886704444885 0.716360330581665 -0.01921907626092434
0.3681562840938568 0.6895646452903748 -0.01753266528248787
0.2815385162830353 0.6356806755065918 0.01533329114317894
0.4689945876598358 0.5042127370834351 -0.040648769587278366
0.44925275444984436 0.45514976978302 0.0031127536203712225
0.43136921525001526 0.4564208984375 0.009719902649521828
0.4054740071296692 0.7215172648429871 -0.015371507965028286
0.27147382497787476 0.6973860859870911 0.04795275628566742
0.47488707304000854 0.45710045099258423 -0.02687491476535797
0.4133323132991791 0.8005593419075012 -0.02380180172622204
0.5137298703193665 0.5362875461578369 -0.10215944796800613
0.4894033372402191 0.516279399394989 -0.07659966498613358
0.5118153691291809 0.5122359395027161 -0.07988321036100388
0.44998985528945923 0.5622671842575073 -0.06442853063344955
0.4972704350948334 0.8503147959709167 -0.039347223937511444
0.4977794289588928 0.8184527158737183 -0.038645077496767044
0.45525017380714417 0.8154994249343872 -0.036729779094457626
0.354690819978714 0.7489501237869263 0.0031123640947043896
0.3924145996570587 0.619240939617157 -0.027442052960395813
0.3810287117958069 0.7783467173576355 -0.009315665811300278
0.33934468030929565 0.6148125529289246 -0.02307763136923313
0.3690338730812073 0.6425062417984009 -0.024723738431930542
0.3138642907142639 0.6531784534454346 -0.005416026804596186
0.44723790884017944 0.8460789918899536 -0.03710765391588211
0.43133658170700073 0.5735681653022766 -0.04934064298868179
0.33298248052597046 0.7719758749008179 0.020084446296095848
0.3660602271556854 0.8026193380355835 0.004725310951471329
0.33496159315109253 0.7159845232963562 0.0041448636911809444
0.2500773072242737 0.6680031418800354 0.06552628427743912
0.30293214321136475 0.7233672738075256 0.022769570350646973
0.23391935229301453 0.6910564303398132 0.11414773762226105
0.346123605966568 0.6714533567428589 -0.014709820970892906
0.45174455642700195 0.5413738489151001 -0.047691766172647476
0.4529340863227844 0.6103256940841675 -0.10121835023164749
0.43286168575286865 0.6130373477935791 -0.07691454887390137
0.4681120216846466 0.5959466695785522 -0.11738593131303787
0.432425856590271 0.4385799765586853 -0.0048585920594632626
0.39614182710647583 0.4282122850418091 -0.01368687767535448
0.36336833238601685 0.4269758462905884 -0.017010392621159554
0.3351200222969055 0.43156707286834717 -0.0114705516025424
0.3144872784614563 0.4409065842628479 0.0005992415244691074
0.29865992069244385 0.4732532799243927 0.03388964757323265
0.22382882237434387 0.5381612777709961 0.12617018818855286
0.32081279158592224 0.5011292099952698 0.017253544181585312
0.346781849861145 0.5065762400627136 0.005549432709813118
0.37753668427467346 0.504331648349762 -0.0008495625224895775
0.4047127068042755 0.498318612575531 -0.0007361316820606589
0.4252888262271881 0.4924137592315674 0.0006394463707692921
0.44019752740859985 0.486914724111557 0.001356549677439034
0.21573197841644287 0.5418262481689453 0.20907428860664368
0.4311496913433075 0.618168830871582 -0.06544819474220276
0.47154974937438965 0.5486072897911072 -0.08182018995285034
0.47415274381637573 0.6140716075897217 -0.11775888502597809
0.4849776327610016 0.6262224912643433 -0.1074134111404419
0.4717171788215637 0.6177031397819519 -0.10655935853719711
0.436425119638443 0.6248376965522766 -0.05709495767951012
0.4913308620452881 0.6286238431930542 -0.11326806247234344
0.49134549498558044 0.6333721876144409 -0.08580154180526733
0.4361298680305481 0.4694724380970001 0.013684474863111973
0.4520590603351593 0.476116418838501 0.0005189861985854805
0.46280956268310547 0.4818052053451538 -0.016971860080957413
0.3310205340385437 0.46366387605667114 0.014721832238137722
0.3155757784843445 0.4554618299007416 0.014353387989103794
0.5328880548477173 0.5401166081428528 -0.09140188992023468
0.6583905816078186 0.48168426752090454 0.054876118898391724
0.536815881729126 0.6308702230453491 -0.08246428519487381
0.7106945514678955 0.41011834144592285 0.17697051167488098
0.598120927810669 0.493145227432251 0.024973545223474503
0.6176563501358032 0.4960314631462097 0.028463901951909065
0.6375318765640259 0.4984365701675415 0.03653416410088539
0.6661399602890015 0.4902307689189911 0.05842873081564903
0.5823229551315308 0.48911455273628235 0.024227971211075783
0.6338133215904236 0.44821029901504517 0.020437046885490417
0.6101968884468079 0.44836679100990295 0.018452618271112442
0.6548163890838623 0.45271191000938416 0.029378768056631088
0.6676081418991089 0.4604645371437073 0.040069784969091415
0.6809784770011902 0.5061520934104919 0.07025399059057236
0.5835375785827637 0.8296756148338318 0.0012156461598351598
0.6672712564468384 0.47824352979660034 0.06282413005828857
0.7261127233505249 0.5068934559822083 0.18021413683891296
0.7027453184127808 0.49536341428756714 0.09617359936237335
0.6194614171981812 0.5953100919723511 -0.0032625605817884207
0.5420958399772644 0.703443706035614 -0.060878586024045944
0.5376006364822388 0.7187528610229492 -0.049533065408468246
0.5703076124191284 0.7069556713104248 -0.04269448295235634
0.5891602039337158 0.7117483615875244 -0.0200129896402359
0.5612102150917053 0.7181784510612488 -0.03562286123633385
0.5791239738464355 0.7188029289245605 -0.01546869333833456
0.608481764793396 0.7413390874862671 0.017666861414909363
0.5362874269485474 0.6194452047348022 -0.12399496138095856
0.5397367477416992 0.5953804850578308 -0.13020484149456024
0.6930457353591919 0.45020991563796997 0.04834515601396561
0.5721408128738403 0.5369433164596558 -0.008814708329737186
0.5895929336547852 0.6085370779037476 -0.059678077697753906
0.5896181464195251 0.5953691601753235 -0.05166994780302048
0.6801201105117798 0.5934253334999084 0.034569643437862396
0.53694087266922 0.5654633045196533 -0.11500845104455948
0.6462860703468323 0.4295594096183777 0.0017159280832856894
0.6747204065322876 0.4368022084236145 0.022790994495153427
0.6960108280181885 0.3702664077281952 0.13098856806755066
0.5542362928390503 0.4403078556060791 -0.02811906486749649
0.5896564722061157 0.45414555072784424 0.023368479683995247
0.628014326095581 0.7173867225646973 0.026725275442004204
0.7069445252418518 0.724370002746582 0.22760441899299622
0.5716122388839722 0.622474730014801 -0.05294843763113022
0.5518010854721069 0.6300091743469238 -0.05997752025723457
0.6105107069015503 0.721909761428833 0.024809719994664192
0.6043105125427246 0.722435474395752 0.017537854611873627
0.6843910813331604 0.42440199851989746 0.037180203944444656
0.589680016040802 0.6174983382225037 -0.04743436351418495
0.6071606874465942 0.42918527126312256 -0.015455562621355057
0.6114067435264587 0.41272974014282227 -0.018967393785715103
0.626198947429657 0.3136724531650543 0.03417172655463219
0.687501072883606 0.39298853278160095 0.07830975949764252
0.6148500442504883 0.3572503626346588 0.00687625864520669
0.7035696506500244 0.44111892580986023 0.07067710161209106
0.7046860456466675 0.4249168038368225 0.12110671401023865
0.5406997799873352 0.7120965719223022 -0.05733911693096161
0.566114068031311 0.7131626009941101 -0.039766933768987656
0.5844942927360535 0.7154384851455688 -0.01960032433271408
0.5656987428665161 0.626241147518158 -0.05031243711709976
0.6073822975158691 0.7221723794937134 0.020715555176138878
0.5968356728553772 0.733003556728363 0.0038482651580125093
0.601111114025116 0.7228116989135742 0.016253763809800148
0.5611412525177002 0.6179051399230957 -0.08606261759996414
0.5738506317138672 0.7209743857383728 -0.012140885926783085
0.5562004446983337 0.7213032245635986 -0.02665959671139717
0.5339594483375549 0.7224385738372803 -0.03927186504006386
0.5311827659606934 0.7897983193397522 -0.033662278205156326
0.5389002561569214 0.7717882394790649 -0.048478808254003525
0.5387156009674072 0.7608622312545776 -0.04806848615407944
0.536681056022644 0.7505315542221069 -0.040088627487421036
0.5332667231559753 0.7426523566246033 -0.03610888496041298
0.5726504921913147 0.734604001045227 -0.009786308743059635
0.5781901478767395 0.7381147742271423 -0.013994360342621803
0.583818793296814 0.7431857585906982 -0.017821548506617546
0.5877513289451599 0.7491188645362854 -0.013927997089922428
0.6069703102111816 0.6785848140716553 -0.012604494579136372
0.7215622663497925 0.609617292881012 0.26936793327331543
0.5856475830078125 0.7298141121864319 0.005743982270359993
0.5914855003356934 0.7311304211616516 0.0033104815520346165
0.5433993339538574 0.6391218900680542 -0.06153111904859543
0.5803363919258118 0.6304267644882202 -0.032920029014348984
0.5475844144821167 0.6347947120666504 -0.061497461050748825
0.5943520069122314 0.549916684627533 0.0013209497556090355
0.6295669674873352 0.565558135509491 0.010538536123931408
0.5925493836402893 0.6051385402679443 -0.03848318010568619
0.6702820658683777 0.3373557925224304 0.08057960122823715
0.6589948534965515 0.3699985444545746 0.04129846766591072
0.6529866456985474 0.413605660200119 0.009036535397171974
0.5882296562194824 0.7604340314865112 0.0007698380504734814
0.5622573494911194 0.41396331787109375 -0.03541814163327217
0.5663808584213257 0.35200944542884827 -0.015485978685319424
0.5742431282997131 0.3007706105709076 0.003148820949718356
0.6552216410636902 0.4964825510978699 0.04800490662455559
0.7010432481765747 0.5229097008705139 0.08525869250297546
0.5726417303085327 0.4849652051925659 0.02668984979391098
0.6854555606842041 0.47031185030937195 0.0615849606692791
0.5571864247322083 0.5225818753242493 -0.019038302823901176
0.5757397413253784 0.6022545099258423 -0.08410144597291946
0.7207311987876892 0.5444270372390747 0.1125890240073204
0.6881083250045776 0.5363928079605103 0.06278480589389801
0.6624143123626709 0.5427993535995483 0.03822716698050499
0.6224427223205566 0.5367158651351929 0.022293850779533386
0.5932804942131042 0.5260547399520874 0.014300010167062283
0.5726044774055481 0.5162009000778198 0.00549353938549757
0.5306974649429321 0.49334293603897095 -0.04778473079204559
0.7228075265884399 0.5902298092842102 0.10448240488767624
0.6996198296546936 0.47027239203453064 0.07436478137969971
0.5269083380699158 0.6311688423156738 -0.11348332464694977
0.5746760368347168 0.5598046779632568 -0.019581729546189308
0.7210791707038879 0.5069431066513062 0.2584225833415985
0.5572717785835266 0.5054835081100464 0.0005291628767736256
0.5923970341682434 0.6058312058448792 -0.014340674504637718
0.6750218868255615 0.48015812039375305 0.06760244816541672
0.5753349661827087 0.585928201675415 -0.07439696788787842
0.7180709838867188 0.6652083396911621 0.254570335149765
0.5745066404342651 0.4780040681362152 0.033928580582141876
0.5560988783836365 0.5735027194023132 -0.0990632176399231
0.676628589630127 0.7756942510604858 0.10208749771118164
0.669321596622467 0.806705892086029 0.13934607803821564
0.7338147163391113 0.6021482348442078 0.18750473856925964
0.7011194825172424 0.7446268796920776 0.13364706933498383
0.7152534127235413 0.46226149797439575 0.15768954157829285
0.5877487063407898 0.8575022220611572 0.012570611201226711
0.5225943326950073 0.6360458731651306 -0.08352947980165482
0.593920111656189 0.5765495300292969 -0.009672603569924831
0.7174351215362549 0.5002065300941467 0.12165242433547974
0.6365170478820801 0.4840161204338074 0.039338454604148865
0.6190091371536255 0.48280301690101624 0.03186469152569771
0.6011077761650085 0.7354665994644165 0.008126766420900822
0.7216230034828186 0.6377462148666382 0.1096452921628952
0.5442054867744446 0.8935422897338867 0.010890946723520756
0.6119789481163025 0.8604671359062195 0.06900264322757721
0.6394978165626526 0.838146448135376 0.10093880444765091
0.6030820608139038 0.48063480854034424 0.02872021310031414
0.5882209539413452 0.47860896587371826 0.0302011426538229
0.5787924528121948 0.4782886207103729 0.03390611708164215
0.7116780281066895 0.46620702743530273 0.09955985099077225
0.5926707983016968 0.46736323833465576 0.02853480912744999
0.6100863814353943 0.46371084451675415 0.02558319643139839
0.6279104351997375 0.46395978331565857 0.028469268232584
0.6454299092292786 0.46749937534332275 0.03555378317832947
0.6563565731048584 0.4721745252609253 0.044138047844171524
0.7182918787002563 0.453081876039505 0.22342607378959656
0.6489959359169006 0.4833846688270569 0.04762715473771095
0.5868335366249084 0.6652278304100037 -0.031176023185253143
0.5720794200897217 0.6195278167724609 -0.06202198565006256
0.5432831645011902 0.6591818928718567 -0.05908039212226868
0.647313117980957 0.8072872161865234 0.07451196759939194
0.6190203428268433 0.8328797817230225 0.04488496854901314
0.5466768145561218 0.8738276958465576 -0.016799533739686012
0.6899896860122681 0.7717036008834839 0.18499290943145752
0.5805336833000183 0.47374847531318665 0.03167301416397095
0.5464367270469666 0.5296478271484375 -0.05369376763701439
0.5818555951118469 0.8799185752868652 0.03562134504318237
0.729552149772644 0.6537314653396606 0.18063202500343323
0.5552546381950378 0.7391033172607422 -0.023701289668679237
0.5606527924537659 0.7450473308563232 -0.027919672429561615
0.5647072792053223 0.7531844973564148 -0.032984212040901184
0.5669976472854614 0.7629480957984924 -0.031238844618201256
0.5635117292404175 0.7777585387229919 -0.017891498282551765
0.5931992530822754 0.7201713919639587 0.0023496944922953844
0.598203182220459 0.7184327840805054 0.00349963316693902
0.602401077747345 0.7163662910461426 0.00398934306576848
0.6220547556877136 0.6960293054580688 0.009310180321335793
0.6980724334716797 0.6466387510299683 0.05969011411070824
0.543360710144043 0.5066105127334595 -0.03164520487189293
0.5565609335899353 0.46555954217910767 0.014481215737760067
0.5710956454277039 0.46739864349365234 0.026083845645189285
0.5877833366394043 0.721595287322998 0.004166526719927788
0.698045551776886 0.7064213752746582 0.09266675263643265
0.5363764762878418 0.46654120087623596 -0.020240772515535355
0.5736280083656311 0.8022295236587524 -0.0079792570322752
0.5320231318473816 0.5174959897994995 -0.07200734317302704
0.5644538402557373 0.565549910068512 -0.05293499678373337
0.5370609760284424 0.8163066506385803 -0.029278887435793877
0.6261366009712219 0.7539262771606445 0.030614320188760757
0.6081892251968384 0.624870777130127 -0.006877238396555185
0.6020121574401855 0.7813169956207275 0.012427346780896187
0.6539158821105957 0.6235681176185608 0.008957912214100361
0.6262467503547668 0.6492981910705566 0.0010591823374852538
0.6716887354850769 0.6622776389122009 0.03114328347146511
0.5439727902412415 0.8467950820922852 -0.027355825528502464
0.5782455205917358 0.5775737166404724 -0.034929610788822174
0.6428720355033875 0.7760507464408875 0.051156602799892426
0.6137365698814392 0.8047311902046204 0.0287177674472332
0.6465981602668762 0.7229578495025635 0.03730037063360214
0.7159584760665894 0.6790149807929993 0.11539612710475922
0.6720840930938721 0.7302879095077515 0.060695525258779526
0.7196999192237854 0.7017563581466675 0.16757306456565857
0.6424659490585327 0.6791360378265381 0.015948012471199036
0.5598322749137878 0.5445642471313477 -0.035311680287122726
0.5686319470405579 0.6135921478271484 -0.09004125744104385
0.5824922919273376 0.617002010345459 -0.06407173722982407
0.5591094493865967 0.5984952449798584 -0.10833025723695755
0.5735758543014526 0.45096611976623535 0.010722064413130283
0.6080347895622253 0.44182828068733215 0.008777369745075703
0.6385886073112488 0.44135621190071106 0.012412267737090588
0.6631892323493958 0.4464343786239624 0.024374980479478836
0.6788828372955322 0.4559324383735657 0.040759261697530746
0.6862767934799194 0.48759299516677856 0.07757831364870071
0.7325085401535034 0.5538533926010132 0.1860019415616989
0.6698775887489319 0.5137705206871033 0.057480961084365845
0.648205041885376 0.5183605551719666 0.040597304701805115
0.6204164624214172 0.5152359008789062 0.028038835152983665
0.594886064529419 0.5085716247558594 0.02204682119190693
0.5760691165924072 0.502018928527832 0.017788544297218323
0.5631232857704163 0.4958379864692688 0.01525720302015543
0.7207360863685608 0.5578633546829224 0.2724316418170929
0.5812630653381348 0.6219952702522278 -0.052814044058322906
0.5493100881576538 0.550808310508728 -0.07288678735494614
0.5528822541236877 0.6162470579147339 -0.11071722209453583
0.5390651226043701 0.6276768445968628 -0.10325480997562408
0.5520817637443542 0.6200969219207764 -0.09929697960615158
0.5742641687393188 0.6281672716140747 -0.04635278135538101
0.5345893502235413 0.6297839879989624 -0.10993721336126328
0.5308113098144531 0.6342902183532715 -0.08293040096759796
0.566364049911499 0.47937870025634766 0.028429610654711723
0.5530538558959961 0.48498809337615967 0.011429745703935623
0.5454850792884827 0.48989832401275635 -0.008005606941878796
0.6627947688102722 0.4757726192474365 0.05217399075627327
0.675509512424469 0.4693300724029541 0.05425410345196724
0.36558258533477783 0.46283116936683655 0.009358778595924377
0.3894140124320984 0.4616355299949646 0.009358778595924377
0.36535197496414185 0.4446604251861572 0.009358778595924377
0.3418309688568115 0.46400195360183716 0.009358778595924377
0.36583828926086426 0.4809289574623108 0.009358778595924377
0.6214471459388733 0.470297634601593 0.03808829188346863
0.6445616483688354 0.4717133641242981 0.03808829188346863
0.6228307485580444 0.4525056481361389 0.03808829188346863
0.5980091691017151 0.4687803387641907 0.03808829188346863
0.6199764609336853 0.48795104026794434 0.03808829188346863
