ply
format ascii 1.0
element vertex 478
property float x
property float y
property float z
end_header
0.5005704760551453 0.7086814641952515 -0.06774250417947769
0.48700934648513794 0.6156120896339417 -0.13515271246433258
0.4896062910556793 0.6402115225791931 -0.0714934915304184
0.4713039696216583 0.5263007879257202 -0.1012461856007576
0.4873630702495575 0.5878708362579346 -0.1440369337797165
0.48941630125045776 0.5518563985824585 -0.13485576212406158
0.4960007071495056 0.46725085377693176 -0.06961936503648758
0.3210543394088745 0.44075363874435425 0.044256266206502914
0.4989742636680603 0.40279996395111084 -0.053992655128240585
0.4997747540473938 0.3678954839706421 -0.05957234650850296
0.5054280161857605 0.24859100580215454 -0.03704133257269859
0.5005506277084351 0.714995801448822 -0.06420896202325821
0.5002633333206177 0.7204686999320984 -0.056363869458436966
0.5000547766685486 0.7240167856216431 -0.045434486120939255
0.5004198551177979 0.7422565221786499 -0.037501536309719086
0.5003892779350281 0.7555195093154907 -0.041489675641059875
0.5000097155570984 0.7715267539024353 -0.04670822620391846
0.4995819330215454 0.7869763374328613 -0.04282057657837868
0.4900972545146942 0.8147813677787781 -0.01990787871181965
0.4878503978252411 0.6294339895248413 -0.1221923902630806
0.46514177322387695 0.6270579695701599 -0.08651337772607803
0.25615254044532776 0.3706878423690796 0.16612040996551514
0.39786967635154724 0.4659358859062195 0.013658530078828335
0.3718494772911072 0.4695136845111847 0.017704596742987633
0.34688735008239746 0.4687521457672119 0.026468239724636078
0.31400972604751587 0.4477176070213318 0.04947783052921295
0.41891589760780334 0.45763111114501953 0.01411037053912878
0.3564627468585968 0.39210423827171326 0.006102679762989283
0.38577282428741455 0.39469170570373535 0.0039380937814712524
0.3294259309768677 0.39632153511047363 0.01654917560517788
0.31297552585601807 0.40591275691986084 0.02824738249182701
0.2966790199279785 0.4679803252220154 0.0633741244673729
0.39812973141670227 0.8492494225502014 0.020526906475424767
0.31142812967300415 0.4302661120891571 0.0531558021903038
0.24163657426834106 0.4798010587692261 0.17983831465244293
0.2718496024608612 0.44854843616485596 0.09033098071813583
0.372352659702301 0.5870487689971924 -0.007201122585684061
0.4650859534740448 0.7015466690063477 -0.06198146194219589
0.46820762753486633 0.716543972492218 -0.0496501587331295
0.4331058859825134 0.7029603123664856 -0.042809825390577316
0.4114001393318176 0.7051492929458618 -0.01871534436941147
0.4417095482349396 0.7139890193939209 -0.03544851765036583
0.4216444492340088 0.7127959728240967 -0.013849794864654541
0.37557685375213623 0.7476664781570435 0.027214139699935913
0.4662006199359894 0.6143566966056824 -0.13159260153770447
0.46376046538352966 0.5875636339187622 -0.13943041861057281
0.2778674364089966 0.3875546455383301 0.037405140697956085
0.4265141785144806 0.5240214467048645 -0.015424788929522038
0.4122169613838196 0.601427435874939 -0.06549051403999329
0.4122251570224762 0.58720862865448 -0.05786072835326195
0.3027344346046448 0.5824635028839111 0.03163968399167061
0.467301607131958 0.5543100833892822 -0.12493959069252014
0.33241981267929077 0.36084020137786865 -0.01240928191691637
0.29917681217193604 0.3702959418296814 0.01065085455775261
0.27736079692840576 0.3240058124065399 0.11384162306785583
0.4443097710609436 0.3800845146179199 -0.042525164783000946
0.4113837778568268 0.404731810092926 0.009452342055737972
0.35656702518463135 0.7181490063667297 0.032833412289619446
0.2643725872039795 0.7254433035850525 0.2505194842815399
0.4297045171260834 0.6170809864997864 -0.05752691626548767
0.44942694902420044 0.6263808608055115 -0.06191607192158699
0.38322046399116516 0.7103651762008667 0.03036690317094326
0.3903921842575073 0.7120739817619324 0.022614000365138054
0.28663304448127747 0.3538799285888672 0.02341827005147934
0.4110428988933563 0.6116601824760437 -0.051641032099723816
0.3793862760066986 0.3614799976348877 -0.030594991520047188
0.37362140417099 0.34222352504730225 -0.036148589104413986
0.3686201572418213 0.26195621490478516 0.0075895641930401325
0.28958186507225037 0.34597641229629517 0.06282811611890793
0.3785240650177002 0.3072988986968994 -0.01515444926917553
0.2643122673034668 0.375838041305542 0.059500232338905334
0.2677299678325653 0.383861243724823 0.10995884984731674
0.4660596251487732 0.7100637555122375 -0.05824549123644829
0.4371825158596039 0.7088026404380798 -0.039811715483665466
0.4161185622215271 0.7090381383895874 -0.018194545060396194
0.43525391817092896 0.621751606464386 -0.052923042327165604
0.3868185877799988 0.7112520337104797 0.026155592873692513
0.39904993772506714 0.7243747115135193 0.010659066028892994
0.39397597312927246 0.7129572629928589 0.021607287228107452
0.4412037432193756 0.6112765073776245 -0.09261710196733475
0.4264068305492401 0.7156286835670471 -0.010385895147919655
0.44617176055908203 0.7174940705299377 -0.026040203869342804
0.47088685631752014 0.7206258177757263 -0.039083726704120636
0.4543861448764801 0.8110400438308716 -0.015426155179738998
0.46218350529670715 0.7819388508796692 -0.03746878728270531
0.4644412100315094 0.7663904428482056 -0.040299199521541595
0.4677419364452362 0.7503907680511475 -0.034647684544324875
0.4711006283760071 0.7383091449737549 -0.030933838337659836
0.42693179845809937 0.7258466482162476 -0.004102179314941168
0.4207361340522766 0.7309231758117676 -0.007860039360821247
0.41349849104881287 0.7385133504867554 -0.010833708569407463
0.407758891582489 0.7467725872993469 -0.005562848877161741
0.3833445906639099 0.6776977777481079 -0.010982864536345005
0.24510356783866882 0.597117006778717 0.2843684256076813
0.48876872658729553 0.635068416595459 -0.08927318453788757
0.4121043384075165 0.7199251651763916 0.011853878386318684
0.4056709110736847 0.7217295169830322 0.009724152274429798
0.4570019543170929 0.637067437171936 -0.06255361437797546
0.41926711797714233 0.6266036629676819 -0.034235138446092606
0.453398734331131 0.6319176554679871 -0.06299381703138351
0.4004829525947571 0.5379648208618164 -0.00433348398655653
0.3598126769065857 0.5537688732147217 0.006302237510681152
0.4079393744468689 0.5981221199035645 -0.04320300742983818
0.31243303418159485 0.28647488355636597 0.057932961732149124
0.32440972328186035 0.3191688358783722 0.02197239175438881
0.3231431841850281 0.3418942391872406 -0.007549131289124489
0.39467641711235046 0.7724348902702332 0.012814072892069817
0.4345540702342987 0.34804946184158325 -0.052622295916080475
0.4360032379627228 0.3058359920978546 -0.038462523370981216
0.4307430386543274 0.25084325671195984 -0.024738753214478493
0.32606810331344604 0.46101903915405273 0.03875787928700447
0.27251294255256653 0.48769980669021606 0.07992798089981079
0.43182653188705444 0.44938790798187256 0.01622643880546093
0.2913551926612854 0.417339563369751 0.05210316926240921
0.4437386989593506 0.5078154802322388 -0.02645478956401348
0.42694178223609924 0.5939828753471375 -0.09150931984186172
0.2550167739391327 0.5239025950431824 0.11052967607975006
0.2877371311187744 0.5084182620048523 0.05702304467558861
0.3183620870113373 0.5208401083946228 0.03174511343240738
0.36534032225608826 0.5163434743881226 0.01654771901667118
0.4000934362411499 0.5039690732955933 0.007772746961563826
0.425476998090744 0.49144402146339417 -0.0015239104395732284
0.47369512915611267 0.4736427962779999 -0.05742917209863663
0.2544770836830139 0.5758389234542847 0.10531845688819885
0.27389517426490784 0.41520053148269653 0.0653870552778244
0.47512155771255493 0.6281038522720337 -0.11963323503732681
0.4251660108566284 0.5489187836647034 -0.02606094256043434
0.24081885814666748 0.4809810519218445 0.26234468817710876
0.44402021169662476 0.4778424799442291 -0.007452400401234627
0.4068213105201721 0.5992527008056641 -0.017584750428795815
0.3045329451560974 0.430629700422287 0.058678384870290756
0.4278927445411682 0.5765200257301331 -0.08220410346984863
0.25059640407562256 0.6599725484848022 0.27395278215408325
0.43177953362464905 0.43971550464630127 0.022327810525894165
0.4472646713256836 0.5629299283027649 -0.10824903100728989
0.30174320936203003 0.7833020687103271 0.1193714365363121
0.3085169494152069 0.8165305256843567 0.16329731047153473
0.23845604062080383 0.5880166888237 0.19564063847064972
0.2751482427120209 0.7482008934020996 0.15025219321250916
0.25416892766952515 0.42818814516067505 0.15210634469985962
0.39379626512527466 0.8781644105911255 0.03533920645713806
0.4785532057285309 0.6337805986404419 -0.0869627445936203
0.4025052487850189 0.5668818950653076 -0.014968759380280972
0.25324568152427673 0.45273131132125854 0.11728253960609436
0.34762805700302124 0.45361918210983276 0.027655990794301033
0.3709256052970886 0.4556751251220703 0.019948242232203484
0.39326635003089905 0.7274637818336487 0.015430920757353306
0.2559202015399933 0.629069983959198 0.11431708186864853
0.43904972076416016 0.9185141324996948 0.03810981288552284
0.3696078956127167 0.8778073787689209 0.09427545219659805
0.34094470739364624 0.8520842790603638 0.12512663006782532
0.5022228360176086 0.3072962760925293 -0.04970944672822952
0.4914267957210541 0.9259822368621826 0.02668839879333973
0.3931446373462677 0.4525946378707886 0.01687350869178772
0.4134165346622467 0.4465072751045227 0.018595455214381218
0.42595475912094116 0.4422895312309265 0.022590773180127144
0.2585814893245697 0.40895166993141174 0.09158243238925934
0.40910249948501587 0.42269521951675415 0.014757774770259857
0.38596153259277344 0.41579699516296387 0.011631141416728497
0.36222848296165466 0.4137614369392395 0.014680963009595871
0.3390839695930481 0.4165155291557312 0.022710563614964485
0.32499057054519653 0.4219910204410553 0.03197420388460159
0.24473607540130615 0.4200882911682129 0.21991944313049316
0.33200645446777344 0.4480268359184265 0.036619022488594055
0.4897872507572174 0.6607582569122314 -0.06438972055912018
0.40786468982696533 0.6646647453308105 -0.03021315112709999
0.42968326807022095 0.6134290099143982 -0.06710367649793625
0.45414766669273376 0.6600566506385803 -0.05890538915991783
0.49819159507751465 0.4356022775173187 -0.05232923477888107
0.33252009749412537 0.8190217018127441 0.09426529705524445
0.3620246648788452 0.8484949469566345 0.06656157225370407
0.4361761808395386 0.8993363976478577 0.007281122263520956
0.2848909795284271 0.7776788473129272 0.20921561121940613
0.4242507219314575 0.43301013112068176 0.01930125616490841
0.4563120901584625 0.5146955251693726 -0.06256981194019318
0.4896130859851837 0.9067968130111694 -0.002853312762454152
0.40046441555023193 0.9012761116027832 0.0616985447704792
0.2436806559562683 0.6459665298461914 0.192552387714386
0.4467965364456177 0.7323379516601562 -0.018541062250733376
0.44101452827453613 0.7413950562477112 -0.02224811166524887
0.43529656529426575 0.7537158727645874 -0.025827346369624138
0.4311599135398865 0.7676472067832947 -0.021761778742074966
0.41994738578796387 0.7948052287101746 -0.003175059799104929
0.4054427146911621 0.7122703194618225 0.005858775228261948
0.39960551261901855 0.7097419500350952 0.006847580429166555
0.39505618810653687 0.7071855068206787 0.007005166262388229
0.3648449182510376 0.6951643228530884 0.012041390873491764
0.2821534276008606 0.6406679749488831 0.06152696534991264
0.459369421005249 0.48906320333480835 -0.0403134860098362
0.44894516468048096 0.42179393768310547 0.0021100533194839954
0.43402087688446045 0.42421701550483704 0.013708452694118023
0.4110192060470581 0.7145841121673584 0.00776389567181468
0.2802622318267822 0.7066420316696167 0.10177723318338394
0.4679742455482483 0.42394062876701355 -0.032412730157375336
0.4088376760482788 0.8204312920570374 0.009824658744037151
0.4917445480823517 0.5225753784179688 -0.1120925322175026
0.4721512496471405 0.5011040568351746 -0.0819314569234848
0.4938439130783081 0.4957745671272278 -0.08983021974563599
0.43762463331222534 0.5546430945396423 -0.060581274330616
0.4891741871833801 0.8781026601791382 -0.01667674630880356
0.48960626125335693 0.843977689743042 -0.01809118501842022
0.447244793176651 0.8390722870826721 -0.009461525827646255
0.356017529964447 0.7612417936325073 0.04207320883870125
0.3866773247718811 0.6201351284980774 -0.008134791627526283
0.3800967037677765 0.7943602204322815 0.02771376445889473
0.33201104402542114 0.6170912981033325 0.007248724345117807
0.3630571663379669 0.6460772752761841 0.0015891004586592317
0.31127893924713135 0.6589072942733765 0.03197138011455536
0.43914079666137695 0.8714576959609985 -0.00595591776072979
0.423026442527771 0.5682283639907837 -0.04113515838980675
0.3378668427467346 0.7854471802711487 0.06598721444606781
0.3677552342414856 0.8188738226890564 0.046686574816703796
0.3360457718372345 0.7250510454177856 0.04464254528284073
0.26127153635025024 0.6751142740249634 0.12374047189950943
0.3079950213432312 0.7336956262588501 0.06963364779949188
0.25465571880340576 0.6998648047447205 0.1829858273267746
0.34270578622817993 0.6771091818809509 0.018354836851358414
0.4416504502296448 0.5316645503044128 -0.04288091883063316
0.43366947770118713 0.6064330339431763 -0.09727165102958679
0.4191151559352875 0.6106373071670532 -0.06924392282962799
0.4439764618873596 0.589978814125061 -0.11620519310235977
0.42732805013656616 0.3974030017852783 -0.0038068690337240696
0.3841536045074463 0.3818787932395935 -0.005618418101221323
0.34683528542518616 0.38006019592285156 -0.001177986734546721
0.3167669177055359 0.38632774353027344 0.012244762852787971
0.29824918508529663 0.398256778717041 0.030116792768239975
0.2905377745628357 0.4397508502006531 0.07005303353071213
0.23732668161392212 0.5333530902862549 0.189735546708107
0.3096924126148224 0.480559766292572 0.05013597011566162
0.3347143530845642 0.49126961827278137 0.0333298034965992
0.368094801902771 0.49086976051330566 0.020677536725997925
0.4001374840736389 0.48315635323524475 0.013196875341236591
0.4239366054534912 0.47331544756889343 0.009727689437568188
0.44005608558654785 0.46479326486587524 0.0063302782364189625
0.2431482970714569 0.5387319326400757 0.28207337856292725
0.4196239411830902 0.616564929485321 -0.0568518191576004
0.4536161422729492 0.5380914807319641 -0.08186093717813492
0.44963034987449646 0.6096537709236145 -0.11821302026510239
0.4632536470890045 0.6231088638305664 -0.10908710211515427
0.4504818916320801 0.6137559413909912 -0.10600040853023529
0.4262140989303589 0.624083399772644 -0.04893385246396065
0.46749427914619446 0.6260320544242859 -0.11594004184007645
0.47068679332733154 0.6314694881439209 -0.08666492253541946
0.44013312458992004 0.44071054458618164 0.017388565465807915
0.4525177478790283 0.4499856233596802 0.0012267761630937457
0.45817112922668457 0.45733416080474854 -0.017014721408486366
0.3170400559902191 0.4264485836029053 0.04119071736931801
0.3035033047199249 0.4165855050086975 0.04363138601183891
0.513264536857605 0.526763379573822 -0.10559789836406708
0.6822270154953003 0.45456212759017944 0.013345880433917046
0.5143066644668579 0.6276558041572571 -0.08983191847801208
0.7837809324264526 0.3748539686203003 0.11890488117933273
0.6033759713172913 0.4768822491168976 -0.006255030166357756
0.6300008296966553 0.48110324144363403 -0.006203271448612213
0.6559580564498901 0.4806089997291565 -0.0012270186562091112
0.692254364490509 0.4622983932495117 0.016659872606396675
0.581510066986084 0.46749597787857056 -0.0015865532914176583
0.6457493305206299 0.39337968826293945 -0.019256828352808952
0.615118145942688 0.39510154724121094 -0.016152912750840187
0.6739820837974548 0.39987966418266296 -0.012745073065161705
0.6918979287147522 0.41231971979141235 -0.003456656588241458
0.7125577926635742 0.481118381023407 0.02828703634440899
0.5885367393493652 0.8555247783660889 0.006530396174639463
0.6934747695922852 0.44489145278930664 0.020690610632300377
0.7918082475662231 0.4867822527885437 0.13193517923355103
0.7433865070343018 0.461562842130661 0.05066528171300888
0.6249493360519409 0.5916438698768616 -0.027273690328001976
0.5361186861991882 0.7036001086235046 -0.06753067672252655
0.5319641828536987 0.7186305522918701 -0.05479375645518303
0.5679903626441956 0.7067767381668091 -0.054244816303253174
0.5891773104667664 0.7108947038650513 -0.034133002161979675
0.5582952499389648 0.7179394960403442 -0.04541095718741417
0.5783393383026123 0.7184746265411377 -0.026865815743803978
0.6157602667808533 0.7536260485649109 0.00804175529628992
0.5087825059890747 0.6150028705596924 -0.1342831552028656
0.5118135213851929 0.5882154703140259 -0.14275071024894714
0.7285910844802856 0.38746118545532227 -0.00015192657883744687
0.5728465914726257 0.525820791721344 -0.028761515393853188
0.5738721489906311 0.6043309569358826 -0.07822060585021973
0.5763125419616699 0.5900967717170715 -0.07105470448732376
0.7026192545890808 0.5894618034362793 -0.00124154903460294
0.5124553442001343 0.554789662361145 -0.12918177247047424
0.6663650870323181 0.3532554507255554 -0.037868499755859375
0.7031137943267822 0.3657783567905426 -0.021526815369725227
0.7575901746749878 0.3267197906970978 0.07143083959817886
0.5498002767562866 0.37587690353393555 -0.05070788413286209
0.5886167287826538 0.40663328766822815 -0.007006562314927578
0.6366782188415527 0.7246946096420288 0.01002231240272522
0.7633203864097595 0.7350797653198242 0.20722004771232605
0.5552717447280884 0.6193566918373108 -0.06682263314723969
0.5338435769081116 0.6279683113098145 -0.06650229543447495
0.61723393201828 0.720859169960022 0.010413790121674538
0.6101360321044922 0.7217788696289062 0.004911452531814575
0.7180516719818115 0.3488636612892151 -0.011083700694143772
0.5762439370155334 0.6149775981903076 -0.06406033039093018
0.616378664970398 0.35373130440711975 -0.04805726930499077
0.6214777827262878 0.3324087858200073 -0.05422833934426308
0.6513293981552124 0.2625446915626526 -0.01678134873509407
0.7367983460426331 0.34870707988739014 0.02476223185658455
0.6335066556930542 0.3075851798057556 -0.036162227392196655
0.7454327344894409 0.3766917288303375 0.019355187192559242
0.763581395149231 0.3884297013282776 0.06645740568637848
0.5346989035606384 0.7122011184692383 -0.06378167867660522
0.5634373426437378 0.712857186794281 -0.05061740428209305
0.5842604041099548 0.7147064208984375 -0.03235158324241638
0.5494657754898071 0.6239506006240845 -0.06043246015906334
0.6136685609817505 0.7213910818099976 0.007604702841490507
0.6014047861099243 0.7332900166511536 -0.005291034933179617
0.606543779373169 0.7222632765769958 0.0044450000859797
0.5399786233901978 0.6126712560653687 -0.10119039565324783
0.5729910731315613 0.7211849689483643 -0.022718966007232666
0.5532856583595276 0.7213618755340576 -0.035335201770067215
0.5289878845214844 0.7226313948631287 -0.04432044178247452
0.5280320644378662 0.81322181224823 -0.020285241305828094
0.5365612506866455 0.7848150730133057 -0.04288054257631302
0.5350181460380554 0.7689650654792786 -0.04604875668883324
0.5323700308799744 0.7527693510055542 -0.04037243500351906
0.5291478037834167 0.740551769733429 -0.03635508939623833
0.5731427669525146 0.731784462928772 -0.01643180288374424
0.5794408321380615 0.7374846935272217 -0.020251454785466194
0.5865403413772583 0.745802640914917 -0.023667357861995697
0.5920807719230652 0.7545945644378662 -0.019179733470082283
0.6055005192756653 0.6826921105384827 -0.028589565306901932
0.7933545112609863 0.6054446697235107 0.23644086718559265
0.5879309177398682 0.7274510860443115 -0.0033846069127321243
0.5947583317756653 0.7299593091011047 -0.0056727174669504166
0.5252062082290649 0.6386189460754395 -0.06711908429861069
0.5683656930923462 0.6299786567687988 -0.04403850436210632
0.5292972922325134 0.6335423588752747 -0.06741446256637573
0.5999883413314819 0.540918231010437 -0.02183784730732441
0.642267107963562 0.558417022228241 -0.017147241160273552
0.5817814469337463 0.6015642881393433 -0.05674029514193535
0.7157532572746277 0.28792473673820496 0.02327871508896351
0.6957581639289856 0.3204231262207031 -0.008690038695931435
0.6764319539070129 0.3329940438270569 -0.03487304970622063
0.5937331318855286 0.7776807546615601 -0.0028867495711892843
0.558161199092865 0.3398652672767639 -0.06144079938530922
0.5711583495140076 0.30600008368492126 -0.04935905337333679
0.5835527777671814 0.2510579228401184 -0.036972951143980026
0.6785396933555603 0.4745466113090515 0.007847673259675503
0.7404018044471741 0.5013139247894287 0.04073399677872658
0.5679210424423218 0.4584282636642456 0.0022048677783459425
0.717528223991394 0.4253215491771698 0.016013767570257187
0.5546227693557739 0.5088706612586975 -0.0371389165520668
0.5557595491409302 0.5959872007369995 -0.1017134040594101
0.7660611867904663 0.5314739942550659 0.06641917675733566
0.7208612561225891 0.5202631950378418 0.020227938890457153
0.6859987378120422 0.5304959416389465 0.0004023119108751416
0.6359238028526306 0.5255205035209656 -0.007300798315554857
0.5998862981796265 0.5125975608825684 -0.010519581846892834
0.5733172297477722 0.4987189471721649 -0.015261346474289894
0.5199561715126038 0.4738638699054718 -0.061831459403038025
0.7621205449104309 0.5844826102256775 0.06144310534000397
0.7377874851226807 0.42243844270706177 0.02574160322546959
0.5011588335037231 0.6285027265548706 -0.12183260172605515
0.5704110264778137 0.5510173439979553 -0.03898289427161217
0.8022708296775818 0.4872024655342102 0.21240384876728058
0.5531286001205444 0.48350274562835693 -0.018200097605586052
0.5853399038314819 0.6029228568077087 -0.031102582812309265
0.7033910155296326 0.4448622465133667 0.024738537147641182
0.5579658150672913 0.5785474181175232 -0.09265168011188507
0.7832046151161194 0.6692142486572266 0.2281564623117447
0.5696431994438171 0.44881755113601685 0.007820348255336285
0.5352251529693604 0.5641288161277771 -0.11578841507434845
0.7041128873825073 0.7935898900032043 0.08692609518766403
0.7027644515037537 0.8268289566040039 0.13038700819015503
0.7883830070495605 0.5970314741134644 0.14774078130722046
0.7369867563247681 0.7582786679267883 0.11183147877454758
0.7785848379135132 0.4339900612831116 0.10593543201684952
0.5936253070831299 0.8852295875549316 0.020022645592689514
0.4993364214897156 0.6340324878692627 -0.08833238482475281
0.5941097140312195 0.5701770782470703 -0.030825216323137283
0.766228973865509 0.467568039894104 0.07370904088020325
0.6535271406173706 0.46557319164276123 0.0005849698791280389
0.6298654079437256 0.4668436646461487 -0.0040176487527787685
0.607149064540863 0.7368953227996826 -0.0016566638369113207
0.7585248947143555 0.6383523344993591 0.0720629096031189
0.5461424589157104 0.9226022958755493 0.029664775356650352
0.6273002028465271 0.8864032030105591 0.0726802870631218
0.6627140045166016 0.8618634939193726 0.09825604408979416
0.6077819466590881 0.4633183479309082 -0.003464851761236787
0.5874839425086975 0.456493616104126 0.0012584315845742822
0.5752198100090027 0.45196157693862915 0.007076093461364508
0.7569395303726196 0.4167552590370178 0.04902060329914093
0.5940966606140137 0.4300939440727234 -0.0032596427481621504
0.6172582507133484 0.42316102981567383 -0.009361542761325836
0.6405895948410034 0.4224774241447449 -0.009912554174661636
0.6635619401931763 0.42717209458351135 -0.005311097018420696
0.6782780885696411 0.4345083236694336 0.0020342632196843624
0.7973390817642212 0.4253535866737366 0.17079409956932068
0.6701168417930603 0.4607740640640259 0.00719861313700676
0.5786584615707397 0.6685097217559814 -0.04348234087228775
0.554419219493866 0.6155768036842346 -0.07606147974729538
0.527642548084259 0.6617791652679443 -0.06446456164121628
0.6675875782966614 0.829013466835022 0.06807954609394073
0.6320265531539917 0.8574762344360352 0.04587264358997345
0.5457655191421509 0.9033198952674866 -0.0010532019659876823
0.7346771955490112 0.7874969840049744 0.17035003006458282
0.57748943567276 0.44144317507743835 0.0032627666369080544
0.5351908802986145 0.5154857635498047 -0.06980001926422119
0.5897067189216614 0.9080288410186768 0.045698992908000946
0.7793500423431396 0.6556433439254761 0.14672322571277618
0.5533058643341064 0.736491322517395 -0.02787105366587639
0.5589578747749329 0.7459496855735779 -0.03198771923780441
0.5643420815467834 0.7588441967964172 -0.03613973781466484
0.568255603313446 0.773220956325531 -0.03239147365093231
0.5651829242706299 0.7986302971839905 -0.014582175761461258
0.5951430797576904 0.7198182344436646 -0.010002709925174713
0.6009849905967712 0.7176131010055542 -0.01046334020793438
0.6056168675422668 0.7152684926986694 -0.011387619189918041
0.626338541507721 0.7010953426361084 -0.009493744000792503
0.7241272330284119 0.6491239666938782 0.02607846073806286
0.5367708802223206 0.4897140562534332 -0.047787249088287354
0.5502724647521973 0.42516374588012695 -0.007667611353099346
0.5658683180809021 0.4294431805610657 -3.6992147215642035e-05
0.5891547203063965 0.7218633890151978 -0.007463871501386166
0.7274121046066284 0.7158839106559753 0.06595117598772049
0.527400016784668 0.42518889904022217 -0.03819863870739937
0.5774679780006409 0.8256078958511353 -0.00265200505964458
0.5167394280433655 0.5014277100563049 -0.08581539243459702
0.5524097084999084 0.5564319491386414 -0.07019801437854767
0.5345187187194824 0.8418600559234619 -0.015426178462803364
0.6377660036087036 0.7686439752578735 0.020194945856928825
0.6064698100090027 0.624678373336792 -0.024869365617632866
0.610410749912262 0.8009946346282959 0.010387149639427662
0.6667337417602539 0.6234591007232666 -0.018210284411907196
0.6310916543006897 0.6517593264579773 -0.019127948209643364
0.6891640424728394 0.6667189598083496 0.0027553399559110403
0.5419564247131348 0.87503981590271 -0.013748399913311005
0.5693868398666382 0.5705634355545044 -0.05323036015033722
0.6594211459159851 0.7943518161773682 0.041150327771902084
0.6242888569831848 0.826806902885437 0.027544470503926277
0.6598373055458069 0.7328033447265625 0.018437208607792854
0.7519477605819702 0.6846061944961548 0.08363860100507736
0.6931431293487549 0.7427383065223694 0.039590802043676376
0.7643553614616394 0.7096944451332092 0.13927924633026123
0.6528171300888062 0.6839275360107422 -0.00603837426751852
0.5520919561386108 0.5331206321716309 -0.053154364228248596
0.5475335121154785 0.6081028580665588 -0.10655178874731064
0.5656300783157349 0.6133090257644653 -0.08001164346933365
0.5348310470581055 0.5913053154945374 -0.12350848317146301
0.5708462595939636 0.39740559458732605 -0.017029112204909325
0.6144862174987793 0.3797798752784729 -0.024391500279307365
0.6531533598899841 0.37859052419662476 -0.025679387152194977
0.6849263310432434 0.38712963461875916 -0.017717748880386353
0.7066606879234314 0.40168583393096924 -0.0036798350047320127
0.7200180292129517 0.45280641317367554 0.03391540050506592
0.7930718660354614 0.5413722395896912 0.14055517315864563
0.6969611644744873 0.49333685636520386 0.016840364784002304
0.6691974401473999 0.5022137761116028 0.00449359929189086
0.6340473294258118 0.5012882351875305 -0.0030928165651857853
0.6011555194854736 0.49299144744873047 -0.005694250576198101
0.5762216448783875 0.4818218946456909 -0.004560863599181175
0.5593060851097107 0.47179242968559265 -0.0054292092099785805
0.7989292144775391 0.5458183884620667 0.23244203627109528
0.5660435557365417 0.6194018125534058 -0.06737108528614044
0.5333231687545776 0.5390821695327759 -0.08935912698507309
0.5278670787811279 0.6108008027076721 -0.12405508011579514
0.5150822401046753 0.6239835023880005 -0.11240680515766144
0.528823971748352 0.6150074005126953 -0.11194246262311935
0.5597777366638184 0.6268511414527893 -0.0577210895717144
0.5095909237861633 0.6266419291496277 -0.11865118145942688
0.5078681707382202 0.6319084167480469 -0.0889822319149971
0.5597509145736694 0.44874054193496704 0.005186386872082949
0.5462243556976318 0.45541101694107056 -0.008105967193841934
0.5379893183708191 0.4612029790878296 -0.024593451991677284
0.6869088411331177 0.4403187930583954 0.010020016692578793
0.7033073306083679 0.42669785022735596 0.010394066572189331
0.3861421048641205 0.45564550161361694 0.02614184282720089
0.4127776622772217 0.45489275455474854 0.02614184282720089
0.3849141597747803 0.43324676156044006 0.02614184282720089
0.35959017276763916 0.45615971088409424 0.02614184282720089
0.38798969984054565 0.47803643345832825 0.02614184282720089
0.6144819259643555 0.4571916460990906 0.0023727910593152046
0.639441967010498 0.45844772458076477 0.0023727910593152046
0.6141990423202515 0.43479928374290466 0.0023727910593152046
0.5889856219291687 0.4557730555534363 0.0023727910593152046
0.6145203113555908 0.47963887453079224 0.0023727910593152046
