ply
format ascii 1.0
element vertex 478
property float x
property float y
property float z
end_header
0.5632755160331726 0.7060272693634033 -0.03524010628461838
0.6061586141586304 0.6455444097518921 -0.09448332339525223
0.5624707937240601 0.6642093658447266 -0.04488121345639229
0.5669598579406738 0.5601162314414978 -0.0972972959280014
0.6107152104377747 0.6205348968505859 -0.10334521532058716
0.5998737215995789 0.5863003730773926 -0.1004166305065155
0.5602313280105591 0.49794822931289673 -0.06667717546224594
0.35391679406166077 0.47021806240081787 -0.10754285752773285
0.5531634092330933 0.42840540409088135 -0.0629873126745224
0.5589277744293213 0.394813597202301 -0.07146365195512772
0.5522351264953613 0.26211413741111755 -0.07599061727523804
0.5599130392074585 0.7185463309288025 -0.03158187121152878
0.5519647598266602 0.7291518449783325 -0.0250617116689682
0.5422059297561646 0.7348688244819641 -0.01522093079984188
0.5350998640060425 0.7854684591293335 -0.0034980515483766794
0.5396662950515747 0.7956458330154419 -0.003335203044116497
0.5408182740211487 0.8075942397117615 -0.003995137754827738
0.5357392430305481 0.8211058378219604 0.002909180475398898
0.5181074142456055 0.8267237544059753 0.024002015590667725
0.5934947729110718 0.6574573516845703 -0.08416818827390671
0.5566613674163818 0.6563456058502197 -0.0712873712182045
0.1743626892566681 0.3400338292121887 -0.10373254865407944
0.42866528034210205 0.49289464950561523 -0.08359299600124359
0.4043327271938324 0.4950161576271057 -0.09641116857528687
0.3774663805961609 0.49363547563552856 -0.1052141860127449
0.3345041573047638 0.4766658842563629 -0.11001421511173248
0.44871681928634644 0.4869943857192993 -0.06727243959903717
0.3996461033821106 0.4199191927909851 -0.11501416563987732
0.4269912838935852 0.42423588037490845 -0.09624441713094711
0.37016454339027405 0.42186474800109863 -0.12240933626890182
0.3470139801502228 0.4301471710205078 -0.12281415611505508
0.3055165410041809 0.49098697304725647 -0.10799291729927063
0.41465431451797485 0.8585883378982544 -0.0007166550494730473
0.34019729495048523 0.4635280668735504 -0.10741136223077774
0.16419333219528198 0.4632613956928253 -0.07948075234889984
0.26377740502357483 0.4675556421279907 -0.10907720774412155
0.42149749398231506 0.6088290810585022 -0.08417373895645142
0.5340715646743774 0.7056300640106201 -0.05131639167666435
0.5231956243515015 0.7323065400123596 -0.03859654814004898
0.4892726540565491 0.7212469577789307 -0.058210600167512894
0.4508172273635864 0.7344858050346375 -0.055178359150886536
0.4887132942676544 0.7386274933815002 -0.04609302803874016
0.45582646131515503 0.7452036142349243 -0.04176163300871849
0.3977416455745697 0.7727783918380737 -0.028926383703947067
0.588124692440033 0.6458490490913391 -0.10298501700162888
0.5893131494522095 0.6211428642272949 -0.11293383687734604
0.30549320578575134 0.4003027677536011 -0.14464575052261353
0.4702572226524353 0.5442567467689514 -0.0718962550163269
0.4961925148963928 0.6322275400161743 -0.0938345342874527
0.4878426492214203 0.6157235503196716 -0.0914197489619255
0.32988011837005615 0.6010797619819641 -0.1105039045214653
0.5798564553260803 0.5885360836982727 -0.10983429849147797
0.39309027791023254 0.3771587312221527 -0.13739995658397675
0.3462277054786682 0.3834717273712158 -0.14616164565086365
0.23698429763317108 0.2979215979576111 -0.1276458203792572
0.506519079208374 0.40913069248199463 -0.08844869583845139
0.4480445683002472 0.4348055124282837 -0.07685095816850662
0.3824695944786072 0.7450372576713562 -0.04559604451060295
0.128609761595726 0.7180696129798889 0.023110905662178993
0.5094910264015198 0.6481674909591675 -0.07488873600959778
0.5280741453170776 0.6549264192581177 -0.05814838781952858
0.39202210307121277 0.7599950432777405 -0.03599636256694794
0.39978334307670593 0.7598263621330261 -0.03203866258263588
0.3262786567211151 0.36337441205978394 -0.14850088953971863
0.4834665358066559 0.6405532956123352 -0.0813802108168602
0.44609740376472473 0.3837798833847046 -0.11842229217290878
0.4445408880710602 0.3617187440395355 -0.12740753591060638
0.40538352727890015 0.2558513283729553 -0.13840879499912262
0.2908174693584442 0.3348328173160553 -0.1400706022977829
0.4364558160305023 0.313169002532959 -0.13276255130767822
0.2786465287208557 0.38554006814956665 -0.14111757278442383
0.2333129495382309 0.3683552145957947 -0.12272892892360687
0.5301164388656616 0.7208383679389954 -0.04741884768009186
0.49096226692199707 0.7310346364974976 -0.05262871831655502
0.4543546140193939 0.7401902675628662 -0.04930770769715309
0.5111994743347168 0.6518581509590149 -0.06407284736633301
0.39652758836746216 0.7599824666976929 -0.03321300074458122
0.41447219252586365 0.7746882438659668 -0.029422899708151817
0.4021068215370178 0.7596802115440369 -0.030720705166459084
0.5406639575958252 0.6446256637573242 -0.09785109013319016
0.4540112316608429 0.7464873790740967 -0.0359555147588253
0.48513421416282654 0.7415413856506348 -0.03570866212248802
0.515708863735199 0.7372785210609436 -0.02981354109942913
0.48491430282592773 0.8268710374832153 0.00832475908100605
0.502464771270752 0.8215434551239014 -0.013926693238317966
0.5081540942192078 0.8076722621917725 -0.020292531698942184
0.5093419551849365 0.7958379983901978 -0.019477982074022293
0.5083035826683044 0.7872247695922852 -0.018578382208943367
0.4470398426055908 0.7789193391799927 -0.027335967868566513
0.4441523551940918 0.7819574475288391 -0.02794363908469677
0.439309298992157 0.7882213592529297 -0.029192741960287094
0.4336959719657898 0.7961796522140503 -0.02794436179101467
0.43696129322052 0.7035252451896667 -0.06142246723175049
0.09590372443199158 0.574587881565094 0.008214164525270462
0.578815758228302 0.6614328622817993 -0.059677693992853165
0.4229464828968048 0.7712947130203247 -0.028298936784267426
0.4197804927825928 0.7722952961921692 -0.028729820623993874
0.5334774851799011 0.6640473008155823 -0.05544019117951393
0.4820884168148041 0.6538142561912537 -0.056719597429037094
0.531393826007843 0.6596968173980713 -0.05735146626830101
0.44210314750671387 0.5565125346183777 -0.07906249165534973
0.40198254585266113 0.5726796984672546 -0.09402328729629517
0.4750288128852844 0.6249678730964661 -0.08106792718172073
0.3140181303024292 0.2688010334968567 -0.14015305042266846
0.3573259711265564 0.31480273604393005 -0.14253029227256775
0.3827437460422516 0.3548343777656555 -0.1437007188796997
0.4208981990814209 0.7955756187438965 -0.021208135411143303
0.5047484040260315 0.3739563822746277 -0.10279150307178497
0.5003524422645569 0.320671409368515 -0.10984808206558228
0.48195788264274597 0.25509077310562134 -0.11516093462705612
0.3512507975101471 0.48720502853393555 -0.10959970951080322
0.268961101770401 0.5070169568061829 -0.11008940637111664
0.4620327651500702 0.48081886768341064 -0.06012575700879097
0.30920299887657166 0.43831363320350647 -0.12453440576791763
0.49220359325408936 0.5303912162780762 -0.07113727927207947
0.5265446305274963 0.6263611316680908 -0.10455833375453949
0.22598718106746674 0.5250763297080994 -0.10610746592283249
0.29857292771339417 0.5285270810127258 -0.11477599292993546
0.34375590085983276 0.5417695045471191 -0.10948549211025238
0.3995075523853302 0.5401902198791504 -0.09115439653396606
0.43637457489967346 0.5307977199554443 -0.07572601735591888
0.4637488126754761 0.5203395485877991 -0.0663175880908966
0.5379554033279419 0.5026206374168396 -0.07481876760721207
0.23039168119430542 0.5834352374076843 -0.1023549810051918
0.28054144978523254 0.4312247335910797 -0.13021768629550934
0.582404375076294 0.6574311256408691 -0.09103861451148987
0.478066086769104 0.5718710422515869 -0.0742245689034462
0.10437279939651489 0.4493783414363861 -0.03143248334527016
0.48634183406829834 0.5081974864006042 -0.06074361875653267
0.46194714307785034 0.6237335205078125 -0.06210124120116234
0.3226342797279358 0.4595898687839508 -0.10989516228437424
0.5166018605232239 0.6063350439071655 -0.10041894763708115
0.10360527038574219 0.6437292695045471 0.018185235559940338
0.45809200406074524 0.4725753366947174 -0.059895556420087814
0.5506806373596191 0.5951391458511353 -0.1095990389585495
0.26145678758621216 0.7987890839576721 -0.016719242557883263
0.22913245856761932 0.8259185552597046 0.01711062155663967
0.1544903665781021 0.58165442943573 -0.05264369398355484
0.2116261124610901 0.7588253617286682 -0.023830929771065712
0.19444540143013 0.4108476936817169 -0.09850791096687317
0.40104517340660095 0.8837010860443115 0.008543993346393108
0.5702389478683472 0.6607607007026672 -0.06323830783367157
0.4508346617221832 0.5881828665733337 -0.07516653835773468
0.22718141973018646 0.46903055906295776 -0.10532446950674057
0.3854391872882843 0.4787692427635193 -0.10371556878089905
0.4075172245502472 0.48045745491981506 -0.09664996713399887
0.40787631273269653 0.7785107493400574 -0.030316056683659554
0.2247912585735321 0.638420581817627 -0.08173040300607681
0.4366087019443512 0.9122705459594727 0.04428708925843239
0.3397398889064789 0.8847736716270447 0.0250916238874197
0.29037344455718994 0.8623448610305786 0.020367078483104706
0.5592333078384399 0.3288351893424988 -0.07444766908884048
0.48259979486465454 0.9096737504005432 0.07071506232023239
0.42604386806488037 0.47878506779670715 -0.08513585478067398
0.442388653755188 0.47513318061828613 -0.07299427688121796
0.45304548740386963 0.47347381711006165 -0.0638456717133522
0.24761644005775452 0.4216481149196625 -0.12378464639186859
0.43973755836486816 0.4620116949081421 -0.08011426776647568
0.41989389061927795 0.45928096771240234 -0.09365788102149963
0.4003363847732544 0.45886164903640747 -0.10526202619075775
0.37828272581100464 0.4593135714530945 -0.11222679167985916
0.3620414733886719 0.4606931209564209 -0.11283957958221436
0.1328931748867035 0.3876388967037201 -0.06711224466562271
0.3681615889072418 0.47487887740135193 -0.10699932277202606
0.5572084784507751 0.6813624501228333 -0.03675844147801399
0.46885251998901367 0.6901644468307495 -0.06113717332482338
0.5161045789718628 0.6457636952400208 -0.08062078803777695
0.5269501805305481 0.6842453479766846 -0.05277174711227417
0.5491495132446289 0.4613076150417328 -0.05851361155509949
0.3094486594200134 0.8337050676345825 -0.003225988242775202
0.35272741317749023 0.8602131605148315 0.004807538818567991
0.45190536975860596 0.8982477188110352 0.02016051672399044
0.1743539571762085 0.7802486419677734 0.019312145188450813
0.4525994658470154 0.4682212173938751 -0.06855608522891998
0.5288712978363037 0.5438864231109619 -0.08311791718006134
0.49832767248153687 0.8962748050689697 0.04671217128634453
0.389276921749115 0.9026358127593994 0.02858070656657219
0.15567556023597717 0.6436554789543152 -0.0388568639755249
0.4782620966434479 0.7849183678627014 -0.02552471123635769
0.47579342126846313 0.7908560633659363 -0.026660531759262085
0.47253867983818054 0.8005799651145935 -0.028199922293424606
0.4677131772041321 0.8125647306442261 -0.024548722431063652
0.44987890124320984 0.8148137331008911 -0.012002107687294483
0.42233046889305115 0.7519018650054932 -0.038466937839984894
0.4191336929798126 0.7497524619102478 -0.04366523027420044
0.41509512066841125 0.7463929057121277 -0.04849096015095711
0.4065503776073456 0.7217596173286438 -0.05877368524670601
0.2866501212120056 0.6576000452041626 -0.09184355288743973
0.5158517360687256 0.514959990978241 -0.0715947300195694
0.4861737787723541 0.45367491245269775 -0.056540004909038544
0.4661253094673157 0.45555636286735535 -0.06312509626150131
0.4235163629055023 0.7519756555557251 -0.03374389186501503
0.2565225064754486 0.7221149206161499 -0.05519714951515198
0.5195650458335876 0.456113338470459 -0.06586635112762451
0.42900699377059937 0.8349030017852783 -0.004038228653371334
0.5856568813323975 0.5570555329322815 -0.0884399265050888
0.5527723431587219 0.5334630012512207 -0.08613677322864532
0.5732437968254089 0.5292291641235352 -0.07720942050218582
0.5108504891395569 0.5822720527648926 -0.08521191775798798
0.5073874592781067 0.8736997246742249 0.0339132584631443
0.5117536783218384 0.8475326895713806 0.02935842238366604
0.4727315902709961 0.8485382795333862 0.01183871179819107
0.3691627085208893 0.7833662033081055 -0.028197389096021652
0.43733441829681396 0.6436415314674377 -0.06591104716062546
0.3942565619945526 0.8127935528755188 -0.014446992427110672
0.3765626847743988 0.6398841142654419 -0.09230963885784149
0.41184404492378235 0.6701544523239136 -0.07133624702692032
0.3392561376094818 0.680938720703125 -0.08350653201341629
0.4634096026420593 0.8750969171524048 0.009999094530940056
0.48479902744293213 0.593280017375946 -0.07835055142641068
0.33647093176841736 0.8045288920402527 -0.021622689440846443
0.3732120990753174 0.8338255286216736 -0.006031187251210213
0.3537009060382843 0.7491885423660278 -0.05094645917415619
0.2210225611925125 0.6853773593902588 -0.06126854196190834
0.30525803565979004 0.7549574375152588 -0.049986258149147034
0.1701090931892395 0.7025423049926758 -0.028272058814764023
0.3811224699020386 0.7020126581192017 -0.06980086863040924
0.5033220648765564 0.5575162172317505 -0.07813391089439392
0.5360057353973389 0.6403783559799194 -0.10439474135637283
0.5054751634597778 0.6426094770431519 -0.0881759449839592
0.5598553419113159 0.6235249638557434 -0.11242202669382095
0.4715344309806824 0.4278786778450012 -0.07685331255197525
0.43463051319122314 0.40963512659072876 -0.10290635377168655
0.3987026810646057 0.40357649326324463 -0.12156922370195389
0.362941712141037 0.4063742160797119 -0.13209612667560577
0.3319445252418518 0.41728177666664124 -0.13311418890953064
0.29723823070526123 0.46373140811920166 -0.11070896685123444
0.15657192468643188 0.5219582319259644 -0.06878230720758438
0.3263949155807495 0.5040589570999146 -0.10785700380802155
0.36037546396255493 0.5141392946243286 -0.10219182074069977
0.39904624223709106 0.5153599381446838 -0.09058097004890442
0.43150126934051514 0.5102257132530212 -0.07655194401741028
0.4556942582130432 0.5024042129516602 -0.06220648065209389
0.4733394980430603 0.49525558948516846 -0.05546756833791733
0.09594839811325073 0.5106613039970398 -0.00797536876052618
0.49680405855178833 0.6468801498413086 -0.07772240042686462
0.5410721898078918 0.5690944194793701 -0.09417807310819626
0.565433144569397 0.6433321237564087 -0.10581134259700775
0.5645139813423157 0.6543235182762146 -0.08841630816459656
0.5557526350021362 0.6471177339553833 -0.09747864305973053
0.49641257524490356 0.6528552174568176 -0.06444918364286423
0.5729306936264038 0.6562844514846802 -0.0904737338423729
0.5623428821563721 0.6599169969558716 -0.06733832508325577
0.4704623818397522 0.4730749726295471 -0.053407467901706696
0.4878276288509369 0.48159438371658325 -0.052080947905778885
0.5036506056785583 0.488915354013443 -0.058226801455020905
0.3507814109325409 0.4621453881263733 -0.11120963096618652
0.32835155725479126 0.44196873903274536 -0.1185612827539444
0.5960426926612854 0.559402585029602 -0.06699016690254211
0.6088602542877197 0.47481465339660645 0.11362610012292862
0.5927228927612305 0.6519356369972229 -0.04828270524740219
0.6027424931526184 0.37008363008499146 0.23877054452896118
0.5695143938064575 0.4913443922996521 0.05752493441104889
0.5846922397613525 0.4935228228569031 0.0738467201590538
0.5983289480209351 0.49307572841644287 0.09209401160478592
0.6054375171661377 0.4808969795703888 0.1240169107913971
0.5597879886627197 0.48567962646484375 0.04342266544699669
0.6011850237846375 0.42886918783187866 0.06259583681821823
0.5841764211654663 0.43339860439300537 0.04307004064321518
0.6136226654052734 0.43011462688446045 0.08395271748304367
0.6178511381149292 0.43867623805999756 0.1006041020154953
0.6093745231628418 0.4925174117088318 0.14323769509792328
0.5437430143356323 0.8373818397521973 0.10124805569648743
0.6097004413604736 0.4710080623626709 0.12390734255313873
0.5876419544219971 0.47187864780426025 0.26796674728393555
0.606290340423584 0.47002536058425903 0.1742563098669052
0.6066057682037354 0.6032558083534241 0.05729088559746742
0.5799127221107483 0.702285647392273 -0.0152047798037529
0.5633927583694458 0.7296976447105408 -0.005675450898706913
0.5873213410377502 0.7099620699882507 0.016649939119815826
0.5840390920639038 0.7241615056991577 0.04816296324133873
0.5680579543113708 0.7327606081962585 0.01876707561314106
0.5671824216842651 0.7387737035751343 0.045210305601358414
0.5682670474052429 0.7570531368255615 0.10500616580247879
0.6167077422142029 0.6430381536483765 -0.08335625380277634
0.6212320923805237 0.6192627549171448 -0.0896885022521019
0.6327630281448364 0.39995288848876953 0.1215459406375885
0.5789756774902344 0.5424726605415344 0.020240817219018936
0.6130085587501526 0.6241710782051086 -0.007387325633317232
0.6075030565261841 0.6092106699943542 -0.0021951389499008656
0.6289226412773132 0.5932507514953613 0.12582334876060486
0.6105307936668396 0.587461531162262 -0.08014994114637375
0.6300462484359741 0.3789047598838806 0.04595248028635979
0.6378830671310425 0.38387835025787354 0.08497707545757294
0.6206898093223572 0.3315211534500122 0.17948777973651886
0.5764665603637695 0.41143766045570374 -0.028887638822197914
0.5682445764541626 0.4427872598171234 0.03559896722435951
0.5788389444351196 0.7288147807121277 0.11649167537689209
0.5161112546920776 0.6879015564918518 0.3403213620185852
0.6008736491203308 0.6396493911743164 -0.009593259543180466
0.5883984565734863 0.6501315832138062 -0.025659579783678055
0.5606542825698853 0.7526249289512634 0.10410016775131226
0.5547419190406799 0.7520812153816223 0.09085255861282349
0.6384208798408508 0.36476004123687744 0.09870273619890213
0.6047360897064209 0.6331021189689636 0.003310578875243664
0.6113818287849426 0.3865935802459717 0.007368758786469698
0.6158740520477295 0.3647632598876953 0.0025903847999870777
0.6198633909225464 0.28112518787384033 0.03636807203292847
0.6359797120094299 0.3609347939491272 0.13388684391975403
0.6250900030136108 0.3326593041419983 0.018326707184314728
0.6297586560249329 0.3883627653121948 0.1442863643169403
0.6237146854400635 0.3912721872329712 0.18760506808757782
0.5738885402679443 0.7178718447685242 -0.011662283912301064
0.5794541835784912 0.7232270240783691 0.017526859417557716
0.5772385597229004 0.7316226959228516 0.044876355677843094
0.5943528413772583 0.6444209814071655 -0.01142484974116087
0.558108925819397 0.7526527047157288 0.09628397971391678
0.5610172748565674 0.7649505138397217 0.07944630831480026
0.552565336227417 0.7511351108551025 0.08868476003408432
0.6114487648010254 0.6365364193916321 -0.03871367126703262
0.5575286746025085 0.7401372194290161 0.04678482934832573
0.557307243347168 0.7366645336151123 0.025376399978995323
0.552681565284729 0.7351846694946289 0.004075839649885893
0.5384622812271118 0.8209232091903687 0.04152832180261612
0.5543314218521118 0.8146530389785767 0.0220456775277853
0.557288646697998 0.8010965585708618 0.016786212101578712
0.5537518262863159 0.7906477451324463 0.017483241856098175
0.5473660230636597 0.7828766703605652 0.016358613967895508
0.5534822940826416 0.7713797688484192 0.05574382096529007
0.5584883093833923 0.7735829949378967 0.0554308220744133
0.5632286071777344 0.7780619859695435 0.05648152157664299
0.5652388334274292 0.7851841449737549 0.0648108571767807
0.5930089354515076 0.6920320987701416 0.058042705059051514
0.5251961350440979 0.5674875974655151 0.36248987913131714
0.5529240965843201 0.7633665800094604 0.07596655189990997
0.5574777126312256 0.7635642886161804 0.07610370963811874
0.5801900625228882 0.6607449650764465 -0.02382255531847477
0.5926892757415771 0.6471982002258301 0.010588969103991985
0.5844242572784424 0.6559215784072876 -0.02598741464316845
0.588654637336731 0.5540357828140259 0.04429011791944504
0.6090872883796692 0.569080650806427 0.07351653277873993
0.6027645468711853 0.6185022592544556 0.010886802338063717
0.6277813911437988 0.30131852626800537 0.10950540006160736
0.6362693309783936 0.34079456329345703 0.07765349000692368
0.633712649345398 0.35736626386642456 0.05125126987695694
0.5620123147964478 0.7805754542350769 0.08845902234315872
0.5864590406417847 0.3786205053329468 -0.03712712228298187
0.599768877029419 0.3309547007083893 -0.03129476308822632
0.5966399908065796 0.26898717880249023 -0.02689799666404724
0.6044478416442871 0.4887150824069977 0.1109251156449318
0.6111669540405273 0.5061970353126526 0.16937898099422455
0.5542457103729248 0.4799991548061371 0.03847574070096016
0.617693305015564 0.4418613910675049 0.13200803101062775
0.5744518041610718 0.5293947458267212 0.002376443473622203
0.6187602281570435 0.619360625743866 -0.03426729142665863
0.6143584251403809 0.5234751105308533 0.2111356556415558
0.6210349798202515 0.5256854891777039 0.14780141413211823
0.6211541295051575 0.5377474427223206 0.1123390644788742
0.6007880568504333 0.5351970195770264 0.0775832012295723
0.5811492204666138 0.5255432724952698 0.05179375037550926
0.5699762105941772 0.5158867239952087 0.029313091188669205
0.5707676410675049 0.5026730895042419 -0.043498143553733826
0.6203702092170715 0.5744239687919617 0.2133258879184723
0.6189720630645752 0.4337255358695984 0.15128906071186066
0.6008937358856201 0.655335009098053 -0.07542801648378372
0.5859811305999756 0.5689356327056885 0.014836741611361504
0.5490492582321167 0.4632337689399719 0.3348204493522644
0.5629355311393738 0.5056595802307129 0.013569192960858345
0.5940365195274353 0.6176725625991821 0.02887837402522564
0.6094939708709717 0.4668136537075043 0.1331118792295456
0.6105910539627075 0.6013357043266296 -0.029067475348711014
0.5210126638412476 0.6245828866958618 0.35765355825424194
0.5520198941230774 0.47307252883911133 0.04351023584604263
0.612514317035675 0.5922911167144775 -0.05722209811210632
0.5529006123542786 0.7619451880455017 0.21770058572292328
0.522175669670105 0.7850955724716187 0.25546935200691223
0.5809224843978882 0.5721033215522766 0.2930935025215149
0.5572707653045654 0.7241871953010559 0.2528005838394165
0.6055759191513062 0.42803651094436646 0.2337477058172226
0.5364738702774048 0.8586137294769287 0.11894664913415909
0.5851942896842957 0.659604012966156 -0.05375838652253151
0.5921891927719116 0.5843279361724854 0.03462637588381767
0.5992039442062378 0.47307634353637695 0.20689456164836884
0.5999749898910522 0.4795408844947815 0.08995132893323898
0.5872937440872192 0.48032110929489136 0.07441958039999008
0.5632070899009705 0.7684741616249084 0.08700907230377197
0.6101641058921814 0.6220434308052063 0.22167788445949554
0.509847104549408 0.8967549800872803 0.10534662008285522
0.5223433971405029 0.8502429723739624 0.178100124001503
0.5219964385032654 0.8228943943977356 0.213346466422081
0.5733083486557007 0.47863173484802246 0.06036940962076187
0.5617275834083557 0.4748575985431671 0.051625873893499374
0.555174708366394 0.47330358624458313 0.04792621731758118
0.6129449009895325 0.42730480432510376 0.17872090637683868
0.5659832954406738 0.46911269426345825 0.04800472781062126
0.5799024701118469 0.4696044921875 0.0550108477473259
0.5942813754081726 0.46990326046943665 0.06847304105758667
0.6053804159164429 0.4699054956436157 0.08569925278425217
0.6094886064529419 0.4709010124206543 0.09907707571983337
0.5795079469680786 0.4112941026687622 0.29224997758865356
0.6061915159225464 0.4773676097393036 0.10383234918117523
0.5909816026687622 0.6812246441841125 0.02976682223379612
0.6065242886543274 0.6368797421455383 -0.019837766885757446
0.577187180519104 0.6802226305007935 -0.01533828116953373
0.5457171201705933 0.7979617714881897 0.18629047274589539
0.5391740202903748 0.827703058719635 0.15378864109516144
0.5257834196090698 0.8839788436889648 0.0799013152718544
0.5172579288482666 0.7424876093864441 0.3025228977203369
0.5575924515724182 0.47088146209716797 0.04540758952498436
0.5859910845756531 0.5429841876029968 -0.033200956881046295
0.5206753611564636 0.876006007194519 0.14153820276260376
0.5721768736839294 0.6244785785675049 0.2920057773590088
0.5526825189590454 0.7779874801635742 0.03652661666274071
0.558547854423523 0.7828003168106079 0.037670474499464035
0.5628586411476135 0.7906475067138672 0.03892688453197479
0.5634932518005371 0.8023293614387512 0.04595997929573059
0.5528436899185181 0.8032488226890564 0.06752470880746841
0.5620810985565186 0.7447969317436218 0.07103763520717621
0.5693988800048828 0.7419386506080627 0.07616178691387177
0.574964702129364 0.737424373626709 0.07957521826028824
0.5893382430076599 0.7081224918365479 0.0906524509191513
0.6160128712654114 0.6412007808685303 0.16449999809265137
0.572145938873291 0.5148366093635559 -0.019970228895545006
0.5524922609329224 0.4566689133644104 0.009809393435716629
0.5539031028747559 0.45900142192840576 0.03133467584848404
0.5559116005897522 0.7439947128295898 0.07053439319133759
0.5873030424118042 0.6950810551643372 0.20485879480838776
0.5553475618362427 0.4590280055999756 -0.02729487232863903
0.5446937680244446 0.8177549839019775 0.08430267125368118
0.5841374397277832 0.5329664945602417 -0.05941396951675415
0.5959508419036865 0.5793113708496094 -0.019847426563501358
0.5328071713447571 0.8393895030021667 0.05384152755141258
0.567471444606781 0.7607136964797974 0.12668141722679138
0.5986337661743164 0.63630211353302 0.04956116899847984
0.5552939176559448 0.791358232498169 0.108131043612957
0.6185042858123779 0.6298199892044067 0.0903858095407486
0.6031271815299988 0.6599224805831909 0.07365729659795761
0.6107491850852966 0.6647247672080994 0.1254999190568924
0.5328390002250671 0.8633196353912354 0.06569831818342209
0.5935906171798706 0.5890630483627319 0.0035034166648983955
0.5627155303955078 0.7742258906364441 0.15743732452392578
0.5495350360870361 0.806242823600769 0.1314350813627243
0.5819482803344727 0.7279995083808899 0.13667723536491394
0.5945321321487427 0.6620379686355591 0.2295723706483841
0.5814962983131409 0.7266334891319275 0.1680595874786377
0.5625424981117249 0.6742865443229675 0.2855599820613861
0.5984001159667969 0.6879082322120667 0.10220880806446075
0.5852335691452026 0.5556293725967407 -0.0076520126312971115
0.6173751354217529 0.6316457390785217 -0.04031981900334358
0.6112552285194397 0.6336640119552612 -0.015149491839110851
0.6226893663406372 0.6182736754417419 -0.05991559475660324
0.5686888694763184 0.43107014894485474 0.014814271591603756
0.5945318341255188 0.414606511592865 0.03196655586361885
0.6145492196083069 0.409240186214447 0.05450185015797615
0.6264817118644714 0.4119492471218109 0.08260232955217361
0.627239465713501 0.4221765100955963 0.10779295861721039
0.6074511408805847 0.4672766923904419 0.14890731871128082
0.5845277905464172 0.5215237140655518 0.28590530157089233
0.6122108697891235 0.5043751001358032 0.12782636284828186
0.6071968674659729 0.5124637484550476 0.10298053175210953
0.5912508368492126 0.5125515460968018 0.07779451459646225
0.5732760429382324 0.506964921951294 0.05544246733188629
0.5618731379508972 0.49970749020576477 0.03699276223778725
0.555670976638794 0.493679940700531 0.024885989725589752
0.5313388109207153 0.5143150687217712 0.35639044642448425
0.6035448312759399 0.6387245059013367 -0.00616837851703167
0.5985060930252075 0.5674883127212524 -0.042641930282115936
0.6203866004943848 0.6368016004562378 -0.06503535807132721
0.602426290512085 0.6489242315292358 -0.06472752243280411
0.6122070550918579 0.6398380398750305 -0.05565585196018219
0.5947551727294922 0.6459470391273499 -0.004464747849851847
0.6032922267913818 0.6525890827178955 -0.07123718410730362
0.5892390608787537 0.6566905975341797 -0.05095435678958893
0.5496578216552734 0.47351598739624023 0.03206132352352142
0.5498749017715454 0.4822354316711426 0.010703048668801785
0.5565580129623413 0.4888169467449188 -0.005762133747339249
0.6106395125389099 0.4712982773780823 0.11063805222511292
0.6161602735519409 0.44925737380981445 0.11857829242944717
0.38997867703437805 0.46651095151901245 -0.0930035412311554
0.41796165704727173 0.46687978506088257 -0.0930035412311554
0.3887876272201538 0.44168007373809814 -0.0930035412311554
0.3607122600078583 0.46595990657806396 -0.0930035412311554
0.39076876640319824 0.49110957980155945 -0.0930035412311554
0.5782421827316284 0.4730986952781677 0.07634244114160538
0.5918272733688354 0.4722694158554077 0.07634244114160538
0.5780964493751526 0.45697230100631714 0.07634244114160538
0.5636413097381592 0.4739968180656433 0.07634244114160538
0.5774439573287964 0.48934206366539 0.07634244114160538
