ply
format ascii 1.0
element vertex 478
property float x
property float y
property float z
end_header
0.5087952017784119 0.7231007218360901 -0.05272233486175537
0.5160593390464783 0.6560298800468445 -0.13581472635269165
0.5134410262107849 0.6745700836181641 -0.0653843805193901
0.493032842874527 0.5643426775932312 -0.11487274616956711
0.5162656903266907 0.6290555596351624 -0.14776760339736938
0.5152027010917664 0.5917965769767761 -0.14219921827316284
0.5112773180007935 0.4996263086795807 -0.08758816868066788
0.33353251218795776 0.4861528277397156 0.004097945988178253
0.5094074010848999 0.4342225193977356 -0.07987173646688461
0.5090806484222412 0.39878731966018677 -0.09120707213878632
0.506689727306366 0.25868719816207886 -0.08502478897571564
0.5086307525634766 0.7320846319198608 -0.0480375662446022
0.5082411766052246 0.7411155104637146 -0.03943334147334099
0.5078138113021851 0.7471792101860046 -0.027709070593118668
0.5081368088722229 0.7465799450874329 -0.019602812826633453
0.5083639621734619 0.7580310702323914 -0.022456739097833633
0.5083123445510864 0.7711144089698792 -0.026297571137547493
0.5080009698867798 0.7851905822753906 -0.020766863599419594
0.5115839838981628 0.8258656859397888 0.0056368582881987095
0.5152963399887085 0.6679783463478088 -0.12107115238904953
0.49085313081741333 0.664402961730957 -0.08653316646814346
0.21436545252799988 0.3787984549999237 0.10134526342153549
0.40330037474632263 0.5117091536521912 -0.016391675919294357
0.37812453508377075 0.5131709575653076 -0.015395592898130417
0.3535752296447754 0.5110727548599243 -0.009567850269377232
0.3214947283267975 0.49457934498786926 0.00941177923232317
0.42470622062683105 0.5064786672592163 -0.013150457292795181
0.36420536041259766 0.4355471134185791 -0.034317176789045334
0.3936384916305542 0.43861302733421326 -0.03308127820491791
0.33763957023620605 0.44044405221939087 -0.026113975793123245
0.32062482833862305 0.45067405700683594 -0.015491265803575516
0.2966589629650116 0.5101664066314697 0.02408759854733944
0.4195614159107208 0.8649957776069641 0.04071137309074402
0.3241647481918335 0.47817909717559814 0.011498313397169113
0.20524582266807556 0.4954904615879059 0.13188698887825012
0.26353365182876587 0.4901718497276306 0.045536309480667114
0.380159854888916 0.6192352175712585 -0.023859933018684387
0.4744682312011719 0.7167938947677612 -0.05186812952160835
0.47653692960739136 0.7390081882476807 -0.036744531244039536
0.4416288435459137 0.7213926315307617 -0.03645455837249756
0.41876187920570374 0.7257127165794373 -0.014058416709303856
0.44929370284080505 0.7367749810218811 -0.025988560169935226
0.4276023209095001 0.7352105975151062 -0.005786266177892685
0.38850533962249756 0.7643905282020569 0.036047108471393585
0.49547865986824036 0.6551885008811951 -0.1344923973083496
0.49286842346191406 0.6289435625076294 -0.1457727998495102
0.2793601155281067 0.4284435510635376 -0.015141120180487633
0.43502020835876465 0.5547499060630798 -0.035015713423490524
0.4352940320968628 0.6392635107040405 -0.07542871683835983
0.433291494846344 0.6237448453903198 -0.06942417472600937
0.29733115434646606 0.6127671003341675 0.005033964291214943
0.49300578236579895 0.5943882465362549 -0.13540081679821014
0.34218722581863403 0.4036463499069214 -0.05965643376111984
0.30566591024398804 0.41125479340553284 -0.040611475706100464
0.2435094118118286 0.3325100839138031 0.04535852000117302
0.45595797896385193 0.4301224946975708 -0.07497510313987732
0.41901347041130066 0.45065778493881226 -0.023656249046325684
0.3669232428073883 0.7362934947013855 0.03533820062875748
0.24073022603988647 0.7397357821464539 0.24203093349933624
0.45338869094848633 0.6544722318649292 -0.06265584379434586
0.47320839762687683 0.6622306704521179 -0.061642151325941086
0.3882284164428711 0.7305113673210144 0.03575233370065689
0.39421379566192627 0.731923520565033 0.029765808954834938
0.28882020711898804 0.39340975880622864 -0.03205950930714607
0.4324541389942169 0.6475234031677246 -0.05938684567809105
0.39132630825042725 0.4078848659992218 -0.07180334627628326
0.3862674832344055 0.38704943656921387 -0.08130981773138046
0.3559727072715759 0.27198123931884766 -0.05653245747089386
0.266806423664093 0.3634073734283447 5.983034134260379e-05
0.3748023509979248 0.3270435929298401 -0.07196131348609924
0.26039695739746094 0.4149249792098999 0.0034955476876348257
0.23669233918190002 0.40004295110702515 0.04869917407631874
0.47494587302207947 0.7288788557052612 -0.046754270792007446
0.44534066319465637 0.7293924689292908 -0.03169757500290871
0.423035591840744 0.7303623557090759 -0.011626025661826134
0.4583660960197449 0.6581870317459106 -0.056089211255311966
0.39129382371902466 0.7312132120132446 0.032660502940416336
0.40519553422927856 0.7409627437591553 0.020053306594491005
0.39732298254966736 0.7326551079750061 0.02913757972419262
0.467388391494751 0.6507918238639832 -0.09978881478309631
0.4311777353286743 0.7390393018722534 -0.0012843844015151262
0.4528989791870117 0.7421005964279175 -0.015254062600433826
0.47862207889556885 0.7453979253768921 -0.025466574355959892
0.4753676950931549 0.8245493173599243 0.006542314775288105
0.4736725389957428 0.7832975387573242 -0.01957911066710949
0.4747790992259979 0.768897533416748 -0.024354316294193268
0.476773202419281 0.7559945583343506 -0.020058782771229744
0.4791538715362549 0.7451843023300171 -0.017118506133556366
0.4313949942588806 0.7392764091491699 0.005401991307735443
0.4268370270729065 0.7441930770874023 0.0024182030465453863
0.42178788781166077 0.7510402798652649 0.0004014285805169493
0.417926549911499 0.7593621015548706 0.006193910259753466
0.39862629771232605 0.7050634622573853 -0.010860789567232132
0.20360475778579712 0.6089937090873718 0.2559225559234619
0.514430046081543 0.6715920567512512 -0.08562280982732773
0.41521793603897095 0.7363924980163574 0.020253844559192657
0.41020047664642334 0.7383430600166321 0.018852921202778816
0.4809489846229553 0.6717187166213989 -0.05976357311010361
0.43921202421188354 0.6602407693862915 -0.03681041672825813
0.4773145914077759 0.6670926809310913 -0.061732348054647446
0.4067142605781555 0.5685614943504333 -0.02504083886742592
0.3619349002838135 0.584590494632721 -0.01722210831940174
0.42742568254470825 0.6331185102462769 -0.05320296436548233
0.28890150785446167 0.295745313167572 -0.009875939227640629
0.31092149019241333 0.3375573456287384 -0.039076607674360275
0.33161595463752747 0.3826214075088501 -0.0597800686955452
0.4112277030944824 0.789043664932251 0.02553439326584339
0.44748741388320923 0.39626580476760864 -0.09058760851621628
0.4377857446670532 0.3255023956298828 -0.08880911767482758
0.4260047376155853 0.2609905004501343 -0.08140107989311218
0.33304929733276367 0.5050725936889648 0.00030530637013725936
0.26658517122268677 0.5276594758033752 0.03981001302599907
0.4389130771160126 0.5011681318283081 -0.010461156256496906
0.2935054898262024 0.4610148072242737 0.005681887734681368
0.453584760427475 0.5387817621231079 -0.045818623155355453
0.4519631266593933 0.6334104537963867 -0.10145799815654755
0.23290082812309265 0.5469112396240234 0.0702749639749527
0.28715986013412476 0.547402024269104 0.020495576784014702
0.3226505517959595 0.558580219745636 -3.212353931303369e-06
0.3728103041648865 0.5557185411453247 -0.009895021095871925
0.4084969758987427 0.5460867881774902 -0.015579400584101677
0.43470117449760437 0.5351910591125488 -0.02341773547232151
0.48751693964004517 0.5059521198272705 -0.07797523587942123
0.2366190254688263 0.6014276742935181 0.07204926013946533
0.26963382959365845 0.45614683628082275 0.015204232186079025
0.5028425455093384 0.6669824719429016 -0.12026924639940262
0.43803781270980835 0.5814841389656067 -0.04212096706032753
0.19261083006858826 0.4891899824142456 0.21506862342357635
0.45483338832855225 0.5230020880699158 -0.029067113995552063
0.42339813709259033 0.6324172019958496 -0.02653823047876358
0.31116944551467896 0.47863948345184326 0.016458678990602493
0.45040208101272583 0.6144627928733826 -0.09399756789207458
0.21711382269859314 0.6739023923873901 0.25531429052352905
0.4387339949607849 0.4923507571220398 -0.006150624714791775
0.4714823067188263 0.6020222902297974 -0.11988763511180878
0.3074731230735779 0.8007348775863647 0.12262366712093353
0.3108893632888794 0.829756498336792 0.169704869389534
0.2104002833366394 0.6078061461448669 0.16390320658683777
0.2701687812805176 0.766980767250061 0.1458934247493744
0.21944165229797363 0.4436018466949463 0.09655782580375671
0.4172707200050354 0.88993239402771 0.05873328819870949
0.5046958923339844 0.670589804649353 -0.0843256488442421
0.41332492232322693 0.5988574028015137 -0.030689707025885582
0.23798391222953796 0.4931643009185791 0.07035021483898163
0.35755860805511475 0.49675798416137695 -0.009330621920526028
0.3784278631210327 0.499553382396698 -0.014585682190954685
0.40085887908935547 0.744364321231842 0.024611420929431915
0.241367369890213 0.6546068787574768 0.08971918374300003
0.46242672204971313 0.9232373833656311 0.06853367388248444
0.388389527797699 0.8884416818618774 0.11255678534507751
0.35406237840652466 0.8641303777694702 0.13799753785133362
0.5078330039978027 0.32628223299980164 -0.09177978336811066
0.5113409757614136 0.9265494346618652 0.06403275579214096
0.39919954538345337 0.4983842968940735 -0.015024826861917973
0.4190986752510071 0.4952649176120758 -0.011196613311767578
0.43228477239608765 0.4939535856246948 -0.006380084436386824
0.24702176451683044 0.44859617948532104 0.03901074826717377
0.4154790937900543 0.46883249282836914 -0.018139993771910667
0.3930741548538208 0.45932692289352417 -0.02388404868543148
0.37086576223373413 0.457929402589798 -0.02381931245326996
0.349750816822052 0.46226781606674194 -0.01779981330037117
0.3371635377407074 0.4687207341194153 -0.009129403159022331
0.1987869143486023 0.4280151128768921 0.16281501948833466
0.3434203863143921 0.4917525053024292 -0.002125886734575033
0.5130861401557922 0.6926596760749817 -0.05480260029435158
0.427447110414505 0.6949270367622375 -0.029287811368703842
0.45435911417007446 0.6519345641136169 -0.07362290471792221
0.47748035192489624 0.6925719976425171 -0.05339477211236954
0.5098442435264587 0.4654279947280884 -0.07421854883432388
0.3465667963027954 0.8349604606628418 0.10587607324123383
0.3816465735435486 0.8623535633087158 0.08449201285839081
0.4610599875450134 0.9079049825668335 0.03730371594429016
0.2741183042526245 0.7915048599243164 0.20840336382389069
0.43150320649147034 0.483245849609375 -0.011331458576023579
0.472430944442749 0.5491882562637329 -0.07966550439596176
0.5121389627456665 0.9106519818305969 0.03397161141037941
0.4231797158718109 0.9095504283905029 0.0853596180677414
0.22145864367485046 0.666249692440033 0.17012467980384827
0.4534390866756439 0.7422773241996765 -0.007432932034134865
0.4490464925765991 0.7506914138793945 -0.010628605261445045
0.4456615149974823 0.7612299919128418 -0.013113784603774548
0.4433683454990387 0.7745063900947571 -0.007708379533141851
0.43955153226852417 0.8102691173553467 0.013456027023494244
0.40997353196144104 0.7335077524185181 0.012879916466772556
0.40550071001052856 0.7309200167655945 0.012529626488685608
0.40177491307258606 0.7283969521522522 0.011214617639780045
0.37612462043762207 0.7182967066764832 0.01139872521162033
0.27530205249786377 0.66917884349823 0.04117457941174507
0.47114428877830505 0.5205583572387695 -0.060162972658872604
0.45607051253318787 0.4720076322555542 -0.025337887927889824
0.44077929854393005 0.47418326139450073 -0.016394224017858505
0.414968341588974 0.7362271547317505 0.015745120123028755
0.2767041325569153 0.7300487160682678 0.09151244163513184
0.47903016209602356 0.4725160002708435 -0.057762064039707184
0.4287748634815216 0.8367619514465332 0.028552725911140442
0.513884425163269 0.5605499148368835 -0.12278622388839722
0.49025601148605347 0.5367047190666199 -0.09914509952068329
0.5126104950904846 0.5313904881477356 -0.1045578271150589
0.45563459396362305 0.5901416540145874 -0.07436476647853851
0.5123923420906067 0.8865950107574463 0.016060005873441696
0.5120177268981934 0.8546350598335266 0.010964942164719105
0.4691823720932007 0.853164553642273 0.01499484945088625
0.36986035108566284 0.7798493504524231 0.049852438271045685
0.4004879295825958 0.6519421935081482 -0.017127517610788345
0.3975990414619446 0.8118637204170227 0.041583798825740814
0.33506107330322266 0.648668110370636 -0.00979374535381794
0.37329262495040894 0.6762244701385498 -0.006554684601724148
0.3122301995754242 0.6877102851867676 0.018224621191620827
0.4628664553165436 0.8845306634902954 0.020455563440918922
0.4397437870502472 0.6025314331054688 -0.054173387587070465
0.3519311547279358 0.8039335608482361 0.07411758601665497
0.3866351544857025 0.8355304002761841 0.061906829476356506
0.3460475206375122 0.7458703517913818 0.0441504642367363
0.2503981590270996 0.6989405751228333 0.10715407133102417
0.31450045108795166 0.7554298639297485 0.0663948506116867
0.2393236756324768 0.7195172905921936 0.1696699857711792
0.3500782251358032 0.7031852006912231 0.011660449206829071
0.4559648633003235 0.5651153326034546 -0.05940777435898781
0.45992931723594666 0.646422803401947 -0.10582444816827774
0.44325345754623413 0.6489566564559937 -0.0765981376171112
0.4713856875896454 0.6306740641593933 -0.12506632506847382
0.43562960624694824 0.4467660188674927 -0.03699447959661484
0.3932574987411499 0.4286365807056427 -0.04441291466355324
0.3562387228012085 0.42516887187957764 -0.04375245422124863
0.3255576491355896 0.4303470849990845 -0.033532850444316864
0.3043420612812042 0.44196105003356934 -0.017538221552968025
0.29065269231796265 0.4843218922615051 0.027022313326597214
0.2041272222995758 0.5512450933456421 0.14920425415039062
0.31261926889419556 0.5222547054290771 0.013188869692385197
0.3396095633506775 0.5311182737350464 0.00010846235818462446
0.3743559718132019 0.5321515798568726 -0.00872490182518959
0.4063105285167694 0.5271236300468445 -0.013081995770335197
0.4306754469871521 0.5196706056594849 -0.014493265189230442
0.44767358899116516 0.5124937295913696 -0.01678975112736225
0.19613763689994812 0.5482184290885925 0.24372784793376923
0.44238632917404175 0.6533399820327759 -0.06289912760257721
0.4736536145210266 0.5750517845153809 -0.09624185413122177
0.4778635501861572 0.6503133177757263 -0.12396907806396484
0.489691823720932 0.6616867780685425 -0.11074437201023102
0.4771890342235565 0.6533730030059814 -0.11114593595266342
0.4478185176849365 0.6593182682991028 -0.0521814227104187
0.49489790201187134 0.6648886203765869 -0.11696469783782959
0.496713787317276 0.6685487627983093 -0.08535449206829071
0.447433203458786 0.4935533404350281 -0.00907603558152914
0.4605935215950012 0.4992038607597351 -0.022434143349528313
0.469484806060791 0.5041251182556152 -0.03889044001698494
0.33007025718688965 0.47372740507125854 -0.00015803643327672035
0.3101573586463928 0.46254152059555054 -9.973152191378176e-05
0.5339584350585938 0.5635881423950195 -0.11233089864253998
0.6732595562934875 0.47808778285980225 0.02186162769794464
0.5365949273109436 0.6632887721061707 -0.08455453813076019
0.7723619937896729 0.37168264389038086 0.12991644442081451
0.611562967300415 0.5055476427078247 -0.004764098208397627
0.6342928409576416 0.5057268142700195 -0.0014849127037450671
0.6565385460853577 0.5029609799385071 0.0064728897996246815
0.684325635433197 0.48555049300193787 0.02825031988322735
0.5921847820281982 0.5013021230697632 -0.0039887684397399426
0.6433200836181641 0.43123549222946167 -0.01990370824933052
0.616567075252533 0.4356420040130615 -0.021795446053147316
0.6682612895965576 0.4342198371887207 -0.009504595771431923
0.6838676333427429 0.44302403926849365 0.002391519956290722
0.707830548286438 0.500265896320343 0.044512394815683365
0.6009576916694641 0.859398603439331 0.0490531288087368
0.6813139319419861 0.4702160656452179 0.030086364597082138
0.7861275672912598 0.4864310026168823 0.15969036519527435
0.7354425191879272 0.47869303822517395 0.06850192695856094
0.6363844275474548 0.614407479763031 -0.012087511830031872
0.5425487756729126 0.7149620652198792 -0.048769742250442505
0.539247453212738 0.737227201461792 -0.033904869109392166
0.5730462670326233 0.7176544666290283 -0.03006095439195633
0.5927615761756897 0.7209796905517578 -0.005374398082494736
0.5644445419311523 0.7334998846054077 -0.020547984167933464
0.5836751461029053 0.7308875918388367 0.0015042386949062347
0.6278443932533264 0.7584422826766968 0.0467635802924633
0.5358742475509644 0.6543396711349487 -0.13288745284080505
0.5388347506523132 0.628040611743927 -0.14385628700256348
0.7189587354660034 0.41814935207366943 0.006281746551394463
0.5813359022140503 0.5521810054779053 -0.027139937505126
0.5884670615196228 0.6364473700523376 -0.06799815595149994
0.589036762714386 0.6209139823913574 -0.06181730702519417
0.7136483192443848 0.6047206521034241 0.02445080131292343
0.5366165041923523 0.5935297012329102 -0.1329330950975418
0.6617920398712158 0.39788633584976196 -0.04484337940812111
0.6950581073760986 0.40287545323371887 -0.022145209833979607
0.7485814094543457 0.32704034447669983 0.07098212093114853
0.558195948600769 0.42861270904541016 -0.07009988278150558
0.5940178632736206 0.44838646054267883 -0.014435254037380219
0.6487514972686768 0.7297543883323669 0.0485861636698246
0.7510383129119873 0.7285047173500061 0.2689763009548187
0.5704682469367981 0.6522485017776489 -0.05722342059016228
0.5518212914466858 0.6607665419578552 -0.058889396488666534
0.6187555193901062 0.7248168587684631 0.04717220738530159
0.6129298806190491 0.7262910604476929 0.039838749915361404
0.7082934975624084 0.3842913508415222 -0.012410534545779228
0.5897131562232971 0.6445363759994507 -0.05213804543018341
0.6171687841415405 0.40450021624565125 -0.0617184191942215
0.6202245950698853 0.3838304877281189 -0.07085532695055008
0.6508722901344299 0.2697179615497589 -0.04216217249631882
0.732526421546936 0.3578048348426819 0.021809276193380356
0.6361841559410095 0.3246253728866577 -0.06002763658761978
0.7341001033782959 0.4042190909385681 0.026423128321766853
0.7578884363174438 0.39314913749694824 0.07351462543010712
0.5415631532669067 0.727147102355957 -0.043672315776348114
0.5688883662223816 0.7260671854019165 -0.02581103704869747
0.588447630405426 0.7258845567703247 -0.003732843091711402
0.5652945041656494 0.6561014652252197 -0.05165097862482071
0.6157846450805664 0.7255445122718811 0.04321977496147156
0.6034417152404785 0.7353979349136353 0.02891870029270649
0.609870195388794 0.7271063327789307 0.03898691013455391
0.5593744516372681 0.649051308631897 -0.09469474852085114
0.5795459151268005 0.7347880005836487 0.005620652809739113
0.5601041913032532 0.7388200759887695 -0.010079097002744675
0.536480188369751 0.7435856461524963 -0.022521430626511574
0.5468237996101379 0.8228070139884949 0.009079579263925552
0.5411693453788757 0.7811347246170044 -0.016700273379683495
0.5403283834457397 0.7667741775512695 -0.021308492869138718
0.538628101348877 0.753953754901886 -0.017099693417549133
0.5362821817398071 0.7433204650878906 -0.014309254474937916
0.579282283782959 0.734920084476471 0.01225325558334589
0.5840571522712708 0.7395355105400085 0.009299236349761486
0.5887660384178162 0.7459375262260437 0.007532159332185984
0.5921734571456909 0.7538540363311768 0.01379532553255558
0.6205421686172485 0.7003828287124634 -0.0009443994495086372
0.7808356285095215 0.5983794331550598 0.2858118414878845
0.5936835408210754 0.7315279841423035 0.02887185662984848
0.5987003445625305 0.7331392765045166 0.027434073388576508
0.5447646975517273 0.6706866025924683 -0.057024382054805756
0.5822537541389465 0.6574478149414062 -0.031099235638976097
0.5480617880821228 0.665954053401947 -0.05901657044887543
0.6081017255783081 0.56491619348526 -0.014614027924835682
0.6520348191261292 0.579230785369873 -0.003372227307409048
0.5936586260795593 0.6300296783447266 -0.04534950107336044
0.7105348706245422 0.2918577790260315 0.01100145559757948
0.6939281225204468 0.333610862493515 -0.021607432514429092
0.6696813106536865 0.376513808965683 -0.04423099011182785
0.6072660684585571 0.7837899923324585 0.03437313809990883
0.5639379024505615 0.3953624367713928 -0.08538650721311569
0.5765315294265747 0.32419276237487793 -0.0825423151254654
0.5855095982551575 0.25980710983276367 -0.07420121133327484
0.6745378971099854 0.4963475465774536 0.01811274141073227
0.7353094220161438 0.5159879326820374 0.06256213784217834
0.5792390704154968 0.4966718554496765 -0.0023098073434084654
0.7082015872001648 0.45113012194633484 0.026217732578516006
0.5642834901809692 0.5367893576622009 -0.03952382877469063
0.5743617415428162 0.6312527060508728 -0.09537272900342941
0.7675763368606567 0.537653386592865 0.09600713849067688
0.7191270589828491 0.5369482040405273 0.0419422909617424
0.688561201095581 0.5495619773864746 0.018248669803142548
0.6425046920776367 0.548241913318634 0.0039819153025746346
0.6090455055236816 0.5396766066551208 -0.004905030597001314
0.5842767357826233 0.5302262902259827 -0.015286559239029884
0.5339077115058899 0.5051848888397217 -0.07535096257925034
0.7663142681121826 0.5916659235954285 0.09767048805952072
0.7287344932556152 0.4455225467681885 0.037862662225961685
0.5273256301879883 0.6663669943809509 -0.11892688274383545
0.5802334547042847 0.5789981484413147 -0.03444996848702431
0.7902207374572754 0.47986674308776855 0.2456803321838379
0.5651768445968628 0.5191895365715027 -0.02272433042526245
0.5956721305847168 0.6291901469230652 -0.018713686615228653
0.693195641040802 0.46961671113967896 0.03595708683133125
0.5741273760795593 0.6123302578926086 -0.08778464049100876
0.7703331708908081 0.6627009510993958 0.284167617559433
0.5788922309875488 0.4879312813282013 0.002313046483322978
0.5559033751487732 0.600487232208252 -0.11543434113264084
0.701193630695343 0.7910512089729309 0.14166702330112457
0.6931321620941162 0.8189149498939514 0.19012846052646637
0.7839142084121704 0.5972253084182739 0.19185124337673187
0.7337923645973206 0.7567554712295532 0.16833621263504028
0.7730369567871094 0.4356805086135864 0.12318979203701019
0.6025320291519165 0.8839221596717834 0.06785827875137329
0.5239461660385132 0.670150637626648 -0.08351706713438034
0.6034708023071289 0.5954189300537109 -0.021411754190921783
0.7582789659500122 0.4803668260574341 0.09560883045196533
0.6524344682693481 0.48899951577186584 0.006396305747330189
0.6336055994033813 0.49250680208206177 -0.0006834142259322107
0.6073527336120605 0.7385740876197815 0.034086551517248154
0.7622564435005188 0.6446141600608826 0.11459405720233917
0.5585715770721436 0.9196343421936035 0.07374700903892517
0.6254779100418091 0.8797725439071655 0.12565763294696808
0.6557544469833374 0.8541141152381897 0.15448422729969025
0.6149954795837402 0.49228912591934204 -0.003179650055244565
0.5969049334526062 0.49009039998054504 -0.0010753727983683348
0.5849432945251465 0.48932579159736633 0.002684942679479718
0.7472163438796997 0.43677693605422974 0.06337501853704453
0.5983779430389404 0.46729153394699097 -0.007818751968443394
0.6181761026382446 0.4584006369113922 -0.0117802070453763
0.6385650038719177 0.45649850368499756 -0.009772028774023056
0.6578447222709656 0.45903754234313965 -0.001807631109841168
0.6693583130836487 0.46360790729522705 0.007937424816191196
0.7855075597763062 0.41968363523483276 0.19282904267311096
0.6647118926048279 0.4837019145488739 0.014849905855953693
0.5943197011947632 0.6916720867156982 -0.021581294015049934
0.5702418088912964 0.64981609582901 -0.06836054474115372
0.5481548309326172 0.691356897354126 -0.05020671337842941
0.6656858921051025 0.8261906504631042 0.12132599949836731
0.6342518925666809 0.8546444177627563 0.09671725332736969
0.5617117881774902 0.9046444296836853 0.042171888053417206
0.7238125205039978 0.7804539203643799 0.2326761782169342
0.5848599672317505 0.48001933097839355 -0.002093040384352207
0.5501100420951843 0.5478218197822571 -0.07537971436977386
0.5948088765144348 0.902970016002655 0.094944067299366
0.7744121551513672 0.6555042266845703 0.19708888232707977
0.559825599193573 0.7388819456100464 -0.002263794420287013
0.5642369985580444 0.7469234466552734 -0.005348903592675924
0.5674652457237244 0.7571192979812622 -0.0075746639631688595
0.5695903897285461 0.7701513767242432 -0.002005120972171426
0.5809866189956665 0.8063173294067383 0.01973498798906803
0.5990439057350159 0.7283533215522766 0.02187458612024784
0.6033148765563965 0.725662112236023 0.0223825853317976
0.6070894002914429 0.7230978012084961 0.021710066124796867
0.6409176588058472 0.7124042510986328 0.023743318393826485
0.7340576648712158 0.6599962711334229 0.06215954199433327
0.5484050512313843 0.5193571448326111 -0.05575857311487198
0.5611791610717773 0.4693604111671448 -0.019735630601644516
0.5755630731582642 0.4713265299797058 -0.00842274073511362
0.5939632654190063 0.7313496470451355 0.02447829395532608
0.73117595911026 0.7203606963157654 0.11269408464431763
0.539077877998352 0.47107142210006714 -0.054456472396850586
0.5917094349861145 0.8318943977355957 0.03559284284710884
0.5341771245002747 0.5359010100364685 -0.09690137207508087
0.5665726661682129 0.5883556008338928 -0.06867692619562149
0.5536562204360962 0.8506808280944824 0.018258044496178627
0.6455978155136108 0.7728930711746216 0.06236634775996208
0.6173164248466492 0.6476519703865051 -0.007397172041237354
0.6201192140579224 0.8056159019470215 0.05135398358106613
0.6800435185432434 0.6417127251625061 0.005362917203456163
0.6438984274864197 0.6706719398498535 0.005579063668847084
0.7010368704795837 0.6795089840888977 0.03536173701286316
0.5605173707008362 0.8816186189651489 0.024871783331036568
0.580162763595581 0.6000919342041016 -0.047133367508649826
0.6623024940490723 0.7957902550697327 0.0885961577296257
0.630817174911499 0.8284808397293091 0.07306049764156342
0.668519914150238 0.7385350465774536 0.059393420815467834
0.7537316083908081 0.6888715028762817 0.13094225525856018
0.6974878311157227 0.7465758323669434 0.08413412421941757
0.759401798248291 0.7089470028877258 0.19531670212745667
0.6657072901725769 0.6964097023010254 0.02587447315454483
0.5642086863517761 0.5633015632629395 -0.05329391360282898
0.5670496225357056 0.6444154381752014 -0.10032644122838974
0.5811073780059814 0.6464393138885498 -0.07035298645496368
0.5577219128608704 0.629047155380249 -0.12078312784433365
0.5784555077552795 0.4442293047904968 -0.029476216062903404
0.6160960793495178 0.4250103831291199 -0.033607784658670425
0.6503140926361084 0.4197384715080261 -0.02955373004078865
0.6786291599273682 0.4229891002178192 -0.016338840126991272
0.6980867385864258 0.4329727292060852 0.0017782470677047968
0.7115377187728882 0.47407078742980957 0.047881338745355606
0.7882617712020874 0.5412157773971558 0.17775839567184448
0.6948450803756714 0.5129268169403076 0.03245026618242264
0.6711957454681396 0.5228118896484375 0.016837364062666893
0.639424204826355 0.5248281955718994 0.005045730620622635
0.609830915927887 0.5208745002746582 -0.002105922205373645
0.587183952331543 0.5146560072898865 -0.0060926275327801704
0.5713866949081421 0.5081868171691895 -0.009943077340722084
0.7865565419197083 0.5382253527641296 0.27431413531303406
0.5807207822799683 0.6506503224372864 -0.056782662868499756
0.551304042339325 0.5736660361289978 -0.09181603789329529
0.55146324634552 0.6487647891044617 -0.12053921073675156
0.5386519432067871 0.6605474948883057 -0.10869461297988892
0.5507290959358215 0.6519116163253784 -0.10754627734422684
0.5749092102050781 0.656731367111206 -0.04698938503861427
0.5345771908760071 0.6638946533203125 -0.11527217924594879
0.5311985015869141 0.6676607131958008 -0.08397723734378815
0.5708637237548828 0.48950231075286865 -0.0018890037899836898
0.5586408376693726 0.49577444791793823 -0.016992609947919846
0.5503355264663696 0.5015161037445068 -0.0344095304608345
0.6760398149490356 0.4671953022480011 0.017689570784568787
0.693579912185669 0.4538067877292633 0.01889018900692463
0.38432633876800537 0.4746739864349365 -0.009591259062290192
0.4090263247489929 0.4741742014884949 -0.009591259062290192
0.3842748999595642 0.4517361521720886 -0.009591259062290192
0.3589624762535095 0.4751623868942261 -0.009591259062290192
0.38402339816093445 0.4979904890060425 -0.009591259062290192
0.6210156679153442 0.47062838077545166 0.004100568126887083
0.645484447479248 0.46912628412246704 0.004100568126887083
0.6197261214256287 0.4468914568424225 0.004100568126887083
0.5969175100326538 0.471421480178833 0.004100568126887083
0.6222251653671265 0.4942033290863037 0.004100568126887083
