ply
format ascii 1.0
element vertex 478
property float x
property float y
property float z
end_header
0.5169261693954468 0.7076966762542725 -0.08330197632312775
0.5248827338218689 0.6168752908706665 -0.138062983751297
0.5165671110153198 0.6432979106903076 -0.08096881210803986
0.4979512691497803 0.5383115410804749 -0.0981956422328949
0.5255177021026611 0.5916063785552979 -0.14365965127944946
0.5232860445976257 0.5604014992713928 -0.13024666905403137
0.5143219232559204 0.48636746406555176 -0.05278747156262398
0.333265483379364 0.48907360434532166 0.025010330602526665
0.5110619068145752 0.42771729826927185 -0.02689344994723797
0.5108413696289062 0.3983664810657501 -0.025635385885834694
0.5065240859985352 0.31171751022338867 0.016058363020420074
0.5166606903076172 0.71358323097229 -0.08088995516300201
0.515429675579071 0.7191283702850342 -0.07462483644485474
0.5138579607009888 0.7220133543014526 -0.06610679626464844
0.5144034624099731 0.7771127820014954 -0.052161138504743576
0.5151285529136658 0.782382607460022 -0.058593954890966415
0.5148563385009766 0.7901155352592468 -0.0650753453373909
0.513670802116394 0.8002738952636719 -0.06245323270559311
0.5075970888137817 0.830842912197113 -0.04394586384296417
0.5223361849784851 0.6310751438140869 -0.1270064264535904
0.49287256598472595 0.631146252155304 -0.096544548869133
0.22662726044654846 0.41529297828674316 0.13738591969013214
0.4063112437725067 0.5065005421638489 0.005852830596268177
0.38190212845802307 0.5096674561500549 0.004574780818074942
0.35774552822113037 0.509271502494812 0.008572486229240894
0.3224261403083801 0.4952937960624695 0.025710629299283028
0.4271423816680908 0.5006040334701538 0.0114787258207798
0.3710426688194275 0.42861875891685486 0.0006052597309462726
0.39953815937042236 0.43164753913879395 0.005168322008103132
0.344154953956604 0.4351835250854492 0.004850529134273529
0.3253723978996277 0.4481458365917206 0.012215230613946915
0.30158716440200806 0.5099961757659912 0.03365180268883705
0.3995553255081177 0.8565985560417175 -0.025258412584662437
0.322824090719223 0.48074960708618164 0.032404880970716476
0.21410825848579407 0.5103504061698914 0.13342972099781036
0.26958513259887695 0.4933658242225647 0.05749277025461197
0.37715721130371094 0.597608745098114 -0.033807653933763504
0.4784283936023712 0.7044036388397217 -0.08348517119884491
0.4780554175376892 0.7177181839942932 -0.07371998578310013
0.4390430748462677 0.7097697257995605 -0.07135223597288132
0.41123491525650024 0.7162952423095703 -0.0508815161883831
0.4460177719593048 0.718661904335022 -0.06413915753364563
0.420566588640213 0.7218344211578369 -0.04506630077958107
0.36766189336776733 0.760209858417511 -0.01288654375821352
0.5022597312927246 0.6163977980613708 -0.13752982020378113
0.49959391355514526 0.5921347737312317 -0.1427440196275711
0.29341089725494385 0.42649197578430176 0.017774714156985283
0.4322502911090851 0.5390560030937195 -0.023792322725057602
0.4296680688858032 0.6094990968704224 -0.08362920582294464
0.42668333649635315 0.5969170331954956 -0.07498049736022949
0.301691472530365 0.5944679975509644 -0.011199951171875
0.4990677237510681 0.5630921721458435 -0.1255117803812027
0.3578656315803528 0.3930557668209076 -0.013128669932484627
0.32195812463760376 0.40486130118370056 7.260171696543694e-05
0.25687575340270996 0.3740788996219635 0.10008169710636139
0.46031075716018677 0.41235142946243286 -0.02440665103495121
0.42325422167778015 0.4444260597229004 0.013854526914656162
0.34872686862945557 0.7281332612037659 -0.010238967835903168
0.22186455130577087 0.7396107912063599 0.16263730823993683
0.44775474071502686 0.6237632632255554 -0.07366111874580383
0.4698004722595215 0.632039487361908 -0.07523632794618607
0.37968385219573975 0.7336004376411438 -0.00836394727230072
0.38596078753471375 0.733962893486023 -0.012822209857404232
0.3066536784172058 0.3909420073032379 0.01289836410433054
0.4250730276107788 0.6202846765518188 -0.07160723954439163
0.4027787744998932 0.39376556873321533 -0.021419484168291092
0.4000631272792816 0.37571120262145996 -0.02400621958076954
0.36480703949928284 0.32076698541641235 0.028788169845938683
0.2796456217765808 0.3893398940563202 0.053382694721221924
0.38154327869415283 0.35419389605522156 0.004265389870852232
0.2739866375923157 0.41755619645118713 0.03852052614092827
0.25051349401474 0.4236091375350952 0.08857649564743042
0.47781047224998474 0.7116315960884094 -0.08097542077302933
0.44249287247657776 0.7144970297813416 -0.06838421523571014
0.4159318506717682 0.719214141368866 -0.04973515868186951
0.4530620574951172 0.6286734342575073 -0.06838888674974442
0.38292235136032104 0.7337279915809631 -0.010637097992002964
0.39908790588378906 0.752314567565918 -0.02226538024842739
0.3886350691318512 0.7342437505722046 -0.013249062933027744
0.46675994992256165 0.6163903474807739 -0.10562536120414734
0.42443978786468506 0.7230766415596008 -0.04226478934288025
0.4492570459842682 0.7207022905349731 -0.05603388324379921
0.4788638949394226 0.7206002473831177 -0.06546615064144135
0.4643906056880951 0.8277698159217834 -0.04503881558775902
0.4748222529888153 0.7973548173904419 -0.06301137059926987
0.47677934169769287 0.7872888445854187 -0.06467588990926743
0.4787925183773041 0.7796631455421448 -0.05762258917093277
0.48076313734054565 0.7747961282730103 -0.05154497176408768
0.42742103338241577 0.7612781524658203 -0.03157646581530571
0.42339932918548584 0.7626437544822693 -0.03637552633881569
0.4182596206665039 0.7664977312088013 -0.04040295630693436
0.41438716650009155 0.7722285389900208 -0.03670194000005722
0.3862968683242798 0.6834051609039307 -0.04346271604299545
0.19833791255950928 0.6176670789718628 0.2091561257839203
0.5196280479431152 0.6377564072608948 -0.09668578207492828
0.40900057554244995 0.7516568303108215 -0.019182579591870308
0.40403783321380615 0.7511759400367737 -0.02216719649732113
0.4778236448764801 0.6418913006782532 -0.07769450545310974
0.43098774552345276 0.6348775029182434 -0.054200429469347
0.4740408658981323 0.637097179889679 -0.07697074115276337
0.40446245670318604 0.551913321018219 -0.0208321213722229
0.36280739307403564 0.5665843486785889 -0.020630957558751106
0.41960304975509644 0.6079040765762329 -0.06281136721372604
0.30082228779792786 0.3413737118244171 0.060862522572278976
0.32126086950302124 0.3653995394706726 0.026102028787136078
0.3489151895046234 0.3765701949596405 -0.0064035216346383095
0.3908599317073822 0.787179708480835 -0.024446740746498108
0.4554422199726105 0.382286012172699 -0.029437055811285973
0.4420109987258911 0.3532303273677826 -0.005543328355997801
0.43107277154922485 0.31257426738739014 0.013559065759181976
0.33536794781684875 0.5047484636306763 0.0168253593146801
0.2726043462753296 0.5269808769226074 0.042605191469192505
0.44133156538009644 0.49502626061439514 0.016611812636256218
0.3003695607185364 0.4621155261993408 0.029253847897052765
0.45199814438819885 0.5241363048553467 -0.029393207281827927
0.45053401589393616 0.6006090044975281 -0.1047746017575264
0.2392149716615677 0.5457683801651001 0.06263456493616104
0.2944709360599518 0.5409027934074402 0.02001320570707321
0.33054348826408386 0.5465056300163269 0.0006482708267867565
0.3787049949169159 0.5408233404159546 -0.005472032818943262
0.4121720492839813 0.531208872795105 -0.0055357362143695354
0.4367181658744812 0.52097487449646 -0.007544101681560278
0.48976391553878784 0.49227631092071533 -0.04657091945409775
0.24047645926475525 0.5919450521469116 0.04916404187679291
0.27934449911117554 0.45851436257362366 0.03930511325597763
0.5085235238075256 0.6301078200340271 -0.12691767513751984
0.43348395824432373 0.5615690350532532 -0.0380328930914402
0.1970691680908203 0.5131449699401855 0.20616866648197174
0.45616415143013 0.5095826387405396 -0.007365163881331682
0.4144355058670044 0.6096228957176208 -0.037860769778490067
0.3120826780796051 0.4807363748550415 0.03535652905702591
0.447846382856369 0.5853613018989563 -0.09384377300739288
0.2049543857574463 0.6760239601135254 0.19176265597343445
0.4409792721271515 0.48810774087905884 0.024240825325250626
0.4738134443759918 0.5717995166778564 -0.11419729143381119
0.28232282400131226 0.794076681137085 0.05135015770792961
0.2782667279243469 0.829585075378418 0.08346328884363174
0.20924922823905945 0.6075364351272583 0.12988869845867157
0.25122785568237305 0.7600998282432556 0.07564312219619751
0.2313031703233719 0.4637731611728668 0.11833374202251434
0.3931875228881836 0.88543701171875 -0.017797620967030525
0.5087032318115234 0.6367846727371216 -0.09584292024374008
0.40837693214416504 0.5786851644515991 -0.033518072217702866
0.24344255030155182 0.4987046718597412 0.0785784050822258
0.3608202338218689 0.4986104667186737 0.012906347401440144
0.3828670382499695 0.49945616722106934 0.00916051585227251
0.3948941230773926 0.7545787692070007 -0.019565898925065994
0.24003931879997253 0.6413382887840271 0.051289770752191544
0.4448958933353424 0.9255903363227844 -0.013270539231598377
0.3550732731819153 0.8877301216125488 0.029405100271105766
0.3183066248893738 0.8634187579154968 0.053974565118551254
0.5087242126464844 0.3551020622253418 -0.004331627395004034
0.5057405829429626 0.9301590919494629 -0.013984066434204578
0.4031568765640259 0.49671897292137146 0.010602631606161594
0.4224403202533722 0.49252885580062866 0.016140110790729523
0.4351104199886322 0.4902075529098511 0.022697655484080315
0.2554113268852234 0.4543535113334656 0.06215451657772064
0.41548392176628113 0.46634039282798767 0.015486268326640129
0.3929283320903778 0.4562091827392578 0.009628242813050747
0.3717103898525238 0.45467185974121094 0.008254604414105415
0.3504779040813446 0.4595754146575928 0.0111917769536376
0.3369120657444 0.4678080677986145 0.016895733773708344
0.20764511823654175 0.45903730392456055 0.17716366052627563
0.3449551463127136 0.4945833683013916 0.018974490463733673
0.5145295858383179 0.6611184477806091 -0.07610245048999786
0.4160141348838806 0.6694658994674683 -0.05788195878267288
0.44973015785217285 0.6196562051773071 -0.08147858083248138
0.47294530272483826 0.6620327234268188 -0.07718446850776672
0.5113592743873596 0.45873039960861206 -0.03036477416753769
0.3168962597846985 0.8287405371665955 0.031914256513118744
0.352319598197937 0.8572703003883362 0.008513488806784153
0.44562289118766785 0.905143678188324 -0.03884679451584816
0.24812184274196625 0.7916293740272522 0.1220339760184288
0.43301495909690857 0.4804868698120117 0.02077280357480049
0.4736664593219757 0.5293573141098022 -0.06130713224411011
0.5068507194519043 0.9100660085678101 -0.03927382826805115
0.3960263729095459 0.9097132086753845 0.0029547091107815504
0.21307504177093506 0.6616311073303223 0.12027224898338318
0.45189252495765686 0.7690386772155762 -0.04327091574668884
0.44779452681541443 0.7723432183265686 -0.04860354959964752
0.4441385269165039 0.778744637966156 -0.05331961438059807
0.4416583776473999 0.7876176238059998 -0.05059872567653656
0.4221931993961334 0.8113750219345093 -0.03754796087741852
0.3997296094894409 0.7267557382583618 -0.027846697717905045
0.39521926641464233 0.7254325151443481 -0.027985835447907448
0.39136505126953125 0.7237662076950073 -0.028607655316591263
0.36291268467903137 0.7024872303009033 -0.0258194487541914
0.27695944905281067 0.6501209735870361 0.007115132175385952
0.4714731276035309 0.5067600011825562 -0.03603111580014229
0.45734187960624695 0.4633757472038269 0.012605848722159863
0.4429734945297241 0.4683518409729004 0.019277911633253098
0.40369245409965515 0.7271358966827393 -0.026132989674806595
0.2662871479988098 0.7160763740539551 0.037827908992767334
0.48116493225097656 0.45923590660095215 -0.01730121113359928
0.41022399067878723 0.8312146663665771 -0.029618769884109497
0.5201310515403748 0.5346136689186096 -0.10349668562412262
0.4935981333255768 0.516322135925293 -0.07367530465126038
0.5172519087791443 0.511240541934967 -0.07660356909036636
0.45364174246788025 0.5658283233642578 -0.06823097169399261
0.5079635977745056 0.8824834823608398 -0.04765677452087402
0.5077453851699829 0.8533917665481567 -0.045044466853141785
0.4578900635242462 0.8498362302780151 -0.04304493963718414
0.3476206064224243 0.7701591849327087 -0.0038791559636592865
0.3914875388145447 0.629646360874176 -0.03453415632247925
0.3742619752883911 0.8041813969612122 -0.015359033830463886
0.3361031413078308 0.626436173915863 -0.03032565861940384
0.3663790822029114 0.6540516018867493 -0.03180210664868355
0.3115096986293793 0.6666561365127563 -0.014374854974448681
0.4505075216293335 0.8778908848762512 -0.04593735560774803
0.4337441921234131 0.5791263580322266 -0.05433734133839607
0.3266929090023041 0.7942544221878052 0.011378931812942028
0.3610078990459442 0.8271740674972534 -0.00390621111728251
0.329049289226532 0.7327144145965576 -0.004471248015761375
0.2427852898836136 0.6857691407203674 0.056565895676612854
0.2974589765071869 0.7425525784492493 0.013159100897610188
0.22537779808044434 0.7130801677703857 0.1056123897433281
0.34268343448638916 0.6838533878326416 -0.02258315309882164
0.45419397950172424 0.5454990863800049 -0.048600029200315475
0.4592371881008148 0.6118814945220947 -0.11022593826055527
0.43818309903144836 0.6175373196601868 -0.08614896237850189
0.47434496879577637 0.5956968665122986 -0.12531286478042603
0.4393368363380432 0.4363783597946167 0.006311099510639906
0.4016943573951721 0.4190770983695984 -0.0011542836437001824
0.3673390746116638 0.41698336601257324 -0.004048278089612722
0.337394654750824 0.42504119873046875 0.0012113939737901092
0.3141797184944153 0.43960729241371155 0.012806042097508907
0.2944469153881073 0.4873530864715576 0.04281075298786163
0.2089361548423767 0.5580027103424072 0.13209152221679688
0.3174492120742798 0.5189459919929504 0.021740494295954704
0.34577006101608276 0.5246475338935852 0.009558213874697685
0.37912851572036743 0.5233972072601318 0.003049182938411832
0.4090341329574585 0.5174062252044678 0.0028570499271154404
0.43189147114753723 0.5097485780715942 0.005831365007907152
0.448006272315979 0.502605140209198 0.006902669556438923
0.19654980301856995 0.5648625493049622 0.215513214468956
0.43608954548835754 0.6240699291229248 -0.07477686554193497
0.47593799233436584 0.5498656034469604 -0.08443855494260788
0.4812611937522888 0.6137393712997437 -0.12727223336696625
0.49327266216278076 0.6269553303718567 -0.11756160110235214
0.47936758399009705 0.6183865666389465 -0.11604412645101547
0.4412636160850525 0.6317695379257202 -0.06647477298974991
0.4995298981666565 0.6289071440696716 -0.1238432452082634
0.4994874894618988 0.6350616216659546 -0.09617354720830917
0.44975191354751587 0.4871370792388916 0.021492471918463707
0.4607059061527252 0.4894328713417053 0.007673888932913542
0.47066494822502136 0.4917863607406616 -0.010085057467222214
0.3290996849536896 0.47439324855804443 0.023262012749910355
0.31365466117858887 0.4630328118801117 0.023660331964492798
0.5405495166778564 0.5382028818130493 -0.0928892195224762
0.6739956140518188 0.48117345571517944 0.06432370841503143
0.5432720184326172 0.6311420202255249 -0.09236898273229599
0.7254610061645508 0.41960132122039795 0.2026047259569168
0.6060619354248047 0.4984970688819885 0.031575728207826614
0.6284379959106445 0.5005733966827393 0.03540578484535217
0.6502278447151184 0.501478374004364 0.04401294142007828
0.6804451942443848 0.48974543809890747 0.06757429242134094
0.5874282717704773 0.49509796500205994 0.0317663736641407
0.6479065418243408 0.4322839379310608 0.03203726187348366
0.6197721362113953 0.4351475238800049 0.02992519550025463
0.6724870800971985 0.4374050199985504 0.04125425964593887
0.6869981288909912 0.4484502673149109 0.05163061246275902
0.6942868232727051 0.5056811571121216 0.07915519177913666
0.6041654944419861 0.8517771363258362 -0.005951436702162027
0.6830825805664062 0.47482192516326904 0.07355847209692001
0.7409400939941406 0.5114763975143433 0.19505691528320312
0.7163634896278381 0.4892827272415161 0.10810328274965286
0.6325817108154297 0.5982248783111572 -0.007222664542496204
0.5514522194862366 0.7032304406166077 -0.07616730779409409
0.5475565195083618 0.7169554829597473 -0.06681668758392334
0.5820063948631287 0.7064067721366882 -0.05652400851249695
0.6021089553833008 0.7122926712036133 -0.030533013865351677
0.5727934241294861 0.7166340947151184 -0.05087088793516159
0.5917287468910217 0.7190738320350647 -0.027375679463148117
0.6270480751991272 0.7582981586456299 0.013086617924273014
0.5456778407096863 0.6164379119873047 -0.13406957685947418
0.5493730306625366 0.59214186668396 -0.138678178191185
0.7124818563461304 0.4284263849258423 0.06491215527057648
0.5808124542236328 0.5394048690795898 -0.006814653519541025
0.5975757837295532 0.6098940372467041 -0.06780143827199936
0.5978850722312927 0.5973463654518127 -0.05861890688538551
0.6959987282752991 0.5954195857048035 0.03300425410270691
0.5455789566040039 0.5629616975784302 -0.12023133784532547
0.6677197217941284 0.40091049671173096 0.01972130313515663
0.6961274743080139 0.41011136770248413 0.041123248636722565
0.7097324728965759 0.37869033217430115 0.15831531584262848
0.5666930079460144 0.4193509817123413 -0.013596395961940289
0.59543377161026 0.4465407729148865 0.034014951437711716
0.6440265774726868 0.7268124222755432 0.02089744620025158
0.7175430059432983 0.7347186207771301 0.22486469149589539
0.578204333782196 0.6241424679756165 -0.06196502968668938
0.5583772659301758 0.6323981285095215 -0.06931012868881226
0.6234966516494751 0.7303279638290405 0.018793102353811264
0.617271900177002 0.7310165762901306 0.011485020630061626
0.7056176662445068 0.3957255780696869 0.05647742375731468
0.5971294641494751 0.6206544041633606 -0.05595135688781738
0.6266742944717407 0.40163636207580566 0.000843962247017771
0.6313344836235046 0.3829208016395569 -0.0010523252421990037
0.6320796608924866 0.3244627118110657 0.061306484043598175
0.7037040591239929 0.39096736907958984 0.1013055220246315
0.6254194974899292 0.3558748960494995 0.03023318201303482
0.7221522927284241 0.41816946864128113 0.08906751871109009
0.7200503349304199 0.42510688304901123 0.14314676821231842
0.550273060798645 0.7108002305030823 -0.0736875981092453
0.5777498483657837 0.7119689583778381 -0.054285600781440735
0.5973023176193237 0.7157845497131348 -0.030884237959980965
0.5720464587211609 0.6287892460823059 -0.05876839905977249
0.6204027533531189 0.7306377291679382 0.014666739851236343
0.6090148687362671 0.7508179545402527 -0.0005935808876529336
0.614650547504425 0.7314692735671997 0.010378407314419746
0.5681845545768738 0.6169320344924927 -0.09494426846504211
0.5865126848220825 0.7207245826721191 -0.02542426809668541
0.5678470730781555 0.7192530035972595 -0.04344125837087631
0.5440468788146973 0.7200692296028137 -0.05840655416250229
0.5479772090911865 0.8266861438751221 -0.03797939792275429
0.5482051372528076 0.7975400686264038 -0.05512569099664688
0.5483395457267761 0.7872546911239624 -0.05647270753979683
0.5467965602874756 0.7796157598495483 -0.049593422561883926
0.5435380935668945 0.7749021649360657 -0.04396779090166092
0.5846073627471924 0.7608668804168701 -0.014614641666412354
0.5895428657531738 0.7624481320381165 -0.019351627677679062
0.5948527455329895 0.7664449214935303 -0.02263881452381611
0.5981571674346924 0.7722920179367065 -0.01798958331346512
0.6203814744949341 0.6830821633338928 -0.020615823566913605
0.7319120168685913 0.6170822381973267 0.27785131335258484
0.5982627868652344 0.7504021525382996 0.00170793232973665
0.6040194630622864 0.7498562932014465 -0.0012137559242546558
0.5508860945701599 0.6419644951820374 -0.07178886979818344
0.5878012776374817 0.6348923444747925 -0.04164160043001175
0.5546191930770874 0.6373876929283142 -0.07123730331659317
0.6050021648406982 0.552552342414856 0.002268110867589712
0.6433841586112976 0.5675739645957947 0.010933185927569866
0.600886344909668 0.6084204912185669 -0.045771144330501556
0.6813707947731018 0.34589093923568726 0.10805515199899673
0.6742501258850098 0.36695441603660583 0.064356230199337
0.6750200986862183 0.38324272632598877 0.028005266562104225
0.6088072061538696 0.7849166393280029 -0.002876982092857361
0.5761938095092773 0.38800597190856934 -0.017740264534950256
0.5717745423316956 0.3545422852039337 0.007778383791446686
0.5758791565895081 0.31490179896354675 0.02964368835091591
0.6691896915435791 0.4980808198451996 0.056266095489263535
0.7152140140533447 0.5227437615394592 0.09290828555822372
0.5755709409713745 0.4911360740661621 0.03465261682868004
0.7026354670524597 0.4597940444946289 0.07468996196985245
0.5647811889648438 0.5241662263870239 -0.015804558992385864
0.5841282606124878 0.6010035872459412 -0.09205707907676697
0.7365764379501343 0.5466147661209106 0.11963015794754028
0.7020497918128967 0.5383829474449158 0.06753753125667572
0.6751093864440918 0.546247124671936 0.04130968078970909
0.6322924494743347 0.5416394472122192 0.025908149778842926
0.6007574796676636 0.5320584774017334 0.018199676647782326
0.578007698059082 0.5222741365432739 0.01009240560233593
0.5362581610679626 0.49234098196029663 -0.040874630212783813
0.7385344505310059 0.5923722982406616 0.10623890906572342
0.715844988822937 0.4566952586174011 0.08894701302051544
0.5349382162094116 0.6301010847091675 -0.12411615252494812
0.5832443833351135 0.5619600415229797 -0.021596737205982208
0.7350653409957886 0.5155360102653503 0.27675437927246094
0.561431884765625 0.5109790563583374 0.006233918946236372
0.6010509133338928 0.6100118160247803 -0.02075803279876709
0.6904507279396057 0.4762957692146301 0.07875658571720123
0.5833972096443176 0.5856420993804932 -0.08084481209516525
0.7279438972473145 0.6733162999153137 0.2577475309371948
0.5763511061668396 0.4833019971847534 0.042998455464839935
0.5650334358215332 0.5717192888259888 -0.1047283411026001
0.6923035383224487 0.7868536710739136 0.09376566857099533
0.6852777004241943 0.8197367191314697 0.1301550716161728
0.7475663423538208 0.6063048243522644 0.1917688399553299
0.7146771550178528 0.7540302276611328 0.12548191845417023
0.7297681570053101 0.4656851291656494 0.17694756388664246
0.6080384254455566 0.8788174986839294 0.002597013022750616
0.529889702796936 0.6368188858032227 -0.09415528178215027
0.6043697595596313 0.5792636871337891 -0.013119244948029518
0.7314460873603821 0.49367755651474 0.13418608903884888
0.6507376432418823 0.4869869351387024 0.047638118267059326
0.6310451626777649 0.4870608448982239 0.039869196712970734
0.6127985715866089 0.7530419826507568 0.0034619441721588373
0.7365089654922485 0.6402614712715149 0.10691822320222855
0.5630800127983093 0.9214584827423096 -0.0004602141270879656
0.6328510046005249 0.8780627846717834 0.06006110459566116
0.6585676670074463 0.8528754711151123 0.09207935631275177
0.611939549446106 0.4854952394962311 0.037022873759269714
0.593700110912323 0.48397380113601685 0.038883667439222336
0.5816956758499146 0.48412448167800903 0.0430600643157959
0.7272148132324219 0.4515272378921509 0.11589881777763367
0.6000104546546936 0.46528926491737366 0.03835703060030937
0.6210250854492188 0.45629799365997314 0.03623812273144722
0.6424264311790466 0.45403003692626953 0.039082735776901245
0.6626381874084473 0.4578738808631897 0.04625348746776581
0.6739856600761414 0.46495959162712097 0.05461980774998665
0.7334187030792236 0.4627739191055298 0.2462402731180191
0.6644490957260132 0.48473626375198364 0.05655883625149727
0.5989084243774414 0.6693418622016907 -0.040553078055381775
0.5787281394004822 0.6201349496841431 -0.07033997774124146
0.5525526404380798 0.662011444568634 -0.06991241127252579
0.6658308506011963 0.8209448456764221 0.06643125414848328
0.6382129192352295 0.848986029624939 0.03592420369386673
0.5647281408309937 0.901671290397644 -0.027493322268128395
0.7028911709785461 0.7840647101402283 0.1777055263519287
0.5841854810714722 0.4767215847969055 0.04130973294377327
0.5540143251419067 0.5293405055999756 -0.052393946796655655
0.6032307147979736 0.9022074937820435 0.025607356801629066
0.7427910566329956 0.6588296294212341 0.17975816130638123
0.5665459632873535 0.7690851092338562 -0.030086437240242958
0.5714921951293945 0.7724784016609192 -0.03505650907754898
0.5749409198760986 0.7789410352706909 -0.0390155166387558
0.5767014026641846 0.7883654832839966 -0.03589734807610512
0.5840257406234741 0.8092229962348938 -0.021381298080086708
0.6072306632995605 0.7236927151679993 -0.0060898358933627605
0.6120620369911194 0.7220182418823242 -0.004427521489560604
0.616222620010376 0.7198747992515564 -0.0038022620137780905
0.6360334157943726 0.701945424079895 0.0027722776867449284
0.7121442556381226 0.6495702266693115 0.05487902835011482
0.5498684048652649 0.5068427920341492 -0.026521168649196625
0.5610889792442322 0.46355390548706055 0.024135923013091087
0.5746784210205078 0.46739375591278076 0.036366432905197144
0.602593183517456 0.7245106101036072 -0.00512400409206748
0.7123907804489136 0.7129548192024231 0.08575908094644547
0.5414999723434448 0.46206074953079224 -0.01046291645616293
0.5937832593917847 0.8274972438812256 -0.012513452209532261
0.5388224124908447 0.516188383102417 -0.0688958466053009
0.5726216435432434 0.5661042332649231 -0.05625734478235245
0.5541355013847351 0.8477451801300049 -0.034915924072265625
0.6448970437049866 0.7673357129096985 0.025745783001184464
0.6188791990280151 0.6297350525856018 -0.012765055522322655
0.6228307485580444 0.800390362739563 0.008207231760025024
0.6678073406219482 0.6267644166946411 0.004338092636317015
0.6386779546737671 0.6541764140129089 -0.004494734574109316
0.6845713257789612 0.666233479976654 0.02513287588953972
0.5619954466819763 0.8752871155738831 -0.03524245321750641
0.5863352417945862 0.5796052813529968 -0.039345212280750275
0.6622992753982544 0.7892533540725708 0.044714637100696564
0.6338725090026855 0.821323573589325 0.02191748470067978
0.6624319553375244 0.7311287522315979 0.03132141754031181
0.7305153012275696 0.6832800507545471 0.1099681630730629
0.6884320378303528 0.7390603423118591 0.05383588373661041
0.7328302264213562 0.7088711261749268 0.16221387684345245
0.6548243761062622 0.6838827729225159 0.010239478200674057
0.5677496194839478 0.5456790328025818 -0.03574676439166069
0.5762778520584106 0.6122432947158813 -0.09865681827068329
0.5898160338401794 0.6178964376449585 -0.07294660806655884
0.5682932138442993 0.5956969261169434 -0.11606055498123169
0.5820943117141724 0.4396998882293701 0.022081473842263222
0.6219460368156433 0.4237755239009857 0.0224758293479681
0.6561812162399292 0.4217092990875244 0.027304580435156822
0.6824078559875488 0.42786622047424316 0.039286453276872635
0.6982147097587585 0.44031548500061035 0.05533503741025925
0.7006877660751343 0.48281070590019226 0.0892593041062355
0.7470338344573975 0.5580795407295227 0.19536273181438446
0.683129072189331 0.5151362419128418 0.06458357721567154
0.6598222255706787 0.5213518738746643 0.04691886901855469
0.6300870180130005 0.5196613669395447 0.033836353570222855
0.6022487282752991 0.5139752626419067 0.027121473103761673
0.5810526013374329 0.5078449249267578 0.024049628525972366
0.5666605830192566 0.5014172792434692 0.02168714627623558
0.7330332398414612 0.5658701658248901 0.286359965801239
0.5881955623626709 0.6243867874145508 -0.0615961067378521
0.5575841665267944 0.5498373508453369 -0.07523410022258759
0.5614520311355591 0.6136325001716614 -0.12001410126686096
0.5459481477737427 0.6267809271812439 -0.11333335936069489
0.5591922998428345 0.6185058355331421 -0.1084958091378212
0.5809943675994873 0.6317980885505676 -0.0553135983645916
0.5421565175056458 0.6287801861763 -0.12043696641921997
0.5376240611076355 0.6348719596862793 -0.09314069896936417
0.5682924389839172 0.4843527376651764 0.037028342485427856
0.5558910369873047 0.4889395833015442 0.019187893718481064
0.548966646194458 0.4932149648666382 -0.0004999174270778894
0.6795889139175415 0.470459520816803 0.06281652301549911
0.6935373544692993 0.4608622193336487 0.0655425488948822
0.36875206232070923 0.48012861609458923 0.017351826652884483
0.395978182554245 0.47796469926834106 0.017351826652884483
0.367709755897522 0.4556428790092468 0.017351826652884483
0.3413360118865967 0.48229101300239563 0.017351826652884483
0.3698539435863495 0.5043948888778687 0.017351826652884483
0.6308118104934692 0.4735753536224365 0.047661926597356796
0.657162070274353 0.4746316075325012 0.047661926597356796
0.6318187117576599 0.4538145661354065 0.047661926597356796
0.6041932106018066 0.47232136130332947 0.047661926597356796
0.6297754049301147 0.49307000637054443 0.047661926597356796
