ply
format ascii 1.0
element vertex 478
property float x
property float y
property float z
end_header
0.5256947875022888 0.7192258238792419 -0.05119293928146362
0.5251367092132568 0.6575657725334167 -0.13546352088451385
0.5158953666687012 0.6716565489768982 -0.06957895308732986
0.49906039237976074 0.5652254819869995 -0.11686532199382782
0.5259829163551331 0.6309359669685364 -0.14609885215759277
0.5235132575035095 0.593754231929779 -0.14038841426372528
0.5140368938446045 0.5017278790473938 -0.08709859102964401
0.33222994208335876 0.4778023660182953 -0.018854836001992226
0.5108605027198792 0.438118040561676 -0.07664471119642258
0.5110636353492737 0.40444695949554443 -0.08535068482160568
0.5074840784072876 0.27006661891937256 -0.0796293169260025
0.5249587297439575 0.7258824110031128 -0.04684465005993843
0.5229859352111816 0.7316359281539917 -0.040116872638463974
0.5205044150352478 0.7353070974349976 -0.03030301257967949
0.5154030323028564 0.7852155566215515 -0.006271067075431347
0.5159726738929749 0.7971476316452026 -0.009589229710400105
0.5152397155761719 0.8110922574996948 -0.013583965599536896
0.5132725238800049 0.8255764842033386 -0.0075097098015248775
0.5066323280334473 0.8514243364334106 0.014357668347656727
0.5223814845085144 0.6690394878387451 -0.12197295576334
0.4906163811683655 0.6637749075889587 -0.09189440310001373
0.22096773982048035 0.3736267685890198 0.0604797825217247
0.40114104747772217 0.4963856339454651 -0.030180931091308594
0.37692075967788696 0.4982205331325531 -0.032293252646923065
0.3527224659919739 0.49779826402664185 -0.02982281893491745
0.3194514513015747 0.48617568612098694 -0.015625081956386566
0.4219103455543518 0.4924359917640686 -0.024797679856419563
0.3650475740432739 0.43844908475875854 -0.04963265359401703
0.39262595772743225 0.44057995080947876 -0.04435720294713974
0.3393786549568176 0.44238948822021484 -0.04494808241724968
0.3220360577106476 0.4507388472557068 -0.03656652197241783
0.2964133620262146 0.5003732442855835 -0.004386819899082184
0.4078410863876343 0.8694905042648315 0.039955440908670425
0.3220241665840149 0.4735255241394043 -0.012843593955039978
0.21266904473304749 0.4852481484413147 0.08615158498287201
0.2659759521484375 0.48543667793273926 0.012805124744772911
0.3735416531562805 0.6060791015625 -0.041108619421720505
0.485638290643692 0.7121719121932983 -0.054524026811122894
0.48424193263053894 0.7269454598426819 -0.04054967314004898
0.4453316926956177 0.7122853994369507 -0.04222787171602249
0.41617026925086975 0.7109354734420776 -0.018175845965743065
0.45045995712280273 0.7218765020370483 -0.030863964930176735
0.42347535490989685 0.7177010178565979 -0.009372033178806305
0.3643026351928711 0.7562428116798401 0.035245396196842194
0.503254234790802 0.6564548015594482 -0.13609613478183746
0.5017321109771729 0.629856526851654 -0.1464957445859909
0.28910309076309204 0.4345807433128357 -0.04137071594595909
0.4313545823097229 0.5477170348167419 -0.045886751264333725
0.4278833568096161 0.6307488679885864 -0.08725957572460175
0.4257792830467224 0.6146084666252136 -0.081336610019207
0.2941153943538666 0.5942164659500122 -0.022471828386187553
0.5007782578468323 0.5953773856163025 -0.13695620000362396
0.3537425100803375 0.41029489040374756 -0.0747273862361908
0.31661319732666016 0.4186377227306366 -0.06177113950252533
0.24992813169956207 0.3317725658416748 0.01381104439496994
0.46325913071632385 0.4312882721424103 -0.07784802466630936
0.41632238030433655 0.44915783405303955 -0.033061299473047256
0.3431802988052368 0.7194452881813049 0.028641553595662117
0.22917994856834412 0.7206825017929077 0.18681101500988007
0.44436511397361755 0.647334098815918 -0.07297323644161224
0.4668048322200775 0.656813383102417 -0.06957876682281494
0.37462007999420166 0.710380494594574 0.03319810330867767
0.38154488801956177 0.7134782671928406 0.029988575726747513
0.3034707307815552 0.403106689453125 -0.0543038472533226
0.4218820333480835 0.6366031765937805 -0.07219010591506958
0.4026370048522949 0.4126856327056885 -0.08059084415435791
0.39945489168167114 0.39244508743286133 -0.08948475867509842
0.36118197441101074 0.27819088101387024 -0.06740307062864304
0.2756660580635071 0.36377283930778503 -0.02445078454911709
0.3812754154205322 0.3322330713272095 -0.07954546809196472
0.2733713984489441 0.4222060739994049 -0.025616217404603958
0.24597880244255066 0.39680325984954834 0.01565614342689514
0.4847507178783417 0.7204113602638245 -0.049341026693582535
0.4479410648345947 0.7173131108283997 -0.03625066205859184
0.4199223518371582 0.7144012451171875 -0.014980661682784557
0.448829710483551 0.6506704092025757 -0.06609515100717545
0.37825801968574524 0.7119527459144592 0.031689438968896866
0.39453837275505066 0.7391961812973022 0.025242678821086884
0.38458138704299927 0.7149984240531921 0.02982325665652752
0.46539050340652466 0.6490821242332458 -0.10765157639980316
0.4261595904827118 0.7202004194259644 -0.005587568040937185
0.4525873363018036 0.7250363230705261 -0.021256405860185623
0.4839886724948883 0.7309492230415344 -0.030996154993772507
0.4623642861843109 0.8474206328392029 0.012419555336236954
0.47214820981025696 0.8206021785736084 -0.009555138647556305
0.4749315679073334 0.8063324689865112 -0.014431321062147617
0.47788354754447937 0.7926077246665955 -0.010132193565368652
0.48092949390411377 0.7816703915596008 -0.006996834650635719
0.4248724579811096 0.7554547190666199 0.01248055137693882
0.4199138581752777 0.7589709162712097 0.010129651986062527
0.41392022371292114 0.7650877237319946 0.008670427836477757
0.409207284450531 0.7725897431373596 0.013714354485273361
0.3805614709854126 0.6895087957382202 -0.018741095438599586
0.20071986317634583 0.5909802317619324 0.1955687254667282
0.5193344950675964 0.6718429327011108 -0.08888756483793259
0.4060981273651123 0.7387646436691284 0.025015486404299736
0.40031760931015015 0.738288938999176 0.02414128929376602
0.4760090112686157 0.6662937998771667 -0.0671851634979248
0.42618057131767273 0.6479138135910034 -0.04895981773734093
0.47169995307922363 0.6618632078170776 -0.06949173659086227
0.40280288457870483 0.5578187108039856 -0.039930056780576706
0.3591724932193756 0.5701831579208374 -0.03758646175265312
0.4174203872680664 0.6221683621406555 -0.06646379828453064
0.2948538661003113 0.29872673749923706 -0.03054610826075077
0.31885117292404175 0.3409990668296814 -0.055398061871528625
0.34619855880737305 0.3910011947154999 -0.07489563524723053
0.3888709247112274 0.792438805103302 0.028425848111510277
0.4575815796852112 0.39846640825271606 -0.09139162302017212
0.44230520725250244 0.3321581184864044 -0.08805851638317108
0.4295769929885864 0.26979127526283264 -0.08332959562540054
0.3317936360836029 0.4937818646430969 -0.02304418571293354
0.26707369089126587 0.5159029960632324 0.007559624500572681
0.4352913796901703 0.48801389336586 -0.021164005622267723
0.2960042953491211 0.4604201912879944 -0.020063137635588646
0.45140957832336426 0.5349552631378174 -0.05427943915128708
0.4505138695240021 0.6293858289718628 -0.11003059893846512
0.2376340627670288 0.5332280397415161 0.031737808138132095
0.2858614921569824 0.5318453311920166 -0.008818186819553375
0.3194608688354492 0.5413041710853577 -0.024035418406128883
0.3682180345058441 0.539720892906189 -0.029187245294451714
0.40382492542266846 0.5314642190933228 -0.030312830582261086
0.4302160441875458 0.5219601988792419 -0.03450455516576767
0.4898633062839508 0.5070645213127136 -0.08092544227838516
0.23643623292446136 0.5826749205589294 0.03271768242120743
0.2754403352737427 0.45707523822784424 -0.014054941013455391
0.5083426833152771 0.667975664138794 -0.12275543063879013
0.43231844902038574 0.5737581253051758 -0.05362016335129738
0.1965518593788147 0.47626692056655884 0.15872369706630707
0.45062288641929626 0.5106426477432251 -0.03771452605724335
0.4114169478416443 0.6196683049201965 -0.04057932272553444
0.30973517894744873 0.4741784334182739 -0.009390692226588726
0.44807395339012146 0.6092893481254578 -0.10266432911157608
0.20925214886665344 0.6536754965782166 0.19645264744758606
0.43395358324050903 0.48029446601867676 -0.016878725960850716
0.4753543436527252 0.6007640361785889 -0.12485625594854355
0.29482501745224 0.7894426584243774 0.09633833169937134
0.2943878769874573 0.8201972842216492 0.13539652526378632
0.20989733934402466 0.5908321142196655 0.11301561444997787
0.25961267948150635 0.752246618270874 0.1081291139125824
0.22814829647541046 0.4368247985839844 0.05640207976102829
0.40595659613609314 0.8958980441093445 0.053474221378564835
0.5080045461654663 0.6707261800765991 -0.08864793926477432
0.40588709712028503 0.5875638723373413 -0.04511668160557747
0.24309633672237396 0.488830029964447 0.032834962010383606
0.35721224546432495 0.4828673005104065 -0.028551382943987846
0.3779185712337494 0.4836326837539673 -0.031248992308974266
0.3895052373409271 0.7410274744033813 0.02811632677912712
0.23526529967784882 0.6348935961723328 0.05014524981379509
0.45106735825538635 0.9341788291931152 0.0661856085062027
0.3715948760509491 0.8900439739227295 0.09715879708528519
0.3364536464214325 0.8603399395942688 0.11504824459552765
0.5094497799873352 0.3346165120601654 -0.08395379781723022
0.5019773840904236 0.9385551810264587 0.06854956597089767
0.39775949716567993 0.4823061227798462 -0.029270322993397713
0.4166472554206848 0.48065924644470215 -0.0237656831741333
0.42858701944351196 0.48064786195755005 -0.017980732023715973
0.2561647891998291 0.4502723813056946 0.005439134314656258
0.41033393144607544 0.4679054617881775 -0.02966923825442791
0.38876885175704956 0.4629512429237366 -0.03737667202949524
0.3690709173679352 0.4619750678539276 -0.03969184309244156
0.34946876764297485 0.4643227159976959 -0.0364626944065094
0.3363540470600128 0.46814677119255066 -0.029820755124092102
0.20462322235107422 0.4189504384994507 0.1132013201713562
0.34288790822029114 0.4805185794830322 -0.023754142224788666
0.5138063430786133 0.684874951839447 -0.057708196341991425
0.41238418221473694 0.6810894012451172 -0.03917425125837326
0.4468216001987457 0.6462539434432983 -0.08314730226993561
0.4706903100013733 0.683074414730072 -0.05923428013920784
0.5109223127365112 0.46785062551498413 -0.07327213883399963
0.3329119086265564 0.828581690788269 0.0890708789229393
0.3683161735534668 0.8617833256721497 0.07361841946840286
0.45240655541419983 0.9183108806610107 0.03868602588772774
0.26010534167289734 0.7768746018409729 0.16089725494384766
0.42643919587135315 0.47525888681411743 -0.022381111979484558
0.4740932285785675 0.5483054518699646 -0.08460811525583267
0.5047199726104736 0.9233352541923523 0.04213673248887062
0.4087750315666199 0.9166611433029175 0.07681586593389511
0.21567732095718384 0.6480565071105957 0.11989861726760864
0.4508492648601532 0.7709485292434692 0.0006301341345533729
0.4454245865345001 0.7783743143081665 -0.001797084347344935
0.44071152806282043 0.7891381978988647 -0.0037190343718975782
0.4372614920139313 0.8022966980934143 0.001586063182912767
0.42002055048942566 0.8252023458480835 0.018208123743534088
0.39960211515426636 0.7147397398948669 0.010940684005618095
0.3958391547203064 0.712186336517334 0.010293168015778065
0.3922938406467438 0.7095791101455688 0.00828072614967823
0.35527244210243225 0.7007507681846619 0.0047347042709589005
0.268268346786499 0.6498550176620483 0.010867533273994923
0.47133195400238037 0.5197854042053223 -0.06594434380531311
0.45519760251045227 0.4642345905303955 -0.03150248900055885
0.43774351477622986 0.46633246541023254 -0.02544453740119934
0.40308961272239685 0.7169963717460632 0.013296055607497692
0.26490849256515503 0.7130921483039856 0.060623422265052795
0.47963014245033264 0.46550673246383667 -0.06098096817731857
0.41331642866134644 0.8434675931930542 0.030312666669487953
0.5201883912086487 0.5624582767486572 -0.12132712453603745
0.4946671426296234 0.5378190279006958 -0.1006554365158081
0.5171526670455933 0.5336039662361145 -0.10319124907255173
0.4532378315925598 0.5853169560432434 -0.08251217752695084
0.5062361359596252 0.8997860550880432 0.027911130338907242
0.5063490271568298 0.8725343942642212 0.022137809544801712
0.4587833285331726 0.8679770231246948 0.0220887903124094
0.3523872494697571 0.768661618232727 0.044711884111166
0.388912171125412 0.6376610398292542 -0.03215615451335907
0.37962964177131653 0.8088458180427551 0.040571700781583786
0.3288295865058899 0.6334004402160645 -0.030154168605804443
0.3622599244117737 0.6611791253089905 -0.02078295312821865
0.30408164858818054 0.6700716614723206 -0.0026992647908627987
0.4546436369419098 0.894805908203125 0.02593492902815342
0.4327126741409302 0.5940371155738831 -0.0652516558766365
0.3374772071838379 0.7947967648506165 0.06285487860441208
0.37223970890045166 0.8329883813858032 0.05638808757066727
0.3297134041786194 0.7284762859344482 0.03223605826497078
0.2404537945985794 0.6802144646644592 0.06880491226911545
0.3004336953163147 0.7405752539634705 0.047537051141262054
0.2309742420911789 0.7021361589431763 0.12221888452768326
0.3366173207759857 0.6842240691184998 -0.002280293731018901
0.4538731276988983 0.5611518621444702 -0.06777287274599075
0.4583714008331299 0.6439712047576904 -0.11369592696428299
0.4355837106704712 0.6416088342666626 -0.08735410869121552
0.4758780598640442 0.6302251815795898 -0.1303468644618988
0.4370655119419098 0.4453781545162201 -0.043166469782590866
0.3972044587135315 0.43121543526649475 -0.05421912297606468
0.36146917939186096 0.4281701147556305 -0.05793377384543419
0.33074522018432617 0.4330347776412964 -0.052147939801216125
0.3084886968135834 0.44360095262527466 -0.039650533348321915
0.2908610701560974 0.48031264543533325 -0.0015789257595315576
0.2088114619255066 0.5375714898109436 0.10005439817905426
0.31132057309150696 0.5100528001785278 -0.013003861531615257
0.3380001485347748 0.5169366002082825 -0.022265523672103882
0.3717913031578064 0.517357349395752 -0.027020404115319252
0.40294933319091797 0.51275235414505 -0.027202405035495758
0.4273221492767334 0.5065083503723145 -0.02583552710711956
0.44414377212524414 0.5000725984573364 -0.026170730590820312
0.19717621803283691 0.5325396060943604 0.18409354984760284
0.432664692401886 0.6441109776496887 -0.07443124055862427
0.47667479515075684 0.5739406943321228 -0.10153551399707794
0.481681764125824 0.6511441469192505 -0.12836650013923645
0.49162930250167847 0.6624478101730347 -0.11458544433116913
0.4779229760169983 0.6536730527877808 -0.11649958044290543
0.4365500509738922 0.6492856740951538 -0.06315550208091736
0.4988202452659607 0.6659042239189148 -0.11998996883630753
0.49812430143356323 0.6683319211006165 -0.09015516936779022
0.44343411922454834 0.48145583271980286 -0.01857287436723709
0.45740628242492676 0.4877616763114929 -0.02986179105937481
0.46635544300079346 0.49309930205345154 -0.04528897628188133
0.32831457257270813 0.47119244933128357 -0.022646363824605942
0.31036654114723206 0.46088123321533203 -0.02353542484343052
0.5389850735664368 0.5650414228439331 -0.10876990109682083
0.6527822017669678 0.4793814420700073 0.03878762573003769
0.5445190072059631 0.6627118587493896 -0.08549118787050247
0.7204158306121826 0.37926897406578064 0.14706964790821075
0.5925283432006836 0.4953635036945343 0.0071823084726929665
0.6137586832046509 0.49681925773620605 0.012490266002714634
0.6344448328018188 0.49681150913238525 0.021793538704514503
0.6617357134819031 0.48796167969703674 0.04529600217938423
0.5750471353530884 0.4913389980792999 0.004717555828392506
0.6308926343917847 0.44149988889694214 -0.0024899367708712816
0.6055096387863159 0.4425126314163208 -0.0069895521737635136
0.6529686450958252 0.44586673378944397 0.009230904281139374
0.6658850908279419 0.45413994789123535 0.02181614749133587
0.6789271831512451 0.5005074143409729 0.061188533902168274
0.5889458060264587 0.8625812530517578 0.06741498410701752
0.660918653011322 0.47684821486473083 0.04746214300394058
0.7291924953460693 0.48622041940689087 0.17485497891902924
0.7015061974525452 0.4848327934741974 0.08626502007246017
0.6291661858558655 0.6041943430900574 -0.0026299143210053444
0.5597732663154602 0.7107498645782471 -0.043977148830890656
0.5537722706794739 0.7259385585784912 -0.030722005292773247
0.5854974985122681 0.7076687812805176 -0.020612036809325218
0.6016730070114136 0.7055783867835999 0.011500121094286442
0.5764181613922119 0.7195447683334351 -0.011874047107994556
0.5921840667724609 0.7149065732955933 0.01605374738574028
0.6241545677185059 0.7501708269119263 0.07266443222761154
0.5449191927909851 0.6558005809783936 -0.13093386590480804
0.5478668808937073 0.6294574737548828 -0.14032894372940063
0.6993004083633423 0.4337480962276459 0.027970073744654655
0.5760859251022339 0.5473192930221558 -0.020810658112168312
0.5960630178451538 0.6292216181755066 -0.06334619969129562
0.5949093103408813 0.6131423711776733 -0.056738488376140594
0.6921728849411011 0.5915753841400146 0.03995317220687866
0.5439916253089905 0.5950454473495483 -0.1290753334760666
0.6538758873939514 0.41193073987960815 -0.02619059570133686
0.6822332739830017 0.4193819761276245 -0.0014838395873084664
0.708263635635376 0.3385224938392639 0.09160951524972916
0.556880533695221 0.43034955859184265 -0.0615115687251091
0.5831158757209778 0.45008623600006104 -0.0026316335424780846
0.6428031921386719 0.7131133675575256 0.07374648004770279
0.691071629524231 0.7132735252380371 0.2685734033584595
0.5789875984191895 0.6459288001060486 -0.055625226348638535
0.5592498779296875 0.6557866334915161 -0.060816094279289246
0.6225377917289734 0.7055003643035889 0.0726270005106926
0.6153101325035095 0.709286093711853 0.06510195136070251
0.6935103535652161 0.4030715823173523 0.009862449951469898
0.5963838696479797 0.6348413825035095 -0.04867218807339668
0.6129125356674194 0.41326087713241577 -0.04727684333920479
0.6181652545928955 0.3934885859489441 -0.05511696636676788
0.6360165476799011 0.2839439809322357 -0.022981155663728714
0.7000886797904968 0.3681420087814331 0.04605002701282501
0.6252489686012268 0.3358955681324005 -0.04034598916769028
0.7096154689788818 0.42111071944236755 0.04842325672507286
0.7149626016616821 0.4007279872894287 0.09554218500852585
0.5575616359710693 0.719302773475647 -0.03886089473962784
0.5812777280807495 0.7140465974807739 -0.01596253365278244
0.5974414348602295 0.7101802825927734 0.0123442392796278
0.5735345482826233 0.6491877436637878 -0.051798004657030106
0.6188861131668091 0.7074053287506104 0.06836496293544769
0.6064502596855164 0.7344265580177307 0.05658789724111557
0.6119351387023926 0.7111471891403198 0.06408664584159851
0.5683995485305786 0.6481524705886841 -0.09141447395086288
0.5873064994812012 0.7183040976524353 0.01858888752758503
0.5715409517288208 0.7235903739929199 -0.003262803191319108
0.5494244694709778 0.730304479598999 -0.02082943357527256
0.5465396642684937 0.8451147079467773 0.022149983793497086
0.548392653465271 0.8180050849914551 0.0012068855576217175
0.5492217540740967 0.8036965131759644 -0.003132218262180686
0.5474108457565308 0.7901310920715332 0.0009061491582542658
0.543822705745697 0.7794377207756042 0.003470171708613634
0.5826042294502258 0.7514966726303101 0.03672224283218384
0.588037371635437 0.7545114159584045 0.034517791122198105
0.5935092568397522 0.7601507902145386 0.03403245285153389
0.5969401001930237 0.7674610614776611 0.04069843515753746
0.6216469407081604 0.6854261159896851 0.015050135552883148
0.712980329990387 0.5890603065490723 0.28531593084335327
0.5951194763183594 0.7347533702850342 0.05515314266085625
0.6011464595794678 0.7339329123497009 0.05439579859375954
0.5511951446533203 0.6653578877449036 -0.05837668851017952
0.5887936949729919 0.6458613276481628 -0.030290499329566956
0.5550960898399353 0.6609112620353699 -0.06105834245681763
0.5998519659042358 0.5571526885032654 -0.006580861285328865
0.63875412940979 0.5690125823020935 0.0071893432177603245
0.5984574556350708 0.6205162405967712 -0.04100954905152321
0.682908833026886 0.3058227300643921 0.03311016038060188
0.6720475554466248 0.3455173373222351 0.0015033225063234568
0.6618869304656982 0.39231598377227783 -0.023678848519921303
0.6056976914405823 0.7869053483009338 0.05938015878200531
0.566179633140564 0.3987013101577759 -0.07406322658061981
0.5729168653488159 0.3342505991458893 -0.06758520007133484
0.5796306729316711 0.2731691300868988 -0.06095327064394951
0.6514590978622437 0.49386167526245117 0.03440956026315689
0.6996877193450928 0.514283299446106 0.08018943667411804
0.5642017126083374 0.48677530884742737 0.005138885695487261
0.6856339573860168 0.4613472819328308 0.04647883400321007
0.5607330203056335 0.5347287058830261 -0.0342281274497509
0.5826950073242188 0.6283780336380005 -0.09079830348491669
0.7242633104324341 0.5324337482452393 0.11362316459417343
0.6878464818000793 0.530354380607605 0.059625256806612015
0.6633134484291077 0.53974848985672 0.034493338316679
0.6229708194732666 0.538605809211731 0.01570560596883297
0.5920796394348145 0.5307270288467407 0.004109413828700781
0.5700536966323853 0.5214583873748779 -0.008555497042834759
0.5347198843955994 0.5071619749069214 -0.07247604429721832
0.7273823022842407 0.5800632834434509 0.11437931656837463
0.7013580203056335 0.45689457654953003 0.058727238327264786
0.5351250171661377 0.6673651933670044 -0.1185707375407219
0.5795007944107056 0.5729268789291382 -0.02920207381248474
0.722312331199646 0.4781906008720398 0.25144192576408386
0.5544955134391785 0.510248601436615 -0.01751146838068962
0.5985161662101746 0.6179019212722778 -0.014979834668338299
0.6708002686500549 0.47707051038742065 0.05377425253391266
0.5808290243148804 0.6081502437591553 -0.0830240473151207
0.7059874534606934 0.6488825678825378 0.2823987603187561
0.5646224021911621 0.4787098169326782 0.010544992983341217
0.5624672770500183 0.5999646186828613 -0.11082011461257935
0.664336085319519 0.7789839506149292 0.15759773552417755
0.6505076289176941 0.8081685900688171 0.19700759649276733
0.7307895421981812 0.5878118276596069 0.20182348787784576
0.6892074942588806 0.743057131767273 0.18013927340507507
0.7222849726676941 0.4395834803581238 0.14141088724136353
0.5878455638885498 0.8876358866691589 0.08294901996850967
0.5301522612571716 0.6703393459320068 -0.08604390919208527
0.6004574298858643 0.5863057971000671 -0.015112715773284435
0.7154995203018188 0.48741745948791504 0.11333752423524857
0.6320787072181702 0.48185956478118896 0.02202768065035343
0.614169180393219 0.4823670983314514 0.01349269226193428
0.6108067035675049 0.736017644405365 0.06145709007978439
0.7252187728881836 0.6300831437110901 0.12958817183971405
0.5478609800338745 0.9288826584815979 0.08289369195699692
0.6035643219947815 0.8784595131874084 0.13741667568683624
0.6247467398643494 0.8476148247718811 0.16533178091049194
0.596470832824707 0.4813474118709564 0.008898952975869179
0.5797848105430603 0.47960764169692993 0.00893328245729208
0.5694108009338379 0.47935646772384644 0.011385830119252205
0.7129809856414795 0.4497135877609253 0.08398603647947311
0.5841370820999146 0.46812260150909424 0.004044630099087954
0.602820634841919 0.46530836820602417 0.0019355593249201775
0.6214393973350525 0.4657767713069916 0.0060462504625320435
0.6390540599822998 0.46899306774139404 0.015474176965653896
0.6500378847122192 0.47282421588897705 0.02580501325428486
0.7248374223709106 0.42275166511535645 0.20404283702373505
0.6441528797149658 0.48062434792518616 0.031210899353027344
0.5987566113471985 0.6783142685890198 -0.013390946201980114
0.5794110894203186 0.6450686454772949 -0.0663067102432251
0.5534344911575317 0.6818172335624695 -0.04848181828856468
0.636688768863678 0.8179290890693665 0.13897575438022614
0.6124377250671387 0.851653516292572 0.11320745199918747
0.551746129989624 0.9137877225875854 0.05476981773972511
0.6715022325515747 0.7671087980270386 0.23390255868434906
0.5710840225219727 0.4740247130393982 0.007799992337822914
0.5512927770614624 0.5480687022209167 -0.07108946144580841
0.5800352692604065 0.9073713421821594 0.10684197396039963
0.7235391736030579 0.6428607106208801 0.2054678052663803
0.5658892393112183 0.767562747001648 0.018995773047208786
0.5713163614273071 0.7745414972305298 0.017234554514288902
0.5751786231994629 0.784909725189209 0.016336940228939056
0.5766976475715637 0.7981155514717102 0.0223758053034544
0.5819575190544128 0.8207234740257263 0.041038788855075836
0.604612410068512 0.7114947438240051 0.04215073585510254
0.6095004081726074 0.7079920768737793 0.04430399835109711
0.6139930486679077 0.7045592069625854 0.04425771161913872
0.6380141377449036 0.6954137086868286 0.046688832342624664
0.707040011882782 0.6448189616203308 0.0785396471619606
0.546999990940094 0.519895613193512 -0.05187087133526802
0.5516191720962524 0.46365585923194885 -0.013536052778363228
0.5631586909294128 0.4659106135368347 0.00041306056664325297
0.5997191071510315 0.7146087884902954 0.04369109496474266
0.6982831954956055 0.7054225206375122 0.1288900077342987
0.5360841751098633 0.46539613604545593 -0.05002140998840332
0.5846524238586426 0.8376502394676208 0.05469386652112007
0.5370661020278931 0.5376871824264526 -0.09349941462278366
0.5697960257530212 0.5846112966537476 -0.06452693790197372
0.5486723780632019 0.8648693561553955 0.03358728811144829
0.6310997605323792 0.7619222402572632 0.08743482083082199
0.6154115200042725 0.635252833366394 -0.00011396503396099433
0.6097455620765686 0.8019985556602478 0.07432390004396439
0.6661057472229004 0.6300197243690491 0.019192781299352646
0.636320948600769 0.6577549576759338 0.01928004063665867
0.680884599685669 0.6650805473327637 0.053893689066171646
0.5523084402084351 0.8910192251205444 0.040896087884902954
0.5828492641448975 0.5929670929908752 -0.042666178196668625
0.6399780511856079 0.7860088348388672 0.11078078299760818
0.6138958930969238 0.824566125869751 0.09338052570819855
0.6522356271743774 0.7222527265548706 0.0836273729801178
0.7159165740013123 0.6735239624977112 0.14496485888957977
0.6724183559417725 0.7325112819671631 0.10577645897865295
0.7095221877098083 0.6949897408485413 0.20399805903434753
0.6529771089553833 0.6796048879623413 0.04527519643306732
0.5643538236618042 0.5607131123542786 -0.048444099724292755
0.576133668422699 0.6429169774055481 -0.09615935385227203
0.5896890163421631 0.6402009725570679 -0.0671982541680336
0.5664402842521667 0.629279375076294 -0.11685851961374283
0.5704457759857178 0.44431716203689575 -0.0186544731259346
0.6081929802894592 0.4316198229789734 -0.018733011558651924
0.6407729387283325 0.4303172826766968 -0.011494852602481842
0.6658573150634766 0.43548518419265747 0.003965179435908794
0.6810136437416077 0.44557392597198486 0.023069115355610847
0.6842967867851257 0.480971097946167 0.06558899581432343
0.7318606376647949 0.5366795659065247 0.19102385640144348
0.6681541204452515 0.5100005269050598 0.04885434731841087
0.6471046209335327 0.5160235166549683 0.03167208284139633
0.6185214519500732 0.5163589715957642 0.017531290650367737
0.5914459824562073 0.5118808150291443 0.00820684339851141
0.5710071325302124 0.5056834816932678 0.00098934187553823
0.5575665831565857 0.4991301894187927 -0.004083644133061171
0.7168407440185547 0.5328558683395386 0.2766992151737213
0.5883544087409973 0.6423866152763367 -0.05455851927399635
0.5551027059555054 0.5734561085700989 -0.08760742098093033
0.5607292652130127 0.6498275995254517 -0.11739702522754669
0.5469688773155212 0.661121129989624 -0.10815601050853729
0.5596550703048706 0.6523736119270325 -0.10516311228275299
0.5825073719024658 0.647394061088562 -0.04644249379634857
0.5426952838897705 0.6648833751678467 -0.11475899815559387
0.5382619500160217 0.6674211025238037 -0.08570068329572678
0.5574596524238586 0.4802561402320862 0.004456960130482912
0.5475820899009705 0.48706763982772827 -0.012319507077336311
0.5429573059082031 0.49294888973236084 -0.030947599560022354
0.6564955711364746 0.4753958582878113 0.03532452881336212
0.673444926738739 0.4637128710746765 0.03806445002555847
0.35654884576797485 0.4724752902984619 -0.026324817910790443
0.3786441385746002 0.4716380834579468 -0.026324817910790443
0.356609970331192 0.4521031677722931 -0.026324817910790443
0.33405616879463196 0.4732232987880707 -0.026324817910790443
0.3564649224281311 0.4929015636444092 -0.026324817910790443
0.6063481569290161 0.47513797879219055 0.018073391169309616
0.6324018239974976 0.4747089445590973 0.018073391169309616
0.606312096118927 0.4536762833595276 0.018073391169309616
0.5805782079696655 0.4755900502204895 0.018073391169309616
0.6066324710845947 0.4963432550430298 0.018073391169309616
