ply
format ascii 1.0
element vertex 478
property float x
property float y
property float z
end_header
0.46922874450683594 0.7340209484100342 -0.03619521111249924
0.4085979759693146 0.6392139792442322 -0.09631217271089554
0.44682615995407104 0.6610977053642273 -0.04419694095849991
0.41960608959198 0.55508953332901 -0.06937213987112045
0.4055578410625458 0.6143890619277954 -0.1056617796421051
0.41681474447250366 0.5812450051307678 -0.10318517684936523
0.45493951439857483 0.4960508644580841 -0.07014240324497223
0.4004639983177185 0.47519683837890625 0.11371591687202454
0.46250104904174805 0.4259568452835083 -0.068769171833992
0.4577137231826782 0.3927684426307678 -0.07890678942203522
0.47237706184387207 0.2737474739551544 -0.08621849864721298
0.46994346380233765 0.7441493272781372 -0.032821428030729294
0.4723239541053772 0.7536712884902954 -0.025958556681871414
0.475848913192749 0.7601116299629211 -0.015456857159733772
0.47669675946235657 0.777220606803894 -0.0005138754495419562
0.4739871621131897 0.7897131443023682 0.0006797855021432042
0.47244739532470703 0.8042298555374146 0.0016773578245192766
0.47331371903419495 0.8190490007400513 0.011540072038769722
0.4808103144168854 0.8304544687271118 0.03743083029985428
0.4198654592037201 0.6516059041023254 -0.08543017506599426
0.4203794002532959 0.6471735835075378 -0.04848968982696533
0.41637933254241943 0.3801352381706238 0.24006783962249756
0.43812844157218933 0.5006591081619263 0.05620076507329941
0.422696053981781 0.5015866756439209 0.07292649149894714
0.40972957015037537 0.49840953946113586 0.09152750670909882
0.40499305725097656 0.4826980233192444 0.12462520599365234
0.4482300877571106 0.4950215518474579 0.041468922048807144
0.4069598913192749 0.43289315700531006 0.06062145158648491
0.42491668462753296 0.4370037913322449 0.03993183374404907
0.3943466246128082 0.4347933530807495 0.0826513022184372
0.3907076120376587 0.44286495447158813 0.09986594319343567
0.4018436074256897 0.49572235345840454 0.14480286836624146
0.4509811997413635 0.831706166267395 0.11443080008029938
0.4010595977306366 0.469142347574234 0.12439741939306259
0.4231957197189331 0.47734200954437256 0.2729629576206207
0.40631479024887085 0.47465431690216064 0.17657972872257233
0.4047008454799652 0.6029907464981079 0.058807775378227234
0.452716201543808 0.7269628047943115 -0.015748921781778336
0.45950978994369507 0.7502648830413818 -0.006554912775754929
0.4431163966655731 0.7281996607780457 0.016319703310728073
0.4390884041786194 0.7331017255783081 0.047932010143995285
0.452309250831604 0.7474952936172485 0.01791267655789852
0.4483110308647156 0.7463327646255493 0.04457014799118042
0.4343298673629761 0.7563893795013428 0.10960089415311813
0.39822712540626526 0.6365132331848145 -0.08481480181217194
0.39416971802711487 0.613043487071991 -0.09169471263885498
0.376422256231308 0.41576001048088074 0.12168863415718079
0.4339786767959595 0.5425853729248047 0.019228078424930573
0.4020579755306244 0.6218916773796082 -0.00736128818243742
0.40743836760520935 0.607523500919342 -0.0023132578935474157
0.38079163432121277 0.5940184593200684 0.12862561643123627
0.4059195816516876 0.5822104811668396 -0.08229562640190125
0.376842737197876 0.3936787247657776 0.04373365640640259
0.37015363574028015 0.39974772930145264 0.08378615975379944
0.3984184265136719 0.33973151445388794 0.17795032262802124
0.4297865033149719 0.418995201587677 -0.03357142210006714
0.4415856897830963 0.4466981291770935 0.032165344804525375
0.4263809323310852 0.7284673452377319 0.1197747215628624
0.4845433831214905 0.6887888312339783 0.35356640815734863
0.41379010677337646 0.6373669505119324 -0.009213784709572792
0.4251079559326172 0.6470842361450195 -0.025304123759269714
0.44048240780830383 0.7441130876541138 0.10594724118709564
0.4445907175540924 0.7454022169113159 0.0921282097697258
0.3699772357940674 0.38300174474716187 0.09692130982875824
0.41005468368530273 0.6314868927001953 0.003684866474941373
0.39489850401878357 0.3980059027671814 0.0035902245435863733
0.389918714761734 0.37679827213287354 -0.0021262923255562782
0.40097180008888245 0.2883426249027252 0.030853480100631714
0.3816532790660858 0.36336201429367065 0.13163000345230103
0.39321693778038025 0.33350807428359985 0.011873503215610981
0.38038182258605957 0.404200941324234 0.14470873773097992
0.39460527896881104 0.3962496817111969 0.18816161155700684
0.4550294578075409 0.7400563955307007 -0.01258042547851801
0.4470381736755371 0.7387455105781555 0.016723239794373512
0.4430997371673584 0.7398582100868225 0.04438135027885437
0.41969478130340576 0.642076849937439 -0.010783052071928978
0.4425118565559387 0.7448022365570068 0.09772956371307373
0.4441099762916565 0.7562443614006042 0.08174657076597214
0.44647467136383057 0.7460246086120605 0.0899100974202156
0.40338045358657837 0.6320633292198181 -0.03905121982097626
0.4533090591430664 0.7506265044212341 0.04635186120867729
0.4574686288833618 0.7534604072570801 0.024758247658610344
0.4645504951477051 0.7569218873977661 0.003631297033280134
0.4595016837120056 0.8235639333724976 0.05411067232489586
0.45586830377578735 0.8114860653877258 0.029491141438484192
0.4561805725097656 0.7972253561019897 0.02185826189815998
0.4597371816635132 0.7835265398025513 0.020835530012845993
0.4648001194000244 0.7728626132011414 0.018810870125889778
0.45384329557418823 0.7597495317459106 0.05771804228425026
0.44940078258514404 0.7633971571922302 0.058090440928936005
0.44503670930862427 0.7688222527503967 0.06012340635061264
0.44212812185287476 0.7758966684341431 0.06929484754800797
0.41608214378356934 0.6907201409339905 0.05864190682768822
0.4798407554626465 0.5717613697052002 0.37383201718330383
0.4326323866844177 0.6567288637161255 -0.060043904930353165
0.45111358165740967 0.7534279823303223 0.07769890129566193
0.4474324584007263 0.7545526027679443 0.07831379026174545
0.431459903717041 0.6572884321212769 -0.022627361118793488
0.42118382453918457 0.6458412408828735 0.011969886720180511
0.42820701003074646 0.6525503396987915 -0.025302162393927574
0.4237512946128845 0.5548592209815979 0.04428878426551819
0.40212035179138184 0.5698575973510742 0.07473968714475632
0.4120243191719055 0.6173263192176819 0.011169586330652237
0.3920649290084839 0.30836474895477295 0.10585322976112366
0.3807787299156189 0.34114915132522583 0.07353609800338745
0.3729901611804962 0.3730611503124237 0.04825359210371971
0.4377363920211792 0.7803599834442139 0.09508383274078369
0.419620156288147 0.38586825132369995 -0.04287322238087654
0.41973957419395447 0.3334881067276001 -0.03938155621290207
0.42665767669677734 0.27792447805404663 -0.03491777181625366
0.4046745002269745 0.492269366979599 0.11090901494026184
0.40178948640823364 0.5102030634880066 0.17191077768802643
0.4541287422180176 0.4891936779022217 0.03592941537499428
0.39238911867141724 0.4482851028442383 0.13303399085998535
0.43887341022491455 0.5286277532577515 0.0009486201452091336
0.39622238278388977 0.6152281761169434 -0.034842148423194885
0.39464521408081055 0.5258022546768188 0.21545681357383728
0.3897192180156708 0.529914915561676 0.14975328743457794
0.3882448375225067 0.5424278974533081 0.11361338943243027
0.40798434615135193 0.5417709350585938 0.07825310528278351
0.4270756244659424 0.5336628556251526 0.05168554559350014
0.43795740604400635 0.5238917469978333 0.028179358690977097
0.4439783990383148 0.5002336502075195 -0.04630337655544281
0.3876563310623169 0.5761615633964539 0.21861127018928528
0.3916533887386322 0.442513644695282 0.15248195827007294
0.41255658864974976 0.6494168639183044 -0.07654938846826553
0.42754071950912476 0.5684422254562378 0.01421496830880642
0.4617411494255066 0.47155094146728516 0.34260857105255127
0.44460320472717285 0.5129098296165466 0.011639364995062351
0.4207988679409027 0.6176354289054871 0.029786614701151848
0.4016435742378235 0.4680379629135132 0.13426001369953156
0.40474647283554077 0.598189115524292 -0.029791250824928284
0.48178139328956604 0.6271183490753174 0.3702307939529419
0.4573400020599365 0.48098644614219666 0.04073720425367355
0.4029630124568939 0.5877201557159424 -0.05877283215522766
0.4455069601535797 0.7603858709335327 0.22989632189273834
0.4726135730743408 0.7813316583633423 0.26923173666000366
0.42479512095451355 0.5755541324615479 0.3016417622566223
0.44341886043548584 0.724721372127533 0.26477155089378357
0.4104166030883789 0.4340595602989197 0.23649509251117706
0.4575405716896057 0.8508819341659546 0.13393239676952362
0.4269590973854065 0.6548054218292236 -0.053990017622709274
0.4209202527999878 0.5844874978065491 0.03497948870062828
0.41585010290145874 0.4761221706867218 0.21010059118270874
0.40754225850105286 0.4849807322025299 0.08934671431779861
0.4200875461101532 0.4885815680027008 0.073288194835186
0.44150689244270325 0.7589853405952454 0.08959609270095825
0.39748483896255493 0.6230906844139099 0.22808627784252167
0.4830645024776459 0.887978732585907 0.12005665153265
0.4704773724079132 0.8415049314498901 0.19270484149456024
0.47149479389190674 0.8157306909561157 0.22740337252616882
0.46128344535827637 0.3341846764087677 -0.08395456522703171
0.5104421377182007 0.9021930694580078 0.08480076491832733
0.4346310496330261 0.48784178495407104 0.05867600068449974
0.4468291103839874 0.48412570357322693 0.04960174113512039
0.4539254903793335 0.482292503118515 0.04547052085399628
0.39903509616851807 0.4362110495567322 0.18067771196365356
0.44479870796203613 0.4651801586151123 0.045232780277729034
0.4319651424884796 0.4582037329673767 0.05242278799414635
0.4168257415294647 0.454628586769104 0.06629285216331482
0.40483516454696655 0.4561081826686859 0.08428967744112015
0.40025079250335693 0.46116235852241516 0.09853558242321014
0.4367488622665405 0.4215100407600403 0.2970660924911499
0.4020213186740875 0.4799312949180603 0.10360395163297653
0.45165953040122986 0.6789402961730957 -0.03578194975852966
0.419525682926178 0.6797312498092651 0.03072351962327957
0.4083905518054962 0.633978009223938 -0.019751736894249916
0.43236422538757324 0.6777899265289307 -0.01408014539629221
0.4662843942642212 0.45986247062683105 -0.06288643926382065
0.4509223699569702 0.7930788397789001 0.19929328560829163
0.45588812232017517 0.8207969069480896 0.1678287833929062
0.4677201807498932 0.8767058849334717 0.09505554288625717
0.48037752509117126 0.7416942119598389 0.3160662353038788
0.45244622230529785 0.47452080249786377 0.04244941473007202
0.42836785316467285 0.5402253866195679 -0.035155750811100006
0.4954652786254883 0.8902364373207092 0.06108681857585907
0.4715383052825928 0.8668956756591797 0.15670795738697052
0.43231192231178284 0.6270118355751038 0.3017912805080414
0.4576535224914551 0.7665902376174927 0.038645416498184204
0.45244646072387695 0.7737484574317932 0.04054747894406319
0.4481251537799835 0.783470869064331 0.04326879233121872
0.44580143690109253 0.7959195971488953 0.05183441564440727
0.44507646560668945 0.804071307182312 0.07653989642858505
0.4464661478996277 0.74562668800354 0.07110005617141724
0.4421273171901703 0.7421536445617676 0.0763249397277832
0.43860703706741333 0.7381842136383057 0.07995309680700302
0.41814059019088745 0.7075070142745972 0.0917612835764885
0.3914819657802582 0.641560435295105 0.16904345154762268
0.4418335258960724 0.5129574537277222 -0.022217798978090286
0.4559442400932312 0.46216925978660583 0.005588534288108349
0.45494648814201355 0.4649941921234131 0.027601459994912148
0.4506831169128418 0.7482305765151978 0.0709252655506134
0.41670769453048706 0.6958146691322327 0.2128550410270691
0.4515549838542938 0.4625636339187622 -0.031140876933932304
0.4507141709327698 0.8152977228164673 0.09622228145599365
0.4303739070892334 0.5530125498771667 -0.09128761291503906
0.4309423565864563 0.5296432971954346 -0.062139783054590225
0.44230759143829346 0.5262357592582703 -0.08039876073598862
0.4186512231826782 0.5766326785087585 -0.020781593397259712
0.4872264862060547 0.8701050281524658 0.0477362796664238
0.4845848083496094 0.8474816083908081 0.04288181662559509
0.462466299533844 0.8380863666534424 0.06773382425308228
0.4318006932735443 0.758851945400238 0.13357430696487427
0.41437357664108276 0.6360087394714355 0.05111287906765938
0.44159746170043945 0.7888376712799072 0.11776420474052429
0.3907169997692108 0.6290798783302307 0.09341031312942505
0.4065014123916626 0.6588801145553589 0.0755845382809639
0.3967061936855316 0.6640722751617432 0.12968769669532776
0.46096017956733704 0.8582926392555237 0.08028101921081543
0.42118674516677856 0.588001549243927 0.0032757921144366264
0.43518853187561035 0.7710895538330078 0.16717569530010223
0.44621971249580383 0.8012975454330444 0.14325159788131714
0.4202987253665924 0.7270709276199341 0.14179454743862152
0.4114663600921631 0.6630358099937439 0.23740573227405548
0.41984307765960693 0.7263060212135315 0.17513340711593628
0.4403644800186157 0.6762944459915161 0.2965756058692932
0.408544659614563 0.6871228218078613 0.10459104925394058
0.42876726388931274 0.5538000464439392 -0.00888860784471035
0.3976859450340271 0.6272053122520447 -0.040908120572566986
0.40373674035072327 0.6310664415359497 -0.014985436573624611
0.39258894324302673 0.6128426194190979 -0.06140974536538124
0.43986785411834717 0.4378214478492737 0.010420304723083973
0.41344624757766724 0.4223645329475403 0.02846362628042698
0.3927442133426666 0.418584406375885 0.05247906222939491
0.3811052143573761 0.4214945137500763 0.08151089400053024
0.3814344108104706 0.4309539198875427 0.10754900425672531
0.4041386842727661 0.47081926465034485 0.15056216716766357
0.42266470193862915 0.5259239077568054 0.29269471764564514
0.39821720123291016 0.5079265236854553 0.12899082899093628
0.4021774232387543 0.5174264907836914 0.10366559028625488
0.41717836260795593 0.519763708114624 0.07779796421527863
0.43464773893356323 0.5155670642852783 0.05478927493095398
0.4460052251815796 0.5084484815597534 0.035543762147426605
0.45240819454193115 0.5018014907836914 0.02275633066892624
0.4760803282260895 0.5208377838134766 0.36566904187202454
0.411018431186676 0.6366971731185913 -0.005806332919746637
0.41672056913375854 0.5637102723121643 -0.04431535676121712
0.39440807700157166 0.630904495716095 -0.06608313322067261
0.4113815426826477 0.6433097720146179 -0.06556832045316696
0.4026033878326416 0.6343727111816406 -0.05638938397169113
0.41908830404281616 0.6440626978874207 -0.0037487021181732416
0.4103727638721466 0.6467249393463135 -0.07219112664461136
0.4233146905899048 0.6520063877105713 -0.05131855234503746
0.45876920223236084 0.4823110103607178 0.02881786599755287
0.4580807685852051 0.4891577959060669 0.007651496212929487
0.4507395625114441 0.49457573890686035 -0.008467793464660645
0.39957958459854126 0.46546679735183716 0.11076005548238754
0.393734335899353 0.452517032623291 0.11877649277448654
0.4475752115249634 0.5570458769798279 -0.1003357470035553
0.6338361501693726 0.4767429828643799 -0.11439740657806396
0.45267531275749207 0.6533406972885132 -0.07206931710243225
0.8311185836791992 0.37175124883651733 -0.11371134221553802
0.5764099955558777 0.5007451176643372 -0.08899477124214172
0.5955523252487183 0.5020101070404053 -0.10238442569971085
0.6185091137886047 0.5014030337333679 -0.11159726977348328
0.6563907861709595 0.4856734275817871 -0.11647609621286392
0.5605655312538147 0.49486875534057617 -0.07256871461868286
0.5913198590278625 0.4316267967224121 -0.12303104996681213
0.569728672504425 0.43302929401397705 -0.10400611907243729
0.6164436936378479 0.43471676111221313 -0.13019831478595734
0.6376290917396545 0.44266223907470703 -0.1304726004600525
0.6898825168609619 0.5056513547897339 -0.1139778420329094
0.5719360709190369 0.8581895232200623 0.009901260957121849
0.6469786167144775 0.4696824252605438 -0.11425208300352097
0.8394277691841125 0.4907625615596771 -0.08404067903757095
0.7326391339302063 0.4861741065979004 -0.11522325128316879
0.5803802013397217 0.6163979768753052 -0.08651623874902725
0.49387720227241516 0.730909526348114 -0.05186694487929344
0.49582695960998535 0.7540550827980042 -0.03953806683421135
0.5240108370780945 0.7391040921211243 -0.05870674178004265
0.5479727387428284 0.7455525398254395 -0.05552178993821144
0.5204699039459229 0.7546662092208862 -0.047072384506464005
0.5422499179840088 0.7553638219833374 -0.04224669188261032
0.590727686882019 0.7764127254486084 -0.0250522643327713
0.42556828260421753 0.6405343413352966 -0.10482831299304962
0.42496222257614136 0.6159201860427856 -0.11548461019992828
0.6743008494377136 0.4220731854438782 -0.15289977192878723
0.5385227203369141 0.5487834215164185 -0.07537796348333359
0.5086028575897217 0.6336989998817444 -0.09573797881603241
0.5170921683311462 0.6180323362350464 -0.09363804757595062
0.668026328086853 0.6157508492469788 -0.11439329385757446
0.4354068636894226 0.5843347311019897 -0.11267296969890594
0.5845838785171509 0.39711660146713257 -0.14667576551437378
0.6292727589607239 0.404832124710083 -0.15542173385620117
0.7715319991111755 0.32709673047065735 -0.13929010927677155
0.4941748082637787 0.42022037506103516 -0.09563110023736954
0.5547512769699097 0.44107478857040405 -0.08383016288280487
0.6044891476631165 0.7488373517990112 -0.0443217009305954
0.8572992086410522 0.7354450821876526 0.0263980682939291
0.49504905939102173 0.6486068367958069 -0.07563162595033646
0.4776571989059448 0.654447615146637 -0.05819099768996239
0.5825775861740112 0.7559112906455994 -0.03489724546670914
0.5771518349647522 0.7567163109779358 -0.030704457312822342
0.6499897837638855 0.3860686123371124 -0.1580439954996109
0.5192843675613403 0.6430480480194092 -0.0826234519481659
0.5395916104316711 0.4000004529953003 -0.12714536488056183
0.5384544134140015 0.37868428230285645 -0.13665425777435303
0.613570511341095 0.27622321248054504 -0.1516621708869934
0.7199295163154602 0.3575354218482971 -0.1501973271369934
0.5806903839111328 0.3267974853515625 -0.14410583674907684
0.7056362628936768 0.40863704681396484 -0.14924632012844086
0.7743340730667114 0.39422011375427246 -0.13131940364837646
0.4945458173751831 0.7437036037445068 -0.0483752116560936
0.5217647552490234 0.7474013566970825 -0.05366382375359535
0.5448217391967773 0.7505156397819519 -0.04986733943223953
0.4926563501358032 0.6522203683853149 -0.06462539732456207
0.5796263813972473 0.7563819289207458 -0.032072462141513824
0.565302312374115 0.7675299048423767 -0.026577264070510864
0.5748716592788696 0.757077157497406 -0.029183518141508102
0.46818774938583374 0.6425659656524658 -0.09966408461332321
0.5408825874328613 0.7583799362182617 -0.03570505976676941
0.5197844505310059 0.75926673412323 -0.03579877316951752
0.4977755546569824 0.760022759437561 -0.029976895079016685
0.5110496282577515 0.8319559693336487 0.02140570990741253
0.5003539323806763 0.817659854888916 -0.005359668284654617
0.4986886978149414 0.8029087781906128 -0.0139340590685606
0.4981948137283325 0.7883153557777405 -0.01498124748468399
0.4985833764076233 0.7768800258636475 -0.015140696428716183
0.5416622757911682 0.7684425115585327 -0.02461823634803295
0.5444186925888062 0.77286297082901 -0.02404271624982357
0.5477536916732788 0.7794607877731323 -0.024284230545163155
0.5507903695106506 0.787047266960144 -0.022603023797273636
0.555814802646637 0.7062138319015503 -0.06145603209733963
0.8997436165809631 0.6026605367660522 0.006955168675631285
0.5586205124855042 0.7635678648948669 -0.026011016219854355
0.5615742802619934 0.765230655670166 -0.025784851983189583
0.4725630581378937 0.6632795929908752 -0.054708629846572876
0.5191303491592407 0.6562809944152832 -0.05645189806818962
0.47461989521980286 0.6591663360595703 -0.057028722018003464
0.5647770166397095 0.5635595321655273 -0.08269129693508148
0.6017941236495972 0.5829813480377197 -0.09792794287204742
0.5283485651016235 0.6283522844314575 -0.08260472118854523
0.700108528137207 0.29422813653945923 -0.15284088253974915
0.6570655703544617 0.3335820734500885 -0.15354174375534058
0.5940122604370117 0.37542450428009033 -0.15367957949638367
0.568623423576355 0.8000408411026001 -0.014377599582076073
0.48992836475372314 0.38657277822494507 -0.11120670288801193
0.5187808871269226 0.33001574873924255 -0.12065880000591278
0.5405750870704651 0.27083638310432434 -0.12722626328468323
0.64140784740448 0.4962920546531677 -0.11589254438877106
0.7287083268165588 0.526286244392395 -0.11579746752977371
0.5490742921829224 0.4884672164916992 -0.06539243459701538
0.6771167516708374 0.45395100116729736 -0.13183020055294037
0.5184124112129211 0.5330023765563965 -0.07473676651716232
0.4814828634262085 0.6251748204231262 -0.10686269402503967
0.7750015258789062 0.5467604994773865 -0.11104536056518555
0.697862446308136 0.5472748279571533 -0.12020832300186157
0.6533695459365845 0.5577885508537292 -0.11460767686367035
0.603125274181366 0.551659107208252 -0.0956345945596695
0.5722213983535767 0.5390210747718811 -0.07968173176050186
0.5487815141677856 0.5272560715675354 -0.07038426399230957
0.47542181611061096 0.5016630291938782 -0.07874281704425812
0.7668604850769043 0.6036540865898132 -0.10629938542842865
0.7085896730422974 0.4509497880935669 -0.1375478357076645
0.42962685227394104 0.6522214412689209 -0.0923624336719513
0.5291988849639893 0.575373113155365 -0.07698627561330795
0.8984131813049316 0.48218438029289246 -0.03587457165122032
0.5279268026351929 0.5146074891090393 -0.065120629966259
0.5408303141593933 0.6283010840415955 -0.06317415088415146
0.6654053330421448 0.46914634108543396 -0.11649402976036072
0.49155691266059875 0.6062893867492676 -0.10293374210596085
0.8884469270706177 0.6669961810112 0.018794870004057884
0.5524218678474426 0.4798935651779175 -0.06559038907289505
0.4611891806125641 0.5927865505218506 -0.11243560165166855
0.7197515368461609 0.8051905632019043 -0.01189603004604578
0.7484972476959229 0.8302156925201416 0.02290814183652401
0.8434745073318481 0.6054574847221375 -0.054238542914390564
0.7709395289421082 0.7702018022537231 -0.020375555381178856
0.8113991618156433 0.4381004571914673 -0.10511749982833862
0.5842857956886292 0.8807765245437622 0.020087910816073418
0.4402647018432617 0.6565275192260742 -0.06370580941438675
0.5539326667785645 0.5939256548881531 -0.0777812972664833
0.7726362347602844 0.49022191762924194 -0.1112726703286171
0.6056478023529053 0.48535168170928955 -0.11036103963851929
0.5883687138557434 0.4877004623413086 -0.10299700498580933
0.5690801739692688 0.7706077098846436 -0.027453232556581497
0.7677157521247864 0.6564229726791382 -0.08384953439235687
0.552817702293396 0.9059076309204102 0.057376887649297714
0.6415059566497803 0.8808740377426147 0.03447435423731804
0.6883490085601807 0.861056923866272 0.027650700882077217
0.5757079124450684 0.48696836829185486 -0.0910477414727211
0.5640134215354919 0.483448326587677 -0.07868850231170654
0.5564653873443604 0.4813790023326874 -0.06960678100585938
0.7461534738540649 0.4434932768344879 -0.13077808916568756
0.562686562538147 0.46056169271469116 -0.0868011936545372
0.5774418711662292 0.4541870951652527 -0.1007785052061081
0.5929747819900513 0.4543308913707733 -0.11273710429668427
0.6118633151054382 0.45779263973236084 -0.11976571381092072
0.6260147094726562 0.4622700810432434 -0.12003488093614578
0.8717687129974365 0.4204445481300354 -0.07425760477781296
0.62041836977005 0.4814855754375458 -0.11364959180355072
0.5283766984939575 0.6917463541030884 -0.06037173420190811
0.48943382501602173 0.645577073097229 -0.08197295665740967
0.4783783555030823 0.6833468079566956 -0.05165554955601692
0.6724448800086975 0.8360729217529297 0.004182989709079266
0.629339873790741 0.8589761257171631 0.014565810561180115
0.5374104380607605 0.8939260840415955 0.03330407291650772
0.8061901330947876 0.7907609939575195 0.024168364703655243
0.5547501444816589 0.47249487042427063 -0.0747937336564064
0.4831383526325226 0.5434509515762329 -0.08641626685857773
0.5955703258514404 0.8973668217658997 0.039677657186985016
0.8375710248947144 0.6643370389938354 -0.03869015350937843
0.5206531286239624 0.7733138799667358 -0.022311316803097725
0.5225918292999268 0.7815349698066711 -0.022363657131791115
0.5246727466583252 0.7924326062202454 -0.022317709401249886
0.5267512798309326 0.8052464127540588 -0.017490707337856293
0.5422890782356262 0.8196736574172974 -0.0018613201100379229
0.5623425841331482 0.7557390928268433 -0.03819771111011505
0.5653495788574219 0.7532510161399841 -0.04351487010717392
0.5685912370681763 0.7504124045372009 -0.04856389760971069
0.5823416709899902 0.7255184650421143 -0.058937590569257736
0.7047024369239807 0.6719306707382202 -0.09391085058450699
0.49645423889160156 0.515662431716919 -0.07549192011356354
0.5252410173416138 0.46005961298942566 -0.0624585784971714
0.543509304523468 0.4615110754966736 -0.06943701952695847
0.559842050075531 0.7576970458030701 -0.032873447984457016
0.7288209199905396 0.7339673042297363 -0.05427258461713791
0.4945126175880432 0.4621407389640808 -0.07092741876840591
0.5589717030525208 0.8368216156959534 0.007068098988384008
0.46119678020477295 0.5313954949378967 -0.08954528719186783
0.4980206787586212 0.5830339193344116 -0.08793137222528458
0.5192625522613525 0.8497496843338013 0.024671409279108047
0.6170815229415894 0.7877475619316101 -0.023790713399648666
0.5620792508125305 0.6490778923034668 -0.0663854107260704
0.5923861265182495 0.8156344294548035 -0.00633871229365468
0.6197563409805298 0.6497809886932373 -0.0940689668059349
0.5833262205123901 0.6763516068458557 -0.07164572924375534
0.6516592502593994 0.691278338432312 -0.08458945155143738
0.5267024636268616 0.8733543753623962 0.022612931206822395
0.521462619304657 0.5959809422492981 -0.08072887361049652
0.647960364818573 0.8085067868232727 -0.01617106795310974
0.6111545562744141 0.8346691131591797 0.0025883016642183065
0.6323405504226685 0.7554177641868591 -0.049280550330877304
0.7673646807670593 0.7008609175682068 -0.061365097761154175
0.6791252493858337 0.7627672553062439 -0.04796003922820091
0.8178966045379639 0.7193960547447205 -0.02617037296295166
0.6088051795959473 0.7091152667999268 -0.06996545940637589
0.506292462348938 0.5589645504951477 -0.0812789797782898
0.47251376509666443 0.6383569836616516 -0.10656005889177322
0.4992063045501709 0.643244206905365 -0.08964214473962784
0.4519196152687073 0.6201183199882507 -0.1148672103881836
0.5313831567764282 0.43593016266822815 -0.08398611843585968
0.5575551986694336 0.42254477739334106 -0.1111210435628891
0.5857021808624268 0.4188278019428253 -0.13013722002506256
0.6180483102798462 0.4220690131187439 -0.14054180681705475
0.6493960022926331 0.43338340520858765 -0.14143270254135132
0.6951113939285278 0.47812557220458984 -0.11710706353187561
0.8442909121513367 0.5478017926216125 -0.0717751607298851
0.6684896349906921 0.5174135565757751 -0.11354972422122955
0.6377094984054565 0.5255530476570129 -0.10766560584306717
0.6030943989753723 0.5243387222290039 -0.09558824449777603
0.5758236646652222 0.5178415179252625 -0.08109814673662186
0.5562918186187744 0.5096064209938049 -0.06687109172344208
0.540745198726654 0.502250611782074 -0.060098256915807724
0.9031683802604675 0.5419187545776367 -0.010341309010982513
0.5064728856086731 0.6482373476028442 -0.0787222608923912
0.47116050124168396 0.5677133202552795 -0.09716281294822693
0.4460722506046295 0.6393934488296509 -0.1078491136431694
0.4460524022579193 0.650765597820282 -0.08972881734371185
0.45455700159072876 0.6441487073898315 -0.09915319830179214
0.5059409737586975 0.6542397737503052 -0.06469368934631348
0.4381590485572815 0.6517958045005798 -0.09184787422418594
0.44737231731414795 0.656278133392334 -0.06784199178218842
0.5415403246879578 0.4803706705570221 -0.05883527174592018
0.5268503427505493 0.48804306983947754 -0.05700859799981117
0.5109871625900269 0.49465617537498474 -0.06279902160167694
0.6364001035690308 0.4660724997520447 -0.11814006417989731
0.6567661166191101 0.45365697145462036 -0.1257145255804062
0.42002493143081665 0.4669746458530426 0.07492630183696747
0.4378664493560791 0.4684518575668335 0.07492630183696747
0.42074811458587646 0.44741952419281006 0.07492630183696747
0.4028800129890442 0.4659244120121002 0.07492630183696747
0.4197852909564972 0.486738920211792 0.07492630183696747
0.5874490141868591 0.4691716432571411 -0.099602609872818
0.6052370071411133 0.4688999652862549 -0.099602609872818
0.5835863947868347 0.4478421211242676 -0.099602609872818
0.5718593597412109 0.4689851701259613 -0.099602609872818
0.5918242931365967 0.49099332094192505 -0.099602609872818
