ply
format ascii 1.0
element vertex 468
property float x
property float y
property float z
end_header
0.509890615940094 0.7153115272521973 -0.051847994327545166
0.5145928263664246 0.6311219930648804 -0.13509568572044373
0.5105003714561462 0.6536792516708374 -0.06350091844797134
0.4908210337162018 0.5521462559700012 -0.11663088947534561
0.5150267481803894 0.6073487401008606 -0.14773739874362946
0.5140116810798645 0.5753965377807617 -0.1428917944431305
0.5099826455116272 0.49564266204833984 -0.08977185189723969
0.3223516345024109 0.4813272953033447 -0.003937831148505211
0.5085580945014954 0.4388771653175354 -0.08413951843976974
0.5088082551956177 0.40673089027404785 -0.09630050510168076
0.5072596669197083 0.2777356207370758 -0.09402301907539368
0.5095768570899963 0.7266573309898376 -0.0463220551609993
0.5090447664260864 0.7330642342567444 -0.036726709455251694
0.5081670880317688 0.7334310412406921 -0.024526230990886688
0.5094234943389893 0.7430925369262695 -0.020043762400746346
0.5097256302833557 0.7522436380386353 -0.02294153720140457
0.5098246335983276 0.7635411024093628 -0.02640642412006855
0.5096042156219482 0.7764043211936951 -0.02105173096060753
0.5083364248275757 0.7978216409683228 0.006137403659522533
0.5132467150688171 0.6422697305679321 -0.1198807954788208
0.4889833927154541 0.6389003992080688 -0.08527575433254242
0.21564915776252747 0.3829629421234131 0.08751202374696732
0.3982285261154175 0.5053659081459045 -0.02127690799534321
0.3721792697906494 0.5068066716194153 -0.020963815972208977
0.346615195274353 0.5048909187316895 -0.016237959265708923
0.3118709921836853 0.4899022579193115 0.0010837449226528406
0.42001381516456604 0.49961015582084656 -0.017606746405363083
0.36317384243011475 0.44696104526519775 -0.04211745038628578
0.39080774784088135 0.4484577775001526 -0.04004787653684616
0.337637722492218 0.450212299823761 -0.034826140850782394
0.32008200883865356 0.45740386843681335 -0.024499358609318733
0.2891382873058319 0.5055168867111206 0.015671560540795326
0.4105532765388489 0.8323029279708862 0.04171101748943329
0.3122038245201111 0.47499120235443115 0.002540196990594268
0.20500445365905762 0.48959311842918396 0.12162505835294724
0.25825080275535583 0.4894276261329651 0.0357736200094223
0.3757713735103607 0.6056799292564392 -0.025947989895939827
0.4755397439002991 0.7104356288909912 -0.051973823457956314
0.47736889123916626 0.7310870289802551 -0.03500060737133026
0.4391534626483917 0.7124070525169373 -0.036820750683546066
0.41353070735931396 0.7158689498901367 -0.014999739825725555
0.45037972927093506 0.7290467023849487 -0.025377506390213966
0.4278354346752167 0.7266378402709961 -0.005581102799624205
0.3797941207885742 0.7463661432266235 0.034970723092556
0.49359822273254395 0.6298387050628662 -0.13422828912734985
0.4907252788543701 0.607469916343689 -0.1462317854166031
0.2786615490913391 0.43442919850349426 -0.027804816141724586
0.43036624789237976 0.5461469292640686 -0.03765782341361046
0.4302330017089844 0.6193814873695374 -0.07604250311851501
0.4278295636177063 0.6066074967384338 -0.07018893212080002
0.294014573097229 0.6004793643951416 0.00039188365917652845
0.4909079670906067 0.5775792598724365 -0.1367027908563614
0.3446595072746277 0.4127342402935028 -0.07044027000665665
0.306723415851593 0.41926833987236023 -0.052945610135793686
0.24462366104125977 0.3415699899196625 0.03017832152545452
0.4568621516227722 0.4339597821235657 -0.08141739666461945
0.4147510826587677 0.4557257890701294 -0.029619142413139343
0.3580642640590668 0.7215657830238342 0.0343143604695797
0.23009967803955078 0.7144753932952881 0.242825448513031
0.44834426045417786 0.6320192217826843 -0.06222238391637802
0.46966224908828735 0.6409687995910645 -0.06049778684973717
0.38197264075279236 0.7207490801811218 0.034593839198350906
0.39302411675453186 0.721254289150238 0.028647128492593765
0.29090777039527893 0.40224605798721313 -0.04537399485707283
0.4279232621192932 0.6285448670387268 -0.05964582413434982
0.3941996097564697 0.4159310460090637 -0.08061990886926651
0.38926568627357483 0.39533960819244385 -0.09066057205200195
0.3559613525867462 0.28791940212249756 -0.06989564746618271
0.26864027976989746 0.3709258735179901 -0.013465880416333675
0.37561309337615967 0.33946555852890015 -0.08203992247581482
0.26071682572364807 0.4220736026763916 -0.00999294500797987
0.23829808831214905 0.40370047092437744 0.03568127006292343
0.4761425256729126 0.7236281037330627 -0.0461137518286705
0.44584694504737854 0.7230610847473145 -0.03161991760134697
0.42114508152008057 0.7216863036155701 -0.012175528332591057
0.4542559087276459 0.6366339325904846 -0.055471546947956085
0.38752883672714233 0.7210055589675903 0.031381893903017044
0.4024697542190552 0.7303779125213623 0.018153853714466095
0.39620399475097656 0.7210485935211182 0.02792223170399666
0.46427229046821594 0.6257241368293762 -0.09992403537034988
0.4316345751285553 0.7241165637969971 -0.0008398620993830264
0.4543616473674774 0.7282510995864868 -0.014108492992818356
0.4794929623603821 0.7315865755081177 -0.023331396281719208
0.4711490869522095 0.7970742583274841 0.006020732689648867
0.4742966890335083 0.7737571597099304 -0.0212896429002285
0.4758572280406952 0.7602823972702026 -0.02610945515334606
0.4775092899799347 0.7491776347160339 -0.022002823650836945
0.47944992780685425 0.7414742708206177 -0.01880805939435959
0.42907968163490295 0.7325041890144348 0.0033130371011793613
0.4255589246749878 0.7348141670227051 -9.106044308282435e-05
0.4204346537590027 0.7401280403137207 -0.0018663639202713966
0.41614213585853577 0.747754693031311 0.00434128986671567
0.3935432434082031 0.6893579959869385 -0.012392519041895866
0.19997495412826538 0.5936899781227112 0.2518904209136963
0.5119754076004028 0.6464316248893738 -0.08366710692644119
0.4137932360172272 0.7282989025115967 0.018463747575879097
0.4084636867046356 0.7286224961280823 0.01668521761894226
0.478148877620697 0.6527184844017029 -0.058753661811351776
0.4351157248020172 0.6426889300346375 -0.036579787731170654
0.47425851225852966 0.6469781398773193 -0.06055963411927223
0.4026435315608978 0.5589021444320679 -0.02793559990823269
0.35848236083984375 0.5741435289382935 -0.0211567934602499
0.4223509728908539 0.6161282658576965 -0.05370181053876877
0.2893603444099426 0.30903932452201843 -0.024867819622159004
0.3125569820404053 0.34831613302230835 -0.05134626477956772
0.3349027633666992 0.39208436012268066 -0.07110487669706345
0.4043898582458496 0.7666142582893372 0.024590611457824707
0.4489653408527374 0.40165960788726807 -0.09778749197721481
0.43834590911865234 0.3383511006832123 -0.0968811884522438
0.4260540008544922 0.2785586714744568 -0.09258880466222763
0.3244507908821106 0.4994661211967468 -0.007194254081696272
0.25931280851364136 0.5223208665847778 0.03137429431080818
0.4337722063064575 0.4935978055000305 -0.014762090519070625
0.2900081276893616 0.4630744457244873 -0.004962902050465345
0.44923126697540283 0.5315271615982056 -0.04858199134469032
0.4477490484714508 0.6121165156364441 -0.10204190015792847
0.2297341525554657 0.5377820730209351 0.06162424758076668
0.27835965156555176 0.5397631525993347 0.013078467920422554
0.3133847117424011 0.549666702747345 -0.005954418797045946
0.3645331561565399 0.5474308729171753 -0.014676127582788467
0.4019906520843506 0.5383134484291077 -0.019158070906996727
0.42902159690856934 0.5278159379959106 -0.026784827932715416
0.48534393310546875 0.5015069246292114 -0.08083300292491913
0.23207485675811768 0.5887157917022705 0.06532618403434753
0.26664578914642334 0.459378182888031 0.003771321615204215
0.5010921359062195 0.641174852848053 -0.11943510919809341
0.4330524206161499 0.5700241327285767 -0.04353366792201996
0.192824125289917 0.48387596011161804 0.20578710734844208
0.44922393560409546 0.5156055688858032 -0.0321873277425766
0.41809502243995667 0.616722583770752 -0.026747776195406914
0.3039654493331909 0.4770453870296478 0.007053968030959368
0.44537025690078735 0.5967558026313782 -0.09478923678398132
0.21006673574447632 0.6531257629394531 0.2538326382637024
0.43281787633895874 0.48448920249938965 -0.010790678672492504
0.46774959564208984 0.5850509405136108 -0.1210666373372078
0.2940261960029602 0.7741515636444092 0.12251496315002441
0.2961352467536926 0.7994129657745361 0.1731289178133011
0.20505434274673462 0.5931235551834106 0.15776696801185608
0.2573378086090088 0.7420222759246826 0.14486108720302582
0.22047960758209229 0.4423487186431885 0.08479009568691254
0.4075477421283722 0.8542373776435852 0.060776419937610626
0.5024125576019287 0.6451724767684937 -0.08255612105131149
0.4087623059749603 0.5866020917892456 -0.03216654807329178
0.23374193906784058 0.49289971590042114 0.060283005237579346
0.349493145942688 0.49035871028900146 -0.015912512317299843
0.37231677770614624 0.4930395781993866 -0.020569829270243645
0.3963431715965271 0.7338709831237793 0.02288702502846718
0.23503467440605164 0.6376020312309265 0.08541222661733627
0.45478713512420654 0.8833025693893433 0.07582870870828629
0.3765407204627991 0.851784348487854 0.11737443506717682
0.3403700590133667 0.8303488492965698 0.14198864996433258
0.5082782506942749 0.3403809666633606 -0.09743809700012207
0.5056632161140442 0.8869854211807251 0.07298620790243149
0.39410164952278137 0.4920327067375183 -0.02033032290637493
0.41458338499069214 0.48843860626220703 -0.01631261222064495
0.4272420406341553 0.4864845871925354 -0.01119189616292715
0.24533331394195557 0.45283228158950806 0.02691519819200039
0.4100666642189026 0.46576565504074097 -0.023653781041502953
0.387513667345047 0.45820045471191406 -0.030175063759088516
0.3648381233215332 0.45664992928504944 -0.03081146441400051
0.3418458104133606 0.4602222144603729 -0.02540535293519497
0.3274398148059845 0.46658265590667725 -0.017321716994047165
0.1996675431728363 0.42742425203323364 0.150873064994812
0.33376067876815796 0.48597145080566406 -0.009567421860992908
0.5100470781326294 0.673977792263031 -0.05352171137928963
0.4206955134868622 0.677786111831665 -0.030301716178655624
0.448559045791626 0.6288039088249207 -0.07327944785356522
0.4737268090248108 0.6751408576965332 -0.053427208214998245
0.5085459351539612 0.465667188167572 -0.07730547338724136
0.33360517024993896 0.8051040172576904 0.10661489516496658
0.3695613741874695 0.8296003341674805 0.08588755875825882
0.4534130394458771 0.8712499141693115 0.0404164157807827
0.26035845279693604 0.7635184526443481 0.2108779400587082
0.42582255601882935 0.47706907987594604 -0.016484607011079788
0.46872013807296753 0.5401221513748169 -0.08168867230415344
0.5074396729469299 0.8739826679229736 0.038496363908052444
0.41359496116638184 0.8704160451889038 0.09123726189136505
0.21284833550453186 0.647150456905365 0.1661839336156845
0.4526069760322571 0.7374358177185059 -0.009544648230075836
0.44901952147483826 0.7426658272743225 -0.013158724643290043
0.4457102417945862 0.7511053085327148 -0.015445198863744736
0.4428921639919281 0.7631523013114929 -0.009762993082404137
0.4341239929199219 0.7843331098556519 0.01230127364397049
0.4063689112663269 0.7229509949684143 0.012368069030344486
0.3993772268295288 0.7206231355667114 0.011738669127225876
0.3925260901451111 0.7168854475021362 0.010136839002370834
0.3697459101676941 0.7035195827484131 0.009904177859425545
0.27029725909233093 0.6520667672157288 0.038047462701797485
0.467803418636322 0.5150627493858337 -0.06292610615491867
0.4533081650733948 0.46918219327926636 -0.029296573251485825
0.4370257556438446 0.47197481989860535 -0.021437060087919235
0.41188323497772217 0.7205460071563721 0.015101674944162369
0.26758629083633423 0.7085875272750854 0.08969280123710632
0.4759124517440796 0.46907588839530945 -0.061238743364810944
0.4210342764854431 0.8079406023025513 0.02860487438738346
0.5126826167106628 0.5486413836479187 -0.12396099418401718
0.4878079891204834 0.5284439921379089 -0.10127755999565125
0.5113396048545837 0.5234116315841675 -0.10617385804653168
0.45077967643737793 0.5765756964683533 -0.0752975195646286
0.5082008242607117 0.8524488210678101 0.018471667543053627
0.5082404017448425 0.8235068917274475 0.012420880608260632
0.4633476734161377 0.8226620554924011 0.015498646534979343
0.3590916097164154 0.7585145831108093 0.04905371367931366
0.39510777592658997 0.636138916015625 -0.01800708658993244
0.3877931833267212 0.786400318145752 0.04137881472706795
0.3309329152107239 0.6335236430168152 -0.012148244306445122
0.36796921491622925 0.6599816679954529 -0.007799412589520216
0.3069448471069336 0.6704156994819641 0.01620679907500744
0.45589256286621094 0.8507113456726074 0.022005528211593628
0.43434086441993713 0.5883118510246277 -0.0549846775829792
0.33992043137550354 0.7783455848693848 0.07378727197647095
0.3752557039260864 0.8063311576843262 0.06269312649965286
0.33598196506500244 0.7279435992240906 0.043000802397727966
0.24180945754051208 0.6788259148597717 0.10460803657770157
0.3039374351501465 0.734071671962738 0.06506476551294327
0.22762173414230347 0.6968531012535095 0.16736572980880737
0.34401097893714905 0.6875421404838562 0.010118065401911736
0.45124733448028564 0.5548089146614075 -0.06124427914619446
0.4563317596912384 0.6223101615905762 -0.10622931271791458
0.438149094581604 0.6270660758018494 -0.07682352513074875
0.46827906370162964 0.60862797498703 -0.12577933073043823
0.43413180112838745 0.45076867938041687 -0.04260777309536934
0.39320170879364014 0.43860292434692383 -0.0521090067923069
0.356885701417923 0.43573397397994995 -0.05298522114753723
0.3258258104324341 0.438448429107666 -0.044095735996961594
0.30306488275527954 0.4469524025917053 -0.028496740385890007
0.2844310700893402 0.48335230350494385 0.017485162243247032
0.20161521434783936 0.5408508777618408 0.14089526236057281
0.30458545684814453 0.5161912441253662 0.005613969638943672
0.33216583728790283 0.5243465304374695 -0.006543944124132395
0.3676612377166748 0.5252976417541504 -0.014318583533167839
0.4006408751010895 0.5205156207084656 -0.01732613332569599
0.42578381299972534 0.5129358172416687 -0.01836373843252659
0.44277676939964294 0.5053919553756714 -0.02024226076900959
0.1955704391002655 0.5379450917243958 0.23692889511585236
0.4377487301826477 0.6325381398200989 -0.0628121867775917
0.4700441360473633 0.5621469616889954 -0.09768258035182953
0.47552400827407837 0.6248978972434998 -0.124082550406456
0.48850908875465393 0.6359660029411316 -0.10998474061489105
0.47480520606040955 0.627653956413269 -0.1109672263264656
0.44401055574417114 0.6396106481552124 -0.05169408395886421
0.4932691156864166 0.6388627290725708 -0.1160154864192009
0.49457848072052 0.6431670188903809 -0.0838257223367691
0.4420018792152405 0.4866061806678772 -0.013099231757223606
0.45625072717666626 0.492744117975235 -0.025718962773680687
0.4644916355609894 0.4974866211414337 -0.04189382493495941
0.31890809535980225 0.47127917408943176 -0.008791525848209858
0.306098073720932 0.4650200605392456 -0.009403333067893982
0.5332586169242859 0.5522566437721252 -0.11246362328529358
0.6793619990348816 0.48311859369277954 0.024897994473576546
0.5330532193183899 0.6390202641487122 -0.08202295005321503
0.7657910585403442 0.3869723081588745 0.13205541670322418
0.6072806119918823 0.5063567161560059 -0.002680014120414853
0.6327714920043945 0.5077500939369202 0.001349539845250547
0.6568353772163391 0.5058320164680481 0.009628926403820515
0.6878631711006165 0.4914960265159607 0.031611740589141846
0.5861852169036865 0.5005776286125183 -0.00302658649161458
0.6416082382202148 0.44928407669067383 -0.018615689128637314
0.6147719621658325 0.4504128098487854 -0.02140597067773342
0.6658345460891724 0.4527618885040283 -0.007617340423166752
0.6817430257797241 0.46000975370407104 0.004694751463830471
0.7086995840072632 0.5066495537757874 0.04873327165842056
0.5988599061965942 0.8294219374656677 0.05575588718056679
0.6879599690437317 0.4771791100502014 0.03281071037054062
0.7763537168502808 0.4911377429962158 0.16677089035511017
0.7354885339736938 0.4909649193286896 0.07277608662843704
0.6334142088890076 0.6055740118026733 -0.006717944983392954
0.5426005125045776 0.7098764181137085 -0.04637639969587326
0.5387318134307861 0.7306508421897888 -0.029907891526818275
0.5752890706062317 0.7114008069038391 -0.02572288177907467
0.597270667552948 0.714445948600769 -0.00011009401350747794
0.5628795623779297 0.7280873656272888 -0.015537271276116371
0.5825004577636719 0.7255797982215881 0.007228640373796225
0.6264711618423462 0.7446647882461548 0.053798187524080276
0.5343949794769287 0.6297599077224731 -0.13162796199321747
0.5381492972373962 0.6075286865234375 -0.14314724504947662
0.7202730178833008 0.4375162720680237 0.0071948738768696785
0.5804746150970459 0.5464621186256409 -0.025047725066542625
0.58707594871521 0.6196787357330322 -0.06392748653888702
0.5881328582763672 0.6069605350494385 -0.05779852345585823
0.7080470323562622 0.5998623967170715 0.03197244182229042
0.5360766649246216 0.5777312517166138 -0.13264963030815125
0.6632511615753174 0.4157044291496277 -0.04594474658370018
0.6970279216766357 0.42251265048980713 -0.022563697770237923
0.7442600727081299 0.34637677669525146 0.07009107619524002
0.5578007698059082 0.4346824288368225 -0.07318171858787537
0.5913170576095581 0.4572356641292572 -0.014387829229235649
0.6465449333190918 0.719822883605957 0.05659213662147522
0.7432839870452881 0.7115784287452698 0.2846429944038391
0.5690323710441589 0.6323671936988831 -0.05338573083281517
0.5489072203636169 0.6413726806640625 -0.05588478595018387
0.6242455244064331 0.719520628452301 0.0540459081530571
0.613032341003418 0.7201247811317444 0.04585019499063492
0.7107834815979004 0.4058378338813782 -0.012895606458187103
0.587349534034729 0.6289544105529785 -0.04781073331832886
0.6177591681480408 0.41801580786705017 -0.0638679787516594
0.6233295202255249 0.39771097898483276 -0.07326547801494598
0.6499465703964233 0.2917149066925049 -0.04720691591501236
0.727302074432373 0.374792218208313 0.021961459890007973
0.6344878673553467 0.34251949191093445 -0.06256518512964249
0.735352098941803 0.42534139752388 0.0275545883923769
0.7510712146759033 0.40717124938964844 0.07600092142820358
0.5412407517433167 0.7231904864311218 -0.04058077931404114
0.5682092308998108 0.7220039367675781 -0.02112065814435482
0.5898805856704712 0.7204091548919678 0.0018492919625714421
0.5629351139068604 0.6370177268981934 -0.048225052654743195
0.6187909245491028 0.7196531295776367 0.04950455576181412
0.6063718795776367 0.729165256023407 0.033608194440603256
0.6091801524162292 0.7200391888618469 0.04473832622170448
0.5573524832725525 0.6257944107055664 -0.09183745831251144
0.5775594711303711 0.7232416868209839 0.011168594472110271
0.5575922727584839 0.7275190949440002 -0.004982853773981333
0.5349510908126831 0.7311899065971375 -0.01823733188211918
0.5438172817230225 0.796367883682251 0.010970020666718483
0.5431824922561646 0.7732146978378296 -0.015576845034956932
0.5422927141189575 0.7597312331199646 -0.02019450068473816
0.5403481125831604 0.748717188835144 -0.016113748773932457
0.5377434492111206 0.7409694194793701 -0.013245544396340847
0.582181453704834 0.7314162850379944 0.015505091287195683
0.5858966112136841 0.7337970733642578 0.012175394222140312
0.591145396232605 0.7391466498374939 0.0108497254550457
0.5953576564788818 0.7465648651123047 0.017839595675468445
0.6165383458137512 0.6882350444793701 0.0043596671894192696
0.769697368144989 0.5933417081832886 0.29805970191955566
0.5946893095970154 0.7272977232933044 0.03330399468541145
0.6005517244338989 0.7275362610816956 0.03161009028553963
0.5410588383674622 0.6528962254524231 -0.05437512323260307
0.5790236592292786 0.6431040167808533 -0.027205616235733032
0.5446726679801941 0.6473180055618286 -0.05622808262705803
0.6065893173217773 0.5591436624526978 -0.011064659804105759
0.6488603949546814 0.5741198658943176 0.0014782027574256063
0.5916404128074646 0.616472601890564 -0.040939558297395706
0.7076851725578308 0.31379446387290955 0.007451899815350771
0.6903160810470581 0.35221701860427856 -0.02272476814687252
0.6726207137107849 0.3953824043273926 -0.04534527286887169
0.6046561598777771 0.7646490335464478 0.03993740677833557
0.5670125484466553 0.40285947918891907 -0.08899573236703873
0.576165497303009 0.340012788772583 -0.08663317561149597
0.5855509042739868 0.2807566821575165 -0.08110091835260391
0.6770269274711609 0.5006400942802429 0.02168230526149273
0.7360043525695801 0.5230226516723633 0.06808546930551529
0.5729806423187256 0.49464312195777893 -0.00171837885864079
0.7084349393844604 0.4654362201690674 0.028484400361776352
0.5635372400283813 0.5319305062294006 -0.03858432546257973
0.5734502673149109 0.6122799515724182 -0.09237491339445114
0.7606923580169678 0.5381801724433899 0.10310467332601547
0.7202783823013306 0.5401809811592102 0.04767127335071564
0.6894060373306274 0.5498918294906616 0.023528726771473885
0.6416341066360474 0.5476366281509399 0.007894829846918583
0.6057395339012146 0.5386365652084351 -0.0019327723421156406
0.5800099968910217 0.5282925367355347 -0.013692191801965237
0.532866895198822 0.5016553997993469 -0.07664676010608673
0.7594598531723022 0.5880719423294067 0.10674373060464859
0.7292434573173523 0.4616865813732147 0.04060231149196625
0.5249922871589661 0.6411240696907043 -0.11720317602157593
0.5796188116073608 0.5703097581863403 -0.03143296390771866
0.7789431810379028 0.48596513271331787 0.25349462032318115
0.5612684488296509 0.5161365270614624 -0.02222973108291626
0.5934545993804932 0.61700439453125 -0.013916049152612686
0.6949623227119446 0.47916632890701294 0.038948994129896164
0.5738913416862488 0.5970767736434937 -0.0849587470293045
0.7605621218681335 0.6516891121864319 0.2982138991355896
0.5729176998138428 0.4854602813720703 0.0028562722727656364
0.55579674243927 0.585117757320404 -0.11393314599990845
0.6976159811019897 0.7696572542190552 0.153383269906044
0.6895829439163208 0.7941901087760925 0.20465129613876343
0.7757953405380249 0.5925664901733398 0.20287223160266876
0.72920823097229 0.738335132598877 0.18132813274860382
0.7645413875579834 0.4449726939201355 0.12807118892669678
0.6001468300819397 0.850639820098877 0.07596079260110855
0.5211645364761353 0.6453199982643127 -0.08121144771575928
0.6017050743103027 0.5867244601249695 -0.017229849472641945
0.7558966875076294 0.494219034910202 0.10108432918787003
0.6546847820281982 0.49179017543792725 0.009356644004583359
0.6327860355377197 0.49447470903396606 0.0019467816455289721
0.6119799613952637 0.7326077818870544 0.03950030729174614
0.7555385231971741 0.6360533833503723 0.12564560770988464
0.5546507835388184 0.8813071250915527 0.08427418023347855
0.6224086284637451 0.8469710946083069 0.13814328610897064
0.6525770425796509 0.8250629305839539 0.16792306303977966
0.6113411784172058 0.4933069348335266 -0.0012820604024454951
0.5910885334014893 0.4895915985107422 -3.654711690614931e-05
0.5785939693450928 0.48748067021369934 0.003228263696655631
0.7467894554138184 0.4551619589328766 0.06679949164390564
0.5949410200119019 0.4669475555419922 -0.0070513226091861725
0.6166802644729614 0.4598124027252197 -0.010691745206713676
0.638891875743866 0.4584176540374756 -0.008021801710128784
0.6610714793205261 0.4622884690761566 0.000577219296246767
0.6745681166648865 0.4686890244483948 0.010518938302993774
0.7766646146774292 0.4307546615600586 0.1977064460515976
0.6693031787872314 0.487548291683197 0.018079232424497604
0.5924140214920044 0.677282989025116 -0.017443815246224403
0.5698665976524353 0.6290461421012878 -0.06484610587358475
0.5445273518562317 0.6749366521835327 -0.04804681986570358
0.6631451845169067 0.8005714416503906 0.13168832659721375
0.6319926977157593 0.8250094652175903 0.10593678057193756
0.5589942932128906 0.8693203330039978 0.04860870912671089
0.718840479850769 0.7595377564430237 0.24854528903961182
0.5798586010932922 0.4780426025390625 -0.0015935265691950917
0.5496163368225098 0.5403485894203186 -0.07496935874223709
0.5915636420249939 0.8667947053909302 0.1062617301940918
0.7679054737091064 0.6453453898429871 0.20956803858280182
0.5620027780532837 0.7365341186523438 -0.0001617779489606619
0.5660259127616882 0.7417862415313721 -0.0035497492644935846
0.5695884227752686 0.7503036856651306 -0.005203108303248882
0.5720822215080261 0.7622080445289612 0.0008167183259502053
0.5780747532844543 0.7829012870788574 0.023674320429563522
0.6011840105056763 0.7219966053962708 0.02791493386030197
0.6084640026092529 0.7193596959114075 0.028482133522629738
0.6152556538581848 0.715566873550415 0.0279444120824337
0.6373081207275391 0.702031135559082 0.030555762350559235
0.7271626591682434 0.6504622101783752 0.07206010073423386
0.5476458668708801 0.5154106020927429 -0.055801864713430405
0.55606609582901 0.4698929190635681 -0.020421102643013
0.5698665380477905 0.4729534983634949 -0.008791065774857998
0.5946894884109497 0.719689130783081 0.030263056978583336
0.7252421975135803 0.7057723999023438 0.12413430213928223
0.5382452011108398 0.4694415330886841 -0.056061867624521255
0.5892112851142883 0.8055891990661621 0.041056208312511444
0.5335423946380615 0.528495192527771 -0.09772871434688568
0.5663946866989136 0.5767253637313843 -0.0664009228348732
0.5510078072547913 0.8213231563568115 0.021459631621837616
0.6445012092590332 0.755974531173706 0.0702640488743782
0.61464524269104 0.6360271573066711 -0.001984112663194537
0.618497371673584 0.7836870551109314 0.05832377076148987
0.675138533115387 0.6326436400413513 0.012496951036155224
0.639936089515686 0.6591345071792603 0.011991855688393116
0.6952700614929199 0.6686650514602661 0.04422152787446976
0.5581197142601013 0.8490411043167114 0.029705900698900223
0.5796449184417725 0.5886616706848145 -0.04374714940786362
0.6604276299476624 0.7745984792709351 0.0978183001279831
0.6291371583938599 0.8026725649833679 0.08122080564498901
0.666458249092102 0.725516140460968 0.06840415298938751
0.74739670753479 0.6764777302742004 0.14294905960559845
0.6939094662666321 0.7308511137962341 0.09417790174484253
0.754361629486084 0.6940988302230835 0.20869427919387817
0.6609535217285156 0.686016321182251 0.03376764431595802
0.5639849901199341 0.555083692073822 -0.051517553627491
0.5654789805412292 0.6223546862602234 -0.09742418676614761
0.5798742771148682 0.6273730397224426 -0.06655476987361908
0.557094931602478 0.6086394786834717 -0.11892154067754745
0.5751369595527649 0.45175954699516296 -0.030558515340089798
0.615088939666748 0.44036322832107544 -0.034472569823265076
0.6498494148254395 0.4382581114768982 -0.0297244880348444
0.6786074042320251 0.44131171703338623 -0.01570132188498974
0.6982932686805725 0.449889212846756 0.0029872250743210316
0.7124064564704895 0.48506003618240356 0.05124644190073013
0.7791242599487305 0.5413174629211426 0.18692295253276825
0.6954495310783386 0.5170847773551941 0.03668595850467682
0.67060387134552 0.5248814821243286 0.02052278444170952
0.6373318433761597 0.5258866548538208 0.008080415427684784
0.6055623888969421 0.5211188793182373 0.00025611399905756116
0.5814734101295471 0.5135312676429749 -0.004909776616841555
0.5654217600822449 0.5059762597084045 -0.009375293739140034
0.7742213606834412 0.5389572381973267 0.28446149826049805
0.5785657167434692 0.6328548789024353 -0.052818503230810165
0.5511736869812012 0.5623464584350586 -0.0907808467745781
0.549938440322876 0.6248188614845276 -0.11843216419219971
0.5352569818496704 0.6360145211219788 -0.1066715344786644
0.5485489964485168 0.6276499032974243 -0.10519137233495712
0.5718520879745483 0.6400663256645203 -0.043353475630283356
0.5318094491958618 0.6389279961585999 -0.11345714330673218
0.5282720327377319 0.6431527733802795 -0.08159741759300232
0.5649609565734863 0.48756593465805054 -0.001819344935938716
0.5529506802558899 0.49332261085510254 -0.01711123064160347
0.5473624467849731 0.49798139929771423 -0.03474346548318863
0.6822338104248047 0.4733586311340332 0.020331094041466713
0.6938256621360779 0.4674106240272522 0.021424541249871254
