ply
format ascii 1.0
element vertex 468
property float x
property float y
property float z
end_header
0.5005315542221069 0.6928659081459045 -0.07264427840709686
0.5022065043449402 0.6189074516296387 -0.1271095871925354
0.5011171698570251 0.6435267329216003 -0.07046407461166382
0.4814492166042328 0.5368921756744385 -0.09090801328420639
0.5024024248123169 0.5932847261428833 -0.13369905948638916
0.502305269241333 0.5601517558097839 -0.1225602924823761
0.501594066619873 0.4829525947570801 -0.05247866362333298
0.33170804381370544 0.4809541702270508 0.03640557453036308
0.5014716982841492 0.4276640713214874 -0.03140776976943016
0.5017603635787964 0.3962556719779968 -0.0331481397151947
0.5016490817070007 0.2936197817325592 0.0018946782220155
0.5003227591514587 0.7042293548583984 -0.06956882774829865
0.4999902844429016 0.7124977707862854 -0.06216512992978096
0.49970364570617676 0.7151944637298584 -0.052282895892858505
0.5007643103599548 0.7165331840515137 -0.05336404964327812
0.5009803771972656 0.7247838973999023 -0.0583164282143116
0.5009443759918213 0.7359520196914673 -0.06555037945508957
0.5007944107055664 0.748762309551239 -0.06581912189722061
0.500079333782196 0.7747300267219543 -0.04875590652227402
0.5017422437667847 0.6323266625404358 -0.11585923284292221
0.4772012233734131 0.630237877368927 -0.08464234322309494
0.25042447447776794 0.40034061670303345 0.1528633087873459
0.3996638357639313 0.49953004717826843 0.013004075735807419
0.3768220543861389 0.5014880299568176 0.014039551839232445
0.3543446660041809 0.5010823607444763 0.01991816610097885
0.3233746290206909 0.48989883065223694 0.039086561650037766
0.4188169836997986 0.4936582148075104 0.01637226529419422
0.3685916066169739 0.4460253417491913 0.006197628565132618
0.39237576723098755 0.44711434841156006 0.007877912372350693
0.34584641456604004 0.4492199718952179 0.012889795005321503
0.33014607429504395 0.45663172006607056 0.021986061707139015
0.3059247136116028 0.5049899816513062 0.049813948571681976
0.40866389870643616 0.8171185255050659 -0.022044368088245392
0.32317161560058594 0.47602182626724243 0.04405064135789871
0.24001842737197876 0.4982216954231262 0.15318824350833893
0.2802004814147949 0.49037593603134155 0.07405564934015274
0.380731999874115 0.595462441444397 -0.01806725189089775
0.4685368537902832 0.6885194182395935 -0.07049290090799332
0.47219547629356384 0.7115578651428223 -0.059192489832639694
0.43531739711761475 0.695354163646698 -0.05720087140798569
0.4145197868347168 0.7043805122375488 -0.0400734469294548
0.4478727877140045 0.7123206257820129 -0.05020258575677872
0.42908936738967896 0.7145259380340576 -0.03423526883125305
0.3865383565425873 0.7388496398925781 -0.009506750851869583
0.48132947087287903 0.6181269288063049 -0.12537366151809692
0.47858497500419617 0.5931592583656311 -0.1314314305782318
0.2942838966846466 0.43067246675491333 0.030688760802149773
0.4291369616985321 0.5374710559844971 -0.015486355870962143
0.4214112162590027 0.6100746989250183 -0.06848175823688507
0.4201803207397461 0.5969434380531311 -0.06056426465511322
0.3125256896018982 0.5916836857795715 0.011558816768229008
0.4801078140735626 0.562572717666626 -0.11580879986286163
0.3494236171245575 0.40399885177612305 -0.006405456457287073
0.31698086857795715 0.4131280183792114 0.010564536787569523
0.2725357413291931 0.3581278324127197 0.11056821793317795
0.4518294632434845 0.4209662675857544 -0.025136448442935944
0.413647323846817 0.4534960985183716 0.014987289905548096
0.36695754528045654 0.7173683047294617 -0.0015967651270329952
0.26108288764953613 0.7159348130226135 0.19694705307483673
0.43855807185173035 0.6240597367286682 -0.05974951758980751
0.4589132070541382 0.6317178010940552 -0.0628068819642067
0.391828715801239 0.7172083854675293 -0.0026050738524645567
0.4017781615257263 0.7158185839653015 -0.008796777576208115
0.30385446548461914 0.39798036217689514 0.023127805441617966
0.4194374978542328 0.6202217936515808 -0.056256406009197235
0.3932052254676819 0.40420758724212646 -0.018619365990161896
0.3888905942440033 0.38488686084747314 -0.02208212949335575
0.3671543002128601 0.3032200038433075 0.027165208011865616
0.2883642613887787 0.3771592974662781 0.06111059710383415
0.38036513328552246 0.3426395058631897 0.0019263781141489744
0.2804448902606964 0.42093777656555176 0.05167084187269211
0.2653428912162781 0.41196513175964355 0.09948264062404633
0.4699133038520813 0.7021780610084534 -0.06750233471393585
0.4425007402896881 0.706157386302948 -0.05468331277370453
0.42212700843811035 0.7099640965461731 -0.03928745910525322
0.44434523582458496 0.6282145380973816 -0.05523016303777695
0.3972157835960388 0.716665506362915 -0.005843278486281633
0.4091319739818573 0.7197510004043579 -0.022130046039819717
0.40397459268569946 0.7149150371551514 -0.00959050189703703
0.45372331142425537 0.6174842119216919 -0.09174592792987823
0.4331335425376892 0.7128439545631409 -0.030505437403917313
0.4523460268974304 0.713044285774231 -0.041178636252880096
0.4748501479625702 0.7141829133033752 -0.049795277416706085
0.4678939878940582 0.7744680047035217 -0.04765838012099266
0.47054240107536316 0.7474778890609741 -0.06428250670433044
0.4719950258731842 0.7335721254348755 -0.0640173852443695
0.4734402596950531 0.7228639125823975 -0.05605952814221382
0.4750761091709137 0.7159468531608582 -0.05110877379775047
0.4315863847732544 0.7155612707138062 -0.03185417130589485
0.42856621742248535 0.7178304195404053 -0.03685951977968216
0.42407965660095215 0.7236778736114502 -0.041795771569013596
0.41976284980773926 0.7318090200424194 -0.03851807489991188
0.3948163092136383 0.6791039109230042 -0.03218960762023926
0.2388092577457428 0.603273332118988 0.24029695987701416
0.5014339685440063 0.6373031735420227 -0.08572190254926682
0.4187638759613037 0.7160446047782898 -0.01919892244040966
0.41440653800964355 0.7167486548423767 -0.02213185653090477
0.46783772110939026 0.6424790620803833 -0.06527961045503616
0.42756977677345276 0.6344259977340698 -0.04039784520864487
0.46344318985939026 0.637320876121521 -0.06435298174619675
0.4044669270515442 0.5510656237602234 -0.009132452309131622
0.36655643582344055 0.5656391382217407 -0.003928328864276409
0.41557618975639343 0.6073158383369446 -0.047913532704114914
0.30943408608436584 0.32471585273742676 0.06550922989845276
0.3247925639152527 0.3531340956687927 0.029377132654190063
0.34070146083831787 0.385302871465683 -0.00042037665843963623
0.40807193517684937 0.7530757784843445 -0.02444899082183838
0.4447938799858093 0.3897199034690857 -0.031998634338378906
0.4376094341278076 0.34217843413352966 -0.013360208831727505
0.42922261357307434 0.2942730486392975 0.005446936469525099
0.3347172737121582 0.4974949359893799 0.029901664704084396
0.2819366455078125 0.521342396736145 0.06124655157327652
0.4306851625442505 0.48743516206741333 0.0201752707362175
0.30466800928115845 0.4622146487236023 0.04175763204693794
0.445950984954834 0.5217980146408081 -0.022790664806962013
0.43807560205459595 0.6018958687782288 -0.09068279713392258
0.25759199261665344 0.5381188988685608 0.08511568605899811
0.2977462112903595 0.5364292860031128 0.039017315953969955
0.327286958694458 0.5442719459533691 0.017500683665275574
0.37117254734039307 0.5409175753593445 0.007933367975056171
0.4038050174713135 0.5315788388252258 0.004066833294928074
0.4282776713371277 0.5204780101776123 -0.0008107044850476086
0.4786035120487213 0.4891039729118347 -0.044036995619535446
0.2605021297931671 0.5856281518936157 0.07533139735460281
0.2856871485710144 0.4584200382232666 0.05321091413497925
0.4890922009944916 0.6309056282043457 -0.11465690284967422
0.4301165044307709 0.5606005787849426 -0.02724655531346798
0.23407584428787231 0.4999365210533142 0.23102067410945892
0.4465479850769043 0.5074930787086487 -0.002799669047817588
0.41340598464012146 0.6088377237319946 -0.024414386600255966
0.31621649861335754 0.4777536988258362 0.0482148602604866
0.43709662556648254 0.5859410166740417 -0.08074238151311874
0.24583834409713745 0.6587647199630737 0.2250155210494995
0.42955929040908813 0.4789949059486389 0.02691786177456379
0.458438515663147 0.571580708026886 -0.10256808996200562
0.3077191114425659 0.7659496068954468 0.07060123234987259
0.31012654304504395 0.7945813536643982 0.10952964425086975
0.23969262838363647 0.5954209566116333 0.15759116411209106
0.2798270285129547 0.7351634502410889 0.1017308235168457
0.25239962339401245 0.4518180191516876 0.1333126574754715
0.40331336855888367 0.8421885967254639 -0.010758588090538979
0.49125805497169495 0.6360761523246765 -0.08430317789316177
0.40853577852249146 0.5778574347496033 -0.020475661382079124
0.2611038386821747 0.49549993872642517 0.09688784182071686
0.3558100461959839 0.48653343319892883 0.022787893190979958
0.376328706741333 0.4879953861236572 0.017416829243302345
0.40333253145217896 0.7247299551963806 -0.018437402322888374
0.2637803554534912 0.6324191093444824 0.079108327627182
0.4475615620613098 0.8749209642410278 -0.007330820430070162
0.3751720190048218 0.8455474376678467 0.0429241769015789
0.3446590006351471 0.8249983191490173 0.07252562046051025
0.501660943031311 0.34516313672065735 -0.016886616125702858
0.4982524812221527 0.8789291381835938 -0.013554647564888
0.39552029967308044 0.4867017865180969 0.017090139910578728
0.41323530673980713 0.48316821455955505 0.020941991358995438
0.4242502450942993 0.48096156120300293 0.026362335309386253
0.2697455883026123 0.45444455742836 0.07698468118906021
0.41002005338668823 0.46676355600357056 0.018438495695590973
0.3901933431625366 0.46272730827331543 0.014008148573338985
0.3708820939064026 0.46160703897476196 0.014323312789201736
0.3505973815917969 0.4644709825515747 0.019367894157767296
0.33722710609436035 0.4694002568721771 0.02637523040175438
0.23862960934638977 0.4447697699069977 0.19784510135650635
0.3416990041732788 0.4838961958885193 0.029939504340291023
0.5008583664894104 0.658745527267456 -0.06627671420574188
0.4166077971458435 0.6664749979972839 -0.04462694376707077
0.43876299262046814 0.6206856369972229 -0.06798756122589111
0.46546435356140137 0.6600037217140198 -0.06559993326663971
0.501329243183136 0.45569080114364624 -0.03297829255461693
0.3385520875453949 0.7965765595436096 0.044999755918979645
0.3693751096725464 0.8199952840805054 0.017961904406547546
0.4462797939777374 0.8575116395950317 -0.035245973616838455
0.2835434675216675 0.7610635757446289 0.15514500439167023
0.42352110147476196 0.47365617752075195 0.02362591028213501
0.462330162525177 0.5271356105804443 -0.055000100284814835
0.4990287721157074 0.8606833219528198 -0.04050774127244949
0.40852251648902893 0.8628560304641724 0.012660988606512547
0.24634867906570435 0.6463909149169922 0.15003855526447296
0.45169204473495483 0.7151211500167847 -0.042622555047273636
0.4485943913459778 0.7201586365699768 -0.04803050309419632
0.4456503689289093 0.7286309003829956 -0.054058171808719635
0.44292670488357544 0.7409083247184753 -0.05286378785967827
0.4349578619003296 0.7654229402542114 -0.039071932435035706
0.41246360540390015 0.7157090902328491 -0.02035459876060486
0.40578174591064453 0.7142301797866821 -0.020401770249009132
0.398941308259964 0.7109673619270325 -0.020632989704608917
0.37604063749313354 0.6965203881263733 -0.016175054013729095
0.29324179887771606 0.6427968740463257 0.03210458904504776
0.4627004563808441 0.5040374994277954 -0.03159429877996445
0.4498264789581299 0.462207168340683 0.012242510914802551
0.43435531854629517 0.46722519397735596 0.020379789173603058
0.4171236753463745 0.7129756212234497 -0.018318405374884605
0.2891775369644165 0.7000195384025574 0.061894260346889496
0.47091978788375854 0.45961329340934753 -0.017722049728035927
0.42118674516677856 0.7914074659347534 -0.029749860987067223
0.502070963382721 0.5332759022712708 -0.09835416823625565
0.47934189438819885 0.5139333605766296 -0.06950747221708298
0.5018703937530518 0.5087417364120483 -0.07442203164100647
0.4448601007461548 0.5651724934577942 -0.05788073688745499
0.49957945942878723 0.834775984287262 -0.052080001682043076
0.4999067187309265 0.8028168678283691 -0.05057191476225853
0.4594390392303467 0.8024770021438599 -0.045890361070632935
0.36469823122024536 0.7498936057090759 0.0020444015972316265
0.3943484127521515 0.6271520853042603 -0.020512597635388374
0.3905545473098755 0.7742559909820557 -0.013299481011927128
0.3433533310890198 0.6216946244239807 -0.011570372618734837
0.37272152304649353 0.6493757367134094 -0.018024129793047905
0.3221263885498047 0.6596285104751587 0.0047075808979570866
0.4503766596317291 0.8328203558921814 -0.04593351110816002
0.429268479347229 0.5788013339042664 -0.042609672993421555
0.34539690613746643 0.7686665654182434 0.021511664614081383
0.3767702579498291 0.7947306036949158 0.002135277260094881
0.34492647647857666 0.7208545804023743 0.0077690910547971725
0.26879918575286865 0.6725928783416748 0.08428487926721573
0.317103773355484 0.7248014807701111 0.02979942411184311
0.2576464116573334 0.6931881308555603 0.1358046680688858
0.35281407833099365 0.6791372299194336 -0.008614981546998024
0.4466891586780548 0.5437749624252319 -0.04007706046104431
0.44595199823379517 0.6132787466049194 -0.09603892266750336
0.42863327264785767 0.6184437870979309 -0.0714486688375473
0.45709407329559326 0.5966377258300781 -0.1118619441986084
0.4310777485370636 0.4430930018424988 0.005898773204535246
0.39383387565612793 0.43170684576034546 0.0012490133522078395
0.36172646284103394 0.42992424964904785 0.0014124847948551178
0.33437150716781616 0.4338962435722351 0.0097091319039464
0.31479209661483765 0.4440646171569824 0.023434191942214966
0.3008710741996765 0.4839039444923401 0.057442523539066315
0.23647350072860718 0.5462483167648315 0.1563265472650528
0.31872668862342834 0.5142889022827148 0.037238672375679016
0.342618465423584 0.5202205777168274 0.023198110982775688
0.37310269474983215 0.5198548436164856 0.014078554697334766
0.4022487998008728 0.5145156979560852 0.010810498148202896
0.42495426535606384 0.5066543221473694 0.01132854912430048
0.4405204653739929 0.49864429235458374 0.01059967465698719
0.2361500859260559 0.551518976688385 0.24360638856887817
0.42852550745010376 0.6242775321006775 -0.06017310544848442
0.4624629616737366 0.548527717590332 -0.07545095682144165
0.46366196870803833 0.6146919131278992 -0.11419155448675156
0.47669553756713867 0.6267842054367065 -0.10524094104766846
0.4634895324707031 0.6188175082206726 -0.10301897674798965
0.4351324439048767 0.631199836730957 -0.052748069167137146
0.4813617765903473 0.6291298270225525 -0.11149893701076508
0.4829322099685669 0.6341716051101685 -0.08447577059268951
0.43851137161254883 0.4804189205169678 0.023450247943401337
0.4529361426830292 0.48568281531333923 0.009337665513157845
0.46068882942199707 0.4888118505477905 -0.0076079959981143475
0.32933562994003296 0.4731592833995819 0.0338604710996151
0.317874550819397 0.4648559093475342 0.03505629301071167
0.5220761299133301 0.5376336574554443 -0.08969826251268387
0.663324773311615 0.4887661337852478 0.04541533440351486
0.5248631834983826 0.6312512755393982 -0.0834931805729866
0.7395492196083069 0.4107528328895569 0.16692610085010529
0.5969094634056091 0.5040473937988281 0.018665023148059845
0.6195793151855469 0.5067638754844666 0.020928053185343742
0.6414839625358582 0.5069354176521301 0.02791503258049488
0.6711052060127258 0.4976761043071747 0.04877665638923645
0.578018307685852 0.4975399374961853 0.02084500901401043
0.627949595451355 0.4524805247783661 0.013350279070436954
0.6045960783958435 0.45232510566711426 0.013548765331506729
0.6500433683395386 0.45668092370033264 0.021373098716139793
0.6649945378303528 0.4646592438220978 0.030975965782999992
0.6879372596740723 0.5125436186790466 0.06005711108446121
0.5874720215797424 0.8187931776046753 -0.0179000124335289
0.6714418530464172 0.4844776391983032 0.053493134677410126
0.7493470907211304 0.5082079172134399 0.16775451600551605
0.7127792239189148 0.49893856048583984 0.08586598187685013
0.6161835789680481 0.5990021228790283 -0.01219837088137865
0.5316762924194336 0.6889097690582275 -0.06858405470848083
0.5270251631736755 0.7119042277336121 -0.05748378857970238
0.5634492039680481 0.696156919002533 -0.05360855534672737
0.5827401876449585 0.7051665782928467 -0.03518017381429672
0.5504710674285889 0.712980329990387 -0.046985745429992676
0.5681545734405518 0.7151762843132019 -0.030100936070084572
0.609130322933197 0.7405966520309448 -0.003653118619695306
0.5226128101348877 0.6188163161277771 -0.1245114728808403
0.5257081985473633 0.5939094424247742 -0.1304958015680313
0.7007513642311096 0.43989282846450806 0.041629642248153687
0.569250762462616 0.5399362444877625 -0.011478517204523087
0.5784257054328918 0.6124374866485596 -0.06435493379831314
0.5791469216346741 0.5992631912231445 -0.05642719939351082
0.6819081902503967 0.5972611308097839 0.02127128280699253
0.5241036415100098 0.5632832050323486 -0.11447636038064957
0.6493830680847168 0.4114282727241516 0.001052600215189159
0.6798220872879028 0.4217790961265564 0.020017310976982117
0.7203171253204346 0.36804527044296265 0.12297096848487854
0.5501397848129272 0.42341727018356323 -0.02256806753575802
0.5836472511291504 0.45757412910461426 0.019833384081721306
0.6280072927474976 0.719710111618042 0.005244977306574583
0.7231365442276001 0.7228516340255737 0.2104819267988205
0.5614714026451111 0.6259855031967163 -0.05710114911198616
0.5417779684066772 0.6331625580787659 -0.061339370906353
0.604184091091156 0.7184867858886719 0.0033666312228888273
0.5940999388694763 0.7169178128242493 -0.0033073003869503736
0.692462682723999 0.40736767649650574 0.03318992629647255
0.5795784592628479 0.6226386427879333 -0.05241452157497406
0.6073900461196899 0.4095458984375 -0.013432237319648266
0.6123546957969666 0.39047133922576904 -0.016627376899123192
0.6328197121620178 0.3093355596065521 0.034147609025239944
0.7064027190208435 0.38664382696151733 0.07216568291187286
0.6205103397369385 0.3484709560871124 0.0080800736322999
0.7139059901237488 0.43069368600845337 0.06329812109470367
0.7269152998924255 0.42190566658973694 0.11227165162563324
0.5298675894737244 0.7026719450950623 -0.06565773487091064
0.5560005903244019 0.7067476511001587 -0.051320601254701614
0.5752267837524414 0.7106971740722656 -0.03465666621923447
0.5556004643440247 0.6299533247947693 -0.05281386151909828
0.5988382697105408 0.7177650928497314 -0.00020504111307673156
0.5881123542785645 0.7208632230758667 -0.017150700092315674
0.591457188129425 0.7161756157875061 -0.004202662501484156
0.5479245185852051 0.6190712451934814 -0.08903243392705917
0.5636301040649414 0.7135515809059143 -0.02670619636774063
0.5454413890838623 0.713635265827179 -0.038281530141830444
0.5237970352172852 0.7144880294799805 -0.04812469705939293
0.5313838124275208 0.7749303579330444 -0.04624028131365776
0.5301668643951416 0.7477930784225464 -0.06244003400206566
0.5292024612426758 0.7339611053466797 -0.06195670738816261
0.5276813507080078 0.723267138004303 -0.05416940152645111
0.5257344841957092 0.7163667678833008 -0.04914356768131256
0.5667566657066345 0.7163916826248169 -0.027827298268675804
0.5698339939117432 0.7187126874923706 -0.03276332467794418
0.574271023273468 0.7246291041374207 -0.03751130774617195
0.5783300399780273 0.7328910231590271 -0.03387167677283287
0.6020893454551697 0.6810890436172485 -0.02652077004313469
0.745557427406311 0.6121583580970764 0.2551858127117157
0.5783867835998535 0.7171535491943359 -0.014195702038705349
0.5829675793647766 0.7178043127059937 -0.017213089391589165
0.5332873463630676 0.6434811949729919 -0.06387563794851303
0.5711126923561096 0.6364858746528625 -0.037263546139001846
0.5374405980110168 0.6385170817375183 -0.06307575851678848
0.5931234955787659 0.5541719794273376 -0.0038829175755381584
0.6299553513526917 0.5698357820510864 0.0028808172792196274
0.5830832123756409 0.6096964478492737 -0.04388308897614479
0.6867702007293701 0.33332717418670654 0.07546305656433105
0.6730538606643677 0.3613331913948059 0.0381438285112381
0.6581282615661621 0.39319735765457153 0.007411493454128504
0.5885902047157288 0.754402220249176 -0.019494960084557533
0.5580176711082458 0.39268630743026733 -0.02927587740123272
0.565156102180481 0.345242977142334 -0.010236553847789764
0.573162853717804 0.29763534665107727 0.008927647955715656
0.660285234451294 0.5044596195220947 0.03872322291135788
0.7110397219657898 0.529258668422699 0.07282719016075134
0.5664554834365845 0.4909515976905823 0.024409247562289238
0.6897485852241516 0.4708349108695984 0.05240877345204353
0.5534301996231079 0.5237475037574768 -0.019683154299855232
0.5630975365638733 0.6039415001869202 -0.08746365457773209
0.7335808873176575 0.5466184020042419 0.09832087904214859
0.6959133148193359 0.5433038473129272 0.049954820424318314
0.6676875352859497 0.5498937368392944 0.02665533684194088
0.6251939535140991 0.5452606678009033 0.01495360303670168
0.5933517813682556 0.5350207686424255 0.009496981278061867
0.5696377158164978 0.5232391357421875 0.003232461865991354
0.5238350629806519 0.4900263547897339 -0.04287935048341751
0.730431079864502 0.5931435227394104 0.0883709043264389
0.708279550075531 0.46742454171180725 0.06499496102333069
0.5141541957855225 0.6314338445663452 -0.11398650705814362
0.5684946775436401 0.5628463625907898 -0.023616237565875053
0.7522258758544922 0.5102220773696899 0.2460358589887619
0.5522518754005432 0.5097357034683228 0.0003629388229455799
0.5844020843505859 0.6111779808998108 -0.02014281041920185
0.6780948042869568 0.4862513542175293 0.05829618126153946
0.5635337233543396 0.5878353714942932 -0.07753806561231613
0.7381352186203003 0.6668919324874878 0.2392568588256836
0.5672724843025208 0.4827718436717987 0.031172825023531914
0.5442260503768921 0.572925865650177 -0.10032505542039871
0.6819778084754944 0.7704098224639893 0.08018474280834198
0.6771702170372009 0.7989034056663513 0.11926756054162979
0.7479904294013977 0.6038195490837097 0.1721193641424179
0.7081360816955566 0.7410051822662354 0.11323285102844238
0.7386282682418823 0.4616931080818176 0.1471565067768097
0.5917494297027588 0.843902051448822 -0.006162496283650398
0.5114637613296509 0.6365519165992737 -0.08390013873577118
0.5891129374504089 0.5805795788764954 -0.015778547152876854
0.7306036353111267 0.504697322845459 0.10979992896318436
0.640192985534668 0.4930998682975769 0.030626477673649788
0.6200443506240845 0.4937882423400879 0.02437828667461872
0.5934721231460571 0.7259758114814758 -0.01327227707952261
0.7263534665107727 0.6394181847572327 0.09193450212478638
0.5478680729866028 0.8758219480514526 -0.004810411017388105
0.6163869500160217 0.8477411270141602 0.04948653280735016
0.6448574662208557 0.8279606103897095 0.08067995309829712
0.6009562015533447 0.49165475368499756 0.02286837063729763
0.5834285616874695 0.48741549253463745 0.02588873915374279
0.5726237893104553 0.4848581850528717 0.030740488320589066
0.7234427332878113 0.4638445973396301 0.08971855789422989
0.5866666436195374 0.4714440703392029 0.02342652715742588
0.6059896945953369 0.46840041875839233 0.019865866750478745
0.6250713467597961 0.46830683946609497 0.0214378722012043
0.6448864936828613 0.4720556139945984 0.027455726638436317
0.6578395366668701 0.47740188241004944 0.03509081155061722
0.749592125415802 0.4551600217819214 0.21247035264968872
0.6538232564926147 0.49112093448638916 0.03855082765221596
0.5816179513931274 0.6681032776832581 -0.040385860949754715
0.5616942644119263 0.6226219534873962 -0.06510671228170395
0.535062849521637 0.6607918739318848 -0.06373980641365051
0.6526035070419312 0.7998940944671631 0.052621688693761826
0.6235049962997437 0.8224197626113892 0.024396732449531555
0.5505289435386658 0.8584767580032349 -0.032854896038770676
0.7019801139831543 0.7668531537055969 0.16688303649425507
0.5733528137207031 0.47760576009750366 0.02802671119570732
0.5390748381614685 0.5286044478416443 -0.05293076112866402
0.5853829383850098 0.8643046617507935 0.017352189868688583
0.7405149936676025 0.6540418267250061 0.16389165818691254
0.5481470823287964 0.7157610058784485 -0.039609335362911224
0.5513782501220703 0.720735490322113 -0.0447690449655056
0.5542817115783691 0.7293054461479187 -0.05071708559989929
0.5567443370819092 0.741623044013977 -0.04924922436475754
0.5632066130638123 0.7664783596992493 -0.03558129072189331
0.5839906930923462 0.7166174650192261 -0.015548682771623135
0.5905795097351074 0.7152938842773438 -0.015264850109815598
0.5974211692810059 0.7120503783226013 -0.01497125718742609
0.6196293234825134 0.6988131999969482 -0.009557659737765789
0.6991606950759888 0.6486482620239258 0.04238303750753403
0.5382315516471863 0.5055195689201355 -0.029530905187129974
0.5492913722991943 0.46472007036209106 0.015080641023814678
0.5631873607635498 0.47055456042289734 0.024328170344233513
0.5787427425384521 0.7138877511024475 -0.013545237481594086
0.7012578845024109 0.7057439684867859 0.07236494868993759
0.5305280685424805 0.46105101704597473 -0.016026712954044342
0.5756400227546692 0.7926430702209473 -0.02593483403325081
0.5234211683273315 0.5147747993469238 -0.06848830729722977
0.5553321242332458 0.5668082237243652 -0.055012285709381104
0.539126992225647 0.8030220866203308 -0.04421796649694443
0.6294090747833252 0.7525899410247803 0.008745886385440826
0.6027129888534546 0.6299160718917847 -0.015389472246170044
0.6046247482299805 0.7762057781219482 -0.008003289811313152
0.6522411704063416 0.626124382019043 -0.004112519323825836
0.6232751607894897 0.6526802182197571 -0.011823907494544983
0.6718919277191162 0.6644207835197449 0.013085647486150265
0.5475167632102966 0.8336830735206604 -0.043790802359580994
0.5695374011993408 0.5809261202812195 -0.03888970986008644
0.647377073764801 0.7718471884727478 0.028744995594024658
0.6175734996795654 0.7969791293144226 0.007799303159117699
0.6489818096160889 0.7241438627243042 0.015452617779374123
0.7205281257629395 0.6792287230491638 0.0963088646531105
0.6750565767288208 0.72917640209198 0.03853919729590416
0.729383111000061 0.7000777721405029 0.14893583953380585
0.6418929100036621 0.6825669407844543 -0.0014688465744256973
0.5531802773475647 0.5455617308616638 -0.03694454953074455
0.5556269884109497 0.6150355935096741 -0.0931747630238533
0.5714670419692993 0.6205686926841736 -0.06804675608873367
0.5457708835601807 0.5981600880622864 -0.10981319844722748
0.5680236220359802 0.44642147421836853 0.009498718194663525
0.6048275828361511 0.43686461448669434 0.006748363375663757
0.6361665725708008 0.4366234838962555 0.00857123639434576
0.662321150302887 0.4417448043823242 0.01837470754981041
0.6806753873825073 0.4527093172073364 0.03345480188727379
0.6929546594619751 0.4922301173210144 0.06817230582237244
0.7517600655555725 0.5557495355606079 0.17123842239379883
0.6757709383964539 0.5210081338882446 0.046959150582551956
0.6527483463287354 0.525799572467804 0.031622134149074554
0.6231439113616943 0.524594783782959 0.020980579778552055
0.5944581627845764 0.5183701515197754 0.016309386119246483
0.5723779797554016 0.5098397731781006 0.015450912527740002
0.5574051141738892 0.501319408416748 0.014036926440894604
0.7487931251525879 0.5611023306846619 0.25880610942840576
0.5709518194198608 0.626444935798645 -0.05686114728450775
0.5396862626075745 0.5497658252716064 -0.07325881719589233
0.5393951535224915 0.6159850358963013 -0.11238645017147064
0.5258368849754333 0.6277366280555725 -0.10423605144023895
0.5388376712799072 0.6201313734054565 -0.10112190246582031
0.5642886757850647 0.6331585645675659 -0.0499916598200798
0.5217599272727966 0.6299239993095398 -0.1107177808880806
0.5194553732872009 0.6349034905433655 -0.08363019675016403
0.5589578151702881 0.4836735129356384 0.02711140178143978
0.5457100868225098 0.48798489570617676 0.012111570686101913
0.5391843318939209 0.490660160779953 -0.005378009285777807
0.6655232906341553 0.4814661741256714 0.04315616562962532
0.6768395304679871 0.47329181432724 0.04461357370018959
