ply
format ascii 1.0
element vertex 468
property float x
property float y
property float z
end_header
0.4744872450828552 0.655764102935791 -0.09525396674871445
0.46394088864326477 0.5764415264129639 -0.12681643664836884
0.4765254855155945 0.6090032458305359 -0.0817786455154419
0.45636942982673645 0.5123519897460938 -0.06972181797027588
0.46357059478759766 0.5525696873664856 -0.1282946616411209
0.4689021706581116 0.5267617702484131 -0.11111913621425629
0.48644402623176575 0.4697886109352112 -0.026252230629324913
0.3531269133090973 0.49429482221603394 0.10258234292268753
0.49276643991470337 0.42306947708129883 0.007338710594922304
0.49289509654045105 0.3946744203567505 0.014975365251302719
0.4980008006095886 0.3046005666255951 0.07810499519109726
0.47495314478874207 0.6675689816474915 -0.09466242790222168
0.4773598611354828 0.678871750831604 -0.0897124633193016
0.4805472791194916 0.6852006316184998 -0.08181124180555344
0.4813222885131836 0.7202164530754089 -0.07857012748718262
0.47994744777679443 0.7302636504173279 -0.08489423245191574
0.4795501232147217 0.7433900833129883 -0.09333551675081253
0.48079103231430054 0.7583372592926025 -0.09413740038871765
0.4853215217590332 0.7827820777893066 -0.08184964954853058
0.4677751958370209 0.5916386842727661 -0.11862649768590927
0.45081061124801636 0.5965155959129333 -0.08609738945960999
0.3098350167274475 0.43955346941947937 0.2590430974960327
0.4101359248161316 0.501113772392273 0.06276947259902954
0.39009976387023926 0.5052167177200317 0.06866739690303802
0.37065649032592773 0.5072241425514221 0.07919127494096756
0.34559494256973267 0.5028809309005737 0.10500305145978928
0.4270573854446411 0.49390363693237305 0.06071632727980614
0.3811272978782654 0.45174235105514526 0.07244722545146942
0.40261614322662354 0.45039474964141846 0.06782407313585281
0.3611606955528259 0.45731213688850403 0.08303060382604599
0.34856367111206055 0.46714621782302856 0.09396114945411682
0.330618679523468 0.5180381536483765 0.1144658774137497
0.40394213795661926 0.8144009709358215 -0.045497067272663116
0.3465363383293152 0.4925278425216675 0.11273539066314697
0.29664093255996704 0.5272550582885742 0.23273059725761414
0.3143884837627411 0.5096620917320251 0.1474727839231491
0.37632685899734497 0.5835075378417969 0.008089873008430004
0.4423384666442871 0.6536945104598999 -0.08418787270784378
0.45010173320770264 0.6807918548583984 -0.07931437343358994
0.4122996926307678 0.6659954786300659 -0.06376934796571732
0.39686065912246704 0.681752622127533 -0.03998075798153877
0.42859184741973877 0.6855177879333496 -0.06196735054254532
0.4145163297653198 0.6934828162193298 -0.040440160781145096
0.38064247369766235 0.7350277900695801 -0.010404083877801895
0.4451034665107727 0.5779008865356445 -0.12106887996196747
0.44203269481658936 0.5553296804428101 -0.12120697647333145
0.32459503412246704 0.4531794488430023 0.11555390805006027
0.42392176389694214 0.5280482769012451 0.015046458691358566
0.40025949478149414 0.5834226608276367 -0.05291477218270302
0.4012752175331116 0.5733710527420044 -0.04247548058629036
0.32200372219085693 0.5902494788169861 0.054406363517045975
0.4481409788131714 0.5308598875999451 -0.09909284859895706
0.36631113290786743 0.42051711678504944 0.0694538950920105
0.3407904803752899 0.4333980083465576 0.09283580631017685
0.32185670733451843 0.3963510990142822 0.22327619791030884
0.4502933621406555 0.4231429994106293 0.025059184059500694
0.4225870668888092 0.45464229583740234 0.06864745914936066
0.36511313915252686 0.7099488973617554 0.004794547334313393
0.31887656450271606 0.7377769947052002 0.20813624560832977
0.4186142385005951 0.59611976146698 -0.05203228071331978
0.43794822692871094 0.6024761199951172 -0.06529752910137177
0.38398003578186035 0.7110844254493713 0.000989684835076332
0.39678093791007996 0.7099059224128723 -0.007211737800389528
0.3334968090057373 0.42351940274238586 0.11214900016784668
0.4022497832775116 0.5952370762825012 -0.04454546049237251
0.40149542689323425 0.41496556997299194 0.04664294049143791
0.39778319001197815 0.399061918258667 0.04988856613636017
0.38610997796058655 0.3303035497665405 0.13279949128627777
0.32726460695266724 0.4085192084312439 0.16228538751602173
0.39317044615745544 0.3620586097240448 0.09217876195907593
0.31704968214035034 0.4482184648513794 0.1421443670988083
0.31285274028778076 0.44470518827438354 0.1989392787218094
0.44494909048080444 0.6682108640670776 -0.08368094265460968
0.4204060435295105 0.6771094799041748 -0.0636536255478859
0.404793381690979 0.6875162720680237 -0.04216937720775604
0.4250434339046478 0.6005093455314636 -0.0516032837331295
0.3900856375694275 0.7108542323112488 -0.003628299105912447
0.3979293704032898 0.7194828391075134 -0.022745449095964432
0.40160316228866577 0.7090485692024231 -0.008632859215140343
0.4264749586582184 0.5847814083099365 -0.08055010437965393
0.422169029712677 0.6931233406066895 -0.03880380839109421
0.43661925196647644 0.6882771849632263 -0.05577440187335014
0.45635512471199036 0.6861721277236938 -0.07137084007263184
0.451504647731781 0.7808699607849121 -0.07326367497444153
0.447909951210022 0.7560663223266602 -0.08327672630548477
0.44839826226234436 0.7410771250724792 -0.08159821480512619
0.4513716697692871 0.7276237607002258 -0.0724317654967308
0.4552958011627197 0.7193840146064758 -0.06704376637935638
0.4206380248069763 0.716975212097168 -0.03575194254517555
0.4155735969543457 0.720160722732544 -0.04087171331048012
0.4084799885749817 0.7268721461296082 -0.0457831546664238
0.4033716917037964 0.7353674173355103 -0.04240213707089424
0.38363561034202576 0.659926176071167 -0.025190796703100204
0.3080410659313202 0.6331574320793152 0.28586432337760925
0.47230011224746704 0.6001703143119812 -0.09356853365898132
0.4123203754425049 0.7154949903488159 -0.019077226519584656
0.4048658013343811 0.716312825679779 -0.02239801175892353
0.4453330636024475 0.6115344166755676 -0.07073316723108292
0.4120355248451233 0.6096822023391724 -0.0365765243768692
0.44153714179992676 0.6072465181350708 -0.06821475178003311
0.4013361930847168 0.5425006151199341 0.023161549121141434
0.36796075105667114 0.559178352355957 0.03237775340676308
0.3997997045516968 0.5852514505386353 -0.032480958849191666
0.34541618824005127 0.35943707823753357 0.17777441442012787
0.3529200851917267 0.3808748126029968 0.12717750668525696
0.36051884293556213 0.4064531922340393 0.08334381878376007
0.3981821537017822 0.7524193525314331 -0.030363567173480988
0.44361764192581177 0.3961491286754608 0.02762410417199135
0.4389396905899048 0.3531481921672821 0.0654534250497818
0.4346398115158081 0.3135955035686493 0.09811240434646606
0.3544978201389313 0.5070782899856567 0.09301752597093582
0.3107023239135742 0.5347569584846497 0.12759944796562195
0.4377589523792267 0.48693156242370605 0.06323642283678055
0.3310709595680237 0.47945910692214966 0.11806861311197281
0.4396103322505951 0.5121098160743713 0.007352558430284262
0.4116640090942383 0.5717189311981201 -0.07494630664587021
0.2930132746696472 0.5546541213989258 0.1520281583070755
0.3182605504989624 0.5441253185272217 0.09942416101694107
0.33891308307647705 0.5458873510360718 0.06989509612321854
0.3767424523830414 0.5383652448654175 0.050834596157073975
0.40601322054862976 0.5271921753883362 0.0416623130440712
0.42846089601516724 0.5149967670440674 0.03356841206550598
0.4663136601448059 0.4779125452041626 -0.013367800042033195
0.2885856032371521 0.5963500738143921 0.13064217567443848
0.3185778856277466 0.4800158143043518 0.13526158034801483
0.4563405513763428 0.5918613076210022 -0.11457987129688263
0.41913700103759766 0.5458934903144836 -0.0027230195701122284
0.3068487346172333 0.5367617607116699 0.308109849691391
0.44471076130867004 0.5014171600341797 0.03096330538392067
0.4009820818901062 0.5892898440361023 -0.010250614024698734
0.3395988345146179 0.49310874938964844 0.11796751618385315
0.41342201828956604 0.5594311952590942 -0.06227349117398262
0.3103181719779968 0.6844332814216614 0.2538534700870514
0.4385237693786621 0.48068544268608093 0.07296974956989288
0.4306790828704834 0.5427523851394653 -0.08406245708465576
0.3330911695957184 0.7715759873390198 0.0706135705113411
0.3447401523590088 0.8054894208908081 0.09697289764881134
0.2873304784297943 0.6160603165626526 0.2104375660419464
0.314591646194458 0.7458459734916687 0.11163949966430664
0.3050983250141144 0.48328834772109985 0.2240920215845108
0.40158259868621826 0.8410521149635315 -0.041258927434682846
0.46262067556381226 0.5999481081962585 -0.09039518237113953
0.40065139532089233 0.5642161965370178 0.0036705404054373503
0.3027893900871277 0.518022358417511 0.17374929785728455
0.3729836344718933 0.49447178840637207 0.08409690856933594
0.3908679187297821 0.4931493401527405 0.07472182810306549
0.39188238978385925 0.7237284183502197 -0.018559904769062996
0.29060474038124084 0.6408730745315552 0.11986631900072098
0.44289273023605347 0.8786503672599792 -0.057013120502233505
0.3861372768878937 0.8484944105148315 0.014147095382213593
0.3660551607608795 0.830584704875946 0.05166434124112129
0.4944506287574768 0.3485528826713562 0.046873025596141815
0.4932899475097656 0.8848851919174194 -0.07595235109329224
0.40744584798812866 0.49030277132987976 0.06964468955993652
0.4231286942958832 0.4856639802455902 0.06967802345752716
0.43328800797462463 0.4826161861419678 0.07325969636440277
0.30988502502441406 0.4804677367210388 0.16297392547130585
0.4216168522834778 0.47706979513168335 0.0723542645573616
0.4041820168495178 0.4781259298324585 0.07245147973299026
0.3875087797641754 0.47969645261764526 0.07770632207393646
0.3706324100494385 0.48327815532684326 0.08604463189840317
0.35907936096191406 0.4874200224876404 0.09423928707838058
0.30550310015678406 0.4833233952522278 0.2909700870513916
0.36147069931030273 0.49465519189834595 0.09401755034923553
0.4772593379020691 0.6248251795768738 -0.08153074234724045
0.4003652036190033 0.64219731092453 -0.042220693081617355
0.41648250818252563 0.5915721654891968 -0.058633074164390564
0.44242990016937256 0.6287826299667358 -0.07286760210990906
0.4919874370098114 0.44825005531311035 -0.00047138537047430873
0.3547906279563904 0.7981809377670288 0.033487532287836075
0.3773511052131653 0.8191081285476685 -0.0030611890833824873
0.4375072717666626 0.857049822807312 -0.07681193202733994
0.3307686448097229 0.7783933281898499 0.1525670439004898
0.4330489933490753 0.4785926342010498 0.07331582903862
0.4467265009880066 0.5107532143592834 -0.028622807934880257
0.48829516768455505 0.8629069328308105 -0.09429680556058884
0.409789115190506 0.8650427460670471 -0.02485717460513115
0.2906495928764343 0.6641860604286194 0.18724897503852844
0.43547990918159485 0.7180055975914001 -0.05135782063007355
0.4302217960357666 0.7239789962768555 -0.05670604482293129
0.4249352216720581 0.7343817949295044 -0.062389928847551346
0.4219123125076294 0.7477392554283142 -0.06177721172571182
0.4202002286911011 0.7688026428222656 -0.05224866047501564
0.4036390483379364 0.7015202045440674 -0.02156730368733406
0.3944896459579468 0.6994134783744812 -0.01897493004798889
0.38694077730178833 0.6958016157150269 -0.01675448752939701
0.37035220861434937 0.6826927661895752 -0.005549419671297073
0.3091508746147156 0.6434412598609924 0.06548326462507248
0.45385855436325073 0.49377793073654175 -0.001280062599107623
0.4529794454574585 0.461153507232666 0.05526110529899597
0.4416934847831726 0.46691596508026123 0.06847013533115387
0.41157442331314087 0.6988676190376282 -0.02119016833603382
0.3126915693283081 0.7043721675872803 0.0810859352350235
0.46639156341552734 0.4554487466812134 0.02095072902739048
0.4126834273338318 0.7899214029312134 -0.047951336950063705
0.47521182894706726 0.5072034597396851 -0.08204266428947449
0.4605675935745239 0.4959227442741394 -0.0433388315141201
0.4807894229888916 0.4892125129699707 -0.05249907448887825
0.42621153593063354 0.5442419648170471 -0.03667962923645973
0.4859691858291626 0.835382342338562 -0.09766868501901627
0.4859056770801544 0.8061748743057251 -0.08965310454368591
0.445887953042984 0.8037170767784119 -0.07610522955656052
0.3671729266643524 0.7455284595489502 0.001300410251133144
0.38629332184791565 0.6099324226379395 -0.0047843619249761105
0.38759270310401917 0.7707574367523193 -0.02306058444082737
0.3453999161720276 0.6135134100914001 0.01614098809659481
0.369381308555603 0.6353222727775574 -0.0011121160350739956
0.3313332200050354 0.6541924476623535 0.02950257435441017
0.43896836042404175 0.8310564160346985 -0.08014234155416489
0.41390517354011536 0.5595259070396423 -0.0224805548787117
0.3549997806549072 0.7671166062355042 0.01754496805369854
0.3792147636413574 0.7918809652328491 -0.013435374945402145
0.3506908118724823 0.7154233455657959 0.016846302896738052
0.29726991057395935 0.68082594871521 0.11271890252828598
0.3316965699195862 0.7245103120803833 0.041194505989551544
0.299345463514328 0.7085780501365662 0.1588245928287506
0.35551780462265015 0.6682977080345154 0.007937323302030563
0.43355998396873474 0.5283644199371338 -0.014547780156135559
0.41843950748443604 0.5808901190757751 -0.08276540786027908
0.4066956043243408 0.5899285674095154 -0.06023719161748886
0.425406277179718 0.5623403787612915 -0.09819697588682175
0.4365799129009247 0.44359350204467773 0.0587577298283577
0.40305817127227783 0.4359408915042877 0.06370475143194199
0.3745276927947998 0.43780243396759033 0.07077062875032425
0.351542592048645 0.4458937644958496 0.08467081934213638
0.33692532777786255 0.4598293900489807 0.10139010846614838
0.3291095197200775 0.5008944272994995 0.12846146523952484
0.2894274890422821 0.5711193084716797 0.22427627444267273
0.33835890889167786 0.5234217047691345 0.09822959452867508
0.35677704215049744 0.5245620608329773 0.07834921032190323
0.3830057978630066 0.5209652781486511 0.0625130832195282
0.4091932475566864 0.5136623382568359 0.05432117357850075
0.42981553077697754 0.5044084787368774 0.04984363913536072
0.44361376762390137 0.4955686926841736 0.04719391092658043
0.3091821074485779 0.5851908922195435 0.305959552526474
0.4095292389392853 0.5973615646362305 -0.05135852098464966
0.44031983613967896 0.5259941816329956 -0.05313022807240486
0.43138712644577026 0.5779106616973877 -0.10508407652378082
0.44751328229904175 0.591222882270813 -0.10338933020830154
0.4341507852077484 0.5839648246765137 -0.09530433267354965
0.41759729385375977 0.6047881841659546 -0.04854489862918854
0.4500529170036316 0.5916786193847656 -0.11053824424743652
0.4554612934589386 0.5993398427963257 -0.08813728392124176
0.44545257091522217 0.47903263568878174 0.06568071991205215
0.4547232389450073 0.48216891288757324 0.04621507227420807
0.4575555920600891 0.48301953077316284 0.02572518214583397
0.351798415184021 0.49040108919143677 0.10216967761516571
0.3398825526237488 0.47898784279823303 0.10709276795387268
0.4970102310180664 0.5106269717216492 -0.08065454661846161
0.6753785610198975 0.4740275740623474 0.0253586582839489
0.4988660216331482 0.5947391390800476 -0.09462065249681473
0.7786998152732849 0.40742161870002747 0.1414581835269928
0.6045281887054443 0.488910436630249 0.012732441537082195
0.6276507377624512 0.4908638298511505 0.008595298044383526
0.6515200734138489 0.4909563362598419 0.00989475380629301
0.6878885626792908 0.4820401668548584 0.023121487349271774
0.5856790542602539 0.4838851988315582 0.021299483254551888
0.632672131061554 0.4300374984741211 0.010423608124256134
0.607894241809845 0.43291139602661133 0.01930561661720276
0.6587116718292236 0.4328170418739319 0.01104761753231287
0.6775450706481934 0.44155198335647583 0.01585250534117222
0.707598865032196 0.4971429407596588 0.026647839695215225
0.5934212803840637 0.8157505989074707 -0.08253995329141617
0.6854287981987 0.4699910879135132 0.032009053975343704
0.7923719882965088 0.5010767579078674 0.11211978644132614
0.7369989156723022 0.4850856363773346 0.04850278049707413
0.6180441975593567 0.5747307538986206 -0.04257403314113617
0.5116399526596069 0.6521509885787964 -0.09875514358282089
0.5103470087051392 0.6798489689826965 -0.09228964895009995
0.5537723302841187 0.6646941900253296 -0.09319963306188583
0.5807618498802185 0.6794180274009705 -0.08035112917423248
0.540972113609314 0.6846392750740051 -0.08813135325908661
0.564612090587616 0.6918652057647705 -0.07492902874946594
0.6202394962310791 0.7320613861083984 -0.060174357146024704
0.4860299825668335 0.5758877396583557 -0.1281179040670395
0.4892524480819702 0.5532935857772827 -0.1297769397497177
0.713386058807373 0.4217076897621155 0.023589951917529106
0.568411648273468 0.5216968655586243 -0.017992665991187096
0.5635148882865906 0.5784557461738586 -0.08545128256082535
0.5677151083946228 0.5685173273086548 -0.07585619390010834
0.6957384347915649 0.5749077796936035 -0.029254905879497528
0.4926178753376007 0.5294320583343506 -0.10992630571126938
0.6477643847465515 0.3928745687007904 0.007140596862882376
0.6849256753921509 0.4026806950569153 0.01399690005928278
0.7456584572792053 0.3636675775051117 0.11789008975028992
0.542428731918335 0.41370242834091187 0.005305496044456959
0.5875645875930786 0.4413691461086273 0.028802448883652687
0.6392019987106323 0.705233633518219 -0.05429608002305031
0.7895070314407349 0.7271214723587036 0.09687521308660507
0.5454365015029907 0.592339038848877 -0.0766245499253273
0.5230898857116699 0.6004733443260193 -0.07715064287185669
0.6137077808380127 0.707880437374115 -0.0511709563434124
0.6015085577964783 0.7073608040809631 -0.053312357515096664
0.6993593573570251 0.39036428928375244 0.027838069945573807
0.5683668851852417 0.5911706686019897 -0.07642137259244919
0.6011775135993958 0.3944449722766876 0.004001128487288952
0.6045279502868652 0.3772832453250885 0.005491033662110567
0.6347529292106628 0.3079906702041626 0.072989821434021
0.7210005521774292 0.37634187936782837 0.06854892522096634
0.6160062551498413 0.34046226739883423 0.04033700376749039
0.7301181554794312 0.4153589606285095 0.04338672757148743
0.7531340718269348 0.4125804305076599 0.09179604798555374
0.5109795928001404 0.6670628786087036 -0.09797749668359756
0.5462394952774048 0.6759479641914368 -0.09189114719629288
0.5721992254257202 0.6854336857795715 -0.07957787811756134
0.5401751399040222 0.5976361036300659 -0.07136183977127075
0.6072973012924194 0.7077836394309998 -0.0521254688501358
0.593227207660675 0.7164987325668335 -0.06444677710533142
0.5986772179603577 0.7065531015396118 -0.053751371800899506
0.5242034196853638 0.5805666446685791 -0.10261941701173782
0.5614256858825684 0.6918491721153259 -0.07155033946037292
0.5376989245414734 0.6873289346694946 -0.0801595076918602
0.5102832317352295 0.6852665543556213 -0.08495261520147324
0.525339663028717 0.7808534502983093 -0.08631973713636398
0.5191736221313477 0.7554447650909424 -0.09844009578227997
0.5160195827484131 0.7404181957244873 -0.09715383499860764
0.5135171413421631 0.7270495295524597 -0.08823379129171371
0.5121080875396729 0.7189527750015259 -0.08208075910806656
0.5645028352737427 0.7152301669120789 -0.06884394586086273
0.5684129595756531 0.7182087898254395 -0.07407021522521973
0.5749121308326721 0.7243677973747253 -0.08013536036014557
0.5815544724464417 0.7328449487686157 -0.07854796946048737
0.6015315055847168 0.6555572152137756 -0.07085353136062622
0.814693808555603 0.6135419607162476 0.16185341775417328
0.580524206161499 0.7134624123573303 -0.05912673845887184
0.5862718224525452 0.7141528725624084 -0.06298665702342987
0.5140400528907776 0.6104830503463745 -0.08235058933496475
0.5627643465995789 0.6072978377342224 -0.06247955933213234
0.5183523893356323 0.6056913733482361 -0.07969006150960922
0.5955025553703308 0.5342354774475098 -0.020752443000674248
0.6353905200958252 0.5475866198539734 -0.026675473898649216
0.5748060941696167 0.5804513692855835 -0.06715058535337448
0.6992900371551514 0.32960426807403564 0.0922473818063736
0.6772013306617737 0.35125821828842163 0.05192817747592926
0.6563560962677002 0.3770776391029358 0.016585931181907654
0.5962727665901184 0.7508270144462585 -0.07223541289567947
0.5483561158180237 0.3843509554862976 0.0057946983724832535
0.557563841342926 0.34173908829689026 0.03895612433552742
0.5696378946304321 0.3012113869190216 0.0679471418261528
0.674321711063385 0.48844486474990845 0.015470514073967934
0.7346185445785522 0.5131566524505615 0.02950119599699974
0.573816180229187 0.4780040383338928 0.028135769069194794
0.7066867351531982 0.45315802097320557 0.029299113899469376
0.5492578148841858 0.506964921951294 -0.019104721024632454
0.5415579676628113 0.5667048692703247 -0.10105039924383163
0.7648658752441406 0.5319799780845642 0.04113990068435669
0.714850902557373 0.5246831774711609 0.007061110809445381
0.6805023550987244 0.529687762260437 -0.00851631723344326
0.6324765086174011 0.5261483192443848 -0.008591744117438793
0.5982223153114319 0.5177214741706848 -0.003544834442436695
0.5722994208335876 0.5077283978462219 -0.0005354508757591248
0.5110514163970947 0.4751810133457184 -0.024155322462320328
0.7626525163650513 0.5766660571098328 0.019801944494247437
0.7270961403846741 0.4521212577819824 0.037181876599788666
0.4809827208518982 0.5906211137771606 -0.11994130909442902
0.564897894859314 0.5405170917510986 -0.03523000329732895
0.8125758171081543 0.5108816027641296 0.18114612996578217
0.5523747801780701 0.49556630849838257 0.004248376935720444
0.5808476209640503 0.5848325490951538 -0.04486899822950363
0.6967051029205322 0.46967342495918274 0.03341226279735565
0.5463846921920776 0.5549120903015137 -0.08878028392791748
0.8080416917800903 0.6684990525245667 0.13536381721496582
0.575822114944458 0.4716118574142456 0.03643565997481346
0.5188483595848083 0.5395014882087708 -0.10311591625213623
0.7171484231948853 0.7686241865158081 -0.011839935556054115
0.7249760627746582 0.8052332997322083 0.012850655242800713
0.7989987730979919 0.5953177213668823 0.08966335654258728
0.7518051266670227 0.7383260130882263 0.014501813799142838
0.7737079858779907 0.4541815519332886 0.1092415526509285
0.6001527905464172 0.8440604209899902 -0.08108631521463394
0.4827350378036499 0.5990415215492249 -0.09379950910806656
0.5888650417327881 0.5576346516609192 -0.036213964223861694
0.7604544758796692 0.49254918098449707 0.06485774368047714
0.6484729647636414 0.4774690270423889 0.016054879873991013
0.6270386576652527 0.47784310579299927 0.014549406245350838
0.6010381579399109 0.720525324344635 -0.06334473192691803
0.7620562314987183 0.6244009733200073 0.012691537849605083
0.5510208606719971 0.8815316557884216 -0.07939502596855164
0.6420446634292603 0.8531098365783691 -0.04095504432916641
0.6809404492378235 0.8336423635482788 -0.016856759786605835
0.6082942485809326 0.4768056571483612 0.018631763756275177
0.5916179418563843 0.47449707984924316 0.02603847160935402
0.5812056660652161 0.4729161262512207 0.03405499458312988
0.7473733425140381 0.4512498378753662 0.05747372657060623
0.5930663347244263 0.46453648805618286 0.02738853543996811
0.6114346385002136 0.46233874559402466 0.020396387204527855
0.6291468143463135 0.4610995054244995 0.01694313809275627
0.6497408151626587 0.4621809720993042 0.016848083585500717
0.6655172109603882 0.4652897119522095 0.020400675013661385
0.7998282313346863 0.4537605047225952 0.1672077178955078
0.6637640595436096 0.476081907749176 0.020236734300851822
0.5756145119667053 0.63946932554245 -0.07702890038490295
0.5436494946479797 0.5870383381843567 -0.08129941672086716
0.5169949531555176 0.6276466846466064 -0.08729400485754013
0.6799368858337402 0.7987691164016724 -0.03350093215703964
0.6427648663520813 0.8221257925033569 -0.056584086269140244
0.547694742679596 0.8590654134750366 -0.09835413098335266
0.7598907351493835 0.7731761932373047 0.05288821458816528
0.5810319185256958 0.4685094654560089 0.033120401203632355
0.5247413516044617 0.5071820020675659 -0.04648938402533531
0.5992869138717651 0.8695411086082458 -0.06596542149782181
0.7946018576622009 0.6471731662750244 0.07131873071193695
0.5401117205619812 0.71678626537323 -0.07721111923456192
0.5440917611122131 0.7227071523666382 -0.08301622420549393
0.5486215353012085 0.732880711555481 -0.08996520191431046
0.5533240437507629 0.7460938692092896 -0.0902225524187088
0.5653644800186157 0.7682075500488281 -0.08333318680524826
0.5866057872772217 0.6995546817779541 -0.06339596956968307
0.5941373705863953 0.6969881057739258 -0.0644979178905487
0.6020510792732239 0.6929656863212585 -0.06509881466627121
0.624397873878479 0.6777020692825317 -0.06131655350327492
0.7212351560592651 0.6295697689056396 -0.025373177602887154
0.5296044945716858 0.48968505859375 -0.019728349521756172
0.5513750314712524 0.4538740813732147 0.031750693917274475
0.5684232711791992 0.4576171934604645 0.03483666479587555
0.5816555023193359 0.6971760392189026 -0.06118312105536461
0.7321329116821289 0.6941918134689331 -0.010807218961417675
0.525018572807312 0.4511124789714813 0.007229007314890623
0.5813555121421814 0.7905565500259399 -0.08118224143981934
0.5042533278465271 0.49389374256134033 -0.05284341797232628
0.5429446697235107 0.5400958061218262 -0.060712479054927826
0.5341187119483948 0.8042166233062744 -0.09151813387870789
0.6440365314483643 0.7424189448356628 -0.055434029549360275
0.6019335985183716 0.6044177412986755 -0.04816946014761925
0.6170360445976257 0.7702034711837769 -0.06827008724212646
0.65800940990448 0.6022436022758484 -0.048694830387830734
0.6250962615013123 0.6281243562698364 -0.05425000190734863
0.6831074953079224 0.643268346786499 -0.04505243897438049
0.5424076914787292 0.8319424986839294 -0.10039583593606949
0.5628660917282104 0.5548664331436157 -0.05273115262389183
0.6673973202705383 0.7652204036712646 -0.04655969515442848
0.63250333070755 0.7926408052444458 -0.06275054067373276
0.6629528999328613 0.7093648910522461 -0.05085376277565956
0.7587335705757141 0.667326807975769 0.009640131145715714
0.697543740272522 0.7180250883102417 -0.0366397351026535
0.7813761234283447 0.6958112120628357 0.04808448627591133
0.648046612739563 0.660785973072052 -0.054653629660606384
0.5446476936340332 0.5238476395606995 -0.04010029509663582
0.5318540334701538 0.5761851668357849 -0.1063554584980011
0.5547031164169312 0.5852422714233398 -0.08784572780132294
0.5157825946807861 0.558724045753479 -0.11707062274217606
0.5683119297027588 0.4325386583805084 0.026605425402522087
0.605061411857605 0.4176303744316101 0.017680680379271507
0.6386412382125854 0.414017915725708 0.010425678454339504
0.6692242622375488 0.4191949963569641 0.010631239041686058
0.6929864883422852 0.43183791637420654 0.01824284717440605
0.7139097452163696 0.477023720741272 0.038101036101579666
0.7985292673110962 0.5473210215568542 0.10037525743246078
0.6928974986076355 0.5042166709899902 0.01566786877810955
0.6650311946868896 0.5084795951843262 0.0063256737776100636
0.6318191885948181 0.5077453255653381 0.003164493478834629
0.6014899611473083 0.5027719736099243 0.007069645449519157
0.5783907771110535 0.49571752548217773 0.014426803216338158
0.5620021224021912 0.4883820414543152 0.01824304647743702
0.8148708343505859 0.5626155734062195 0.17899790406227112
0.556917130947113 0.5934009552001953 -0.07831109315156937
0.5198668837547302 0.522725522518158 -0.0718001052737236
0.5076116919517517 0.5746576189994812 -0.1201305240392685
0.4968528151512146 0.5890381932258606 -0.11203411966562271
0.5107902884483337 0.5804506540298462 -0.11061107367277145
0.5520956516265869 0.6023239493370056 -0.07127520442008972
0.4902379810810089 0.589850902557373 -0.117654949426651
0.49223679304122925 0.5981600284576416 -0.09415658563375473
0.5651229619979858 0.47088727355003357 0.035040512681007385
0.5489434599876404 0.47617286443710327 0.023499783128499985
0.537482738494873 0.47818031907081604 0.0071116560138762
0.6761252880096436 0.4678650498390198 0.024944385513663292
0.6927648782730103 0.4534912407398224 0.02446971833705902
