ply
format ascii 1.0
element vertex 468
property float x
property float y
property float z
end_header
0.502792239189148 0.6668431162834167 -0.0869654193520546
0.5009331107139587 0.5908852219581604 -0.13479965925216675
0.502169668674469 0.6195604801177979 -0.0783689022064209
0.48230433464050293 0.5261771082878113 -0.09188071638345718
0.5010160803794861 0.5682556629180908 -0.14021523296833038
0.5012420415878296 0.54226154088974 -0.12648053467273712
0.5021695494651794 0.48181816935539246 -0.04886435717344284
0.3316200375556946 0.48623961210250854 0.04621858894824982
0.5025808811187744 0.42117249965667725 -0.023772744461894035
0.5026546120643616 0.38886481523513794 -0.02321801707148552
0.5042739510536194 0.2930494546890259 0.017464058473706245
0.5028882026672363 0.6775236129760742 -0.08638742566108704
0.5030336976051331 0.6863545775413513 -0.08034573495388031
0.5030255913734436 0.690680742263794 -0.07084926962852478
0.5007497668266296 0.761223554611206 -0.051006168127059937
0.5005869269371033 0.7724480032920837 -0.055553656071424484
0.5004415512084961 0.7851646542549133 -0.05878395959734917
0.5000072121620178 0.7983983159065247 -0.05075455084443092
0.49979087710380554 0.8122151494026184 -0.02515707165002823
0.5011113286018372 0.6040438413619995 -0.12405259907245636
0.485185444355011 0.6055278778076172 -0.09227180480957031
0.24726733565330505 0.41110390424728394 0.17867064476013184
0.399179607629776 0.5078761577606201 0.017170006409287453
0.3748997449874878 0.5093272924423218 0.01964259147644043
0.3523152470588684 0.5069987773895264 0.02703719213604927
0.322735995054245 0.49443480372428894 0.04938165470957756
0.42024460434913635 0.5014179348945618 0.02094045840203762
0.3705812990665436 0.4362233877182007 0.01681094989180565
0.39678120613098145 0.43939220905303955 0.016186224296689034
0.3457581102848053 0.44056636095046997 0.025049403309822083
0.32902926206588745 0.4513912796974182 0.03463953733444214
0.3030162453651428 0.5092213749885559 0.06020189821720123
0.4094758629798889 0.8211966753005981 -0.00437374971807003
0.32411015033721924 0.4803330898284912 0.055766768753528595
0.23469489812850952 0.5068506002426147 0.17135240137577057
0.278156042098999 0.49427810311317444 0.08817022293806076
0.38292622566223145 0.5901700854301453 -0.01958429254591465
0.47100821137428284 0.6645331382751465 -0.08215376734733582
0.4755147099494934 0.6865897178649902 -0.07608167082071304
0.4400983452796936 0.6736037731170654 -0.06746085733175278
0.42070019245147705 0.68508380651474 -0.04655612260103226
0.45399782061576843 0.6906235218048096 -0.06437282264232635
0.4375143051147461 0.6957504749298096 -0.044346459209918976
0.390053927898407 0.7393972873687744 -0.002717481693252921
0.4834202527999878 0.5905642509460449 -0.13237810134887695
0.48028749227523804 0.5695302486419678 -0.13694821298122406
0.2927364408969879 0.42545557022094727 0.050229743123054504
0.43213891983032227 0.5366564989089966 -0.014262116514146328
0.43633460998535156 0.5930976271629333 -0.07359281927347183
0.4337433874607086 0.5835105776786804 -0.06531375646591187
0.3076639771461487 0.5911857485771179 0.012774970382452011
0.48117637634277344 0.5452975034713745 -0.11864905804395676
0.34695231914520264 0.39288684725761414 0.011827288195490837
0.3150652348995209 0.403850793838501 0.030974043533205986
0.27075958251953125 0.3661000430583954 0.13718366622924805
0.45014622807502747 0.41439229249954224 -0.014978950843214989
0.41897839307785034 0.45039933919906616 0.02125992625951767
0.37563055753707886 0.7086109519004822 0.0006653061136603355
0.26472651958465576 0.7223223447799683 0.1997571438550949
0.45411139726638794 0.6048532128334045 -0.06652653217315674
0.4719088673591614 0.6118083000183105 -0.0696457251906395
0.39738044142723083 0.7112053632736206 -0.0028562573716044426
0.41057464480400085 0.7118635177612305 -0.009660749696195126
0.3015463352203369 0.39013248682022095 0.04427115246653557
0.4365217387676239 0.6045759916305542 -0.06210740655660629
0.390465646982193 0.3945316672325134 -0.004537499044090509
0.38616666197776794 0.3761915862560272 -0.0067035905085504055
0.3659590482711792 0.3054508864879608 0.04887482523918152
0.28604596853256226 0.3782505393028259 0.08437240868806839
0.37828683853149414 0.3400459885597229 0.019670963287353516
0.27832475304603577 0.4179730713367462 0.07286282628774643
0.2626962661743164 0.41585999727249146 0.12257887423038483
0.47262465953826904 0.6770978569984436 -0.08163996040821075
0.4472416043281555 0.6831801533699036 -0.06690240651369095
0.42865878343582153 0.6901804804801941 -0.047525059431791306
0.45991307497024536 0.6094058156013489 -0.06126165762543678
0.40374332666397095 0.711786150932312 -0.0063692666590213776
0.4117964208126068 0.7314488887786865 -0.017117897048592567
0.41485363245010376 0.7112770676612854 -0.009865978732705116
0.4633605182170868 0.5936267971992493 -0.09739916026592255
0.44286108016967773 0.6949923038482666 -0.041873492300510406
0.459259033203125 0.6918389797210693 -0.05646627023816109
0.4788348972797394 0.6905056238174438 -0.06730078160762787
0.4618699252605438 0.8077504634857178 -0.024151740595698357
0.4632548391819 0.7926738262176514 -0.04842807725071907
0.465721994638443 0.7800549864768982 -0.05401640385389328
0.469316303730011 0.7674558162689209 -0.05051371827721596
0.4729228913784027 0.7581620216369629 -0.0468352809548378
0.43600234389305115 0.7410698533058167 -0.025805193930864334
0.43050116300582886 0.7439271807670593 -0.02918047271668911
0.42273324728012085 0.7488093972206116 -0.03210422396659851
0.41642844676971436 0.7549551725387573 -0.027559785172343254
0.40349969267845154 0.6647526025772095 -0.03532015532255173
0.23751932382583618 0.6120443344116211 0.25209879875183105
0.5016587376594543 0.611029326915741 -0.09443351626396179
0.4259820878505707 0.7310582995414734 -0.014749872498214245
0.41869524121284485 0.7308217287063599 -0.01697823777794838
0.4772058427333832 0.621362566947937 -0.07161126285791397
0.4432181715965271 0.6187921762466431 -0.0458747036755085
0.47496354579925537 0.6167441010475159 -0.0710931047797203
0.4058515429496765 0.5496234893798828 -0.008194507099688053
0.36442965269088745 0.5639103651046753 -0.002367175417020917
0.43014878034591675 0.594702959060669 -0.052971675992012024
0.3076239824295044 0.329751193523407 0.09069456160068512
0.3215857148170471 0.3513607084751129 0.05028707906603813
0.33797401189804077 0.37586137652397156 0.017805693671107292
0.4053882360458374 0.7653788328170776 -0.011403222568333149
0.4424850642681122 0.38298240303993225 -0.019486095756292343
0.43686628341674805 0.340085506439209 0.001158575527369976
0.4294506907463074 0.2952094078063965 0.023484736680984497
0.33312517404556274 0.5025695562362671 0.038666948676109314
0.2770310342311859 0.5257933139801025 0.07137221843004227
0.43399256467819214 0.49449312686920166 0.024364573881030083
0.3037179112434387 0.4620859622955322 0.05717362090945244
0.4489550292491913 0.5214559435844421 -0.02075343206524849
0.4480917453765869 0.581799328327179 -0.09566587209701538
0.2521768808364868 0.5432209372520447 0.0959804430603981
0.2922064960002899 0.5390283465385437 0.04641175642609596
0.322481632232666 0.5451721549034119 0.022394048050045967
0.36892348527908325 0.5420870184898376 0.011993367224931717
0.40408486127853394 0.5338066816329956 0.00726463133469224
0.4303355813026428 0.5229599475860596 0.0020694599952548742
0.4800838530063629 0.48847317695617676 -0.04006791114807129
0.2540040910243988 0.588883638381958 0.08167974650859833
0.2847480773925781 0.4587631821632385 0.07045546919107437
0.49140891432762146 0.6033264994621277 -0.12267426401376724
0.4359193444252014 0.5552757978439331 -0.029673971235752106
0.2291121482849121 0.5118772387504578 0.2512820363044739
0.4490635097026825 0.5095433592796326 0.0002451273030601442
0.42706069350242615 0.598156213760376 -0.02915405109524727
0.3157082200050354 0.48092395067214966 0.06085282936692238
0.4466501772403717 0.5702981948852539 -0.08495056629180908
0.24565419554710388 0.665519118309021 0.2324741631746292
0.43512946367263794 0.486106276512146 0.03188728541135788
0.4628748893737793 0.5552853941917419 -0.10582168400287628
0.3150295913219452 0.7676867842674255 0.07551586627960205
0.31656020879745483 0.7964080572128296 0.11115813255310059
0.23294579982757568 0.6014798879623413 0.16710644960403442
0.28515851497650146 0.739862859249115 0.10365799069404602
0.2481561303138733 0.4592702388763428 0.15458188951015472
0.4066416919231415 0.8421657085418701 0.00456273602321744
0.4944612383842468 0.6102495789527893 -0.09270613640546799
0.4141275882720947 0.572083592414856 -0.023359544575214386
0.2573953866958618 0.5004796385765076 0.1119178906083107
0.3540930151939392 0.49449992179870605 0.030129749327898026
0.37447476387023926 0.4972919821739197 0.02381855435669422
0.4051363170146942 0.7329365611076355 -0.013937207870185375
0.25893574953079224 0.6347545981407166 0.08128492534160614
0.44829627871513367 0.8767943382263184 0.005259745754301548
0.3799564242362976 0.8415985107421875 0.052989181131124496
0.3511088490486145 0.8222544193267822 0.07853579521179199
0.5035327672958374 0.3416959345340729 -0.00545398099347949
0.49817001819610596 0.8843828439712524 -0.0027196486480534077
0.3950396776199341 0.4964722990989685 0.02270711585879326
0.4147990643978119 0.492740273475647 0.02617831528186798
0.4281143844127655 0.4895614683628082 0.03164614364504814
0.26722726225852966 0.4563784599304199 0.09578807651996613
0.41441407799720764 0.46927177906036377 0.024228030815720558
0.39406099915504456 0.4622923731803894 0.021761121228337288
0.3737720251083374 0.46035242080688477 0.0234660767018795
0.35308027267456055 0.4638379216194153 0.029699115082621574
0.33929336071014404 0.47047775983810425 0.03710378706455231
0.23394638299942017 0.4570111036300659 0.22131146490573883
0.3406652808189392 0.49045315384864807 0.038678884506225586
0.5023347735404968 0.6362586617469788 -0.07416197657585144
0.4270263910293579 0.650193452835083 -0.048691276460886
0.4530077278614044 0.6002227067947388 -0.07399962842464447
0.4706592559814453 0.6395302414894104 -0.07072556018829346
0.5025442838668823 0.4530644416809082 -0.02750103920698166
0.34647244215011597 0.7951415777206421 0.05426989868283272
0.37557417154312134 0.8172013163566589 0.031094225123524666
0.4472169876098633 0.8621081113815308 -0.018134620040655136
0.2897128462791443 0.7666423320770264 0.15495973825454712
0.42886486649513245 0.4793190062046051 0.02906532771885395
0.46485695242881775 0.5221439003944397 -0.05453278869390488
0.49811893701553345 0.8696622848510742 -0.024759624153375626
0.4107056260108948 0.8608025312423706 0.02497868612408638
0.24086052179336548 0.6518658995628357 0.1549706906080246
0.4519382119178772 0.7509247064590454 -0.03717006742954254
0.4463352560997009 0.7569142580032349 -0.040613483637571335
0.4402390718460083 0.7660609483718872 -0.04310121387243271
0.43540602922439575 0.7771531343460083 -0.03824380040168762
0.42808273434638977 0.789536714553833 -0.02016001008450985
0.4219890832901001 0.701724648475647 -0.02565474808216095
0.4134625494480133 0.6988992094993591 -0.024801163002848625
0.40615588426589966 0.6954609155654907 -0.024259857833385468
0.3856752812862396 0.6837494969367981 -0.01704898290336132
0.2913249135017395 0.6427800059318542 0.03197954222559929
0.4649902582168579 0.5034236907958984 -0.028763752430677414
0.45227140188217163 0.46411073207855225 0.01623769849538803
0.43912044167518616 0.46984559297561646 0.025898877531290054
0.42836993932724 0.6994303464889526 -0.024336697533726692
0.29288601875305176 0.70194411277771 0.0627020075917244
0.47210392355918884 0.4585706293582916 -0.012977219186723232
0.41793379187583923 0.80267733335495 -0.009855213575065136
0.5015879273414612 0.522239089012146 -0.09959067404270172
0.4809767007827759 0.5089453458786011 -0.06767545640468597
0.5018572807312012 0.503352165222168 -0.07295934855937958
0.4502747058868408 0.5551436543464661 -0.060798123478889465
0.49844515323638916 0.8495134115219116 -0.031269852072000504
0.49930864572525024 0.828076183795929 -0.0270314272493124
0.45572853088378906 0.822434663772583 -0.021928979083895683
0.37078380584716797 0.7475701570510864 0.010865285061299801
0.4060455560684204 0.617767870426178 -0.022720931097865105
0.3910602033138275 0.7774561643600464 0.001749904826283455
0.34414225816726685 0.6183536052703857 -0.011347121559083462
0.38092032074928284 0.6411910057067871 -0.01852903515100479
0.32705506682395935 0.65619957447052 0.004651395604014397
0.44948387145996094 0.8426406383514404 -0.024657590314745903
0.43839767575263977 0.5695048570632935 -0.046059008687734604
0.3525410592556 0.7673870921134949 0.030216705054044724
0.38033169507980347 0.7943974733352661 0.0158330537378788
0.3541332483291626 0.7147077918052673 0.011469337157905102
0.26786571741104126 0.6749423146247864 0.08489729464054108
0.3240114748477936 0.7241995930671692 0.03290937840938568
0.2570763826370239 0.6987587213516235 0.13813446462154388
0.36271345615386963 0.6701780557632446 -0.008134781382977962
0.45081326365470886 0.538665235042572 -0.040922682732343674
0.45596393942832947 0.5901235342025757 -0.1014651209115982
0.44367700815200806 0.5991503000259399 -0.07743269205093384
0.4632815420627594 0.5738182067871094 -0.11649195104837418
0.4331396520137787 0.43972688913345337 0.01233990490436554
0.3947325050830841 0.423068642616272 0.01234329305589199
0.3610060214996338 0.41984838247299194 0.015925582498311996
0.3331087529659271 0.42590174078941345 0.026033027097582817
0.31367915868759155 0.4396181106567383 0.04053504765033722
0.29966408014297485 0.48743027448654175 0.07094807177782059
0.23106065392494202 0.5537519454956055 0.17044654488563538
0.31506794691085815 0.5177069902420044 0.04558676481246948
0.3393592834472656 0.5236085653305054 0.03055981919169426
0.37123847007751465 0.524376392364502 0.020061487331986427
0.4022614657878876 0.5200189352035522 0.014233188703656197
0.4266253411769867 0.5117974877357483 0.015021437779068947
0.44286873936653137 0.5031445026397705 0.013514621183276176
0.23299285769462585 0.5621556043624878 0.2601831555366516
0.44506898522377014 0.606365442276001 -0.06623820960521698
0.4649520218372345 0.5383248329162598 -0.07711691409349442
0.4699310064315796 0.5884069204330444 -0.12020976841449738
0.48267123103141785 0.6008061170578003 -0.11249486356973648
0.4711233377456665 0.5932613015174866 -0.10918014496564865
0.45091351866722107 0.6138234734535217 -0.059000350534915924
0.48551511764526367 0.6021484136581421 -0.11906208097934723
0.4887290298938751 0.608907163143158 -0.09227939695119858
0.4435170590877533 0.48592400550842285 0.02768334187567234
0.455748975276947 0.4891449213027954 0.012475655414164066
0.46288999915122986 0.4904642105102539 -0.0039507863111793995
0.330929160118103 0.47558560967445374 0.04530544951558113
0.31705203652381897 0.4642148017883301 0.04771512746810913
0.5209449529647827 0.5266221761703491 -0.09283103793859482
0.675201416015625 0.4894399046897888 0.03932284563779831
0.5184561610221863 0.6055631637573242 -0.09276533126831055
0.7678078413009644 0.41765105724334717 0.1684199720621109
0.6072589755058289 0.5094560980796814 0.012820674106478691
0.6316447854042053 0.511334240436554 0.01438539382070303
0.6546375155448914 0.5095577836036682 0.0210865531116724
0.6849945783615112 0.4979388117790222 0.0420139916241169
0.5862963199615479 0.5028520226478577 0.017441635951399803
0.6367785334587097 0.43918949365615845 0.011410471051931381
0.6106357574462891 0.44174134731292725 0.012154626660048962
0.6615020632743835 0.4441261887550354 0.019040314480662346
0.6784544587135315 0.45546281337738037 0.027606135234236717
0.7053012847900391 0.5136509537696838 0.052392225712537766
0.5894870162010193 0.8237337470054626 -0.007957402616739273
0.6831663250923157 0.4838486313819885 0.048672910779714584
0.7788321375846863 0.5140653252601624 0.16032995283603668
0.731473445892334 0.49949875473976135 0.07923942059278488
0.6230390667915344 0.5922592878341675 -0.024093665182590485
0.5345606207847595 0.6644360423088074 -0.08323536068201065
0.5307095050811768 0.6869321465492249 -0.07693314552307129
0.5656211376190186 0.6735410094261169 -0.06968081742525101
0.5853183269500732 0.685508668422699 -0.04968724772334099
0.5524578094482422 0.6909646987915039 -0.06627248227596283
0.5691561102867126 0.6963263750076294 -0.047252900898456573
0.6142107248306274 0.7415308952331543 -0.007168666459619999
0.5185966491699219 0.5907250642776489 -0.13287638127803802
0.5214880108833313 0.5697025060653687 -0.13759346306324005
0.7151694297790527 0.4308639466762543 0.041984062641859055
0.5737947225570679 0.537773072719574 -0.016993341967463493
0.5682886242866516 0.5933921337127686 -0.07601235061883926
0.5710157752037048 0.5838599801063538 -0.06780987977981567
0.6992872357368469 0.5953887104988098 0.00500336941331625
0.5214732885360718 0.5456000566482544 -0.11964934319257736
0.659126877784729 0.39721953868865967 0.005919353105127811
0.6917263269424438 0.40876829624176025 0.023501992225646973
0.7426387667655945 0.3715052008628845 0.12773911654949188
0.5552971363067627 0.4159699082374573 -0.016932498663663864
0.5881751775741577 0.4521551728248596 0.017881857231259346
0.6298156380653381 0.7105773091316223 -0.0048165046609938145
0.7455411553382874 0.7300317883491516 0.18975147604942322
0.5508823990821838 0.6046996712684631 -0.06825978308916092
0.5328583717346191 0.6117140054702759 -0.07031525671482086
0.6082969903945923 0.7127785682678223 -0.007549597416073084
0.595486581325531 0.7132333517074585 -0.013700905255973339
0.7058693170547485 0.3954593539237976 0.036648817360401154
0.5688040256500244 0.604788064956665 -0.06432007998228073
0.6151819229125977 0.3976516127586365 -0.008551221340894699
0.6194806694984436 0.3794393837451935 -0.010542216710746288
0.6437209248542786 0.308078408241272 0.043626174330711365
0.7245169878005981 0.3833487033843994 0.07569112628698349
0.629453718662262 0.34299904108047485 0.0147676020860672
0.7307748794555664 0.4237230718135834 0.06437694281339645
0.7495000958442688 0.42197465896606445 0.11293541640043259
0.5332784056663513 0.6770637035369873 -0.08268021047115326
0.558850109577179 0.6832762956619263 -0.06911731511354446
0.5777872800827026 0.6905114054679871 -0.05042370408773422
0.5453377366065979 0.609285295009613 -0.06262251734733582
0.6021660566329956 0.7133253812789917 -0.010617496445775032
0.5927857160568237 0.7332800626754761 -0.02040127106010914
0.5913857817649841 0.7125864624977112 -0.01399043295532465
0.5402237176895142 0.5935775637626648 -0.09915312379598618
0.5641498565673828 0.6955764293670654 -0.044544365257024765
0.5474978685379028 0.6923204660415649 -0.05831662565469742
0.527603268623352 0.6907374858856201 -0.06823333352804184
0.5378659963607788 0.8091099262237549 -0.025146063417196274
0.5368893146514893 0.7939050197601318 -0.049298714846372604
0.5350988507270813 0.7810440063476562 -0.05491657927632332
0.5321043729782104 0.7682371139526367 -0.05148520693182945
0.5286062955856323 0.7587191462516785 -0.04775228723883629
0.5674971342086792 0.7420294284820557 -0.028244731947779655
0.5729153752326965 0.7451678514480591 -0.03145568445324898
0.580558180809021 0.7505916953086853 -0.034530963748693466
0.5866842865943909 0.7569334506988525 -0.03032657317817211
0.6017947196960449 0.6656435132026672 -0.038931917399168015
0.7768172025680542 0.6205235123634338 0.24123862385749817
0.5783998966217041 0.7322731614112854 -0.01791442185640335
0.5857594013214111 0.7323792576789856 -0.020292967557907104
0.5274711847305298 0.6213109493255615 -0.07240455597639084
0.5622512102127075 0.6189775466918945 -0.047963112592697144
0.5296648144721985 0.6167693138122559 -0.07193748652935028
0.6004024744033813 0.5513066053390503 -0.012127218768000603
0.6421350836753845 0.5664399862289429 -0.007816649973392487
0.5750648379325867 0.5952615141868591 -0.055625565350055695
0.7037380337715149 0.33392664790153503 0.08308953791856766
0.6871024370193481 0.35566362738609314 0.043248482048511505
0.6684677600860596 0.38026490807533264 0.011873701587319374
0.5971028208732605 0.7676531672477722 -0.015313788317143917
0.5628491640090942 0.38484951853752136 -0.021666966378688812
0.5703162550926208 0.34143179655075073 -0.0009539807797409594
0.579611599445343 0.29637661576271057 0.020676016807556152
0.674152672290802 0.5056641101837158 0.032018400728702545
0.7321552038192749 0.5308613777160645 0.06279759854078293
0.5725694298744202 0.49564510583877563 0.02127462439239025
0.7043610215187073 0.4670577645301819 0.04926590248942375
0.5564904808998108 0.5222693085670471 -0.022994836792349815
0.5552715063095093 0.5820468664169312 -0.09740757197141647
0.757935643196106 0.549371063709259 0.08610793948173523
0.7159894704818726 0.5435217022895813 0.03824887424707413
0.6848338842391968 0.5487992763519287 0.01529549527913332
0.6378493309020996 0.5444652438163757 0.006759337615221739
0.6024045348167419 0.5354346036911011 0.0032212999649345875
0.5758983492851257 0.5241979360580444 -0.0009184260270558298
0.5243908762931824 0.4889652729034424 -0.04097446799278259
0.7551460862159729 0.5950418710708618 0.0715709775686264
0.7245218753814697 0.463975191116333 0.061734672635793686
0.5112109184265137 0.6035590171813965 -0.1228717789053917
0.5696878433227539 0.5561782121658325 -0.03229377418756485
0.7869917154312134 0.5200260281562805 0.23980987071990967
0.5568713545799255 0.5104923248291016 -0.0021133192349225283
0.5788736939430237 0.598869800567627 -0.03196781128644943
0.6921975612640381 0.4849092960357666 0.053396210074424744
0.5570695400238037 0.5707574486732483 -0.08698547631502151
0.7669186592102051 0.6740151643753052 0.22198428213596344
0.5717024803161621 0.4872170090675354 0.02874988131225109
0.5398605465888977 0.5556485056877136 -0.10733393579721451
0.6886706352233887 0.7726073265075684 0.0677298903465271
0.6874848008155823 0.8019503355026245 0.10347680002450943
0.7786687612533569 0.6095621585845947 0.15633460879325867
0.7212213277816772 0.7458797693252563 0.09496362507343292
0.7652007341384888 0.46594125032424927 0.14425452053546906
0.5915591716766357 0.845081090927124 0.0009756565559655428
0.5089025497436523 0.6101869940757751 -0.0930522233247757
0.5918945074081421 0.5733247995376587 -0.02669307217001915
0.753551185131073 0.5067805051803589 0.10239942371845245
0.6521939039230347 0.4968804121017456 0.024159854277968407
0.6315768361091614 0.4992014169692993 0.01854407787322998
0.599513053894043 0.7348453998565674 -0.017734643071889877
0.7494871020317078 0.6410815715789795 0.07182160019874573
0.5483711361885071 0.8788264989852905 0.003052725689485669
0.6196948289871216 0.8455461263656616 0.04781651869416237
0.6506162881851196 0.8268648386001587 0.07199835032224655
0.6111850738525391 0.4981151819229126 0.018252534791827202
0.5916700959205627 0.4940566122531891 0.02226056531071663
0.5786107778549194 0.49080976843833923 0.028176497668027878
0.7435321807861328 0.4622983932495117 0.08659482002258301
0.5922359824180603 0.4710325002670288 0.020670082420110703
0.6125752925872803 0.4647369682788849 0.017152898013591766
0.6326578855514526 0.4629852771759033 0.018153849989175797
0.6535527110099792 0.4668406844139099 0.023748960345983505
0.667540431022644 0.4736911654472351 0.030556781217455864
0.7821927070617676 0.4647199511528015 0.21033875644207
0.6658837795257568 0.49332481622695923 0.03222908824682236
0.5781114101409912 0.6505899429321289 -0.05128578469157219
0.551567554473877 0.6000855565071106 -0.07556215673685074
0.5339354872703552 0.639557957649231 -0.07170891761779785
0.6553313136100769 0.7991902828216553 0.047892700880765915
0.624367356300354 0.8208597898483276 0.025980263948440552
0.5493139028549194 0.8638147115707397 -0.02037394605576992
0.7174597978591919 0.7734024524688721 0.14621596038341522
0.5778542160987854 0.480764240026474 0.0255944412201643
0.539277195930481 0.5227595567703247 -0.0558062307536602
0.5870649814605713 0.8639600276947021 0.02115023322403431
0.7697662115097046 0.6598417162895203 0.14495639503002167
0.5504434108734131 0.7518152594566345 -0.03902370482683182
0.5557571053504944 0.7580013275146484 -0.04198356345295906
0.5614451766014099 0.7676242589950562 -0.04484253749251366
0.5657965540885925 0.7789967060089111 -0.04047497734427452
0.5726150274276733 0.7919042706489563 -0.02274172753095627
0.5846118927001953 0.7028063535690308 -0.029108360409736633
0.593021035194397 0.6999338865280151 -0.028567390516400337
0.6000156998634338 0.696628749370575 -0.02831140160560608
0.6198549270629883 0.6851363182067871 -0.02205047383904457
0.7154996395111084 0.6477106809616089 0.023549793288111687
0.5399919152259827 0.5040969848632812 -0.030350081622600555
0.5544084906578064 0.4651861786842346 0.01445435918867588
0.5677681565284729 0.4709191918373108 0.023168617859482765
0.5787928700447083 0.700318455696106 -0.02767377719283104
0.7131901383399963 0.7069854736328125 0.054514698684215546
0.5337061285972595 0.4593055248260498 -0.01394747756421566
0.5821401476860046 0.8050434589385986 -0.012860056944191456
0.5228186845779419 0.5092156529426575 -0.06834232807159424
0.5538268089294434 0.5558862090110779 -0.06253322958946228
0.5428232550621033 0.8237675428390503 -0.02349212020635605
0.6327948570251465 0.7501896023750305 0.005579303950071335
0.599851667881012 0.6186978816986084 -0.02614353783428669
0.6107103824615479 0.7800741791725159 -0.0026688051875680685
0.6616508364677429 0.6215168833732605 -0.01747763343155384
0.6246439218521118 0.6429505348205566 -0.023030996322631836
0.6786341667175293 0.6597486138343811 -0.002339188475161791
0.5478307008743286 0.8441990613937378 -0.026472270488739014
0.5670631527900696 0.5702589750289917 -0.04848016798496246
0.6499071717262268 0.7708059549331665 0.024344945326447487
0.6205017566680908 0.797548234462738 0.010928396135568619
0.6505489349365234 0.7173706889152527 0.005142529029399157
0.7397068738937378 0.6810035109519958 0.0754261463880539
0.6803380846977234 0.7280558347702026 0.02578212507069111
0.7516508102416992 0.7061310410499573 0.12837247550487518
0.6427255868911743 0.6723077297210693 -0.013859424740076065
0.5540457963943481 0.5394538640975952 -0.042983729392290115
0.5475640892982483 0.5901873707771301 -0.10310003161430359
0.5610155463218689 0.5992335081100464 -0.07926412671804428
0.5393515825271606 0.5742634534835815 -0.11763614416122437
0.5737555623054504 0.44143202900886536 0.009894602932035923
0.6122254729270935 0.42548102140426636 0.008088216185569763
0.6459029912948608 0.42316219210624695 0.010124570690095425
0.6738663911819458 0.4298514723777771 0.019269103184342384
0.6937621831893921 0.4441762864589691 0.03282300382852554
0.7091219425201416 0.4919605255126953 0.06277058273553848
0.7815982103347778 0.561471700668335 0.1594248116016388
0.6927923560142517 0.5216788649559021 0.03836081922054291
0.6679747700691223 0.526598334312439 0.02440996840596199
0.6355980038642883 0.5266799926757812 0.014754551462829113
0.6043195724487305 0.5216719508171082 0.010197955183684826
0.58011394739151 0.513106644153595 0.01190433744341135
0.5636569857597351 0.504157543182373 0.011062008328735828
0.7824097275733948 0.5704548954963684 0.24892815947532654
0.5599383115768433 0.6063830256462097 -0.06816167384386063
0.5385551452636719 0.5388816595077515 -0.07852828502655029
0.5325554013252258 0.5885632634162903 -0.12138960510492325
0.520267903804779 0.6009803414344788 -0.11314992606639862
0.5319851636886597 0.59330153465271 -0.11025501787662506
0.5542542934417725 0.6139878630638123 -0.06060943007469177
0.5172318816184998 0.6023514866828918 -0.11961615830659866
0.5147274732589722 0.6090732216835022 -0.09280754625797272
0.5631948709487915 0.4868764579296112 0.024899443611502647
0.5507172346115112 0.49002617597579956 0.010408012196421623
0.5430330038070679 0.4913136959075928 -0.005594940856099129
0.6761415600776672 0.47897809743881226 0.038553789258003235
0.6906255483627319 0.46838241815567017 0.040447793900966644
