ply
format ascii 1.0
element vertex 468
property float x
property float y
property float z
end_header
0.49968260526657104 0.7034223079681396 -0.07820151001214981
0.5029850602149963 0.6174278259277344 -0.1357659101486206
0.5007851719856262 0.6454122066497803 -0.07761796563863754
0.4836824834346771 0.5380531549453735 -0.0973179042339325
0.5039560198783875 0.5915319919586182 -0.14243711531162262
0.5041915774345398 0.5597289204597473 -0.13021254539489746
0.5039097666740417 0.48357129096984863 -0.05597113072872162
0.33209818601608276 0.4864370822906494 0.03408052772283554
0.5049257874488831 0.4220159351825714 -0.032636407762765884
0.5058738589286804 0.38872045278549194 -0.03269491717219353
0.5087843537330627 0.29135528206825256 0.0023620878346264362
0.4990508258342743 0.715387225151062 -0.07534854859113693
0.4986061751842499 0.7231375575065613 -0.06872081011533737
0.4979785084724426 0.7249138951301575 -0.059098269790410995
0.49853235483169556 0.7642524242401123 -0.049583304673433304
0.4981687068939209 0.7740645408630371 -0.05503179877996445
0.4975753128528595 0.7859082221984863 -0.06128382682800293
0.49666377902030945 0.799899697303772 -0.05889333039522171
0.49468863010406494 0.8248565196990967 -0.040397461503744125
0.5019521117210388 0.6316502094268799 -0.12410154193639755
0.47956225275993347 0.6311390399932861 -0.09237498044967651
0.23315677046775818 0.4096251130104065 0.1543542593717575
0.4019644260406494 0.5043323040008545 0.010587709955871105
0.37705349922180176 0.5065832734107971 0.011898808181285858
0.3529612421989441 0.5059795379638672 0.017972873523831367
0.3200714588165283 0.49546122550964355 0.03696726635098457
0.42263370752334595 0.4974992275238037 0.014526513405144215
0.37168750166893005 0.4411483705043793 0.004911207593977451
0.39694029092788696 0.44181448221206665 0.0069183786399662495
0.347280353307724 0.446475625038147 0.011637341231107712
0.3301613926887512 0.4569154977798462 0.02077009715139866
0.29724961519241333 0.5122528076171875 0.04751205071806908
0.3929957449436188 0.858063817024231 -0.012782386504113674
0.3227541446685791 0.4820830821990967 0.04209388792514801
0.21591776609420776 0.5118281245231628 0.15451928973197937
0.26853033900260925 0.49910029768943787 0.07263440638780594
0.3729296624660492 0.6028698682785034 -0.022834213450551033
0.463162362575531 0.6990525722503662 -0.07551407068967819
0.46502551436424255 0.7219786643981934 -0.06515871733427048
0.42535144090652466 0.7046323418617249 -0.05998523533344269
0.40012413263320923 0.7122998833656311 -0.03699837997555733
0.4374545216560364 0.7224987745285034 -0.05294165015220642
0.4156763553619385 0.7238469123840332 -0.03189277648925781
0.3669378161430359 0.7593157291412354 0.0036634858697652817
0.48279666900634766 0.6170081496238708 -0.1339314728975296
0.4807552993297577 0.5925016403198242 -0.13987213373184204
0.29210907220840454 0.43356549739837646 0.02866293303668499
0.4291340708732605 0.5423779487609863 -0.01821918785572052
0.4251033663749695 0.6121437549591064 -0.07589644938707352
0.4233537018299103 0.5996319055557251 -0.06766832619905472
0.29499828815460205 0.600104808807373 0.0071903555653989315
0.4822276532649994 0.5627671480178833 -0.12332955002784729
0.35248619318008423 0.3989914357662201 -0.0073706102557480335
0.3186405897140503 0.41209062933921814 0.009272019378840923
0.2639443874359131 0.3643782138824463 0.11198006570339203
0.45576727390289307 0.41454774141311646 -0.026961399242281914
0.41879069805145264 0.44983869791030884 0.013989415019750595
0.3476174771785736 0.728735625743866 0.008210279978811741
0.22607606649398804 0.7527573108673096 0.196616992354393
0.4424184560775757 0.6258955597877502 -0.06732254475355148
0.4612888693809509 0.6345664858818054 -0.06977636367082596
0.3694612383842468 0.7288146615028381 0.008984106592833996
0.38198113441467285 0.7293440699577332 0.0031687531154602766
0.30395209789276123 0.3983071744441986 0.02160390093922615
0.4223380982875824 0.6230601668357849 -0.06354307383298874
0.3973328173160553 0.3970649540424347 -0.019596347585320473
0.3929240107536316 0.37869393825531006 -0.0229729525744915
0.37021854519844055 0.30388790369033813 0.027858087792992592
0.2838648855686188 0.3814142048358917 0.061346229165792465
0.3837655782699585 0.34074002504348755 0.0025342931039631367
0.27563992142677307 0.42522233724594116 0.049723509699106216
0.2539808750152588 0.4194270968437195 0.1001085638999939
0.4637155532836914 0.7131689786911011 -0.07260642945766449
0.4322366714477539 0.7158657312393188 -0.05701259896159172
0.4080476462841034 0.7182868123054504 -0.03620269149541855
0.44738319516181946 0.6307992339134216 -0.06181513890624046
0.3755411207675934 0.7289402484893799 0.006017157342284918
0.38927561044692993 0.7447637319564819 -0.008105838671326637
0.38583874702453613 0.7295305728912354 0.002706545405089855
0.4575336277484894 0.6175716519355774 -0.09961991012096405
0.41990187764167786 0.7220967411994934 -0.028606316074728966
0.4416397511959076 0.7224389910697937 -0.044112008064985275
0.46741873025894165 0.7237640619277954 -0.05570581927895546
0.4544179141521454 0.8226155042648315 -0.03856908157467842
0.4583953022956848 0.7963024377822876 -0.05593425780534744
0.46092820167541504 0.7819887399673462 -0.057285696268081665
0.46378612518310547 0.7702974081039429 -0.05052740126848221
0.46665847301483154 0.7621788382530212 -0.045918505638837814
0.41751906275749207 0.7502845525741577 -0.020810198038816452
0.4128348231315613 0.7529398202896118 -0.024935593828558922
0.40633654594421387 0.7583935260772705 -0.029000097885727882
0.4006708860397339 0.7662113308906555 -0.024777285754680634
0.3828478455543518 0.6885005235671997 -0.029064862057566643
0.20578491687774658 0.6282063126564026 0.2415134161710739
0.5013582110404968 0.6379250288009644 -0.09367092698812485
0.4028092622756958 0.7437905669212341 -0.005799784325063229
0.39606529474258423 0.7432970404624939 -0.008396009914577007
0.46857398748397827 0.6459885239601135 -0.07203423976898193
0.4277729094028473 0.6385533213615417 -0.04653603956103325
0.46518492698669434 0.6404682397842407 -0.07140209525823593
0.40154027938842773 0.5560522079467773 -0.012433627620339394
0.35805559158325195 0.5713350772857666 -0.00829452183097601
0.4174965023994446 0.610835611820221 -0.05454743281006813
0.3074197769165039 0.3279500901699066 0.0667295828461647
0.32470667362213135 0.3539341390132904 0.029479511082172394
0.34316200017929077 0.3819734454154968 -0.0015975715359672904
0.3881918489933014 0.784773588180542 -0.0103940200060606
0.44925451278686523 0.382821261882782 -0.03276422619819641
0.4423856735229492 0.33947625756263733 -0.012218663468956947
0.4348178207874298 0.2936323583126068 0.005923431366682053
0.3321528434753418 0.502690315246582 0.027958283200860023
0.26751434803009033 0.5300830602645874 0.05886576324701309
0.435607373714447 0.4905078113079071 0.018352128565311432
0.30098244547843933 0.46755915880203247 0.04031170904636383
0.4474833905696869 0.526266872882843 -0.025668637827038765
0.44196817278862 0.6026383638381958 -0.09854142367839813
0.2376965582370758 0.5498887896537781 0.08346612751483917
0.28498148918151855 0.5430769920349121 0.03605636954307556
0.31727713346481323 0.5492695569992065 0.01445049699395895
0.3657761812210083 0.5459113717079163 0.005461301654577255
0.40252095460891724 0.5366561412811279 0.0020234433468431234
0.42946821451187134 0.5252323150634766 -0.002650856040418148
0.481132447719574 0.49060988426208496 -0.04746415093541145
0.23573420941829681 0.5987310409545898 0.07304072380065918
0.2788998782634735 0.4647265076637268 0.051862429827451706
0.4901522994041443 0.6307328343391418 -0.12323274463415146
0.4299650192260742 0.5649884939193726 -0.03187938779592514
0.204731285572052 0.5157833695411682 0.23270729184150696
0.44884416460990906 0.5113503336906433 -0.004748114850372076
0.4131663739681244 0.6130342483520508 -0.02976975403726101
0.3133254051208496 0.48301997780799866 0.04620268940925598
0.4406836926937103 0.5874166488647461 -0.08821812272071838
0.21045127511024475 0.6894940137863159 0.22514775395393372
0.4349377155303955 0.4822072386741638 0.0251239612698555
0.46118366718292236 0.5726056098937988 -0.11042317003011703
0.282136470079422 0.8003460764884949 0.07506381720304489
0.2823169231414795 0.8361811637878418 0.11117138713598251
0.20798522233963013 0.6158877015113831 0.15778829157352448
0.2494361400604248 0.7693605422973633 0.10249840468168259
0.2339833378791809 0.46223682165145874 0.13458237051963806
0.38732391595840454 0.8862261176109314 -0.002977366093546152
0.4921450614929199 0.63687664270401 -0.092291921377182
0.405681312084198 0.5829941630363464 -0.02538657933473587
0.24470168352127075 0.5061255693435669 0.09606333076953888
0.3575247526168823 0.4912320673465729 0.020509786903858185
0.3786168098449707 0.4926877021789551 0.01527030672878027
0.3826625645160675 0.747903048992157 -0.004622202832251787
0.23429343104362488 0.6503665447235107 0.07698547840118408
0.43350139260292053 0.9251309633255005 -0.0016051775310188532
0.355420857667923 0.8894250392913818 0.04889736697077751
0.321749746799469 0.8669902682304382 0.07707692682743073
0.5075768828392029 0.34142664074897766 -0.01601248048245907
0.4889393150806427 0.9303418397903442 -0.007743347901850939
0.39861536026000977 0.4912695288658142 0.014983318746089935
0.4176235795021057 0.4873208999633789 0.018809901550412178
0.4292885661125183 0.48446106910705566 0.024451913312077522
0.25858110189437866 0.46199437975883484 0.07605855911970139
0.4147707223892212 0.4709281921386719 0.01679627224802971
0.39415547251701355 0.46764257550239563 0.01222978439182043
0.37469905614852905 0.4674220681190491 0.012820144183933735
0.35410353541374207 0.4708253741264343 0.017511023208498955
0.3395459055900574 0.47590482234954834 0.024420898407697678
0.21412301063537598 0.45690035820007324 0.19960545003414154
0.3429657816886902 0.48901617527008057 0.027515379711985588
0.5004006028175354 0.6653184294700623 -0.07207514345645905
0.4103388488292694 0.6745070815086365 -0.046300046145915985
0.4429628252983093 0.6218830347061157 -0.07551273703575134
0.463238924741745 0.6674827933311462 -0.07029133290052414
0.5039212107658386 0.4538726210594177 -0.03494095429778099
0.3180636465549469 0.8327332735061646 0.05280105397105217
0.3513758182525635 0.8592125773429871 0.026632210239768028
0.43373286724090576 0.9051985740661621 -0.027946840971708298
0.25179123878479004 0.8019707798957825 0.15430115163326263
0.42867371439933777 0.4773523807525635 0.021913986653089523
0.4643309712409973 0.5304082036018372 -0.059330977499485016
0.4904128909111023 0.9099686741828918 -0.03300415351986885
0.39087122678756714 0.9100669026374817 0.018785957247018814
0.21103617548942566 0.6724786162376404 0.14907102286815643
0.4399125576019287 0.7568790912628174 -0.034606412053108215
0.4350892901420593 0.762437105178833 -0.03916851431131363
0.43044552206993103 0.7716208696365356 -0.043776314705610275
0.4260672628879547 0.784163236618042 -0.04078257828950882
0.41622141003608704 0.806998610496521 -0.026431960985064507
0.3953404426574707 0.7250367999076843 -0.012477356009185314
0.3876417577266693 0.7223314642906189 -0.011980511248111725
0.3804967403411865 0.7183297872543335 -0.012408547103404999
0.35970181226730347 0.7058011293411255 -0.008761814795434475
0.2686176598072052 0.6582599878311157 0.029568295925855637
0.4650540351867676 0.5070781707763672 -0.0347837470471859
0.45412352681159973 0.46161752939224243 0.011077972128987312
0.4396372437477112 0.467036634683609 0.019169561564922333
0.40135470032691956 0.7225521802902222 -0.010972890071570873
0.26169508695602417 0.7248847484588623 0.06216361001133919
0.473854124546051 0.458514928817749 -0.020144756883382797
0.4043540060520172 0.830572247505188 -0.018613819032907486
0.5041515231132507 0.5338215231895447 -0.1046428456902504
0.48197871446609497 0.5158947706222534 -0.07400892674922943
0.5040084719657898 0.5098589658737183 -0.07898224145174026
0.4467402696609497 0.5683079361915588 -0.06388791650533676
0.49191612005233765 0.8820520639419556 -0.04337801784276962
0.4933205842971802 0.8501321077346802 -0.041903238743543625
0.44677039980888367 0.8477388024330139 -0.03639671206474304
0.3472074270248413 0.7727050185203552 0.014115101657807827
0.39029258489608765 0.6344496011734009 -0.023473896086215973
0.37262773513793945 0.8053328990936279 -0.0004786107747349888
0.32857486605644226 0.6325854659080505 -0.01491545233875513
0.3627254068851471 0.6598901152610779 -0.017240477725863457
0.3036709427833557 0.6738387942314148 0.003928730729967356
0.4380173683166504 0.8784340023994446 -0.037180982530117035
0.4307119846343994 0.5824054479598999 -0.04828278347849846
0.3270610272884369 0.7979239821434021 0.03073938563466072
0.359453022480011 0.829163134098053 0.012015403248369694
0.32736098766326904 0.7369534969329834 0.0156581848859787
0.23797607421875 0.6958224773406982 0.08306514471769333
0.29488512873649597 0.7483755350112915 0.034805841743946075
0.22276818752288818 0.7246382832527161 0.135077565908432
0.337952584028244 0.689705491065979 -0.0046705747954547405
0.4479949176311493 0.5479333400726318 -0.044437192380428314
0.4498697817325592 0.6133304238319397 -0.10417862236499786
0.43274107575416565 0.6201292872428894 -0.0791659727692604
0.46031782031059265 0.5962745547294617 -0.11986203491687775
0.436143696308136 0.43831944465637207 0.005443911999464035
0.3980884552001953 0.42480236291885376 0.0012037062551826239
0.3647911548614502 0.4241858124732971 0.0008627751376479864
0.3359628915786743 0.43191462755203247 0.009165539406239986
0.31446725130081177 0.44599786400794983 0.022981591522693634
0.29406648874282837 0.4911777377128601 0.055489033460617065
0.20928549766540527 0.5631462931632996 0.15721626579761505
0.3115417957305908 0.5202071666717529 0.03474009782075882
0.3370881974697113 0.5255333185195923 0.021356236189603806
0.37075740098953247 0.5250138640403748 0.012624024413526058
0.40272045135498047 0.5195692777633667 0.00889670941978693
0.42738887667655945 0.5109511017799377 0.009811882860958576
0.44371405243873596 0.5022084712982178 0.008726377040147781
0.20514437556266785 0.5715174674987793 0.24568262696266174
0.43204689025878906 0.6266440749168396 -0.06757096946239471
0.4645261764526367 0.5508409738540649 -0.08151455223560333
0.4664711356163025 0.6139388680458069 -0.12228168547153473
0.47882068157196045 0.6271429061889648 -0.11327055841684341
0.46666219830513 0.6185486912727356 -0.11100940406322479
0.4368234872817993 0.6344214677810669 -0.05964616686105728
0.4828682839870453 0.6291826367378235 -0.11983059346675873
0.4845876395702362 0.635301411151886 -0.09209296107292175
0.44399410486221313 0.48222967982292175 0.021701324731111526
0.4565596282482147 0.48780426383018494 0.007375082932412624
0.46347105503082275 0.4911069869995117 -0.009709627367556095
0.33036190271377563 0.47969144582748413 0.03178808465600014
0.31627851724624634 0.46842890977859497 0.03342285379767418
0.5238032341003418 0.5381828546524048 -0.09609668701887131
0.6674090623855591 0.4855417311191559 0.043168455362319946
0.5228447914123535 0.6313647627830505 -0.09124305099248886
0.7652087211608887 0.4086938500404358 0.16896188259124756
0.5979920625686646 0.5044405460357666 0.016547568142414093
0.6223407983779907 0.5061677694320679 0.018910491839051247
0.6461504101753235 0.5053949952125549 0.026078270748257637
0.6783699989318848 0.4945680499076843 0.04651450365781784
0.5777596235275269 0.4980783462524414 0.019223324954509735
0.6321619749069214 0.4403811991214752 0.01214206125587225
0.6069374084472656 0.4413871765136719 0.012886565178632736
0.6561524271965027 0.44570839405059814 0.020196005702018738
0.6723540425300598 0.4563870429992676 0.029957855120301247
0.6999759078025818 0.5113697052001953 0.058121152222156525
0.5908772945404053 0.8569079637527466 -0.00830178614705801
0.6766965985298157 0.4811776280403137 0.051606424152851105
0.7757828235626221 0.5097647905349731 0.16869120299816132
0.7280110120773315 0.49764350056648254 0.08448517322540283
0.6248919367790222 0.6025827527046204 -0.01662442274391651
0.5359976887702942 0.6989858150482178 -0.07404083013534546
0.5317070484161377 0.7221355438232422 -0.06368030607700348
0.5721253752708435 0.7048701047897339 -0.05678005516529083
0.5957140326499939 0.7126320600509644 -0.03293976932764053
0.5582671165466309 0.7227269411087036 -0.05024180933833122
0.5790358781814575 0.7242821455001831 -0.028510509058833122
0.6240755319595337 0.7592185735702515 0.008884066715836525
0.5227950811386108 0.6171024441719055 -0.1329951137304306
0.5264650583267212 0.592471718788147 -0.13891297578811646
0.7112555503845215 0.4324159026145935 0.04000874608755112
0.5718276500701904 0.5426100492477417 -0.014214723370969296
0.5763850212097168 0.612761378288269 -0.07220420986413956
0.5779826045036316 0.6001520156860352 -0.06381341069936752
0.6993566155433655 0.5993778705596924 0.017073269933462143
0.5253481268882751 0.5627664923667908 -0.1223122626543045
0.6554257273674011 0.3980291783809662 0.0006544230855070055
0.6875775456428528 0.4109511375427246 0.019122816622257233
0.7401067614555359 0.36362043023109436 0.1245344877243042
0.5532360672950745 0.41429686546325684 -0.024119962006807327
0.5844754576683044 0.44968777894973755 0.0188699159771204
0.6444876790046692 0.7285796403884888 0.014635993167757988
0.7500649690628052 0.7496054768562317 0.21017083525657654
0.5582156777381897 0.6264635324478149 -0.06485015898942947
0.539567768573761 0.6346856355667114 -0.06832015514373779
0.6237595081329346 0.72933030128479 0.01430004183202982
0.611538827419281 0.7298001050949097 0.00776046235114336
0.7024698257446289 0.3969700038433075 0.031920142471790314
0.5777517557144165 0.623424768447876 -0.05976833403110504
0.6117064356803894 0.39636820554733276 -0.01430572010576725
0.6176267266273499 0.3777553141117096 -0.017333000898361206
0.6433525681495667 0.3037320673465729 0.03517859801650047
0.7218952178955078 0.3801126182079315 0.07245519012212753
0.6289172172546387 0.340191513299942 0.008624623529613018
0.7272515892982483 0.42395687103271484 0.061965491622686386
0.7468564510345459 0.41810667514801025 0.11302175372838974
0.534509003162384 0.7131757736206055 -0.07099254429340363
0.5644780397415161 0.716005265712738 -0.05424477905035019
0.5874807238578796 0.7186697125434875 -0.032466284930706024
0.5529273748397827 0.631201446056366 -0.05965908244252205
0.617881715297699 0.7295776009559631 0.011012350209057331
0.6047152876853943 0.7450919151306152 -0.004175430629402399
0.6074962019920349 0.7299641370773315 0.0071785966865718365
0.5454072952270508 0.6181858777999878 -0.09713975340127945
0.5742200613021851 0.7222650051116943 -0.025576012209057808
0.5530600547790527 0.7224697470664978 -0.04158966988325119
0.5283442735671997 0.7236752510070801 -0.054371174424886703
0.534806489944458 0.8223942518234253 -0.037340059876441956
0.5351753830909729 0.7961503863334656 -0.05483485758304596
0.5343315601348877 0.781871497631073 -0.05612429603934288
0.532666027545929 0.7702760100364685 -0.04945916309952736
0.5301182270050049 0.7622366547584534 -0.04463682696223259
0.577913761138916 0.7502987384796143 -0.0178664643317461
0.5823458433151245 0.752924382686615 -0.022053077816963196
0.588253378868103 0.7585569620132446 -0.025859594345092773
0.593000590801239 0.766212522983551 -0.02136719413101673
0.6134008765220642 0.688178300857544 -0.024317147210240364
0.7753570079803467 0.6257641911506653 0.2562934458255768
0.5913817286491394 0.7439848780632019 -0.001824381877668202
0.5983976125717163 0.7434505820274353 -0.004532907623797655
0.5323493480682373 0.645918071269989 -0.07046690583229065
0.5710729360580444 0.638626754283905 -0.04378829896450043
0.5356003642082214 0.6405722498893738 -0.06997619569301605
0.5978161096572876 0.5562124848365784 -0.007128958124667406
0.6399749517440796 0.571074903011322 -0.0010770470835268497
0.5826069116592407 0.6112955808639526 -0.0507926270365715
0.7017033100128174 0.3272642195224762 0.077016182243824
0.684853196144104 0.35285595059394836 0.03846592828631401
0.6658404469490051 0.3807763457298279 0.006835476029664278
0.602117121219635 0.7842857241630554 -0.006331306416541338
0.5621848702430725 0.38240185379981995 -0.02967497892677784
0.5719398260116577 0.33917319774627686 -0.009017795324325562
0.5815658569335938 0.2934785485267639 0.009539397433400154
0.6664865016937256 0.5017117261886597 0.036896735429763794
0.7280109524726868 0.5288609266281128 0.07054337114095688
0.5655792951583862 0.4907827377319336 0.022347237914800644
0.6995274424552917 0.46674373745918274 0.05097946152091026
0.5551195740699768 0.5265337228775024 -0.022645847871899605
0.5614523887634277 0.6032211780548096 -0.09542802721261978
0.7551146745681763 0.5484681725502014 0.09651825577020645
0.7109350562095642 0.5421836972236633 0.047141462564468384
0.6798070669174194 0.5488511323928833 0.024138193577528
0.6327499151229858 0.5456686615943909 0.012813771143555641
0.5969563126564026 0.5367724895477295 0.00749091524630785
0.5712207555770874 0.5254271626472473 0.0015243965899571776
0.5255888104438782 0.49075230956077576 -0.04613929241895676
0.7544896006584167 0.5971153378486633 0.08611759543418884
0.7209380865097046 0.4635012149810791 0.06349799782037735
0.5139139890670776 0.6309136152267456 -0.12234316021203995
0.5710064172744751 0.5651829838752747 -0.02819872461259365
0.7831238508224487 0.5140151381492615 0.2483784556388855
0.553115963935852 0.5115835666656494 -0.0015658482443541288
0.585547685623169 0.6131826639175415 -0.025920599699020386
0.6859292984008789 0.48215657472610474 0.056405920535326004
0.5625580549240112 0.5879853963851929 -0.08503410220146179
0.7679015398025513 0.6863893270492554 0.23933684825897217
0.5662304162979126 0.48228877782821655 0.029260912910103798
0.5444364547729492 0.5729693174362183 -0.10797064006328583
0.6986045241355896 0.7980886697769165 0.08504626899957657
0.6940271258354187 0.8334482312202454 0.12167142331600189
0.777867317199707 0.6135216355323792 0.17213048040866852
0.7309371829032898 0.7668792605400085 0.11445703357458115
0.762167751789093 0.46077167987823486 0.1483009308576584
0.5936362147331238 0.884932279586792 0.0018748424481600523
0.5105053186416626 0.6368600130081177 -0.09172825515270233
0.5935257077217102 0.5830280184745789 -0.02064860425889492
0.7503123879432678 0.5044816136360168 0.10919438302516937
0.6424306631088257 0.4908273220062256 0.028446275740861893
0.6214332580566406 0.4924038350582123 0.022420424968004227
0.6108385920524597 0.7481917142868042 -0.00031471028341911733
0.7528430223464966 0.6484622955322266 0.08980298787355423
0.5444838404655457 0.9244502782821655 0.0010210652835667133
0.6220284700393677 0.887580931186676 0.05582909286022186
0.6553050875663757 0.864665687084198 0.08549914509057999
0.6016174554824829 0.49139535427093506 0.02084813453257084
0.5830525159835815 0.487539142370224 0.023915747180581093
0.57164067029953 0.48472410440444946 0.029022235423326492
0.7399604916572571 0.4605400562286377 0.0888923928141594
0.5865945816040039 0.47055843472480774 0.021956468001008034
0.607032835483551 0.46694618463516235 0.017999570816755295
0.6267013549804688 0.466227650642395 0.019677475094795227
0.6472582817077637 0.4696248769760132 0.025699635967612267
0.6611714959144592 0.47485196590423584 0.03310658410191536
0.7792140245437622 0.45570993423461914 0.21460483968257904
0.6568090915679932 0.4882654845714569 0.03620397299528122
0.5874657034873962 0.674344003200531 -0.042495325207710266
0.5582665801048279 0.622702419757843 -0.07270971685647964
0.5368240475654602 0.6674197912216187 -0.06866738945245743
0.662853479385376 0.8307918310165405 0.060910556465387344
0.6293754577636719 0.8574724793434143 0.03299827501177788
0.5474273562431335 0.904595136642456 -0.025211196392774582
0.7238844037055969 0.7990682721138 0.16676437854766846
0.572762131690979 0.4773886799812317 0.026503387838602066
0.5407267808914185 0.5305019617080688 -0.05717161297798157
0.5869976878166199 0.9083666801452637 0.02343684434890747
0.7717987298965454 0.6697263717651367 0.16322751343250275
0.5564206838607788 0.7568647265434265 -0.0325704887509346
0.5608335733413696 0.7623947858810425 -0.03693655878305435
0.5646212100982666 0.7715814113616943 -0.041255317628383636
0.5674929022789001 0.7839730978012085 -0.03831968083977699
0.5733480453491211 0.806614339351654 -0.02354450710117817
0.598699688911438 0.7256454229354858 -0.008505349047482014
0.6067558526992798 0.7228262424468994 -0.0075818332843482494
0.6140612959861755 0.7189497947692871 -0.007502241991460323
0.6348325610160828 0.7053454518318176 -0.002755590947344899
0.7210488319396973 0.656916618347168 0.04015626385807991
0.5396938323974609 0.5073091387748718 -0.03267621994018555
0.5499074459075928 0.4618247151374817 0.013700214214622974
0.5629937052726746 0.46693238615989685 0.02342439815402031
0.5926034450531006 0.723045289516449 -0.006980075966566801
0.7233679890632629 0.7230310440063477 0.07327970117330551
0.5324937701225281 0.45846930146217346 -0.01848519966006279
0.5821837782859802 0.8298025131225586 -0.014868194237351418
0.5252670049667358 0.5158213376998901 -0.07286985963582993
0.5562492609024048 0.5687349438667297 -0.06094664707779884
0.5397520661354065 0.8472864627838135 -0.034598659723997116
0.6412802338600159 0.7718521952629089 0.020171986892819405
0.6070266366004944 0.6343145966529846 -0.01857171580195427
0.6144339442253113 0.8045167326927185 0.004444590769708157
0.6664360761642456 0.6319612860679626 -0.007305660285055637
0.6332547664642334 0.6594157218933105 -0.011215943843126297
0.6878920197486877 0.6728295087814331 0.012797964736819267
0.5458874106407166 0.8777815699577332 -0.03461721912026405
0.5705346465110779 0.5827568769454956 -0.044844016432762146
0.6579355597496033 0.7964854836463928 0.03841670975089073
0.6247899532318115 0.8278895616531372 0.017871711403131485
0.6626557111740112 0.7361223697662354 0.0232308991253376
0.7466330528259277 0.6937668919563293 0.09500543028116226
0.6915022730827332 0.7468175888061523 0.043853726238012314
0.757739782333374 0.7220504283905029 0.1483740508556366
0.6555432081222534 0.6889097690582275 0.002418440766632557
0.5549843907356262 0.5480619668960571 -0.04149055480957031
0.553394615650177 0.6140879392623901 -0.10123563557863235
0.5686489343643188 0.6207221150398254 -0.0758105143904686
0.5453612804412842 0.59669029712677 -0.11762085556983948
0.5693694949150085 0.43808984756469727 0.009061085991561413
0.6078790426254272 0.4240679144859314 0.006514551118016243
0.6411550045013428 0.42358189821243286 0.008373739197850227
0.6691353917121887 0.4312081038951874 0.01826353184878826
0.6885930299758911 0.4452977180480957 0.032968465238809586
0.7042609453201294 0.489973783493042 0.06647821515798569
0.7794322967529297 0.5609803795814514 0.17198801040649414
0.6859626173973083 0.5195229053497314 0.04481609910726547
0.6611589193344116 0.5249196887016296 0.02997044287621975
0.6281488537788391 0.5248907208442688 0.019647378474473953
0.5967137813568115 0.5196954011917114 0.014460879378020763
0.573149561882019 0.5111945867538452 0.01406117808073759
0.5575872659683228 0.5025531053543091 0.012297356501221657
0.7788721323013306 0.5695592164993286 0.2610057592391968
0.5682936906814575 0.627052366733551 -0.06438971310853958
0.5410622358322144 0.5510417819023132 -0.07940635830163956
0.5382605195045471 0.6142295598983765 -0.1206611767411232
0.5243839621543884 0.6273372173309326 -0.11231102794408798
0.536915123462677 0.6189993619918823 -0.10911848396062851
0.5627015829086304 0.6348004937171936 -0.05700984597206116
0.5207652449607849 0.629410982131958 -0.11895810067653656
0.5179663300514221 0.6353409290313721 -0.09153452515602112
0.5577115416526794 0.48250770568847656 0.025115258991718292
0.5459363460540771 0.48804929852485657 0.010028313845396042
0.5402063131332397 0.49128949642181396 -0.007442892994731665
0.6699110269546509 0.47854721546173096 0.04107911139726639
0.6845510005950928 0.46768367290496826 0.04323562607169151
