ply
format ascii 1.0
element vertex 468
property float x
property float y
property float z
end_header
0.5132693648338318 0.7087278366088867 -0.08359447121620178
0.5247842073440552 0.624883770942688 -0.14861340820789337
0.5166385173797607 0.6532676219940186 -0.086676225066185
0.49775367975234985 0.540014386177063 -0.10949454456567764
0.5255329012870789 0.5972983241081238 -0.15540917217731476
0.5233129262924194 0.5628180503845215 -0.1425289362668991
0.5145375728607178 0.48254817724227905 -0.06246643140912056
0.3198515474796295 0.48350489139556885 0.016690369695425034
0.5120943784713745 0.407413125038147 -0.03595954179763794
0.5124414563179016 0.36985519528388977 -0.03611712530255318
0.5086629390716553 0.2700340151786804 -0.00043959086178801954
0.5124289989471436 0.7208850979804993 -0.08091431111097336
0.5108127593994141 0.7289745807647705 -0.07448873668909073
0.5089744925498962 0.7308089733123779 -0.06482620537281036
0.5097019076347351 0.8095675706863403 -0.03909077122807503
0.5099347829818726 0.82131028175354 -0.04477080702781677
0.5097822546958923 0.8346045017242432 -0.05075068771839142
0.5089864730834961 0.8489582538604736 -0.046032972633838654
0.506003201007843 0.8665423393249512 -0.02663847990334034
0.52238529920578 0.6398967504501343 -0.13634538650512695
0.49406707286834717 0.6382741332054138 -0.10436276346445084
0.21610179543495178 0.3965364098548889 0.13650722801685333
0.3958156108856201 0.5045551657676697 -0.003827136242762208
0.3696615397930145 0.5065731406211853 -0.004281709901988506
0.3441242277622223 0.5049917101860046 0.0004792582185473293
0.3077464699745178 0.49206647276878357 0.01903320476412773
0.41782134771347046 0.49762746691703796 0.0033485658932477236
0.3618132472038269 0.43070274591445923 -0.011302188970148563
0.3899165987968445 0.43307775259017944 -0.0063184997998178005
0.334311306476593 0.4355928897857666 -0.005343377590179443
0.3153133690357208 0.44732192158699036 0.003293488174676895
0.28672587871551514 0.5084220170974731 0.029115302488207817
0.4010247588157654 0.882355809211731 -0.005026752129197121
0.3095060884952545 0.47807544469833374 0.02510133758187294
0.20191863179206848 0.5042991042137146 0.13513179123401642
0.25731196999549866 0.4914591908454895 0.054312679916620255
0.37088263034820557 0.6031658053398132 -0.039348337799310684
0.4710625112056732 0.7045227289199829 -0.08373618125915527
0.47209492325782776 0.728024423122406 -0.07317786663770676
0.42661526799201965 0.7101383209228516 -0.06996781378984451
0.3979954719543457 0.7176465392112732 -0.0454070158302784
0.4401511549949646 0.7286263704299927 -0.062028829008340836
0.41531866788864136 0.730137050151825 -0.03958241268992424
0.3635389804840088 0.7738646864891052 0.002921821316704154
0.5023290514945984 0.6242961883544922 -0.1480039358139038
0.4999588131904602 0.5976032018661499 -0.15438611805438995
0.2771522104740143 0.41481661796569824 0.011862143874168396
0.42962804436683655 0.5424299240112305 -0.030668314546346664
0.429917573928833 0.6158760190010071 -0.09244726598262787
0.4264359772205353 0.602393388748169 -0.08397935330867767
0.2876847982406616 0.5988193154335022 -0.013518685474991798
0.49927011132240295 0.5657423138618469 -0.13738135993480682
0.33954280614852905 0.37685850262641907 -0.019836431369185448
0.30378639698028564 0.39015668630599976 -0.00478088716045022
0.2468329519033432 0.34736108779907227 0.09493793547153473
0.45363086462020874 0.3982473313808441 -0.03380453586578369
0.4141926169395447 0.44378581643104553 0.00251924735493958
0.3435274362564087 0.735643208026886 0.0025776829570531845
0.22017331421375275 0.7512200474739075 0.18274284899234772
0.44848939776420593 0.6304503083229065 -0.08172247558832169
0.4712274372577667 0.6402000188827515 -0.0810793861746788
0.3616865873336792 0.738955557346344 0.004801284987479448
0.3761807084083557 0.7406028509140015 1.3307735571288504e-05
0.28828567266464233 0.3740804195404053 0.006647252012044191
0.42559999227523804 0.626725971698761 -0.07922443747520447
0.38787809014320374 0.37656840682029724 -0.030539890751242638
0.3838961720466614 0.3556375801563263 -0.03452273830771446
0.35931646823883057 0.28181079030036926 0.014764738269150257
0.26750826835632324 0.3615717887878418 0.045748233795166016
0.374526709318161 0.3191036880016327 -0.009842797182500362
0.25998109579086304 0.4050927758216858 0.03274868428707123
0.23827868700027466 0.4035244286060333 0.08273934572935104
0.4708535671234131 0.7187892198562622 -0.08077805489301682
0.43385177850723267 0.7213776111602783 -0.06612578779459
0.4065485894680023 0.7238953113555908 -0.04407796263694763
0.45410069823265076 0.6354775428771973 -0.07455404102802277
0.3682980537414551 0.7398319244384766 0.0024825248401612043
0.3839665651321411 0.7668671011924744 -0.006925081368535757
0.38135412335395813 0.7407746911048889 0.0001682721049292013
0.46839529275894165 0.6235578060150146 -0.11510445177555084
0.4199301302433014 0.7275011539459229 -0.036144886165857315
0.4444063603878021 0.7279824614524841 -0.052620869129896164
0.4737035930156708 0.7293256521224976 -0.06380155682563782
0.4602770209312439 0.861754834651947 -0.027350356802344322
0.4636640250682831 0.8430600166320801 -0.0464475192129612
0.46649080514907837 0.8291161060333252 -0.04917946457862854
0.46970823407173157 0.8158974647521973 -0.04274328052997589
0.4728076159954071 0.8058832883834839 -0.03812086209654808
0.4172169268131256 0.781744122505188 -0.01746400259435177
0.41161370277404785 0.7846240401268005 -0.020843351259827614
0.4035266637802124 0.7902678847312927 -0.024895424023270607
0.3970586359500885 0.7970142364501953 -0.020980410277843475
0.382438063621521 0.6927782893180847 -0.039568349719047546
0.19279757142066956 0.6219125986099243 0.22512030601501465
0.5196599960327148 0.6459499597549438 -0.10407350957393646
0.4007810354232788 0.7673488855361938 -0.004726078361272812
0.39200252294540405 0.7664342522621155 -0.007129559759050608
0.47956374287605286 0.6523790955543518 -0.08279679715633392
0.4308062493801117 0.6423435211181641 -0.0593685619533062
0.47579434514045715 0.6466014981269836 -0.08232709020376205
0.3993372321128845 0.5557408332824707 -0.026901330798864365
0.35392001271247864 0.5702691078186035 -0.025023596361279488
0.419086754322052 0.6136474013328552 -0.07048114389181137
0.29200801253318787 0.30777543783187866 0.05205480754375458
0.3099769353866577 0.33178478479385376 0.015164169482886791
0.3295949399471283 0.35723578929901123 -0.015464326366782188
0.38702553510665894 0.8078362941741943 -0.00742169376462698
0.44680413603782654 0.36226293444633484 -0.040285151451826096
0.4393638074398041 0.31992489099502563 -0.02119952253997326
0.4293309152126312 0.2713468670845032 -0.0031891134567558765
0.32134026288986206 0.5005037188529968 0.009700012393295765
0.25748613476753235 0.5258514881134033 0.03906642645597458
0.4319581389427185 0.4902704954147339 0.008039210923016071
0.2874559164047241 0.45740360021591187 0.023428285494446754
0.4502590000629425 0.5262124538421631 -0.036782633513212204
0.45085471868515015 0.6068891286849976 -0.11492075026035309
0.22648419439792633 0.5452309250831604 0.06225159391760826
0.27627652883529663 0.5398551821708679 0.015500902198255062
0.3103213310241699 0.5467565655708313 -0.00495538953691721
0.3609912097454071 0.5446013808250427 -0.010589784942567348
0.3992675542831421 0.5362868905067444 -0.011719356290996075
0.4282510280609131 0.5248839855194092 -0.014021194539964199
0.48954451084136963 0.4899795651435852 -0.0559016615152359
0.22503969073295593 0.5955227613449097 0.05077243968844414
0.2657964527606964 0.45175984501838684 0.03370017185807228
0.5088173151016235 0.6387023329734802 -0.1363808810710907
0.43156272172927856 0.5657119154930115 -0.04615682363510132
0.18863999843597412 0.5073971748352051 0.21475279331207275
0.44960999488830566 0.5106841325759888 -0.01464659534394741
0.4129134714603424 0.6152799129486084 -0.04454975575208664
0.2991945147514343 0.4779365658760071 0.029523318633437157
0.44755101203918457 0.5903757214546204 -0.10412727296352386
0.19974496960639954 0.6838571429252625 0.20990638434886932
0.431217223405838 0.4814855456352234 0.01463097333908081
0.473680704832077 0.5755775570869446 -0.12565243244171143
0.2847060561180115 0.8096255660057068 0.06859204173088074
0.2840070128440857 0.8451271057128906 0.10442337393760681
0.19541630148887634 0.6115553975105286 0.13743989169597626
0.24883705377578735 0.7746166586875916 0.09041742235422134
0.2193724662065506 0.4512389302253723 0.11605425924062729
0.3973323404788971 0.910192608833313 0.0043030078522861
0.5092032551765442 0.6448480486869812 -0.10326564311981201
0.4046382009983063 0.5833373069763184 -0.0409298799932003
0.23277680575847626 0.49824607372283936 0.07653690874576569
0.34750741720199585 0.4904686510562897 0.00320020061917603
0.37027204036712646 0.4924641251564026 -0.0007927524275146425
0.3765990138053894 0.7682721614837646 -0.004393268376588821
0.22487092018127441 0.6490350961685181 0.05610160529613495
0.44402122497558594 0.951675295829773 0.009000573307275772
0.3613309860229492 0.9084470868110657 0.0518561452627182
0.3258324861526489 0.8812280893325806 0.0758887454867363
0.5108309388160706 0.32287663221359253 -0.019972845911979675
0.49974325299263 0.9575148224830627 0.007350514177232981
0.3919351100921631 0.49123066663742065 0.001028859755024314
0.41218656301498413 0.4871191084384918 0.0067903525196015835
0.4248535931110382 0.4841443598270416 0.013834722340106964
0.2450253665447235 0.44804638624191284 0.05771411955356598
0.40876317024230957 0.46802055835723877 0.004219965543597937
0.3863959014415741 0.4631902575492859 -0.001690125442110002
0.3649822175502777 0.4622815251350403 -0.0030403281562030315
0.3426361382007599 0.4656440019607544 0.0008615755359642208
0.3271419405937195 0.4710994362831116 0.007100377231836319
0.19759029150009155 0.4465571343898773 0.18139934539794922
0.3315546214580536 0.4871211647987366 0.010127032175660133
0.5148423314094543 0.6718589663505554 -0.07958848029375076
0.41163820028305054 0.6789795756340027 -0.05793733894824982
0.44993776082992554 0.6267449259757996 -0.08983462303876877
0.47222900390625 0.6732607483863831 -0.07970339059829712
0.5118012428283691 0.44676995277404785 -0.04044927656650543
0.32286930084228516 0.846550464630127 0.052706945687532425
0.35871291160583496 0.8777589201927185 0.030571384355425835
0.4460548460483551 0.9333833456039429 -0.016187231987714767
0.25031793117523193 0.8059134483337402 0.1424836814403534
0.4244241714477539 0.4759719967842102 0.010832571424543858
0.4724470376968384 0.531124472618103 -0.07092837989330292
0.5030032992362976 0.9397579431533813 -0.01642921194434166
0.3993264436721802 0.9335522651672363 0.025591539219021797
0.20110109448432922 0.6701499223709106 0.130561962723732
0.4424751102924347 0.7958162426948547 -0.029433300718665123
0.43692338466644287 0.8024094104766846 -0.03319377079606056
0.4310259222984314 0.8124558329582214 -0.037678901106119156
0.4261888861656189 0.8247418999671936 -0.034276098012924194
0.4172665476799011 0.8394317030906677 -0.01982678659260273
0.39126551151275635 0.73222416639328 -0.018444214016199112
0.3824893832206726 0.7289859652519226 -0.018008021637797356
0.3748207688331604 0.7246171236038208 -0.019199958071112633
0.35743266344070435 0.7106893062591553 -0.017379263415932655
0.2618030905723572 0.6587815880775452 0.010037870146334171
0.4706137478351593 0.5066934823989868 -0.044357892125844955
0.45237138867378235 0.45714300870895386 0.0021348546724766493
0.4364802837371826 0.4640384912490845 0.009422965347766876
0.3985869884490967 0.729087233543396 -0.016663426533341408
0.25815629959106445 0.7287206053733826 0.04773876816034317
0.4769526422023773 0.4519364833831787 -0.027922160923480988
0.4088115692138672 0.8566890954971313 -0.011307469569146633
0.5202846527099609 0.5357859134674072 -0.11481621116399765
0.4934062063694 0.516876220703125 -0.08414436876773834
0.5174011588096619 0.5109305381774902 -0.08729679137468338
0.45230573415756226 0.5698456168174744 -0.07782161235809326
0.504772424697876 0.9140146970748901 -0.025228071957826614
0.5055296421051025 0.8864499926567078 -0.02476496621966362
0.4554502069950104 0.8811851739883423 -0.022878499701619148
0.3478870987892151 0.7845810651779175 0.013109438121318817
0.3895312249660492 0.6363534927368164 -0.038090240210294724
0.37462013959884644 0.823678195476532 0.0027556000277400017
0.32558751106262207 0.6340183019638062 -0.03246740996837616
0.3621583580970764 0.6624268889427185 -0.0313761867582798
0.3011009693145752 0.6761294603347778 -0.012263979762792587
0.4497544765472412 0.9079176783561707 -0.024117421358823776
0.43279483914375305 0.5839565992355347 -0.0630825012922287
0.32988399267196655 0.8107060194015503 0.029603034257888794
0.3646479547023773 0.8472477793693542 0.016192473471164703
0.32643693685531616 0.743423342704773 0.008622445166110992
0.2310788929462433 0.6967997550964355 0.06499288231134415
0.29420965909957886 0.7555533647537231 0.025767462328076363
0.21767064929008484 0.7254482507705688 0.11852803826332092
0.33726316690444946 0.69228196144104 -0.017157258465886116
0.45264846086502075 0.5486182570457458 -0.05728313699364662
0.4601685106754303 0.6188697218894958 -0.12018771469593048
0.43857458233833313 0.6244599223136902 -0.09470690041780472
0.4748466908931732 0.6013336777687073 -0.13555262982845306
0.4314386546611786 0.42940863966941833 -0.004818367306143045
0.38976553082466125 0.4122790992259979 -0.010449142195284367
0.3533700406551361 0.40996551513671875 -0.012380373664200306
0.322361558675766 0.4171840250492096 -0.005653894506394863
0.29980456829071045 0.4324871897697449 0.007153692189604044
0.2818053364753723 0.4845088720321655 0.038422804325819016
0.1960929036140442 0.557399570941925 0.1367652267217636
0.30166688561439514 0.5173153877258301 0.015916386619210243
0.3295998275279999 0.5237405300140381 0.004060062114149332
0.36473163962364197 0.5242673754692078 -0.003022874239832163
0.39816319942474365 0.5195093154907227 -0.005110971163958311
0.4244265556335449 0.5106918811798096 -0.0011951240012422204
0.4421704113483429 0.5016615390777588 -0.0012372181518003345
0.19003376364707947 0.5642111301422119 0.2280774712562561
0.43688759207725525 0.6308150887489319 -0.08239518105983734
0.47492238879203796 0.5525304079055786 -0.09500729292631149
0.4822644889354706 0.6207263469696045 -0.13788191974163055
0.4943405091762543 0.6346050500869751 -0.12670567631721497
0.480383962392807 0.6253023743629456 -0.1258007436990738
0.44173115491867065 0.638664186000824 -0.07286963611841202
0.5001482963562012 0.6370014548301697 -0.13311386108398438
0.5003219246864319 0.6427916884422302 -0.10362700372934341
0.44141191244125366 0.4812449812889099 0.012247798033058643
0.4560316205024719 0.4861953854560852 -0.0014578398549929261
0.4656521677970886 0.48933646082878113 -0.01819303072988987
0.31742146611213684 0.47507429122924805 0.015027857385575771
0.30165958404541016 0.4603719115257263 0.01607123762369156
0.540559709072113 0.5400470495223999 -0.10383062809705734
0.6762905120849609 0.48445838689804077 0.057775065302848816
0.5430079698562622 0.6383976936340332 -0.09997308254241943
0.7399527430534363 0.4000723958015442 0.1994299739599228
0.6075805425643921 0.5061739683151245 0.023050786927342415
0.6318017840385437 0.5078079700469971 0.027694210410118103
0.654762327671051 0.5061533451080322 0.03720097243785858
0.6844096779823303 0.4929119944572449 0.06281905621290207
0.587317943572998 0.4993238151073456 0.02400277927517891
0.6414495706558228 0.43222397565841675 0.022225396707654
0.6148788928985596 0.43500351905822754 0.01982446387410164
0.6665087938308716 0.43706977367401123 0.03332441300153732
0.6823873519897461 0.44876641035079956 0.04485572129487991
0.701339840888977 0.5094513893127441 0.07610282301902771
0.5985638499259949 0.8782674074172974 0.014327621087431908
0.6841882467269897 0.4789831042289734 0.06838446110486984
0.7530456781387329 0.5055020451545715 0.19861917197704315
0.7222697734832764 0.49245622754096985 0.1069813147187233
0.6380674839019775 0.6030814051628113 -0.012364932335913181
0.5534586310386658 0.7042334079742432 -0.07621166855096817
0.5463486313819885 0.7277846932411194 -0.06653425842523575
0.5909153819084167 0.7091802954673767 -0.05482591688632965
0.6114940643310547 0.7167449593544006 -0.02494037337601185
0.5733084678649902 0.728053867816925 -0.04865822196006775
0.5923609733581543 0.729692280292511 -0.022188685834407806
0.6338947415351868 0.7724179029464722 0.029082374647259712
0.545285701751709 0.6242166757583618 -0.1442529559135437
0.5486332178115845 0.5975772142410278 -0.15017497539520264
0.714448094367981 0.41591721773147583 0.06174350157380104
0.5833184719085693 0.5429612398147583 -0.013130180537700653
0.5987180471420288 0.6155313849449158 -0.07602797448635101
0.5989609956741333 0.6019426584243774 -0.06705684214830399
0.706893265247345 0.5985422134399414 0.031084280461072922
0.5453400015830994 0.5658812522888184 -0.13187313079833984
0.6684776544570923 0.37896081805229187 0.014750783331692219
0.6965519785881042 0.3918026089668274 0.038358189165592194
0.7237951755523682 0.35185739398002625 0.1513686329126358
0.5666750073432922 0.3993138074874878 -0.022380126640200615
0.591795027256012 0.44557854533195496 0.023731520399451256
0.65255206823349 0.7345714569091797 0.033896248787641525
0.7201721668243408 0.7465124726295471 0.24121291935443878
0.5803236365318298 0.6303183436393738 -0.06977752596139908
0.5592768788337708 0.6401553153991699 -0.07490936666727066
0.6360973119735718 0.7385651469230652 0.032210879027843475
0.6222624778747559 0.7404148578643799 0.02411790005862713
0.7077226638793945 0.37617555260658264 0.052587006241083145
0.5992349982261658 0.6262683272361755 -0.06302639096975327
0.6273179650306702 0.3782866895198822 -0.006791241932660341
0.6321260333061218 0.3575778603553772 -0.010190382599830627
0.64296555519104 0.2857905626296997 0.046763841062784195
0.7168095707893372 0.3645959794521332 0.09612621366977692
0.63597172498703 0.32213294506073 0.017635660246014595
0.7253458499908447 0.4066827893257141 0.08562421053647995
0.7332350015640259 0.4059126675128937 0.13986961543560028
0.5508814454078674 0.7184555530548096 -0.07338928431272507
0.5819011330604553 0.7205211520195007 -0.05211123451590538
0.6027420163154602 0.7230684161186218 -0.025578264147043228
0.5740921497344971 0.6352466344833374 -0.06471435725688934
0.6299705505371094 0.7394880056381226 0.02776571735739708
0.6178253889083862 0.7662888765335083 0.014525040984153748
0.6165431141853333 0.7405112385749817 0.023487430065870285
0.5686434507369995 0.6236143708229065 -0.10394181311130524
0.5855568051338196 0.7273088693618774 -0.019733766093850136
0.566152811050415 0.7276959419250488 -0.040418077260255814
0.5412455797195435 0.7292658686637878 -0.05699337646365166
0.5493432283401489 0.8609925508499146 -0.02062305063009262
0.5516858696937561 0.8423383235931396 -0.038977183401584625
0.5506281852722168 0.8285828828811646 -0.041489411145448685
0.5477924942970276 0.8154817819595337 -0.035064660012722015
0.5437533259391785 0.8054770231246948 -0.030821718275547028
0.5892959833145142 0.7809725403785706 -0.0006268889992497861
0.5952162742614746 0.7838239669799805 -0.004458538722246885
0.602933406829834 0.7893101572990417 -0.007581709418445826
0.6084636449813843 0.7956987023353577 -0.0023769796825945377
0.6277831792831421 0.6919037103652954 -0.016354812309145927
0.741735577583313 0.6206564903259277 0.2901761531829834
0.6011723875999451 0.766923189163208 0.01571383699774742
0.6104386448860168 0.7659633755683899 0.013760695233941078
0.5510984063148499 0.6522330641746521 -0.07650231570005417
0.591241180896759 0.6417955756187439 -0.04663015902042389
0.5549854040145874 0.6466321349143982 -0.07655318826436996
0.6099289059638977 0.5562146902084351 -0.003249832894653082
0.6508548855781555 0.5705296993255615 0.0069581288844347
0.6028817296028137 0.6132568120956421 -0.05297036096453667
0.6944040656089783 0.3125033378601074 0.09759121388196945
0.6873594522476196 0.3352980315685272 0.055666483938694
0.6770305633544922 0.35962945222854614 0.02095642499625683
0.6142354011535645 0.8057882189750671 0.01397445797920227
0.5753286480903625 0.36373162269592285 -0.028002046048641205
0.5786837935447693 0.32172197103500366 -0.006729321554303169
0.5830090641975403 0.2736392021179199 0.012913594022393227
0.6737982034683228 0.5012549757957458 0.05090836063027382
0.7248307466506958 0.5268157720565796 0.09101872146129608
0.5744816064834595 0.4918225407600403 0.026412032544612885
0.7027596235275269 0.4585166573524475 0.07084816694259644
0.5660387873649597 0.5266302824020386 -0.022732766345143318
0.5843511819839478 0.6068503260612488 -0.10156179964542389
0.7467775344848633 0.5457131266593933 0.12088500708341599
0.7127634286880493 0.5407884120941162 0.06458710879087448
0.6861919164657593 0.5475197434425354 0.03703189268708229
0.6417641639709473 0.5453420877456665 0.021501455456018448
0.607124924659729 0.5371003746986389 0.012815214693546295
0.5811476111412048 0.5257822275161743 0.004327534232288599
0.5364156365394592 0.4903307557106018 -0.05000004917383194
0.7500526905059814 0.5950233936309814 0.10932184755802155
0.7188422679901123 0.45274460315704346 0.08576712012290955
0.5347684025764465 0.6387689113616943 -0.13340720534324646
0.5852513909339905 0.5659494400024414 -0.02930114045739174
0.7484827041625977 0.5091241598129272 0.2827625572681427
0.5628482699394226 0.5114973187446594 -0.00037478815647773445
0.6040520668029785 0.6148423552513123 -0.026824556291103363
0.691677451133728 0.47898122668266296 0.07478776574134827
0.5836668014526367 0.5902987122535706 -0.09067375212907791
0.7362985610961914 0.681044340133667 0.2722601592540741
0.5741525888442993 0.4829230308532715 0.03414369374513626
0.5647526979446411 0.5755823254585266 -0.11571501195430756
0.6874462366104126 0.8038660287857056 0.11201038211584091
0.6772826910018921 0.8381586670875549 0.14845412969589233
0.7596347332000732 0.6102972030639648 0.20101378858089447
0.7146270275115967 0.7693520784378052 0.14135457575321198
0.7428832054138184 0.4532727003097534 0.17721283435821533
0.5990443825721741 0.9051727652549744 0.025265254080295563
0.5298418998718262 0.6448672413825989 -0.10148433595895767
0.6080281734466553 0.5832775831222534 -0.020024558529257774
0.7386415004730225 0.49909698963165283 0.13444426655769348
0.6533324718475342 0.4917027950286865 0.039821725338697433
0.6323064565658569 0.49399903416633606 0.03149695321917534
0.6241620779037476 0.7673002481460571 0.018530651926994324
0.7479536533355713 0.647058367729187 0.11254028230905533
0.5530945062637329 0.9486023187637329 0.02082490734755993
0.6208916902542114 0.9018242359161377 0.08104318380355835
0.6471057534217834 0.8740020990371704 0.11184890568256378
0.6115677356719971 0.4931298494338989 0.028301598504185677
0.5923453569412231 0.48891156911849976 0.030110197141766548
0.5802616477012634 0.4858705997467041 0.03466333448886871
0.7320400476455688 0.44946253299713135 0.11377326399087906
0.5949060320854187 0.4692251980304718 0.027938513085246086
0.6154537200927734 0.4645131826400757 0.025902479887008667
0.6360659599304199 0.463051438331604 0.029529694467782974
0.6569912433624268 0.46625423431396484 0.03768700361251831
0.6705024242401123 0.47176846861839294 0.046750474721193314
0.7480329275131226 0.44944649934768677 0.24733731150627136
0.6669376492500305 0.48820823431015015 0.04933587461709976
0.6055959463119507 0.6780058741569519 -0.040241215378046036
0.5812428593635559 0.6266184449195862 -0.07812123745679855
0.5545786619186401 0.6729186773300171 -0.07226118445396423
0.6573977470397949 0.8404226899147034 0.0880008265376091
0.6286392211914062 0.8715592622756958 0.05837482959032059
0.5570617914199829 0.930526614189148 -0.004897273611277342
0.6993577480316162 0.7998618483543396 0.19475218653678894
0.5808205008506775 0.47709840536117554 0.031926028430461884
0.5547592043876648 0.5312687158584595 -0.06140243262052536
0.5917859673500061 0.9281606674194336 0.04658382758498192
0.7535736560821533 0.6673098206520081 0.19115816056728363
0.5696315169334412 0.7952162027359009 -0.01676952838897705
0.5756271481513977 0.8017584085464478 -0.02012712135910988
0.5811916589736938 0.8115158081054688 -0.023931048810482025
0.5848967432975769 0.8235939145088196 -0.01989375799894333
0.5881972908973694 0.8376336097717285 -0.003872278379276395
0.6106334924697876 0.7319964170455933 0.0030252498108893633
0.6199510097503662 0.728428065776825 0.005114539992064238
0.6274930834770203 0.7240815758705139 0.0056052375584840775
0.6452175378799438 0.7096589207649231 0.011479612439870834
0.7233610153198242 0.6570844650268555 0.057820193469524384
0.5506191253662109 0.5070837736129761 -0.034611430019140244
0.5588275790214539 0.45835354924201965 0.014562259428203106
0.5707880854606628 0.4653489589691162 0.027323223650455475
0.6023966670036316 0.7289939522743225 0.004195564426481724
0.7178409695625305 0.7251494526863098 0.0961262509226799
0.541938066482544 0.4526204466819763 -0.020636282861232758
0.5928187966346741 0.8536603450775146 0.005965935532003641
0.5390689969062805 0.5169247984886169 -0.07887236773967743
0.5736878514289856 0.5698930025100708 -0.06530606746673584
0.5521150827407837 0.8795152902603149 -0.01475868746638298
0.6455274224281311 0.7818096876144409 0.04285566136240959
0.6227075457572937 0.6356765627861023 -0.01592232659459114
0.6218908429145813 0.820507824420929 0.02633167803287506
0.6763351559638977 0.6331214308738708 0.00234837899915874
0.6446956396102905 0.6616525053977966 -0.003769057570025325
0.6929673552513123 0.6744072437286377 0.027688177302479744
0.5568812489509583 0.905631422996521 -0.013501673005521297
0.5878930687904358 0.5839825868606567 -0.04736148938536644
0.6575102806091309 0.8059905171394348 0.06334223598241806
0.6281198263168335 0.8424760103225708 0.04205542057752609
0.6662195324897766 0.741085410118103 0.044110994786024094
0.7388652563095093 0.6935118436813354 0.11865885555744171
0.689921498298645 0.7518238425254822 0.06655725836753845
0.7384340763092041 0.721207857131958 0.17652621865272522
0.6623661518096924 0.6911901235580444 0.01587049476802349
0.5690270066261292 0.548809289932251 -0.0439249686896801
0.5769292116165161 0.6188719272613525 -0.10810238122940063
0.5916292667388916 0.6241717338562012 -0.08075966686010361
0.5678491592407227 0.60138338804245 -0.12590399384498596
0.5800067186355591 0.43062299489974976 0.011834545060992241
0.6194936037063599 0.41392356157302856 0.014344902709126472
0.6530112624168396 0.4118976294994354 0.02074919268488884
0.6797447800636292 0.41873568296432495 0.03435944393277168
0.6963561773300171 0.43386054039001465 0.051765553653240204
0.7043824195861816 0.48561933636665344 0.08657584339380264
0.7584751844406128 0.5575687289237976 0.20205913484096527
0.6905772686004639 0.5183330178260803 0.060498978942632675
0.6675678491592407 0.5245553255081177 0.042642991989851
0.6367297172546387 0.5254800915718079 0.02875877171754837
0.6060795783996582 0.520656406879425 0.019929632544517517
0.5823265314102173 0.5118982791900635 0.017839785665273666
0.5666016340255737 0.5027418732643127 0.014279652386903763
0.7439807653427124 0.5647562146186829 0.2955162227153778
0.5902225971221924 0.6304766535758972 -0.0687444806098938
0.5581812858581543 0.5525866150856018 -0.08537935465574265
0.5612050294876099 0.6207138299942017 -0.12998570501804352
0.5456926226615906 0.6345353722572327 -0.12227272242307663
0.5597314834594727 0.6252065300941467 -0.11785093694925308
0.5836465358734131 0.6383228302001953 -0.06129280850291252
0.542097806930542 0.6369984149932861 -0.12967358529567719
0.5377355813980103 0.6427811980247498 -0.10062141716480255
0.5659162998199463 0.482704222202301 0.028204157948493958
0.554506778717041 0.4874129295349121 0.010664879344403744
0.5495931506156921 0.49020564556121826 -0.008006691932678223
0.6784237027168274 0.475807249546051 0.05649694427847862
0.6919800043106079 0.4615713655948639 0.06013806536793709
