ply
format ascii 1.0
element vertex 468
property float x
property float y
property float z
end_header
0.5052638649940491 0.7100428342819214 -0.06897434592247009
0.5065949559211731 0.6314936280250549 -0.12633366882801056
0.5055538415908813 0.6557807922363281 -0.06750592589378357
0.4829428195953369 0.5425503849983215 -0.09363556653261185
0.5058879256248474 0.6038736701011658 -0.13387194275856018
0.5045464634895325 0.5676305294036865 -0.12386422604322433
0.501119077205658 0.48210203647613525 -0.05852429196238518
0.32749098539352417 0.4768945574760437 0.0318526029586792
0.498976469039917 0.42044442892074585 -0.04081285372376442
0.49821189045906067 0.386394202709198 -0.04446904733777046
0.49383145570755005 0.2618333399295807 -0.015459333546459675
0.5052247047424316 0.7229042649269104 -0.06585797667503357
0.5051028728485107 0.7329076528549194 -0.058150552213191986
0.5049523711204529 0.736794114112854 -0.04783957824110985
0.5061222314834595 0.7410299777984619 -0.04916718974709511
0.506472647190094 0.7519183158874512 -0.053402986377477646
0.506867527961731 0.7661625146865845 -0.05910586193203926
0.5072529315948486 0.7814421653747559 -0.05707487463951111
0.5081892013549805 0.808411180973053 -0.03611023351550102
0.5065179467201233 0.6454909443855286 -0.11430341005325317
0.4826919734477997 0.64359050989151 -0.08266653120517731
0.2423783838748932 0.381474107503891 0.1426336020231247
0.3984242081642151 0.496465265750885 0.008844154886901379
0.3750729560852051 0.4992120563983917 0.010144795291125774
0.351962685585022 0.49918925762176514 0.016169710084795952
0.3183029294013977 0.4859415888786316 0.03491654619574547
0.4175325334072113 0.4896498918533325 0.012107725255191326
0.3642330765724182 0.43491920828819275 0.0005729742697440088
0.38927361369132996 0.4363243579864502 0.001447940361686051
0.3402957022190094 0.43865999579429626 0.007389301899820566
0.3241569399833679 0.4473789930343628 0.01680227555334568
0.3008258044719696 0.503107488155365 0.046091169118881226
0.41913914680480957 0.8524478077888489 -0.008358778432011604
0.31792593002319336 0.47088319063186646 0.0392879918217659
0.23360612988471985 0.49261271953582764 0.14933477342128754
0.27440327405929565 0.48673129081726074 0.06952563673257828
0.3819490075111389 0.6054769158363342 -0.016922414302825928
0.47418802976608276 0.7062816619873047 -0.06676226109266281
0.4778611361980438 0.7329738140106201 -0.05538929998874664
0.44197773933410645 0.7145646214485168 -0.053393758833408356
0.42108896374702454 0.7244369387626648 -0.03606606647372246
0.4544851779937744 0.7343313694000244 -0.04639046639204025
0.43622705340385437 0.7368376851081848 -0.030196601524949074
0.39329129457473755 0.7645688056945801 -0.002141807461157441
0.4861774444580078 0.6313595771789551 -0.12455058097839355
0.4825139343738556 0.6045289635658264 -0.1315581053495407
0.2876836657524109 0.42087051272392273 0.02277996763586998
0.42966723442077637 0.5401260852813721 -0.01773109845817089
0.42825669050216675 0.6222806572914124 -0.06730609387159348
0.42601609230041504 0.6076560616493225 -0.05987181514501572
0.31049612164497375 0.60251784324646 0.012071358039975166
0.4826487898826599 0.570763349533081 -0.11684824526309967
0.3443446159362793 0.3937520384788513 -0.016303034499287605
0.31074362993240356 0.40255725383758545 0.0012988116359338164
0.2645547389984131 0.3360721468925476 0.0980834811925888
0.4488863945007324 0.4149996340274811 -0.03468484431505203
0.41116321086883545 0.44389498233795166 0.008800391107797623
0.37325096130371094 0.739814281463623 0.0036133043467998505
0.26241809129714966 0.7338858842849731 0.20552188158035278
0.4460180699825287 0.6370589733123779 -0.05821595340967178
0.4657832980155945 0.6447609663009644 -0.06047012656927109
0.3984121084213257 0.7391515970230103 0.0022195414640009403
0.40973344445228577 0.7376675605773926 -0.003905663499608636
0.2973484396934509 0.38561248779296875 0.012699040584266186
0.42710041999816895 0.6327906250953674 -0.05452242121100426
0.3894616961479187 0.39594951272010803 -0.02855750545859337
0.38472193479537964 0.3751383125782013 -0.03308130428195
0.35856232047080994 0.27609768509864807 0.011250156909227371
0.2814961373806 0.36008766293525696 0.04959363117814064
0.37419286370277405 0.3238660991191864 -0.011714757420122623
0.2733975052833557 0.4095463156700134 0.04300853610038757
0.2579658627510071 0.3969409763813019 0.09009823948144913
0.47558823227882385 0.7218436598777771 -0.06377933919429779
0.44904375076293945 0.726804256439209 -0.05091411992907524
0.4288173019886017 0.7311198711395264 -0.035350218415260315
0.4518776535987854 0.6412808299064636 -0.0532294362783432
0.40428125858306885 0.7387054562568665 -0.0008638558210805058
0.41591203212738037 0.7438966631889343 -0.016257166862487793
0.41244763135910034 0.7365988492965698 -0.004602235741913319
0.4592999219894409 0.6307054162025452 -0.09070924669504166
0.4407205879688263 0.7352371215820312 -0.026477500796318054
0.4590720534324646 0.7356371283531189 -0.037196554243564606
0.4806002080440521 0.7364407181739807 -0.045689817517995834
0.47540873289108276 0.8082929849624634 -0.03533673658967018
0.47647324204444885 0.780053436756134 -0.05565890297293663
0.47759437561035156 0.7638683915138245 -0.05736542493104935
0.47914883494377136 0.7498081922531128 -0.05122474208474159
0.4809107184410095 0.7408142685890198 -0.046926986426115036
0.4389578402042389 0.7395367622375488 -0.02681676298379898
0.43538519740104675 0.7430377006530762 -0.031228361651301384
0.4304114580154419 0.7502188682556152 -0.03493819758296013
0.4259722828865051 0.7597044706344604 -0.03096652962267399
0.4004306197166443 0.6972149014472961 -0.028356274589896202
0.23516845703125 0.6063101291656494 0.24281837046146393
0.5061658024787903 0.6501150131225586 -0.08343445509672165
0.4266567826271057 0.7391709685325623 -0.013678710907697678
0.42173072695732117 0.7403903007507324 -0.016366450116038322
0.4742557406425476 0.6555477380752563 -0.06227092444896698
0.43495795130729675 0.6476772427558899 -0.037805911153554916
0.47013044357299805 0.6504729390144348 -0.061778098344802856
0.4050065875053406 0.554999589920044 -0.01040776539593935
0.3659001588821411 0.5721406936645508 -0.004533124156296253
0.42184072732925415 0.6185740828514099 -0.04660146310925484
0.3011763095855713 0.30012235045433044 0.05108477547764778
0.3182986378669739 0.3345514237880707 0.01653577946126461
0.33555150032043457 0.3734475374221802 -0.011651527136564255
0.41491279006004333 0.7824512720108032 -0.015288053080439568
0.44066792726516724 0.3814403712749481 -0.04353467747569084
0.4315464496612549 0.3223152160644531 -0.027509072795510292
0.4205595552921295 0.2648850977420807 -0.011195364408195019
0.33081114292144775 0.49514514207839966 0.026082031428813934
0.27667471766471863 0.5218542218208313 0.058546777814626694
0.42922988533973694 0.4825519025325775 0.015673557296395302
0.2982727885246277 0.4549342393875122 0.035994112491607666
0.4460943341255188 0.5233976244926453 -0.025917258113622665
0.4435212314128876 0.6140446066856384 -0.09017594158649445
0.2522464096546173 0.540177583694458 0.08340660482645035
0.29336535930633545 0.5393074154853821 0.03732758015394211
0.3244130611419678 0.5483775734901428 0.016046183183789253
0.3700336515903473 0.5437502861022949 0.005950177554041147
0.4034450650215149 0.5327478647232056 0.0014975256053730845
0.4278349280357361 0.5205053091049194 -0.004063802305608988
0.47799187898635864 0.48908209800720215 -0.049782976508140564
0.2563534677028656 0.5939098596572876 0.07606249302625656
0.27945220470428467 0.4515452980995178 0.04705650359392166
0.49396175146102905 0.6445039510726929 -0.11331919580698013
0.4323381781578064 0.5663817524909973 -0.028295984491705894
0.22754037380218506 0.4907739460468292 0.22695188224315643
0.4457593858242035 0.5065486431121826 -0.00692589208483696
0.4190595746040344 0.6196122765541077 -0.02295214682817459
0.31025922298431396 0.4719030559062958 0.043232232332229614
0.4416310787200928 0.5960162878036499 -0.08084738999605179
0.24434441328048706 0.6690874099731445 0.23059312999248505
0.42784565687179565 0.4733677804470062 0.021999049931764603
0.46156150102615356 0.5806534290313721 -0.1033829003572464
0.3141109347343445 0.7947632074356079 0.08050817251205444
0.3173487186431885 0.8240857124328613 0.12141649425029755
0.23478180170059204 0.6017079949378967 0.15918989479541779
0.28321945667266846 0.7598764896392822 0.11038263142108917
0.24502906203269958 0.44087886810302734 0.1262541264295578
0.41558292508125305 0.8790044784545898 0.0043367790058255196
0.496246337890625 0.6491918563842773 -0.08205655962228775
0.4109233319759369 0.5850733518600464 -0.020445989444851875
0.2551058530807495 0.49199873208999634 0.09264660626649857
0.3532797694206238 0.48338568210601807 0.01842431351542473
0.3745015859603882 0.4843754172325134 0.01315344125032425
0.4098580479621887 0.7492126226425171 -0.012161695398390293
0.26137465238571167 0.6461901664733887 0.08237382024526596
0.46108806133270264 0.913469672203064 0.009757483378052711
0.3874870836734772 0.8804877996444702 0.05766081437468529
0.35524100065231323 0.8578888773918152 0.08573384582996368
0.49604031443595886 0.32312947511672974 -0.03136061131954193
0.511501133441925 0.9175373315811157 0.0038819985929876566
0.3939582109451294 0.4823971390724182 0.012603255920112133
0.4116891324520111 0.4779774248600006 0.016124172136187553
0.4226609468460083 0.4753798842430115 0.02146352268755436
0.2629111707210541 0.44640329480171204 0.07052674144506454
0.40774786472320557 0.4605499505996704 0.012829521670937538
0.38767242431640625 0.4559563994407654 0.008550445549190044
0.3676479458808899 0.455008327960968 0.009115795604884624
0.3467879295349121 0.45838838815689087 0.014462602324783802
0.332908034324646 0.463939368724823 0.021533969789743423
0.23087188601493835 0.43008220195770264 0.19025002419948578
0.3382866084575653 0.48052000999450684 0.025539537891745567
0.5053653717041016 0.6725725531578064 -0.06259739398956299
0.42320680618286133 0.6828936338424683 -0.04077708721160889
0.4457666575908661 0.6337530612945557 -0.06673532724380493
0.47123241424560547 0.6751713752746582 -0.06167734041810036
0.49982985854148865 0.45054805278778076 -0.040450215339660645
0.34806686639785767 0.8282364010810852 0.05674358829855919
0.380648672580719 0.8539217710494995 0.03179870545864105
0.4589169919490814 0.8962467908859253 -0.01910649612545967
0.2880592942237854 0.7856387495994568 0.1656533181667328
0.4215189814567566 0.46795153617858887 0.018342234194278717
0.46335020661354065 0.5310865640640259 -0.05819648876786232
0.5110728144645691 0.899529755115509 -0.024086374789476395
0.42166662216186523 0.9000303745269775 0.028703533113002777
0.24339762330055237 0.6589149832725525 0.1543566882610321
0.4582709074020386 0.7399230003356934 -0.0378296785056591
0.4548390507698059 0.7464574575424194 -0.04284095764160156
0.4515436887741089 0.7573822736740112 -0.04739365354180336
0.4490029513835907 0.7719137072563171 -0.04463329166173935
0.44190841913223267 0.7977960109710693 -0.027961309999227524
0.42007341980934143 0.7376497387886047 -0.015956828370690346
0.41270217299461365 0.7356894612312317 -0.016213349997997284
0.40542441606521606 0.7316914200782776 -0.016375023871660233
0.3816682994365692 0.7165203094482422 -0.012334460392594337
0.29249927401542664 0.6593457460403442 0.03529597818851471
0.4624009132385254 0.5046989917755127 -0.036131780594587326
0.4475385546684265 0.4561619758605957 0.005807771813124418
0.4321240186691284 0.46018630266189575 0.014521975070238113
0.4252881705760956 0.734605073928833 -0.01367731112986803
0.291265606880188 0.722260594367981 0.06788809597492218
0.46892961859703064 0.4550679922103882 -0.024766243994235992
0.42963939905166626 0.8249353170394897 -0.016812192276120186
0.5034043192863464 0.5382091999053955 -0.101192906498909
0.48015135526657104 0.5171064138412476 -0.07383780181407928
0.502277135848999 0.5110184550285339 -0.07897352427244186
0.4475478231906891 0.5725798606872559 -0.05907507240772247
0.5102882385253906 0.8725310564041138 -0.036953262984752655
0.5091832280158997 0.8385233879089355 -0.03666084632277489
0.4684387147426605 0.8380129933357239 -0.0321621410548687
0.37239503860473633 0.7770342826843262 0.010223187506198883
0.39898017048835754 0.6399746537208557 -0.018041133880615234
0.3985816538333893 0.8049417734146118 -0.0022090538404881954
0.3439163267612457 0.6361061334609985 -0.009062348864972591
0.37635529041290283 0.6654797792434692 -0.014583293348550797
0.3239872455596924 0.6781759262084961 0.008276324719190598
0.4612893760204315 0.8702119588851929 -0.031053844839334488
0.43303030729293823 0.5869211554527283 -0.04274250566959381
0.35381972789764404 0.7983715534210205 0.031129352748394012
0.38631948828697205 0.8271749019622803 0.014167184010148048
0.35105228424072266 0.7446734309196472 0.013570995070040226
0.2684652805328369 0.6908721923828125 0.08927024155855179
0.32226455211639404 0.7500059604644775 0.03634524717926979
0.2574424743652344 0.7117257714271545 0.1425589770078659
0.35694265365600586 0.698296070098877 -0.004932902753353119
0.4481900632381439 0.5485617518424988 -0.04219485819339752
0.4517682194709778 0.6263825297355652 -0.09532544761896133
0.4358501434326172 0.6314080953598022 -0.07006052881479263
0.4617253541946411 0.6084878444671631 -0.11169800162315369
0.42842501401901245 0.4350443482398987 -0.001534223323687911
0.3902495503425598 0.421481728553772 -0.006625320762395859
0.3565610647201538 0.4190846085548401 -0.006236488465219736
0.3281348943710327 0.4235909879207611 0.0027259662747383118
0.30826160311698914 0.43491870164871216 0.016881627961993217
0.29486575722694397 0.47910335659980774 0.05268938094377518
0.2307628095149994 0.5466775894165039 0.15519197285175323
0.31436851620674133 0.5137679576873779 0.03417864441871643
0.3398354947566986 0.520792543888092 0.02034880220890045
0.37156495451927185 0.5198858976364136 0.011234860867261887
0.4013553559780121 0.5133355259895325 0.007479451596736908
0.4239421486854553 0.5043222308158875 0.007500153500586748
0.4392533302307129 0.49565720558166504 0.006399091798812151
0.23111766576766968 0.5480446219444275 0.24282704293727875
0.43627533316612244 0.6372919678688049 -0.05841920152306557
0.46429139375686646 0.5550621747970581 -0.07743876427412033
0.46886250376701355 0.628044843673706 -0.11342763900756836
0.4815784990787506 0.6403307914733887 -0.10387659817934036
0.46874475479125977 0.6322134733200073 -0.10206974297761917
0.44272035360336304 0.6442974805831909 -0.05049850419163704
0.4862087070941925 0.6427635550498962 -0.11010675877332687
0.4882347285747528 0.6474775671958923 -0.08226620405912399
0.4367981255054474 0.4749504327774048 0.018506277352571487
0.4512661099433899 0.48170965909957886 0.004067305941134691
0.45928674936294556 0.48638492822647095 -0.012823802419006824
0.3245254158973694 0.46802979707717896 0.02900981903076172
0.31161394715309143 0.4573080539703369 0.029971236363053322
0.5237149596214294 0.5419538021087646 -0.09256986528635025
0.6689665913581848 0.47225120663642883 0.03974619135260582
0.5287666916847229 0.6429089307785034 -0.08181072771549225
0.7434746026992798 0.3743930459022522 0.15518449246883392
0.6007189750671387 0.4941191077232361 0.013579192571341991
0.6239129304885864 0.4959709644317627 0.015780769288539886
0.6466320157051086 0.49501046538352966 0.02297055535018444
0.6779757738113403 0.48085105419158936 0.043196287006139755
0.5815137624740601 0.48812389373779297 0.01566435769200325
0.6310115456581116 0.43169450759887695 0.007103444077074528
0.6066316366195679 0.43401724100112915 0.006776346825063229
0.6543170213699341 0.4344627261161804 0.015318287536501884
0.6702912449836731 0.44262170791625977 0.024759430438280106
0.6958401799201965 0.49754828214645386 0.05468159541487694
0.5985353589057922 0.8499199748039246 -0.004167442210018635
0.6776673793792725 0.4660409688949585 0.0475408211350441
0.7587098479270935 0.48495158553123474 0.1613704413175583
0.7199408411979675 0.48032882809638977 0.0793694257736206
0.6233007311820984 0.6017866134643555 -0.011566996574401855
0.5355435013771057 0.7050065398216248 -0.06516874581575394
0.5317041277885437 0.7319285869598389 -0.053621940314769745
0.5667021870613098 0.7124143838882446 -0.050141602754592896
0.5861896276473999 0.7216416001319885 -0.03162575140595436
0.5542469620704651 0.7324936985969543 -0.043374571949243546
0.5712372660636902 0.7344563007354736 -0.02631215937435627
0.614898145198822 0.7614808082580566 0.0036375930067151785
0.5267365574836731 0.630596399307251 -0.12385092675685883
0.5288954377174377 0.6037283539772034 -0.13073790073394775
0.7039296627044678 0.41503721475601196 0.03236295282840729
0.5731266140937805 0.5379973649978638 -0.014399481937289238
0.5804930925369263 0.6198566555976868 -0.06392484158277512
0.5815807580947876 0.6050964593887329 -0.05648608133196831
0.6925054788589478 0.5965200066566467 0.020482707768678665
0.5263789892196655 0.570159375667572 -0.11586848646402359
0.6484442949295044 0.3899332880973816 -0.009441802278161049
0.6810485124588013 0.3974846303462982 0.009841895662248135
0.7203820943832397 0.3298051059246063 0.10906581580638885
0.5482374429702759 0.41401535272598267 -0.03232712298631668
0.5857243537902832 0.44238314032554626 0.012967204675078392
0.633059561252594 0.7360856533050537 0.010383082553744316
0.7425462603569031 0.7276245951652527 0.21725758910179138
0.5634517073631287 0.6351965665817261 -0.05580594390630722
0.544381856918335 0.6435692310333252 -0.05912259221076965
0.607014536857605 0.7361632585525513 0.008135698735713959
0.5958300828933716 0.7349351644515991 0.0015236015897244215
0.6926825642585754 0.3802894949913025 0.021978037431836128
0.5815513730049133 0.630479633808136 -0.051164522767066956
0.6051778793334961 0.3936115801334381 -0.023739896714687347
0.6088179349899292 0.37259313464164734 -0.028058309108018875
0.6273608803749084 0.272564172744751 0.017860321328043938
0.7062194347381592 0.35411012172698975 0.0594819076359272
0.6156911253929138 0.32077470421791077 -0.006144061218947172
0.7169426083564758 0.4033321142196655 0.053155068308115005
0.7304792404174805 0.3901253938674927 0.1012081578373909
0.5341070294380188 0.720731258392334 -0.061958830803632736
0.5597586631774902 0.7246270179748535 -0.047815047204494476
0.5787616968154907 0.7284355163574219 -0.03092523291707039
0.5577631592750549 0.6396646499633789 -0.05117034539580345
0.6011228561401367 0.7357006669044495 0.004530283622443676
0.591331422328949 0.7412337064743042 -0.01147463172674179
0.593010663986206 0.7338886260986328 0.0006971611874178052
0.5514814853668213 0.6290929317474365 -0.08848580718040466
0.5664734840393066 0.7330037355422974 -0.022718094289302826
0.5492957830429077 0.7339324951171875 -0.03438993915915489
0.5286112427711487 0.7354051470756531 -0.04395798593759537
0.5400994420051575 0.8071799278259277 -0.03366696089506149
0.5371459722518921 0.7789706587791443 -0.05380011722445488
0.5354055762290955 0.76268470287323 -0.055431563407182693
0.5331776142120361 0.7487570643424988 -0.049211740493774414
0.530743420124054 0.7399436235427856 -0.044833067804574966
0.5699146389961243 0.7372854948043823 -0.023037884384393692
0.5735505223274231 0.7406839728355408 -0.027282647788524628
0.5788272619247437 0.7477335333824158 -0.031161323189735413
0.5837337970733643 0.7571981549263 -0.02650654874742031
0.6069978475570679 0.6937090158462524 -0.023480627685785294
0.7612600326538086 0.5988693237304688 0.2550661265850067
0.5807479023933411 0.7368107438087463 -0.009108291007578373
0.5856069326400757 0.7378609776496887 -0.011759072542190552
0.5365878343582153 0.6545549631118774 -0.06089617684483528
0.5737985372543335 0.6456099152565002 -0.03508733958005905
0.5403469204902649 0.649416983127594 -0.06058596074581146
0.5981979370117188 0.5520327687263489 -0.0060885329730808735
0.6372793316841125 0.5679642558097839 0.0014124067965894938
0.5856812596321106 0.615976095199585 -0.0432821549475193
0.6835057735443115 0.29500773549079895 0.06009262055158615
0.6697402000427246 0.32981985807418823 0.02465038187801838
0.6557686924934387 0.3693849742412567 -0.004053800366818905
0.5961350202560425 0.7795372009277344 -0.010474353097379208
0.5548214912414551 0.38041773438453674 -0.041020605713129044
0.559848964214325 0.32075756788253784 -0.02447608858346939
0.5664148926734924 0.262997031211853 -0.0079444395378232
0.6666116118431091 0.49035996198654175 0.033402685075998306
0.7200375199317932 0.5154222249984741 0.06818901002407074
0.5698176622390747 0.4815307855606079 0.01901819556951523
0.6954898238182068 0.44932037591934204 0.04525551199913025
0.556410551071167 0.5218917727470398 -0.023483652621507645
0.5662398934364319 0.6119115352630615 -0.08744782209396362
0.7443726062774658 0.5330295562744141 0.0943467915058136
0.7051216959953308 0.5331379175186157 0.046412620693445206
0.6759175658226013 0.5430500507354736 0.023675495758652687
0.6314111351966858 0.5398699045181274 0.01175599079579115
0.5981663465499878 0.5299955606460571 0.005926881916821003
0.5734586715698242 0.5185996294021606 -0.0007609673193655908
0.5241743922233582 0.4885767698287964 -0.04870276525616646
0.743772029876709 0.5866344571113586 0.08694972842931747
0.713413655757904 0.4452652931213379 0.05711332708597183
0.5188435316085815 0.6441701054573059 -0.11268363893032074
0.5724025964736938 0.5642257332801819 -0.0250628013163805
0.7623144388198853 0.48325955867767334 0.24002234637737274
0.555333137512207 0.5053397417068481 -0.0043112835846841335
0.587827742099762 0.6169665455818176 -0.019340984523296356
0.6849240064620972 0.4668053388595581 0.0518801286816597
0.5664942264556885 0.5938636660575867 -0.0781094953417778
0.7560639381408691 0.6620805263519287 0.2426653951406479
0.5706102848052979 0.47234898805618286 0.025365738198161125
0.5470651388168335 0.5792751312255859 -0.10145013779401779
0.6970057487487793 0.7897701263427734 0.08934526890516281
0.6951236724853516 0.8196324110031128 0.12999814748764038
0.7636688947677612 0.5941885113716125 0.1712200790643692
0.7252495288848877 0.7540203332901001 0.12060007452964783
0.745042085647583 0.4336259365081787 0.13820357620716095
0.6041569709777832 0.8765255808830261 0.008689708076417446
0.5159350037574768 0.6488548517227173 -0.08174297958612442
0.5940260291099548 0.5823120474815369 -0.01626407355070114
0.7387310266494751 0.4850136935710907 0.1034790575504303
0.6445937752723694 0.47951048612594604 0.025172580033540726
0.6238168478012085 0.48129725456237793 0.019055934622883797
0.5974418520927429 0.7464480996131897 -0.007170028053224087
0.7413488626480103 0.6391662359237671 0.09326465427875519
0.5613179206848145 0.9123088717460632 0.012318835593760014
0.6310501098632812 0.8776814937591553 0.06377299875020981
0.6608395576477051 0.8543268442153931 0.09311067312955856
0.60433030128479 0.4800465703010559 0.01734956167638302
0.5866424441337585 0.4762765169143677 0.020263278856873512
0.5758466720581055 0.47414714097976685 0.025039931759238243
0.7290040254592896 0.43948161602020264 0.08130914717912674
0.5895519852638245 0.45894116163253784 0.01732509955763817
0.6089337468147278 0.4537186026573181 0.013759806752204895
0.628551721572876 0.4519461393356323 0.015481553971767426
0.6493018269538879 0.454392671585083 0.021628402173519135
0.6629520654678345 0.4593901038169861 0.029407735913991928
0.756787896156311 0.4226785898208618 0.2031049281358719
0.6589338779449463 0.47620490193367004 0.033023130148649216
0.5856010913848877 0.6801095604896545 -0.036964334547519684
0.5640435218811035 0.6317397356033325 -0.06431134045124054
0.5388452410697937 0.6737990379333496 -0.05994072183966637
0.6658410429954529 0.8243275880813599 0.06396126747131348
0.636370062828064 0.8510007858276367 0.03770336136221886
0.562567412853241 0.8948131799697876 -0.01653902232646942
0.7210900783538818 0.7804083824157715 0.17600607872009277
0.5765500068664551 0.4667392373085022 0.02214600332081318
0.5411129593849182 0.530020534992218 -0.056585803627967834
0.5992296934127808 0.8977912664413452 0.03294719010591507
0.758348822593689 0.651644229888916 0.1662207990884781
0.552232563495636 0.7382431030273438 -0.035052791237831116
0.5559571981430054 0.7445970773696899 -0.03972768783569336
0.5597947239875793 0.7553085088729858 -0.04412608966231346
0.5631306171417236 0.7699138522148132 -0.04108117148280144
0.5716568231582642 0.7957097887992859 -0.02448347583413124
0.5860762000083923 0.7349607348442078 -0.011107286438345909
0.5933240652084351 0.7327796220779419 -0.01112314872443676
0.600418746471405 0.7286413908004761 -0.011214335449039936
0.6245609521865845 0.7126578092575073 -0.006237276829779148
0.7121776342391968 0.6529843211174011 0.044696956872940063
0.5398958325386047 0.5037404298782349 -0.034365687519311905
0.5508140921592712 0.4553840458393097 0.008142296224832535
0.5656574368476868 0.45911550521850586 0.01788809336721897
0.5806400775909424 0.7319965958595276 -0.009014214389026165
0.7152217030525208 0.7161421775817871 0.07768049836158752
0.5304273366928101 0.45451104640960693 -0.023218167945742607
0.5858062505722046 0.8227728009223938 -0.012766839936375618
0.5244240164756775 0.5164787769317627 -0.07289711385965347
0.5586758255958557 0.5706661939620972 -0.05664236843585968
0.5491162538528442 0.8367374539375305 -0.03016115538775921
0.6373478174209595 0.7734569311141968 0.01688203029334545
0.6077560782432556 0.6367999911308289 -0.013293509371578693
0.6138882637023926 0.8020447492599487 0.0030544924084097147
0.6615201234817505 0.6311365365982056 -0.002168889855965972
0.6300920844078064 0.6613878607749939 -0.00892247911542654
0.6821149587631226 0.6726114749908447 0.016361718997359276
0.5582920908927917 0.8687966465950012 -0.028750954195857048
0.5731134414672852 0.5846542716026306 -0.039687782526016235
0.6577656269073486 0.7942119836807251 0.0383496917784214
0.6285707354545593 0.8240786790847778 0.019742529839277267
0.6563342213630676 0.7402685284614563 0.021208908408880234
0.736066460609436 0.6841292977333069 0.09990029036998749
0.686114490032196 0.744848370552063 0.044902998954057693
0.7477119565010071 0.705105721950531 0.15409845113754272
0.6489983797073364 0.6937452554702759 0.002054996555671096
0.5563795566558838 0.5468697547912598 -0.03962753713130951
0.5588335990905762 0.624570906162262 -0.09283045679330826
0.5736492872238159 0.6290222406387329 -0.06715133786201477
0.5490344762802124 0.6070588827133179 -0.10981342941522598
0.5688096284866333 0.43380802869796753 0.0016657677479088306
0.6054092049598694 0.4191308617591858 -0.0015933754621073604
0.6379415988922119 0.41548413038253784 0.0004456481256056577
0.6655236482620239 0.41897648572921753 0.0104981679469347
0.6852043867111206 0.4295823276042938 0.025633221492171288
0.700049877166748 0.473297119140625 0.06161588057875633
0.7643347382545471 0.5391586422920227 0.16771522164344788
0.6836163997650146 0.508375883102417 0.04215342551469803
0.6594470739364624 0.516078770160675 0.02740919217467308
0.6284173727035522 0.5162408351898193 0.016909284517169
0.5987527370452881 0.5107307434082031 0.0119241401553154
0.5761378407478333 0.5026149153709412 0.010737244039773941
0.5607432723045349 0.4945163130760193 0.009082524105906487
0.7616665363311768 0.540521502494812 0.2559341788291931
0.572869062423706 0.6351637244224548 -0.05554875731468201
0.5421565771102905 0.5537073612213135 -0.07568666338920593
0.5431239604949951 0.6267648935317993 -0.11200594156980515
0.5303032994270325 0.6395817399024963 -0.10297229886054993
0.5428538918495178 0.6309446692466736 -0.10046949982643127
0.5665760040283203 0.6425759196281433 -0.04821879044175148
0.526378870010376 0.6421846747398376 -0.10935622453689575
0.5237119197845459 0.647013783454895 -0.08163200318813324
0.5619866251945496 0.4740827679634094 0.02137732319533825
0.5483958125114441 0.48090049624443054 0.006210076157003641
0.5412552356719971 0.4857124984264374 -0.010943402536213398
0.6712990999221802 0.46325480937957764 0.037288080900907516
0.6828197240829468 0.45211079716682434 0.03838596120476723
