ply
format ascii 1.0
element vertex 468
property float x
property float y
property float z
end_header
0.46003788709640503 0.7299601435661316 -0.03649039939045906
0.411830335855484 0.6680001020431519 -0.12518981099128723
0.4506247043609619 0.6845505833625793 -0.059168532490730286
0.4178186058998108 0.5740363597869873 -0.1021244004368782
0.40906864404678345 0.641947329044342 -0.13768550753593445
0.4190690219402313 0.6051087975502014 -0.13586971163749695
0.45653295516967773 0.5088379383087158 -0.09731762856245041
0.35902875661849976 0.4721747636795044 0.07619962096214294
0.46739476919174194 0.4413813054561615 -0.09516052901744843
0.46604540944099426 0.40629592537879944 -0.10733982175588608
0.48028379678726196 0.2664470970630646 -0.11842180043458939
0.463850736618042 0.7401940822601318 -0.0313485711812973
0.4695396423339844 0.7460871338844299 -0.024213874712586403
0.4759739339351654 0.7458471059799194 -0.013932320289313793
0.4800386428833008 0.8200773596763611 0.019548414275050163
0.4775228500366211 0.8316888809204102 0.017965661361813545
0.4768396317958832 0.8443006277084351 0.017207399010658264
0.47866177558898926 0.857361912727356 0.02692788653075695
0.4859858751296997 0.8702464699745178 0.05228564143180847
0.421620637178421 0.6798766255378723 -0.11174215376377106
0.4162532687187195 0.6710756421089172 -0.07145003229379654
0.3329375088214874 0.36270734667778015 0.19466637074947357
0.4155825972557068 0.5001553893089294 0.028117625042796135
0.3953162729740143 0.5000243782997131 0.040593117475509644
0.3758319020271301 0.49705860018730164 0.05615409463644028
0.35645005106925964 0.4784705638885498 0.0869441032409668
0.4294978976249695 0.49601584672927856 0.01680755242705345
0.37693125009536743 0.43374624848365784 0.02252921089529991
0.39991122484207153 0.43835562467575073 0.007958339527249336
0.3585999608039856 0.43560025095939636 0.04198238253593445
0.34940841794013977 0.44331294298171997 0.05854935944080353
0.3446322977542877 0.4934060871601105 0.10735251754522324
0.42776578664779663 0.8652804493904114 0.1280899941921234
0.35463184118270874 0.4653227925300598 0.08615780621767044
0.3406303822994232 0.4683968424797058 0.23687249422073364
0.337260365486145 0.47395452857017517 0.13609717786312103
0.37225449085235596 0.6094805002212524 0.03426778316497803
0.4307265877723694 0.7215033173561096 -0.01975942589342594
0.44495508074760437 0.7410869002342224 -0.005765306297689676
0.41069334745407104 0.7179280519485474 0.012893015518784523
0.40531688928604126 0.719149649143219 0.05182498320937157
0.4299389719963074 0.7359134554862976 0.02059471793472767
0.42268452048301697 0.7340356111526489 0.053537964820861816
0.40761104226112366 0.7641982436180115 0.1283549964427948
0.39651936292648315 0.664056658744812 -0.11637198179960251
0.39324623346328735 0.638863205909729 -0.12670789659023285
0.3262902796268463 0.4206128716468811 0.07017170637845993
0.41577327251434326 0.5507763624191284 -0.004978330805897713
0.3828326463699341 0.636194109916687 -0.036666564643383026
0.38808107376098633 0.6200516223907471 -0.030970698222517967
0.3274986147880554 0.5912445783615112 0.09648757427930832
0.4036579430103302 0.604835569858551 -0.1177065521478653
0.35105282068252563 0.40214574337005615 -0.004293776582926512
0.33297792077064514 0.40638673305511475 0.03223744407296181
0.33238473534584045 0.32355156540870667 0.1278066486120224
0.42768457531929016 0.43246573209762573 -0.06718447059392929
0.4201935827732086 0.4486038386821747 0.005329077132046223
0.3926859498023987 0.7269066572189331 0.13145773112773895
0.40020808577537537 0.6927583813667297 0.34751659631729126
0.3983754813671112 0.6529017686843872 -0.03235359117388725
0.41412827372550964 0.6666873693466187 -0.04460690915584564
0.405015230178833 0.7339752316474915 0.12395375967025757
0.41519999504089355 0.7388137578964233 0.11242269724607468
0.32717350125312805 0.38852420449256897 0.04450036585330963
0.3893347680568695 0.6440315842628479 -0.021711086854338646
0.3815191388130188 0.40885621309280396 -0.0380314402282238
0.3761109709739685 0.38757240772247314 -0.04683801904320717
0.37244677543640137 0.27436819672584534 -0.019911324605345726
0.3283355236053467 0.35608068108558655 0.08073931932449341
0.3733144700527191 0.32980406284332275 -0.035913195461034775
0.32204461097717285 0.4067772626876831 0.09256519377231598
0.325543612241745 0.38700956106185913 0.14031854271888733
0.43621522188186646 0.733607292175293 -0.014161266386508942
0.41991865634918213 0.7289602756500244 0.01714163087308407
0.4129352569580078 0.7264780402183533 0.05120951309800148
0.4046458601951599 0.6583629846572876 -0.03206503391265869
0.40929722785949707 0.7364310026168823 0.11728796362876892
0.41473090648651123 0.7645102143287659 0.10401736199855804
0.4204521179199219 0.739333987236023 0.11063146591186523
0.39338910579681396 0.6531980037689209 -0.06983141601085663
0.4305058717727661 0.7326536774635315 0.05493592470884323
0.43876874446868896 0.7357398271560669 0.02806844189763069
0.4534327983856201 0.7414204478263855 0.0043667214922606945
0.45345520973205566 0.8607217669487 0.06895611435174942
0.4469093084335327 0.8465725779533386 0.04529004171490669
0.44640251994132996 0.8341214656829834 0.03822283446788788
0.4499730169773102 0.8219599723815918 0.038686029613018036
0.45570117235183716 0.8125813007354736 0.038796860724687576
0.43258240818977356 0.7827175855636597 0.07994113862514496
0.4266902208328247 0.7850428223609924 0.07935032248497009
0.4200359582901001 0.7891591787338257 0.08059846609830856
0.4164762794971466 0.7940841913223267 0.08982334285974503
0.388292133808136 0.6975340247154236 0.05652952939271927
0.3847188353538513 0.567293643951416 0.35798680782318115
0.43439483642578125 0.6830350756645203 -0.07954490184783936
0.42824840545654297 0.7669156789779663 0.10029707849025726
0.4201057553291321 0.7654275298118591 0.10075350105762482
0.42299652099609375 0.6789054274559021 -0.04004134610295296
0.40025365352630615 0.6586591601371765 -0.006026575341820717
0.4180406928062439 0.6734444499015808 -0.04404095560312271
0.39851048588752747 0.5600634217262268 0.018525442108511925
0.3664158582687378 0.5712454915046692 0.044744823127985
0.3906145691871643 0.6286998391151428 -0.014103945344686508
0.3430767357349396 0.2927756905555725 0.05411913990974426
0.3435112535953522 0.3356582820415497 0.022632742300629616
0.34523460268974304 0.38096123933792114 -0.0014994805678725243
0.4170370101928711 0.7997958064079285 0.11426975578069687
0.41729581356048584 0.39938974380493164 -0.08047542721033096
0.4144377112388611 0.3317033648490906 -0.07992776483297348
0.4159265160560608 0.2663189470767975 -0.07814040780067444
0.36219972372055054 0.48946326971054077 0.07399104535579681
0.332025945186615 0.5068786144256592 0.1337844282388687
0.43723464012145996 0.49155354499816895 0.013358412310481071
0.33998891711235046 0.4499287009239197 0.08914290368556976
0.42625194787979126 0.5388464331626892 -0.02410920523107052
0.3832660913467407 0.6340327858924866 -0.06771007180213928
0.324505478143692 0.5196253061294556 0.17741550505161285
0.3326880633831024 0.5263113975524902 0.11288239061832428
0.3463877737522125 0.5397469997406006 0.0797121599316597
0.3796226680278778 0.5424715876579285 0.04920864850282669
0.406979501247406 0.5364872217178345 0.026570353657007217
0.4243386685848236 0.528947114944458 0.004935278091579676
0.44093048572540283 0.512598991394043 -0.07526010274887085
0.31557437777519226 0.5705549120903015 0.184812992811203
0.33134394884109497 0.44459736347198486 0.10554049909114838
0.41199854016304016 0.6768065690994263 -0.10461895912885666
0.40914076566696167 0.5785587430000305 -0.009998087771236897
0.3643684387207031 0.45888423919677734 0.31400540471076965
0.43541479110717773 0.5195342302322388 -0.011050894856452942
0.3964616060256958 0.6267463564872742 0.010568288154900074
0.3511515259742737 0.4643743336200714 0.09500167518854141
0.39059197902679443 0.6147699952125549 -0.06181058660149574
0.3896705210208893 0.6267696619033813 0.3583945631980896
0.4378688335418701 0.4826698303222656 0.017630569636821747
0.39566487073898315 0.6076945066452026 -0.09405549615621567
0.39309337735176086 0.7699987888336182 0.2317691594362259
0.41560691595077515 0.795384407043457 0.2721211016178131
0.33920344710350037 0.571443498134613 0.2754989266395569
0.3763875961303711 0.7300602793693542 0.25835761427879333
0.33171704411506653 0.42442381381988525 0.1949843019247055
0.43050503730773926 0.8875361680984497 0.14696824550628662
0.4259261190891266 0.680533230304718 -0.07448433339595795
0.39569181203842163 0.5921227335929871 0.011285074055194855
0.3343484401702881 0.4750556945800781 0.16934655606746674
0.3754177987575531 0.48287713527679443 0.0538298673927784
0.3938392996788025 0.48663872480392456 0.04005174711346626
0.4111925959587097 0.7638100385665894 0.11129769682884216
0.32179805636405945 0.6206010580062866 0.20278558135032654
0.4606579542160034 0.9329923987388611 0.1396797150373459
0.43224745988845825 0.8736571669578552 0.20571565628051758
0.4263695478439331 0.8387390375137329 0.23673421144485474
0.4705752432346344 0.3359893560409546 -0.11460799723863602
0.49896472692489624 0.9502429366111755 0.11178319901227951
0.411712110042572 0.48659396171569824 0.028676727786660194
0.4266773462295532 0.48387986421585083 0.022820843383669853
0.434906005859375 0.48308056592941284 0.021014712750911713
0.3285628855228424 0.43623995780944824 0.1347927302122116
0.4232286214828491 0.46644848585128784 0.01740250736474991
0.406388521194458 0.4592447280883789 0.0207506213337183
0.38658401370048523 0.4557976722717285 0.03141816332936287
0.3691446781158447 0.45709308981895447 0.04657336324453354
0.36018094420433044 0.4610876739025116 0.060110241174697876
0.34259334206581116 0.4052748680114746 0.25968262553215027
0.36501356959342957 0.4776989221572876 0.06662306934595108
0.4565422534942627 0.6994790434837341 -0.04538297653198242
0.39620906114578247 0.6901426911354065 0.021096250042319298
0.39327362179756165 0.6508480310440063 -0.04561980068683624
0.4259849190711975 0.6952124834060669 -0.02621096931397915
0.46744203567504883 0.47223609685897827 -0.08857317268848419
0.409335196018219 0.8109536170959473 0.20961403846740723
0.42190730571746826 0.8478527069091797 0.18047241866588593
0.4512732923030853 0.9198799133300781 0.11153928190469742
0.40841037034988403 0.7505512833595276 0.3133777976036072
0.43262815475463867 0.4763273000717163 0.0176966805011034
0.421382337808609 0.554949939250946 -0.06414885818958282
0.48988983035087585 0.9366975426673889 0.08537503331899643
0.4409312605857849 0.9065858125686646 0.17116034030914307
0.3465729057788849 0.6266305446624756 0.28216812014579773
0.4408684968948364 0.7992395162582397 0.05935772508382797
0.4346761703491211 0.8052915930747986 0.05968986079096794
0.42927852272987366 0.8140968680381775 0.06229071691632271
0.42677366733551025 0.8247866630554199 0.0707259476184845
0.4300023913383484 0.8341650366783142 0.09449868649244308
0.41787683963775635 0.7329791188240051 0.0858515053987503
0.4100503921508789 0.7281932830810547 0.09017235785722733
0.40393397212028503 0.7224024534225464 0.09122838824987411
0.38671061396598816 0.7086325287818909 0.09704813361167908
0.3282426595687866 0.6410897374153137 0.14645922183990479
0.4340244233608246 0.5248326063156128 -0.048582930117845535
0.44364088773727417 0.46783024072647095 -0.015680009499192238
0.4372067451477051 0.46793150901794434 0.004047043155878782
0.4253876209259033 0.7316281199455261 0.0858529806137085
0.35379526019096375 0.6980602145195007 0.20234905183315277
0.447792649269104 0.47215867042541504 -0.057212814688682556
0.43179336190223694 0.8450150489807129 0.11119196563959122
0.43220770359039307 0.5731900930404663 -0.12180814146995544
0.4286960959434509 0.545478105545044 -0.09306684881448746
0.4442855417728424 0.543027400970459 -0.10930309444665909
0.4058237075805664 0.59148108959198 -0.049254730343818665
0.48659777641296387 0.9142663478851318 0.06921238452196121
0.4870549142360687 0.8881531357765198 0.06135670468211174
0.45390376448631287 0.8759756088256836 0.08354569971561432
0.4024620056152344 0.7677168846130371 0.14842331409454346
0.38619911670684814 0.6443228721618652 0.03445901349186897
0.41746586561203003 0.8078330755233765 0.13364945352077484
0.3472253084182739 0.6334256529808044 0.06996449083089828
0.37417060136795044 0.6661021709442139 0.06371697038412094
0.34661227464675903 0.6668103933334351 0.11474205553531647
0.4493680000305176 0.8990168571472168 0.09552321583032608
0.4026447832584381 0.5997633934020996 -0.022344868630170822
0.39913439750671387 0.7842404246330261 0.1779780238866806
0.41730934381484985 0.8242266774177551 0.1568397730588913
0.3840753436088562 0.7287741899490356 0.14775055646896362
0.33821362257003784 0.6631647944450378 0.2205801010131836
0.3723164200782776 0.7306234240531921 0.17530867457389832
0.3609094023704529 0.6791733503341675 0.2834712564945221
0.37217026948928833 0.6886745691299438 0.10024412721395493
0.4161413908004761 0.5666782855987549 -0.03538918495178223
0.3860521912574768 0.6477724313735962 -0.07370489835739136
0.3861766755580902 0.6467068195343018 -0.04258017614483833
0.38555654883384705 0.6356024742126465 -0.09651105850934982
0.42573800683021545 0.4448119103908539 -0.016327902674674988
0.39244961738586426 0.4274900555610657 -0.006501519121229649
0.36503374576568604 0.4226033687591553 0.011101010255515575
0.3458528518676758 0.4250923991203308 0.03645254671573639
0.3375214636325836 0.4341151714324951 0.061359234154224396
0.3453849256038666 0.46969282627105713 0.11038706451654434
0.3390870690345764 0.5192498564720154 0.26132118701934814
0.34956851601600647 0.5053683519363403 0.09300178289413452
0.3644162714481354 0.5159101486206055 0.07021770626306534
0.3891635537147522 0.5194352269172668 0.04796610027551651
0.4137139320373535 0.5167843699455261 0.02911548875272274
0.42971178889274597 0.5112968683242798 0.012736009433865547
0.43908411264419556 0.5060417056083679 0.0018217031611129642
0.3787621259689331 0.5120004415512085 0.3449796140193939
0.3928643465042114 0.6510133743286133 -0.030606960877776146
0.40932324528694153 0.5811166167259216 -0.07591569423675537
0.38917601108551025 0.6556824445724487 -0.0988837480545044
0.40763723850250244 0.669089138507843 -0.09324459731578827
0.3958306312561035 0.6578887701034546 -0.08699294179677963
0.4009235203266144 0.6584082841873169 -0.02434190735220909
0.408028244972229 0.6735639572143555 -0.10022512823343277
0.4201624393463135 0.6767839193344116 -0.07315541803836823
0.442278116941452 0.4850034713745117 0.00732224527746439
0.4466054141521454 0.4943363666534424 -0.01324076484888792
0.4443034529685974 0.5022287368774414 -0.031619854271411896
0.3564610779285431 0.4639465808868408 0.07209847867488861
0.3469756841659546 0.45194554328918457 0.07798951864242554
0.4538363814353943 0.5779629945755005 -0.12486423552036285
0.6766629815101624 0.5027250051498413 -0.09105417132377625
0.46027687191963196 0.6785045266151428 -0.0887778103351593
0.8574009537696838 0.3786771595478058 -0.06279514729976654
0.5919017195701599 0.519302487373352 -0.07884927093982697
0.6181358695030212 0.5228060483932495 -0.08777901530265808
0.6471407413482666 0.5228918790817261 -0.09268094599246979
0.6946914196014404 0.5095168948173523 -0.09016251564025879
0.5706901550292969 0.5114843845367432 -0.06653516739606857
0.6325970888137817 0.45072221755981445 -0.11287721246480942
0.6018880605697632 0.45035091042518616 -0.09870322793722153
0.6633777618408203 0.45741599798202515 -0.11522787809371948
0.6855342388153076 0.46842098236083984 -0.11106914281845093
0.7218245267868042 0.5244985222816467 -0.08234728127717972
0.5934197902679443 0.8949490785598755 0.04875517636537552
0.6929147243499756 0.4965328574180603 -0.08852934837341309
0.8611915111541748 0.5023670196533203 -0.022282589226961136
0.7666563987731934 0.5072720050811768 -0.07625948637723923
0.6068612933158875 0.629404604434967 -0.07518112659454346
0.5020071268081665 0.7294334173202515 -0.04963025450706482
0.5096081495285034 0.7473880648612976 -0.03414733707904816
0.5535081624984741 0.7341198325157166 -0.047268882393836975
0.593019962310791 0.7376991510391235 -0.03149621933698654
0.5468906164169312 0.7482216954231262 -0.033825214952230453
0.5800161361694336 0.7475718259811401 -0.018862472847104073
0.6450572609901428 0.7880186438560486 0.02037656679749489
0.43331795930862427 0.6696403622627258 -0.13089938461780548
0.4339964687824249 0.6437907814979553 -0.14370866119861603
0.7305376529693604 0.44795095920562744 -0.1311013549566269
0.5501413345336914 0.56324303150177 -0.0752725824713707
0.5277467370033264 0.6527549624443054 -0.10227478295564651
0.5343343019485474 0.6352413892745972 -0.09836775064468384
0.7041038870811462 0.6232578754425049 -0.08470630645751953
0.4420929551124573 0.6087704300880432 -0.14006245136260986
0.6424113512039185 0.41843634843826294 -0.144167959690094
0.6906629800796509 0.42910170555114746 -0.14356054365634918
0.8044174909591675 0.3346211314201355 -0.1040487289428711
0.5194576978683472 0.4369167685508728 -0.11278875917196274
0.5775715708732605 0.45795750617980957 -0.08005119860172272
0.6659687757492065 0.7529627680778503 0.002430311404168606
0.8567874431610107 0.7516742944717407 0.1112145185470581
0.51168292760849 0.667915403842926 -0.08301646262407303
0.490416944026947 0.6748645901679993 -0.06946852058172226
0.6510277390480042 0.7513189315795898 0.011079770512878895
0.6378676891326904 0.7535405158996582 0.011822974309325218
0.7123011946678162 0.4107246398925781 -0.14372318983078003
0.5381655097007751 0.6586148738861084 -0.08629106730222702
0.584754228591919 0.4190960228443146 -0.1344819813966751
0.5889012813568115 0.3970683217048645 -0.14570772647857666
0.644568920135498 0.2774122953414917 -0.15219391882419586
0.7547647953033447 0.37316736578941345 -0.12624500691890717
0.6103935241699219 0.33633655309677124 -0.14940349757671356
0.7581543922424316 0.43364134430885315 -0.12304085493087769
0.8055270314216614 0.40874719619750977 -0.09300364553928375
0.5058009624481201 0.7413691878318787 -0.044027429074048996
0.5490635633468628 0.7433757185935974 -0.04044236242771149
0.5858510732650757 0.7431231141090393 -0.02618136815726757
0.5084956884384155 0.6706127524375916 -0.07214367389678955
0.644802451133728 0.7522777915000916 0.011861884966492653
0.6240019202232361 0.7799097299575806 0.014877049252390862
0.6337851881980896 0.7540581822395325 0.012670781463384628
0.4807139039039612 0.6687607765197754 -0.11424660682678223
0.5798972845077515 0.7430438995361328 -0.01378807332366705
0.5473378300666809 0.7447940707206726 -0.023112904280424118
0.5134225487709045 0.7461614012718201 -0.024518482387065887
0.530910849571228 0.8696653842926025 0.03906107321381569
0.5240633487701416 0.8549867868423462 0.012643571011722088
0.5205485820770264 0.8422861099243164 0.004539011511951685
0.5185375213623047 0.8296778202056885 0.005701358895748854
0.518157958984375 0.8196101188659668 0.007302762474864721
0.5859573483467102 0.7956593036651611 0.009915727190673351
0.590198278427124 0.7989577054977417 0.009032965637743473
0.5969255566596985 0.8046097159385681 0.009009099565446377
0.603356659412384 0.8107761740684509 0.012954575009644032
0.60331130027771 0.7171090841293335 -0.03756828233599663
0.8997207880020142 0.6122955679893494 0.09315293282270432
0.6087891459465027 0.7804232239723206 0.014489864930510521
0.6160463094711304 0.7796701788902283 0.014426793903112411
0.48418229818344116 0.6851885914802551 -0.06432925909757614
0.5386343598365784 0.6700431108474731 -0.057522810995578766
0.4866347908973694 0.6803491711616516 -0.06824878603219986
0.5800269842147827 0.5758801102638245 -0.07576724886894226
0.6267527341842651 0.5929785966873169 -0.08391935378313065
0.5469152927398682 0.6430715322494507 -0.08404253423213959
0.7344012260437012 0.2996108829975128 -0.13455045223236084
0.6917600035667419 0.3477758765220642 -0.14422042667865753
0.6545858979225159 0.39671236276626587 -0.1506526619195938
0.6143917441368103 0.8216521739959717 0.02419957146048546
0.524807333946228 0.4018063545227051 -0.13013476133346558
0.5404888987541199 0.3347041606903076 -0.13855862617492676
0.5628410577774048 0.26777172088623047 -0.145076185464859
0.6758033037185669 0.5187162160873413 -0.09270019084215164
0.7585915923118591 0.54155433177948 -0.07587584853172302
0.5571076273918152 0.5042226314544678 -0.06120173633098602
0.7220722436904907 0.47991591691970825 -0.10428807139396667
0.5280781984329224 0.548616886138916 -0.0801212415099144
0.4974171221256256 0.6498139500617981 -0.12061329931020737
0.8029243350028992 0.5582849383354187 -0.06005128473043442
0.7273246049880981 0.5585803389549255 -0.08506481349468231
0.6809955835342407 0.5670500993728638 -0.08803247660398483
0.6233978271484375 0.5633984804153442 -0.07920613139867783
0.5842813849449158 0.553109884262085 -0.07016056776046753
0.5568645596504211 0.5418829321861267 -0.06779702007770538
0.48210474848747253 0.5162405371665955 -0.09932206571102142
0.7966809272766113 0.6125115752220154 -0.05233052372932434
0.7522146701812744 0.4750838577747345 -0.10576235502958298
0.4349558353424072 0.6807349920272827 -0.11620160192251205
0.54233717918396 0.5907964110374451 -0.07807491719722748
0.9080312252044678 0.4883887767791748 0.0390905886888504
0.5348443388938904 0.5291179418563843 -0.06694801896810532
0.5588975548744202 0.640206515789032 -0.05886648967862129
0.707362174987793 0.4955034852027893 -0.08801069110631943
0.5057573914527893 0.627914547920227 -0.11543400585651398
0.8865282535552979 0.6796351075172424 0.10591880232095718
0.561788022518158 0.4963914752006531 -0.0603521354496479
0.47271066904067993 0.6165406703948975 -0.13353921473026276
0.7435566186904907 0.8277279138565063 0.055731382220983505
0.7576584219932556 0.8567737340927124 0.09431306272745132
0.8603346347808838 0.6178526282310486 0.01759205386042595
0.7925746440887451 0.7901989817619324 0.050749924033880234
0.8373128175735474 0.45048990845680237 -0.05395897105336189
0.5977274775505066 0.9216691255569458 0.06311170756816864
0.44464007019996643 0.6828294992446899 -0.08150917291641235
0.5714174509048462 0.6068530678749084 -0.07319480925798416
0.8035457134246826 0.5099308490753174 -0.0645362138748169
0.6401470899581909 0.5097464323043823 -0.09209694713354111
0.6150317192077637 0.5098646879196167 -0.0887208878993988
0.6321425437927246 0.7809911370277405 0.015544191934168339
0.799359917640686 0.6675259470939636 -0.026768263429403305
0.5501978993415833 0.9528363943099976 0.09221825003623962
0.6489232182502747 0.9186100959777832 0.09034420549869537
0.6980310678482056 0.8932126760482788 0.09173829108476639
0.5951447486877441 0.5060858130455017 -0.08110448718070984
0.5768020749092102 0.5003882646560669 -0.07108601182699203
0.5657265186309814 0.49758338928222656 -0.0633750632405281
0.7861452698707581 0.4663984775543213 -0.09329641610383987
0.5858567357063293 0.4811403155326843 -0.08017833530902863
0.6093966364860535 0.4763948917388916 -0.09282178431749344
0.6317303776741028 0.47786945104599 -0.10140655189752579
0.6554560661315918 0.483318030834198 -0.10400143265724182
0.6720564365386963 0.4895741045475006 -0.10056588053703308
0.890450119972229 0.4264005422592163 -0.009990904480218887
0.6601411700248718 0.5068774819374084 -0.092417411506176
0.563442587852478 0.7053024768829346 -0.05075584352016449
0.5067283511161804 0.6672477722167969 -0.09156182408332825
0.4966218173503876 0.7029737830162048 -0.05620119720697403
0.6934587359428406 0.8636905550956726 0.06611157953739166
0.64751797914505 0.8928792476654053 0.06775004416704178
0.5433722138404846 0.9391075372695923 0.06504598259925842
0.8104931712150574 0.8123408555984497 0.10154110938310623
0.5690039992332458 0.49067777395248413 -0.06899069994688034
0.49260449409484863 0.562002420425415 -0.1017058789730072
0.599790632724762 0.9402465224266052 0.08580294251441956
0.8540371656417847 0.6793094873428345 0.034723829478025436
0.5532856583595276 0.8107446432113647 0.005862148012965918
0.5571224689483643 0.8174503445625305 0.0044708228670060635
0.5616313219070435 0.8271491527557373 0.004323830362409353
0.5661385655403137 0.8383868932723999 0.010679366067051888
0.5774238109588623 0.8508221507072449 0.026835447177290916
0.615731418132782 0.7471372485160828 -0.004902966320514679
0.6221765279769897 0.7446877956390381 -0.008091832511126995
0.62930828332901 0.7405403256416321 -0.011769184842705727
0.6408834457397461 0.7315096855163574 -0.021211955696344376
0.743964672088623 0.6827666163444519 -0.05166846886277199
0.5045455694198608 0.5314505100250244 -0.08835100382566452
0.5355101227760315 0.4753706455230713 -0.06632903963327408
0.5556334853172302 0.47807323932647705 -0.06706153601408005
0.6109887957572937 0.7438467144966125 -0.0008647099602967501
0.7653722763061523 0.7494157552719116 0.0035186228342354298
0.5040672421455383 0.4761151969432831 -0.08689860999584198
0.5872324109077454 0.8688204288482666 0.03981243818998337
0.4677274823188782 0.549405574798584 -0.11314495652914047
0.5100831389427185 0.6022124886512756 -0.09838663786649704
0.5358136892318726 0.8884981870651245 0.04934839531779289
0.6594627499580383 0.8026746511459351 0.02556552365422249
0.5877484679222107 0.6612645387649536 -0.055701714009046555
0.6279559135437012 0.8391239643096924 0.035962123423814774
0.6586201190948486 0.6622169017791748 -0.072590172290802
0.6222530007362366 0.6889905333518982 -0.04951818659901619
0.6952341794967651 0.7030566930770874 -0.048606518656015396
0.5392979979515076 0.9153090715408325 0.051330193877220154
0.5349647998809814 0.6121827960014343 -0.08452815562486649
0.6802016496658325 0.8300533294677734 0.03959924727678299
0.6388224363327026 0.8637522459030151 0.05129445716738701
0.6815081238746643 0.7644028067588806 -0.0008617548737674952
0.7990289330482483 0.7150919437408447 -0.00021467509213835
0.7197126746177673 0.7780688405036926 0.005950713995844126
0.8345836400985718 0.7370155453681946 0.048318397253751755
0.6597122550010681 0.7166237831115723 -0.036619555205106735
0.5173394083976746 0.5764844417572021 -0.0886491984128952
0.48704084753990173 0.6647137999534607 -0.12191574275493622
0.5178787112236023 0.6637037992477417 -0.09823650121688843
0.46468257904052734 0.647519052028656 -0.136552631855011
0.5519089698791504 0.45374786853790283 -0.08669459074735641
0.5935303568840027 0.4413483738899231 -0.10941238701343536
0.6335649490356445 0.4403640627861023 -0.1225086972117424
0.6715161800384521 0.4473237097263336 -0.1264103204011917
0.7018530368804932 0.4602102041244507 -0.12022408843040466
0.732001543045044 0.5019475221633911 -0.0847405418753624
0.863175094127655 0.5596004128456116 -0.00391452806070447
0.6990777254104614 0.5349406599998474 -0.08468847721815109
0.6632394194602966 0.54168301820755 -0.08527113497257233
0.6230827569961548 0.541223406791687 -0.07972198724746704
0.5887877345085144 0.5343530178070068 -0.07077174633741379
0.5640724897384644 0.5251175761222839 -0.06220182031393051
0.5465352535247803 0.5170155167579651 -0.058574128895998
0.9064370393753052 0.5490311980247498 0.0710870772600174
0.5247046947479248 0.6659829616546631 -0.08488006144762039
0.48062941431999207 0.5885353088378906 -0.11449047178030014
0.4575574994087219 0.6680153608322144 -0.12935325503349304
0.45393988490104675 0.6777009963989258 -0.11081583797931671
0.4655490517616272 0.6713876128196716 -0.11838366091251373
0.5238374471664429 0.6702030301094055 -0.07021664828062057
0.4451082944869995 0.6799143552780151 -0.1145799532532692
0.4537231922149658 0.6821203231811523 -0.08519364148378372
0.5494365692138672 0.49620068073272705 -0.05643902346491814
0.532808780670166 0.5027656555175781 -0.05973651632666588
0.5185625553131104 0.5091129541397095 -0.07144185900688171
0.6829685568809509 0.4937991499900818 -0.09601758420467377
0.7027909159660339 0.4808664917945862 -0.10132594406604767
