ply
format ascii 1.0
element vertex 468
property float x
property float y
property float z
end_header
0.47039273381233215 0.7309427261352539 -0.06318430602550507
0.4411896765232086 0.657322108745575 -0.14883850514888763
0.4631671607494354 0.6812524199485779 -0.07728821784257889
0.43499451875686646 0.5592393279075623 -0.11347189545631409
0.43997323513031006 0.6276679039001465 -0.16040866076946259
0.4461421072483063 0.5882534384727478 -0.15292689204216003
0.4691355228424072 0.4925055503845215 -0.09101010113954544
0.3243529200553894 0.47016510367393494 0.07629066705703735
0.4751845896244049 0.422119140625 -0.07862484455108643
0.47408327460289 0.38341742753982544 -0.08712570369243622
0.48757848143577576 0.23580008745193481 -0.07702913135290146
0.4727766215801239 0.7430877685546875 -0.058692194521427155
0.4766940474510193 0.7504251599311829 -0.050716582685709
0.48107069730758667 0.7509176731109619 -0.039356529712677
0.48135340213775635 0.8126754760742188 -0.015401540324091911
0.4794968366622925 0.8243337273597717 -0.018909115344285965
0.47871679067611694 0.8380017280578613 -0.02268647775053978
0.47932350635528564 0.853783369064331 -0.01569485105574131
0.48266351222991943 0.876314103603363 0.010528795421123505
0.4467439651489258 0.6720457077026367 -0.13460348546504974
0.43248218297958374 0.6661736369132996 -0.09178142249584198
0.27065253257751465 0.3667420744895935 0.21803778409957886
0.3948393166065216 0.4966354966163635 0.031176943331956863
0.36982133984565735 0.4973752498626709 0.040455445647239685
0.3455316424369812 0.49528467655181885 0.054329972714185715
0.3161476254463196 0.4793998599052429 0.08499441295862198
0.4138302803039551 0.4917330741882324 0.024143168702721596
0.3547099530696869 0.4285803437232971 0.024326728656888008
0.3821348547935486 0.4321189820766449 0.014260498806834221
0.33083006739616394 0.43155646324157715 0.04119623452425003
0.3167400658130646 0.44039034843444824 0.05751095712184906
0.29681703448295593 0.49804067611694336 0.10457384586334229
0.39391472935676575 0.8970948457717896 0.07741439342498779
0.3167293965816498 0.4648933410644531 0.08703647553920746
0.2585131525993347 0.48601311445236206 0.24657176434993744
0.2791796922683716 0.48069000244140625 0.13723230361938477
0.34972479939460754 0.6127144694328308 0.017477048560976982
0.4332984685897827 0.7241987586021423 -0.049314044415950775
0.44345876574516296 0.7468894124031067 -0.03561670705676079
0.4008757174015045 0.7244541645050049 -0.018630264326930046
0.38561850786209106 0.7282485365867615 0.019502433016896248
0.4200948476791382 0.7435572147369385 -0.010392045602202415
0.40548253059387207 0.7421600818634033 0.022908136248588562
0.37187111377716064 0.7796425819396973 0.09002027660608292
0.4217318892478943 0.6548944711685181 -0.14171385765075684
0.4182583689689636 0.6263236403465271 -0.15099331736564636
0.28357046842575073 0.4125216007232666 0.07118015736341476
0.40715891122817993 0.5467367172241211 -0.0077727544121444225
0.38268327713012695 0.6349439024925232 -0.05846158042550087
0.384945809841156 0.6186345219612122 -0.050240252166986465
0.28013285994529724 0.6018579602241516 0.07664790749549866
0.42571935057640076 0.5899554491043091 -0.13667388260364532
0.3269599676132202 0.3856757879257202 0.0006827163160778582
0.299468070268631 0.3931364417076111 0.034489743411540985
0.2831217348575592 0.318086713552475 0.15102770924568176
0.4260096549987793 0.4146376848220825 -0.05472308397293091
0.40579408407211304 0.4420709013938904 0.015565965324640274
0.352152943611145 0.7423639297485352 0.09515439718961716
0.29775986075401306 0.7487644553184509 0.34019631147384644
0.40180718898773193 0.6522678732872009 -0.05250959098339081
0.42224088311195374 0.6643635630607605 -0.06310375034809113
0.3714263439178467 0.7428492307662964 0.09084400534629822
0.3852042555809021 0.7459606528282166 0.08045797049999237
0.28982028365135193 0.3740439713001251 0.0492418147623539
0.38574084639549255 0.6442481875419617 -0.04266095533967018
0.36771780252456665 0.3911266624927521 -0.029910966753959656
0.36202117800712585 0.36755087971687317 -0.037538040429353714
0.3537723422050476 0.2522231340408325 0.007191007491201162
0.2856981158256531 0.34581008553504944 0.09372681379318237
0.3584313988685608 0.3078145980834961 -0.016732610762119293
0.2745802700519562 0.39995837211608887 0.09684669971466064
0.27127930521965027 0.3855440616607666 0.15409977734088898
0.4370289444923401 0.7381273508071899 -0.04434766247868538
0.4106578230857849 0.7362735867500305 -0.014481655322015285
0.39484477043151855 0.7352713942527771 0.019595978781580925
0.40853190422058105 0.6572538018226624 -0.05014166608452797
0.3776399493217468 0.7439996004104614 0.08486851304769516
0.3879407048225403 0.7684699892997742 0.06828364729881287
0.39131271839141846 0.7469604015350342 0.07863999903202057
0.4062017798423767 0.6492990255355835 -0.09297243505716324
0.4132540822029114 0.7401119470596313 0.025299251079559326
0.4285876750946045 0.7426672577857971 -0.0012055585393682122
0.45071348547935486 0.7474969625473022 -0.0238043162971735
0.4422614574432373 0.8697815537452698 0.023994985967874527
0.4406810402870178 0.8453506827354431 -1.6219220924540423e-05
0.4418456554412842 0.8298970460891724 -0.005175957456231117
0.4449814558029175 0.8165301084518433 -0.0011469186283648014
0.4499145448207855 0.8069341778755188 0.0012276258785277605
0.41182297468185425 0.7826279401779175 0.04438462108373642
0.40601980686187744 0.7850707173347473 0.041891977190971375
0.3989945650100708 0.7905494570732117 0.04110906645655632
0.39442938566207886 0.7980583906173706 0.049557942897081375
0.36500608921051025 0.7057952284812927 0.027388347312808037
0.28133469820022583 0.6076676845550537 0.3702825903892517
0.4540663957595825 0.67670738697052 -0.0985000729560852
0.40293145179748535 0.7700343728065491 0.06706271320581436
0.39459556341171265 0.7684745788574219 0.06598256528377533
0.43099716305732727 0.6775540113449097 -0.061139050871133804
0.3956628441810608 0.660044252872467 -0.024437692016363144
0.4266505241394043 0.6713958382606506 -0.06352938711643219
0.3820520043373108 0.5592318773269653 0.011917115189135075
0.33865684270858765 0.5739500522613525 0.03273335099220276
0.38382846117019653 0.6287497282028198 -0.03276577964425087
0.3079340159893036 0.27865707874298096 0.07820405066013336
0.3128195106983185 0.3183075487613678 0.03760987147688866
0.31953874230384827 0.3624895513057709 0.0055090999230742455
0.3873833417892456 0.8141748309135437 0.0725567564368248
0.41511017084121704 0.3768268823623657 -0.06669257581233978
0.41214853525161743 0.3066801428794861 -0.05593934282660484
0.41138899326324463 0.23949012160301208 -0.04553088918328285
0.3259589970111847 0.48923346400260925 0.07140297442674637
0.272545725107193 0.5165870785713196 0.12883466482162476
0.4250267744064331 0.48590564727783203 0.02289370633661747
0.2967257499694824 0.448337197303772 0.08902327716350555
0.42275524139404297 0.5317063331604004 -0.024730246514081955
0.39125949144363403 0.6294407844543457 -0.09043121337890625
0.2527833580970764 0.5353195071220398 0.17122021317481995
0.2814050614833832 0.5342298150062561 0.10286664962768555
0.30664756894111633 0.544541597366333 0.06959741562604904
0.35254380106925964 0.5435078144073486 0.042826179414987564
0.3886052668094635 0.5353655815124512 0.0247524231672287
0.41311115026474 0.5250306725502014 0.006735050585120916
0.44816815853118896 0.4987758696079254 -0.07092766463756561
0.24383437633514404 0.591031551361084 0.17053312063217163
0.28147852420806885 0.4443572163581848 0.10631202906370163
0.4346449673175812 0.669558048248291 -0.12914089858531952
0.40251481533050537 0.5752493739128113 -0.01794547215104103
0.27318984270095825 0.48307114839553833 0.33763787150382996
0.4295993447303772 0.5125055313110352 -0.005718601401895285
0.3864518404006958 0.6282638907432556 -0.003702060552313924
0.30973923206329346 0.4651408791542053 0.09554395079612732
0.39541685581207275 0.6095138788223267 -0.08140981197357178
0.2852415442466736 0.6757376194000244 0.36180809140205383
0.42536085844039917 0.47672438621520996 0.029248666018247604
0.40950173139572144 0.5972569584846497 -0.11386170983314514
0.3162441849708557 0.8162761330604553 0.19735239446163177
0.3339506685733795 0.851595401763916 0.24303966760635376
0.24785315990447998 0.602630615234375 0.27371838688850403
0.28826647996902466 0.7781495451927185 0.23112474381923676
0.26496589183807373 0.43219733238220215 0.2081460952758789
0.3946949243545532 0.9258931875228882 0.09453511983156204
0.44410520792007446 0.6748336553573608 -0.09438174962997437
0.38184860348701477 0.5921652913093567 -0.00013045337982475758
0.26538383960723877 0.4858025908470154 0.17176644504070282
0.3476167321205139 0.478202223777771 0.05407377704977989
0.36961013078689575 0.48131251335144043 0.04173276573419571
0.3824506103992462 0.7705029249191284 0.07502590119838715
0.24569329619407654 0.6486567854881287 0.18394143879413605
0.4390146732330322 0.9713776111602783 0.08801188319921494
0.3826453685760498 0.9213659167289734 0.162027969956398
0.36161738634109497 0.8910684585571289 0.19944803416728973
0.4794483482837677 0.3081517219543457 -0.0832701027393341
0.48949161171913147 0.9840196967124939 0.06371524184942245
0.390753835439682 0.48111703991889954 0.03328026831150055
0.4097605347633362 0.4784398078918457 0.030738109722733498
0.4207746386528015 0.4774703085422516 0.031521670520305634
0.2709347605705261 0.43833523988723755 0.13843271136283875
0.4057006239891052 0.4626012444496155 0.025329899042844772
0.38492050766944885 0.45715248584747314 0.025915533304214478
0.3625023066997528 0.4549328684806824 0.033877454698085785
0.3415939211845398 0.4569011926651001 0.047072965651750565
0.3287183940410614 0.4609708786010742 0.06048158183693886
0.2670010030269623 0.41853970289230347 0.28437554836273193
0.33359047770500183 0.47421178221702576 0.0662885457277298
0.4671311676502228 0.6974785327911377 -0.06563474237918854
0.38435447216033936 0.6950382590293884 -0.005739443004131317
0.3986644148826599 0.6494555473327637 -0.06493217498064041
0.4298769235610962 0.6955062747001648 -0.05055108293890953
0.4761393666267395 0.45584213733673096 -0.0750175341963768
0.3467782437801361 0.85564124584198 0.16847139596939087
0.37133124470710754 0.8900197744369507 0.13387790322303772
0.4305940866470337 0.9533052444458008 0.055880505591630936
0.31404951214790344 0.8084107041358948 0.2944495975971222
0.4186860918998718 0.47093653678894043 0.027773650363087654
0.42755556106567383 0.5437473058700562 -0.06847724318504333
0.48277780413627625 0.9652862548828125 0.033361636102199554
0.40552183985710144 0.9496642351150513 0.12173675745725632
0.2532713711261749 0.6656340956687927 0.27307844161987305
0.4273008704185486 0.796047568321228 0.022237326949834824
0.4211133122444153 0.8022692799568176 0.020124683156609535
0.41589707136154175 0.8123548030853271 0.02004382386803627
0.41261589527130127 0.8258405923843384 0.027102764695882797
0.40895164012908936 0.8458552360534668 0.049846798181533813
0.39290422201156616 0.7412721514701843 0.05449016019701958
0.38334348797798157 0.7369433641433716 0.057695385068655014
0.37544959783554077 0.7320582866668701 0.05844990909099579
0.3525667190551758 0.720192015171051 0.06408687680959702
0.26458266377449036 0.6635617613792419 0.12063111364841461
0.4362788796424866 0.5140153765678406 -0.04624063894152641
0.4374943971633911 0.45817428827285767 -0.0019898833706974983
0.4269576966762543 0.4614008069038391 0.01663939468562603
0.40164220333099365 0.7391331195831299 0.05518481507897377
0.278554767370224 0.7336364388465881 0.17314216494560242
0.4493681788444519 0.4588909447193146 -0.04521367326378822
0.4021221399307251 0.8685461282730103 0.06415640562772751
0.4540230929851532 0.5561348795890808 -0.1308368444442749
0.4410537779331207 0.5309072732925415 -0.09584858268499374
0.4614105224609375 0.5261112451553345 -0.1099790707230568
0.4084218144416809 0.5851165056228638 -0.060555338859558105
0.48031431436538696 0.9368739128112793 0.01769339293241501
0.4814501404762268 0.9031238555908203 0.013924041762948036
0.4367673993110657 0.8948326110839844 0.03324975445866585
0.3572062849998474 0.793221116065979 0.10850423574447632
0.36867082118988037 0.6490387320518494 0.01570819318294525
0.3787234425544739 0.8339706063270569 0.08976392447948456
0.3087562024593353 0.6429235339164734 0.04567599296569824
0.3456898331642151 0.6744725704193115 0.03869449347257614
0.29461145401000977 0.6848791241645813 0.08506721258163452
0.42971229553222656 0.9266483783721924 0.04065624624490738
0.39862459897994995 0.5972423553466797 -0.034672316163778305
0.34426364302635193 0.819490909576416 0.13680362701416016
0.3715013265609741 0.8587502241134644 0.1108732745051384
0.3344437777996063 0.7517144680023193 0.11001546680927277
0.25791239738464355 0.6984208226203918 0.19751352071762085
0.3083805441856384 0.7627371549606323 0.13938435912132263
0.26699551939964294 0.724739670753479 0.26620009541511536
0.33086809515953064 0.7027963995933533 0.06900356709957123
0.4160009026527405 0.5594865083694458 -0.04150952026247978
0.3975560665130615 0.6439501047134399 -0.09755434095859528
0.3887132406234741 0.6455491781234741 -0.06467821449041367
0.4030354619026184 0.6272023916244507 -0.12103280425071716
0.41688770055770874 0.43414515256881714 -0.00422261469066143
0.3765641450881958 0.4171665906906128 0.0016649634344503284
0.34231066703796387 0.4128963053226471 0.014958587475121021
0.31607183814048767 0.41678953170776367 0.037006035447120667
0.3010428249835968 0.4279586374759674 0.06139461696147919
0.2965041995048523 0.4728752374649048 0.11081616580486298
0.2508687376976013 0.5436179041862488 0.2643008530139923
0.30679750442504883 0.5090217590332031 0.08869480341672897
0.3296329975128174 0.5175516605377197 0.06568314135074615
0.3624832034111023 0.5190901160240173 0.045474566519260406
0.3936117887496948 0.5146656632423401 0.03065110184252262
0.4160524606704712 0.507474422454834 0.018367141485214233
0.4298800230026245 0.5001149773597717 0.009905792772769928
0.2797510325908661 0.5448130965232849 0.3640914261341095
0.39287588000297546 0.6506885886192322 -0.05070848762989044
0.4200705289840698 0.5698992013931274 -0.0874922052025795
0.4085618257522583 0.6488065719604492 -0.12380468845367432
0.42649051547050476 0.6630375981330872 -0.11630600690841675
0.41254717111587524 0.6523036360740662 -0.11058558523654938
0.4005400538444519 0.6584546566009521 -0.043434787541627884
0.42838260531425476 0.6668027639389038 -0.12427632510662079
0.43713265657424927 0.671509325504303 -0.09301307797431946
0.4321262240409851 0.47854170203208923 0.020017821341753006
0.44079869985580444 0.48609495162963867 -0.001364775002002716
0.4422588646411896 0.49245545268058777 -0.02292610891163349
0.32143664360046387 0.46372324228286743 0.07229535281658173
0.3083396255970001 0.4503616392612457 0.07741905748844147
0.4770957827568054 0.5606725811958313 -0.1296982765197754
0.6860377788543701 0.4833349585533142 -0.04464457556605339
0.4821016788482666 0.6700058579444885 -0.10432466864585876
0.8532721400260925 0.3675522208213806 0.031353726983070374
0.6007178425788879 0.5038408041000366 -0.046471331268548965
0.6286942362785339 0.5060641169548035 -0.052580855786800385
0.6582534909248352 0.5054155588150024 -0.05328874662518501
0.7038087248802185 0.4925307631492615 -0.04308873787522316
0.5780007243156433 0.4977075755596161 -0.03643497824668884
0.6397343873977661 0.43615227937698364 -0.07394346594810486
0.6097820401191711 0.43725359439849854 -0.06254765391349792
0.6691341400146484 0.44113191962242126 -0.07230639457702637
0.6907000541687012 0.45161300897598267 -0.06485671550035477
0.7333718538284302 0.5098644495010376 -0.03323328495025635
0.596199631690979 0.9149243831634521 0.019260849803686142
0.700183629989624 0.47886306047439575 -0.039298899471759796
0.8635889291763306 0.4984133839607239 0.05770908296108246
0.7751179933547974 0.49338290095329285 -0.017324667423963547
0.6262986660003662 0.6204463839530945 -0.06297370791435242
0.5148699879646301 0.7277085781097412 -0.07156594097614288
0.5187689065933228 0.7502458095550537 -0.056439049541950226
0.5664981007575989 0.7321896553039551 -0.0632028803229332
0.6042262315750122 0.7373759746551514 -0.04168924689292908
0.556468665599823 0.7499428391456604 -0.05083443969488144
0.5887492299079895 0.749433696269989 -0.030535968020558357
0.6485320925712585 0.7928944230079651 0.011444782838225365
0.46475672721862793 0.6576442718505859 -0.1519169956445694
0.4661347270011902 0.6282587051391602 -0.16337460279464722
0.739544153213501 0.4238126873970032 -0.07399242371320724
0.563270628452301 0.5512404441833496 -0.0590800903737545
0.5533585548400879 0.6413139700889587 -0.10615617036819458
0.5580869317054749 0.624133825302124 -0.09975966811180115
0.7264914512634277 0.6146180033683777 -0.056028690189123154
0.47083401679992676 0.5915115475654602 -0.15276511013507843
0.6545871496200562 0.3915567994117737 -0.09976425766944885
0.7014099955558777 0.40225332975387573 -0.0916905403137207
0.8038979768753052 0.31543806195259094 -0.01573946699500084
0.5303241014480591 0.4160977602005005 -0.08745524287223816
0.5851898193359375 0.44591304659843445 -0.04629994183778763
0.6740239858627319 0.7551969885826111 0.001281718839891255
0.8593094348907471 0.7793217897415161 0.16719874739646912
0.5351998805999756 0.6584141850471497 -0.08828233182430267
0.5103685259819031 0.6681875586509705 -0.08062195032835007
0.6558496952056885 0.7526316046714783 0.008602108806371689
0.642345666885376 0.754258394241333 0.006958091631531715
0.7225066423416138 0.3823992609977722 -0.08587468415498734
0.5617802143096924 0.6499354243278503 -0.08938821405172348
0.5975608825683594 0.3944648802280426 -0.09885841608047485
0.6021276116371155 0.37000489234924316 -0.10823748260736465
0.6542404890060425 0.24765923619270325 -0.0874420702457428
0.7608249187469482 0.3486090898513794 -0.05522111430764198
0.6228657364845276 0.30676960945129395 -0.09795530140399933
0.7663493752479553 0.40996053814888 -0.058954671025276184
0.8087326288223267 0.3909907042980194 -0.014599412679672241
0.5167548656463623 0.7420097589492798 -0.06652267277240753
0.5603066682815552 0.743421196937561 -0.0571587011218071
0.5957807302474976 0.7435557842254639 -0.03781140595674515
0.5300819277763367 0.6625890731811523 -0.0790231004357338
0.6494400501251221 0.752955436706543 0.008206520229578018
0.6275184154510498 0.7780418395996094 0.0029413276351988316
0.6382056474685669 0.7551057934761047 0.007263740058988333
0.5080265998840332 0.6560394763946533 -0.12518301606178284
0.5868393182754517 0.7457920908927917 -0.025588281452655792
0.5546844601631165 0.7478630542755127 -0.03943685442209244
0.5201247930526733 0.7504090070724487 -0.045503899455070496
0.529725968837738 0.8754501938819885 0.0023657558485865593
0.5253989100456238 0.8507270216941833 -0.02422376535832882
0.5232813358306885 0.8351702690124512 -0.03028789907693863
0.521824836730957 0.8214906454086304 -0.025884876027703285
0.5203551054000854 0.8115496635437012 -0.022056851536035538
0.5892332196235657 0.7906548380851746 -0.006903120782226324
0.5936398506164551 0.7935774922370911 -0.010059639811515808
0.6000944972038269 0.7999894618988037 -0.011975493282079697
0.6056437492370605 0.8085414171218872 -0.007216666359454393
0.6193564534187317 0.7146117687225342 -0.04166533797979355
0.8976927995681763 0.6290243268013 0.17754995822906494
0.612087070941925 0.7780487537384033 0.004401152487844229
0.6195036768913269 0.7768580317497253 0.0027807631995528936
0.5015967488288879 0.6805002689361572 -0.07832254469394684
0.5588608980178833 0.6646218299865723 -0.06223413348197937
0.5054506659507751 0.6747697591781616 -0.08058508485555649
0.5954951047897339 0.5648994445800781 -0.05747266858816147
0.6460390090942383 0.5819053649902344 -0.06184472516179085
0.5690209269523621 0.6342232823371887 -0.0838068276643753
0.7391347885131836 0.27398306131362915 -0.057618267834186554
0.7010913491249084 0.3188667893409729 -0.08189628273248672
0.6668545007705688 0.36751797795295715 -0.10098253190517426
0.617066502571106 0.8269614577293396 0.007212520577013493
0.5365986227989197 0.37730565667152405 -0.10220223665237427
0.5527234077453613 0.30578485131263733 -0.09777118265628815
0.5738995671272278 0.23650860786437988 -0.0931580513715744
0.686456561088562 0.5010920166969299 -0.0491357184946537
0.7718536853790283 0.529342532157898 -0.024231376126408577
0.5636119246482849 0.4915318191051483 -0.031173555180430412
0.7295534014701843 0.46105021238327026 -0.05078541487455368
0.5404143333435059 0.5351701974868774 -0.06535149365663528
0.5254790782928467 0.63565593957901 -0.12882407009601593
0.8158389925956726 0.5504915118217468 -0.0021390942856669426
0.7439004778862 0.5458483695983887 -0.040901150554418564
0.6991454362869263 0.5539696216583252 -0.05325542390346527
0.6392170190811157 0.5510014295578003 -0.05148695036768913
0.5969247817993164 0.5412724018096924 -0.04637333005666733
0.5670307874679565 0.5297703742980957 -0.046104561537504196
0.4955991208553314 0.5001921057701111 -0.08834082633256912
0.8149373531341553 0.6084782481193542 -0.0025408898945897818
0.7603431940078735 0.45652586221694946 -0.04634616896510124
0.46095067262649536 0.6716505885124207 -0.13695736229419708
0.5583752393722534 0.5795292258262634 -0.06771153211593628
0.9009193181991577 0.49342361092567444 0.13761769235134125
0.5439723134040833 0.5160101652145386 -0.04631318524479866
0.579002857208252 0.6333791613578796 -0.05520210415124893
0.7139472365379333 0.4787363111972809 -0.03726143389940262
0.5314429402351379 0.6144031286239624 -0.12032468616962433
0.8869990110397339 0.7024165987968445 0.17783893644809723
0.5668405294418335 0.48312151432037354 -0.02719010040163994
0.4999138116836548 0.600761890411377 -0.14216747879981995
0.7528388500213623 0.8471053242683411 0.06841167062520981
0.7617559432983398 0.8862074613571167 0.11278283596038818
0.8700778484344482 0.6235640048980713 0.08568929135799408
0.8041781187057495 0.8089383840560913 0.07928889244794846
0.8395330905914307 0.44013726711273193 0.027376864105463028
0.60028475522995 0.9464371800422668 0.03315592184662819
0.4650854468345642 0.6760495901107788 -0.0994383916258812
0.588348925113678 0.597622811794281 -0.0618417002260685
0.811331570148468 0.49915018677711487 0.001476098201237619
0.6513140201568604 0.48905956745147705 -0.05150182172656059
0.6258634924888611 0.49039632081985474 -0.0515393503010273
0.6350454688072205 0.7806478142738342 0.005380837246775627
0.8184940814971924 0.6697871088981628 0.015904171392321587
0.5472280979156494 0.9835805892944336 0.053456004709005356
0.6491721272468567 0.9486650824546814 0.07763838022947311
0.6995794177055359 0.9233292937278748 0.09322769194841385
0.6038604378700256 0.4887748956680298 -0.04622157663106918
0.5837178230285645 0.4852001667022705 -0.03760040923953056
0.5717949867248535 0.4838329553604126 -0.029318394139409065
0.7932041883468628 0.4494786858558655 -0.026684783399105072
0.591086745262146 0.4692864418029785 -0.044911760836839676
0.615404486656189 0.46495509147644043 -0.05631851777434349
0.6376849412918091 0.46521276235580444 -0.06186096742749214
0.6613537073135376 0.4690054953098297 -0.06153259053826332
0.6784625053405762 0.47379785776138306 -0.05596468597650528
0.8845003843307495 0.42311981320381165 0.08851488679647446
0.6708588004112244 0.48636287450790405 -0.04877225309610367
0.5807878375053406 0.7014524936676025 -0.057663444429636
0.5316601991653442 0.656372606754303 -0.09837540239095688
0.5115503072738647 0.6989079713821411 -0.07233887910842896
0.6988029479980469 0.885148286819458 0.06382843106985092
0.6512189507484436 0.9163464307785034 0.05088185518980026
0.5423625111579895 0.9650764465332031 0.022024309262633324
0.8139914274215698 0.8416848182678223 0.13990353047847748
0.5741659998893738 0.4776805639266968 -0.034637123346328735
0.5100305676460266 0.5462032556533813 -0.09569859504699707
0.599014937877655 0.9703866243362427 0.05932977423071861
0.8650962710380554 0.6909409761428833 0.09269391745328903
0.5562102198600769 0.8033656477928162 -0.017538519576191902
0.5605173110961914 0.810232937335968 -0.021029574796557426
0.564434289932251 0.8209459185600281 -0.023196132853627205
0.5679347515106201 0.834891676902771 -0.017627790570259094
0.5780554413795471 0.8563979864120483 0.0005336710019037127
0.622145414352417 0.7491729259490967 -0.011622142978012562
0.6295938491821289 0.7459521889686584 -0.01357336901128292
0.6369885802268982 0.7416232228279114 -0.01644245535135269
0.6544294953346252 0.7307265400886536 -0.021661529317498207
0.7661851048469543 0.6821434497833252 -0.024214567616581917
0.5173680186271667 0.516349732875824 -0.07495391368865967
0.5422589182853699 0.46095603704452515 -0.0378706119954586
0.561199426651001 0.4655507206916809 -0.03492334485054016
0.6169257760047913 0.7459374070167542 -0.008239040151238441
0.7813871502876282 0.7583019137382507 0.02803383208811283
0.5133811235427856 0.4601973295211792 -0.06676258146762848
0.5884817242622375 0.8828171491622925 0.01174212247133255
0.4863656163215637 0.5324409008026123 -0.11046616733074188
0.5303599834442139 0.5889523029327393 -0.09662182629108429
0.5344059467315674 0.9027560353279114 0.007929709739983082
0.6655226945877075 0.811211347579956 0.018541621044278145
0.6071009039878845 0.6558441519737244 -0.050396211445331573
0.630767285823822 0.8512018322944641 0.018654359504580498
0.6812848448753357 0.6549521684646606 -0.05858515948057175
0.64193195104599 0.6845007538795471 -0.04364621639251709
0.7173337936401367 0.7012017965316772 -0.03461463004350662
0.5387792587280273 0.9367247819900513 0.008482532575726509
0.5544065237045288 0.6015174984931946 -0.0803379938006401
0.6870046854019165 0.8435921669006348 0.035942625254392624
0.6428484320640564 0.8809994459152222 0.03342972323298454
0.6921497583389282 0.7689815163612366 0.00195266492664814
0.8159924745559692 0.7231502532958984 0.03607724979519844
0.7323206663131714 0.7859604358673096 0.01602190174162388
0.845966637134552 0.7534526586532593 0.0943303033709526
0.6777291297912598 0.7152166962623596 -0.030515039339661598
0.5337653160095215 0.5629060864448547 -0.08050031214952469
0.5155911445617676 0.6508786678314209 -0.1321967989206314
0.5438926219940186 0.6526234149932861 -0.10466599464416504
0.49595099687576294 0.6320370435714722 -0.1492643803358078
0.5610275864601135 0.43785223364830017 -0.0541292242705822
0.6037911772727966 0.42280420660972595 -0.07167792320251465
0.643442690372467 0.4198823571205139 -0.08162004500627518
0.6801269054412842 0.42566248774528503 -0.08028955012559891
0.7096036672592163 0.43886351585388184 -0.06971621513366699
0.7399115562438965 0.48600226640701294 -0.030769670382142067
0.8694603443145752 0.560494065284729 0.0715036690235138
0.712017297744751 0.5201375484466553 -0.04091813787817955
0.677341878414154 0.5269525051116943 -0.04714347794651985
0.6357660889625549 0.5270026922225952 -0.04740682616829872
0.5989722013473511 0.5211002826690674 -0.04242977872490883
0.5721962451934814 0.5127183198928833 -0.03612324967980385
0.5537230372428894 0.5044867396354675 -0.034244731068611145
0.9011859893798828 0.5604819059371948 0.16542388498783112
0.5485455989837646 0.6567924618721008 -0.09044376760721207
0.5031630992889404 0.5727871656417847 -0.11555887013673782
0.48828375339508057 0.6543210744857788 -0.14578422904014587
0.47876736521720886 0.6672770380973816 -0.12909621000289917
0.49331068992614746 0.6585348844528198 -0.13287383317947388
0.5449973940849304 0.6635259985923767 -0.07688643038272858
0.4711854159832001 0.6700462698936462 -0.13464100658893585
0.4752601385116577 0.6743988394737244 -0.10193013399839401
0.555155336856842 0.4835364520549774 -0.02655322104692459
0.5392969846725464 0.48945003747940063 -0.035677116364240646
0.5273029208183289 0.4948599338531494 -0.05174129456281662
0.690152645111084 0.4771078824996948 -0.04944832623004913
0.7091169357299805 0.46314916014671326 -0.05205915868282318
