ply
format ascii 1.0
element vertex 468
property float x
property float y
property float z
end_header
0.5261302590370178 0.7145223617553711 -0.06902223080396652
0.5432095527648926 0.6318817138671875 -0.11942686140537262
0.5298457145690918 0.6584271192550659 -0.06433828175067902
0.5190038681030273 0.5485405325889587 -0.09236838668584824
0.5457465052604675 0.605265200138092 -0.12630227208137512
0.5435331463813782 0.5716701745986938 -0.11646395921707153
0.5326447486877441 0.492769718170166 -0.05372299626469612
0.347032755613327 0.48512768745422363 -0.004963088780641556
0.5305119752883911 0.42891737818717957 -0.03759570047259331
0.5322524905204773 0.3944229781627655 -0.04110350087285042
0.5304303765296936 0.2765311598777771 -0.012363816611468792
0.5247094631195068 0.7273659706115723 -0.06662213802337646
0.5221390724182129 0.7379481196403503 -0.0592794343829155
0.5191473960876465 0.7426337599754333 -0.049275223165750504
0.5188760757446289 0.7618255615234375 -0.04437590762972832
0.5192973613739014 0.7737135887145996 -0.047787196934223175
0.51874178647995 0.7883894443511963 -0.051947422325611115
0.5167408585548401 0.8031596541404724 -0.047325264662504196
0.5106789469718933 0.8224717378616333 -0.02484733797609806
0.5387459993362427 0.6455443501472473 -0.10845702886581421
0.5120311975479126 0.6447193026542664 -0.08243568986654282
0.23785538971424103 0.38709044456481934 0.08548244088888168
0.4159914553165436 0.5092112421989441 -0.015375242568552494
0.39221546053886414 0.5107349157333374 -0.018530528992414474
0.36861738562583923 0.508945643901825 -0.01686498336493969
0.3352484405040741 0.49386483430862427 -0.0039378004148602486
0.43612149357795715 0.5028719305992126 -0.007399773690849543
0.389396607875824 0.44043368101119995 -0.028358669951558113
0.4142077565193176 0.4434235095977783 -0.021968955174088478
0.3645877540111542 0.44334548711776733 -0.02542722411453724
0.3466576933860779 0.45222246646881104 -0.019184840843081474
0.3134133815765381 0.5108112692832947 0.0037446371279656887
0.4183366596698761 0.8551359176635742 -0.018900731578469276
0.33752259612083435 0.47856342792510986 0.001116422237828374
0.22248055040836334 0.4987163543701172 0.08884861320257187
0.28315913677215576 0.49289652705192566 0.02205660194158554
0.401258647441864 0.612117350101471 -0.039556972682476044
0.49700188636779785 0.7102563977241516 -0.07214788347482681
0.49665725231170654 0.7376224994659424 -0.061808809638023376
0.46323162317276 0.7198991775512695 -0.06593908369541168
0.4402482807636261 0.7311239838600159 -0.054275717586278915
0.47261500358581543 0.740139365196228 -0.05858837068080902
0.45336320996284485 0.7433260679244995 -0.0469554178416729
0.4018527567386627 0.774360179901123 -0.024045882746577263
0.5232913494110107 0.6310665011405945 -0.12098280340433121
0.522534966468811 0.6055562496185303 -0.1277512013912201
0.30904674530029297 0.4239131212234497 -0.017904531210660934
0.4504716396331787 0.5492772459983826 -0.03201131895184517
0.4563644826412201 0.6255301237106323 -0.0783286988735199
0.4527415931224823 0.6120621562004089 -0.071688212454319
0.32365530729293823 0.6096468567848206 -0.027558907866477966
0.5214309692382812 0.5744273066520691 -0.11452195793390274
0.3750970959663391 0.395962119102478 -0.04218142852187157
0.3381826877593994 0.4047280550003052 -0.03234332799911499
0.2729259729385376 0.34057700634002686 0.04858842119574547
0.48005566000938416 0.42149972915649414 -0.04130678251385689
0.43491196632385254 0.4530062973499298 -0.011009843088686466
0.38596072793006897 0.7486082315444946 -0.024449024349451065
0.2260146588087082 0.7405034899711609 0.14575521647930145
0.4723363518714905 0.6400182247161865 -0.06595785170793533
0.49215570092201233 0.6481618285179138 -0.06287430971860886
0.41165512800216675 0.7498021721839905 -0.023399226367473602
0.4226292073726654 0.7485179305076599 -0.026794545352458954
0.32281842827796936 0.38728344440460205 -0.023745635524392128
0.4521317183971405 0.6370243430137634 -0.06590735912322998
0.42167338728904724 0.4000149667263031 -0.04548942670226097
0.41900062561035156 0.3784918785095215 -0.05017855763435364
0.3902524709701538 0.28267624974250793 -0.01441279612481594
0.2989566922187805 0.3635639250278473 0.006998018361628056
0.40836620330810547 0.3293384313583374 -0.03292297199368477
0.2907045781612396 0.4127591848373413 -0.001221252721734345
0.26476147770881653 0.4013628661632538 0.03957662731409073
0.4968365728855133 0.7258509993553162 -0.06984003633260727
0.46896839141845703 0.7320708632469177 -0.06346525996923447
0.4473583400249481 0.7375978231430054 -0.052171964198350906
0.47743821144104004 0.6448825597763062 -0.059276796877384186
0.4176868796348572 0.7495958209037781 -0.024924634024500847
0.42817065119743347 0.757040798664093 -0.03438086807727814
0.4246264100074768 0.747039258480072 -0.026815850287675858
0.4904298484325409 0.6314981579780579 -0.09540154039859772
0.4559779167175293 0.7419689297676086 -0.042730387300252914
0.47486767172813416 0.7414604425430298 -0.04930718615651131
0.49653956294059753 0.7417771220207214 -0.05281578004360199
0.47895729541778564 0.8219777941703796 -0.029776539653539658
0.4862339198589325 0.8005256056785583 -0.052326131612062454
0.48986122012138367 0.7850513458251953 -0.05583711341023445
0.49261191487312317 0.7703065872192383 -0.05151446908712387
0.4944462478160858 0.7606343030929565 -0.04737313464283943
0.45169633626937866 0.755124568939209 -0.03855890408158302
0.4482010304927826 0.7586880326271057 -0.04217502474784851
0.4421240985393524 0.7657379508018494 -0.04563836380839348
0.4362219572067261 0.7744999527931213 -0.04285901039838791
0.42062023282051086 0.7030678987503052 -0.048661693930625916
0.20088353753089905 0.6132323741912842 0.17690038681030273
0.5344204902648926 0.6510279774665833 -0.07962555438280106
0.4386727511882782 0.7526262998580933 -0.03142121434211731
0.43421441316604614 0.7539467215538025 -0.03384141996502876
0.49970781803131104 0.6590411067008972 -0.06428354978561401
0.4572514295578003 0.6527390480041504 -0.04703434556722641
0.4962136149406433 0.653930127620697 -0.0637659952044487
0.42361533641815186 0.5636354088783264 -0.030427847057580948
0.3838495910167694 0.5800588130950928 -0.03179865702986717
0.44585981965065 0.6237296462059021 -0.05979511886835098
0.32193493843078613 0.30460861325263977 0.012543469667434692
0.3447860777378082 0.33799877762794495 -0.016298430040478706
0.36661285161972046 0.37497031688690186 -0.03939560800790787
0.42130300402641296 0.7929477691650391 -0.029805360361933708
0.47547274827957153 0.3871119022369385 -0.05022544786334038
0.46818286180496216 0.33105239272117615 -0.037281569093465805
0.45724165439605713 0.2747759222984314 -0.022380759939551353
0.34751564264297485 0.503639280796051 -0.010832812637090683
0.28459417819976807 0.5290752053260803 0.011131834238767624
0.44927218556404114 0.49619853496551514 -0.00235028681345284
0.31657007336616516 0.4605286121368408 -0.0051152766682207584
0.469719797372818 0.5328365564346313 -0.036418408155441284
0.47556331753730774 0.6156206130981445 -0.09664574265480042
0.25284630060195923 0.5468886494636536 0.028920339420437813
0.3045607805252075 0.5468482971191406 -0.007188553921878338
0.33899378776550293 0.5563127398490906 -0.021522043272852898
0.3868679404258728 0.5528615713119507 -0.022281436249613762
0.42091473937034607 0.5427640676498413 -0.01992851309478283
0.44705820083618164 0.5310719013214111 -0.019866690039634705
0.5088297724723816 0.4990900754928589 -0.05093969777226448
0.2559107542037964 0.6007559299468994 0.021254010498523712
0.2942154109477997 0.4562414884567261 0.0020052939653396606
0.5270605683326721 0.6444628238677979 -0.10978300869464874
0.4545685648918152 0.5737694501876831 -0.041765835136175156
0.2019224315881729 0.4976940155029297 0.16120775043964386
0.4673217236995697 0.5173912644386292 -0.01923730969429016
0.43979841470718384 0.6255424618721008 -0.037559833377599716
0.3280564844608307 0.47895586490631104 0.0032707008067518473
0.47195637226104736 0.5992448329925537 -0.08782962709665298
0.2070154845714569 0.6754743456840515 0.167009174823761
0.4482656717300415 0.4874056577682495 0.0027656794991344213
0.4969598650932312 0.5839383602142334 -0.1055140495300293
0.30178576707839966 0.8003900647163391 0.039376918226480484
0.292495459318161 0.8292216062545776 0.07797616720199585
0.21702206134796143 0.6085453629493713 0.0969492569565773
0.26636552810668945 0.7663717865943909 0.06039036065340042
0.2424725741147995 0.4464455544948578 0.0701354444026947
0.4104757606983185 0.8784905672073364 -0.008251527324318886
0.5254980325698853 0.6499452590942383 -0.0798046663403511
0.4307226836681366 0.5923773050308228 -0.03795359656214714
0.2572372853755951 0.4978630542755127 0.0396011620759964
0.37249261140823364 0.49375343322753906 -0.014136885292828083
0.39340832829475403 0.49661749601364136 -0.015795709565281868
0.4214015603065491 0.7616356611251831 -0.03201879933476448
0.25743523240089417 0.6527931094169617 0.02844442054629326
0.4496730864048004 0.9094398021697998 0.005403423216193914
0.37207144498825073 0.8807997107505798 0.03359566256403923
0.3357357978820801 0.8605704307556152 0.0525222085416317
0.5321779847145081 0.33533021807670593 -0.0287504680454731
0.4969646632671356 0.9119639992713928 0.009431102313101292
0.41302287578582764 0.49574872851371765 -0.012422360479831696
0.4310823082923889 0.49191921949386597 -0.005712173879146576
0.4424770772457123 0.48958820104599 0.0012472164817154408
0.2719644606113434 0.45085394382476807 0.02125399373471737
0.4292103350162506 0.4723318815231323 -0.00945698656141758
0.4092501997947693 0.46614113450050354 -0.016622506082057953
0.38994890451431274 0.4642820954322815 -0.019535742700099945
0.36918503046035767 0.4667879343032837 -0.01795552857220173
0.35478419065475464 0.4716982841491699 -0.013316621072590351
0.2155037373304367 0.43651413917541504 0.12785319983959198
0.3577543795108795 0.48958683013916016 -0.00966386403888464
0.5275161266326904 0.6763005256652832 -0.06016416475176811
0.4445303678512573 0.6881757974624634 -0.05459987744688988
0.4738391041755676 0.635903000831604 -0.07345864921808243
0.4948817789554596 0.6791978478431702 -0.06506729871034622
0.5293682813644409 0.4609798789024353 -0.03724854812026024
0.33824193477630615 0.8322943449020386 0.0253866259008646
0.3727811574935913 0.8560119271278381 0.009875858202576637
0.45436936616897583 0.8946787714958191 -0.02115572802722454
0.25666165351867676 0.7922176122665405 0.11263314634561539
0.44277867674827576 0.48133498430252075 -0.0021051736548542976
0.49336013197898865 0.5386685729026794 -0.06257975101470947
0.5031249523162842 0.8964271545410156 -0.016109922900795937
0.4095362722873688 0.8978500366210938 0.01413546409457922
0.22206920385360718 0.6656853556632996 0.09405363351106644
0.47185808420181274 0.75777667760849 -0.04458985850214958
0.4681721031665802 0.7648030519485474 -0.04868104308843613
0.46353650093078613 0.7760668992996216 -0.05291283503174782
0.45884376764297485 0.7897721529006958 -0.0497903935611248
0.44654345512390137 0.8098190426826477 -0.033957865089178085
0.43522965908050537 0.7455558180809021 -0.03652770444750786
0.42859774827957153 0.7435491681098938 -0.03820670768618584
0.42206111550331116 0.7396576404571533 -0.039741307497024536
0.3998161256313324 0.7235717177391052 -0.03848500922322273
0.29831361770629883 0.6656469106674194 -0.008797182701528072
0.48962491750717163 0.5142622590065002 -0.04211391881108284
0.4709874987602234 0.4675065875053406 -0.006170566193759441
0.45432037115097046 0.47204288840293884 -0.0029482103418558836
0.439214289188385 0.7424225807189941 -0.033721547573804855
0.28784090280532837 0.7285662889480591 0.0221403855830431
0.4964732527732849 0.4650117754936218 -0.029621858149766922
0.4311486482620239 0.8319712281227112 -0.024184972047805786
0.5396970510482788 0.5446556806564331 -0.09472815692424774
0.5136446952819824 0.5251317024230957 -0.0730602964758873
0.5363081693649292 0.5196929574012756 -0.07343924790620804
0.4749457836151123 0.578180193901062 -0.06654694676399231
0.507233202457428 0.8734748363494873 -0.02707323431968689
0.5092086791992188 0.8459517359733582 -0.025634583085775375
0.47005754709243774 0.8455888032913208 -0.028720475733280182
0.377005398273468 0.7848025560379028 -0.014774126932024956
0.41848036646842957 0.6459591388702393 -0.036482036113739014
0.4006032347679138 0.8118939995765686 -0.0188171174377203
0.3614155054092407 0.6423794627189636 -0.038631804287433624
0.39513182640075684 0.671341061592102 -0.038443077355623245
0.3364254832267761 0.6842836141586304 -0.027030251920223236
0.46116361021995544 0.8723900318145752 -0.031048567965626717
0.4566085636615753 0.5928033590316772 -0.05408549681305885
0.3522370755672455 0.8040135502815247 0.002000837353989482
0.3843044638633728 0.8312091827392578 -0.0051732780411839485
0.359821617603302 0.7523440718650818 -0.018117349594831467
0.26102006435394287 0.6971619725227356 0.037433937191963196
0.3236851692199707 0.7569209337234497 -0.0008116327226161957
0.2357129156589508 0.7185729146003723 0.08531871438026428
0.3735184967517853 0.7048216462135315 -0.03378705680370331
0.47405192255973816 0.5559055805206299 -0.05132821202278137
0.4839019477367401 0.6271119713783264 -0.10045299679040909
0.4640718400478363 0.6338808536529541 -0.0786002054810524
0.4984607994556427 0.6092815399169922 -0.11340261250734329
0.45423805713653564 0.444108247756958 -0.016814500093460083
0.4178069531917572 0.4280391335487366 -0.02744019404053688
0.38461849093437195 0.42381149530410767 -0.03308193385601044
0.35480058193206787 0.42745471000671387 -0.02992361970245838
0.3314468562602997 0.4391200542449951 -0.020491518080234528
0.30879223346710205 0.4860111176967621 0.009817962534725666
0.21646524965763092 0.553145170211792 0.09254048764705658
0.3283500075340271 0.5217029452323914 -0.005785312969237566
0.3548834025859833 0.5294787287712097 -0.014077124185860157
0.38797760009765625 0.5300229787826538 -0.016912022605538368
0.41853731870651245 0.5246630311012268 -0.015067778527736664
0.4423127770423889 0.516353964805603 -0.009968684054911137
0.4590853154659271 0.5079237222671509 -0.008086413145065308
0.1998901665210724 0.5552412867546082 0.17582418024539948
0.46216338872909546 0.6408122181892395 -0.06747712194919586
0.49707889556884766 0.5606838464736938 -0.08111585676670074
0.5042932033538818 0.6279690265655518 -0.11373443901538849
0.5134336948394775 0.6409263610839844 -0.10238777101039886
0.5015397071838379 0.6325811743736267 -0.10334630310535431
0.4669860899448395 0.6487695574760437 -0.05808944255113602
0.5190089344978333 0.6429511308670044 -0.1075202152132988
0.517521858215332 0.6485456824302673 -0.08122202754020691
0.4579482972621918 0.4883081912994385 0.0023180304560810328
0.47274717688560486 0.4937501549720764 -0.0073609682731330395
0.4831668734550476 0.49738621711730957 -0.020852861925959587
0.3455864489078522 0.47539156675338745 -0.007612340152263641
0.3319287896156311 0.46298766136169434 -0.008431601338088512
0.5568387508392334 0.5493515729904175 -0.08184881508350372
0.6661392450332642 0.4923538565635681 0.0725502148270607
0.5526970028877258 0.6455389857292175 -0.07428663223981857
0.7161098718643188 0.4064635634422302 0.2034931182861328
0.6066747903823853 0.5141485929489136 0.034464046359062195
0.6276821494102478 0.5165443420410156 0.04131954535841942
0.647192120552063 0.5153993964195251 0.05245215445756912
0.6710039973258972 0.5014625191688538 0.07815128564834595
0.5895481705665588 0.507156491279602 0.03188163787126541
0.6382879614830017 0.44802072644233704 0.03445250540971756
0.6151236295700073 0.4501504898071289 0.02756226621568203
0.6589834094047546 0.45167940855026245 0.047011833637952805
0.6713235974311829 0.46130818128585815 0.059060413390398026
0.6848571300506592 0.5194736123085022 0.09212911128997803
0.5796681642532349 0.8496639132499695 0.017190176993608475
0.6720543503761292 0.4862719774246216 0.08205553889274597
0.7208565473556519 0.5117093324661255 0.2092534452676773
0.7022513151168823 0.502892017364502 0.12111808359622955
0.6246680021286011 0.616325855255127 0.010663555935025215
0.5514617562294006 0.7113375067710876 -0.05902968719601631
0.5429547429084778 0.7383552193641663 -0.04985559359192848
0.5740711092948914 0.7208811044692993 -0.03913641721010208
0.5853672623634338 0.7330710291862488 -0.017468350008130074
0.5587245225906372 0.7411889433860779 -0.0353088416159153
0.5693442821502686 0.7452995181083679 -0.015706798061728477
0.6004325747489929 0.7752687335014343 0.02304043248295784
0.5603818893432617 0.6318157911300659 -0.1140519306063652
0.5651845932006836 0.6064938306808472 -0.11959248781204224
0.7018344402313232 0.43355071544647217 0.07503261417150497
0.5848778486251831 0.5526126623153687 0.0007363312179222703
0.596535325050354 0.6281507611274719 -0.04741407558321953
0.5965287089347839 0.6148828268051147 -0.03986771032214165
0.6798217296600342 0.6158982515335083 0.05580706521868706
0.5620896816253662 0.5751993656158447 -0.1042427271604538
0.6639211177825928 0.40399110317230225 0.02251698635518551
0.6880802512168884 0.4135992228984833 0.048418235033750534
0.7077360153198242 0.36032190918922424 0.15422484278678894
0.5753775238990784 0.42418259382247925 -0.019899366423487663
0.594846248626709 0.45870620012283325 0.029075711965560913
0.6164246797561646 0.7507083415985107 0.03277798369526863
0.6723531484603882 0.7377316951751709 0.255513995885849
0.5793037414550781 0.642105758190155 -0.04337729513645172
0.5619732737541199 0.6494303941726685 -0.051472123712301254
0.5945074558258057 0.7535462379455566 0.025874421000480652
0.5835820436477661 0.7520126700401306 0.01670192927122116
0.6978023052215576 0.39753228425979614 0.06221896782517433
0.593410074710846 0.6396012902259827 -0.0358460359275341
0.6278824806213379 0.40584588050842285 -0.0013313774252310395
0.6332367658615112 0.3852595090866089 -0.004507529549300671
0.6458878517150879 0.29658636450767517 0.04602384939789772
0.7037683725357056 0.378645122051239 0.10154504328966141
0.6387447714805603 0.33956974744796753 0.018965424969792366
0.7103307247161865 0.4241098463535309 0.09829847514629364
0.7142289876937866 0.4167678952217102 0.14696764945983887
0.5481661558151245 0.726641833782196 -0.05676615238189697
0.5662859678268433 0.7330304384231567 -0.0383608303964138
0.5780656337738037 0.7394145131111145 -0.01884809322655201
0.5729598999023438 0.6466198563575745 -0.0405794195830822
0.5893048048019409 0.7532926201820374 0.020768361166119576
0.5834790468215942 0.7598282098770142 0.004119225312024355
0.5801485776901245 0.7503117322921753 0.015494901686906815
0.574785590171814 0.6329806447029114 -0.07463013380765915
0.5627865791320801 0.7440822720527649 -0.013136371038854122
0.551552414894104 0.7428886890411377 -0.02744162641465664
0.5371842980384827 0.7425848245620728 -0.04054120555520058
0.5392048954963684 0.8213135600090027 -0.018213892355561256
0.5436842441558838 0.800534725189209 -0.03945985063910484
0.5441501140594482 0.7852952480316162 -0.042789049446582794
0.5423994660377502 0.7708240151405334 -0.03843243792653084
0.5394008159637451 0.7609239220619202 -0.03520682454109192
0.5664612054824829 0.7569266557693481 -0.009258446283638477
0.5705440640449524 0.760470449924469 -0.012751169502735138
0.576015830039978 0.7674546837806702 -0.015405328013002872
0.5798841118812561 0.7757250070571899 -0.009955153800547123
0.6046513319015503 0.7053617238998413 -0.0062110405415296555
0.6969336271286011 0.6198893785476685 0.2994621992111206
0.5725065469741821 0.7553256750106812 0.0054400525987148285
0.5778948068618774 0.7568663954734802 0.0032118125818669796
0.5549010038375854 0.6599739193916321 -0.052913691848516464
0.5832153558731079 0.6548401713371277 -0.023176854476332664
0.5584845542907715 0.6550398468971252 -0.052872028201818466
0.6050665378570557 0.5678379535675049 0.013519187457859516
0.6375446915626526 0.5855184197425842 0.027953341603279114
0.5966993570327759 0.6263075470924377 -0.027056215330958366
0.6867160201072693 0.3228917419910431 0.09839195758104324
0.6805068254470825 0.35156792402267456 0.059416308999061584
0.6716026067733765 0.3841036260128021 0.0287746861577034
0.5854753255844116 0.7921088337898254 0.008644714951515198
0.5851850509643555 0.3908013701438904 -0.02701733447611332
0.5906680822372437 0.3367801308631897 -0.010192382149398327
0.5958443880081177 0.28276339173316956 0.007670911960303783
0.6628053188323975 0.5107861757278442 0.06638172268867493
0.703274130821228 0.53852778673172 0.1092756912112236
0.5791059136390686 0.4997272491455078 0.03278965502977371
0.68909752368927 0.4693540334701538 0.08452824503183365
0.5723205208778381 0.5355623960494995 -0.010161064565181732
0.5889277458190918 0.6180598735809326 -0.07170983403921127
0.7182165384292603 0.5563827157020569 0.140051007270813
0.6935185790061951 0.5555782914161682 0.08492135256528854
0.6705684065818787 0.5638870596885681 0.056951042264699936
0.6327811479568481 0.5585689544677734 0.03777007386088371
0.6044598817825317 0.5472707748413086 0.02569456957280636
0.5837389230728149 0.5347364544868469 0.014286970719695091
0.5512627959251404 0.5002939105033875 -0.039815858006477356
0.715254545211792 0.6080398559570312 0.13152866065502167
0.7024734020233154 0.46636390686035156 0.10013370960950851
0.5490924119949341 0.6449574828147888 -0.10442192107439041
0.5850515365600586 0.5766478180885315 -0.010208656080067158
0.7104361057281494 0.512433648109436 0.2880614697933197
0.5693225264549255 0.5202979445457458 0.007581395097076893
0.5948387384414673 0.6284019351005554 -0.004883015528321266
0.6773287653923035 0.4871102273464203 0.08849270641803741
0.587765097618103 0.6016350388526917 -0.0626932755112648
0.6883189082145691 0.6776105165481567 0.28428444266319275
0.5781658887863159 0.4904378652572632 0.039472922682762146
0.5760206580162048 0.5855492949485779 -0.08725632727146149
0.6491652727127075 0.7930870056152344 0.12139441072940826
0.6365558505058289 0.8191200494766235 0.1608734130859375
0.7175284624099731 0.6150106191635132 0.2169928401708603
0.6712655425071716 0.7619150876998901 0.15700402855873108
0.7174937725067139 0.46152010560035706 0.18526874482631683
0.5788519978523254 0.8709602355957031 0.030874304473400116
0.5426546335220337 0.6505014300346375 -0.07653845846652985
0.6009108424186707 0.595862627029419 0.0010941782966256142
0.7139392495155334 0.5087495446205139 0.14863304793834686
0.6474627256393433 0.5005636215209961 0.053871940821409225
0.629180908203125 0.5028622150421143 0.04463944211602211
0.5884215831756592 0.7643935680389404 0.009278710000216961
0.705588698387146 0.657138466835022 0.13468948006629944
0.5397681593894958 0.9048759937286377 0.026998279616236687
0.5911563634872437 0.8699703216552734 0.0877089574933052
0.6117312908172607 0.8486612439155579 0.1200580969452858
0.6109036207199097 0.5011938214302063 0.03893940523266792
0.5944631099700928 0.4964931607246399 0.03832903131842613
0.583686113357544 0.49327266216278076 0.04069514200091362
0.7120014429092407 0.4625808596611023 0.1270722895860672
0.5954779982566833 0.47688108682632446 0.03531693294644356
0.6133853197097778 0.4718438386917114 0.03583741933107376
0.6322554349899292 0.47040653228759766 0.04153642803430557
0.650627076625824 0.47352826595306396 0.05133305862545967
0.6616004109382629 0.4790131449699402 0.061297707259655
0.7168084979057312 0.4543434679508209 0.252118319272995
0.6588481664657593 0.49662870168685913 0.06424980610609055
0.5904935002326965 0.6898629665374756 -0.02232852391898632
0.5816562175750732 0.6380834579467773 -0.05166478827595711
0.5557990074157715 0.6798756718635559 -0.05169754847884178
0.624656081199646 0.8230669498443604 0.09164682030677795
0.6018657684326172 0.8462594747543335 0.06254182755947113
0.5472208261489868 0.8903382420539856 0.0002506919263396412
0.6547317504882812 0.7854834794998169 0.2104886919260025
0.5838232040405273 0.48454341292381287 0.0379219651222229
0.5654338598251343 0.540449857711792 -0.044891707599163055
0.5690735578536987 0.8893758058547974 0.053864143788814545
0.7065620422363281 0.6683154702186584 0.20906363427639008
0.5552384257316589 0.75889652967453 -0.02257024124264717
0.5592723488807678 0.765802264213562 -0.026100577786564827
0.5632110238075256 0.776846706867218 -0.028881095349788666
0.5651453137397766 0.7902117967605591 -0.024674732238054276
0.5658172369003296 0.8088754415512085 -0.006308459211140871
0.5779196619987488 0.748607337474823 0.0020146833267062902
0.5856916308403015 0.7466995120048523 0.003936596214771271
0.5925188064575195 0.7428498864173889 0.005185237154364586
0.6142739057540894 0.7262471914291382 0.014507255516946316
0.6859865784645081 0.6695244312286377 0.08088891953229904
0.5613647103309631 0.5162185430526733 -0.02368546463549137
0.5666571259498596 0.47016429901123047 0.017154542729258537
0.576289176940918 0.4756444990634918 0.030928516760468483
0.5713839530944824 0.7453644871711731 0.0033384712878614664
0.6752724647521973 0.7282073497772217 0.1127900704741478
0.5539379119873047 0.4665355682373047 -0.015611163340508938
0.572752058506012 0.8282171487808228 0.006993353366851807
0.5545421242713928 0.5261548757553101 -0.06340575963258743
0.5785259008407593 0.5803505778312683 -0.04330815002322197
0.5433989763259888 0.8435721397399902 -0.013853346928954124
0.6161736845970154 0.7824714183807373 0.04009206220507622
0.6091101765632629 0.6489719152450562 0.004482652526348829
0.5956765413284302 0.8081101179122925 0.024449720978736877
0.6527195572853088 0.6467025876045227 0.026207132264971733
0.6249499320983887 0.674518346786499 0.012847399339079857
0.6622583270072937 0.6871224045753479 0.04714874178171158
0.5486006736755371 0.8693792819976807 -0.011011000722646713
0.586959183216095 0.5955166816711426 -0.024991681799292564
0.6269185543060303 0.7983301877975464 0.06504353880882263
0.6025592684745789 0.8244313597679138 0.04328713193535805
0.6344801783561707 0.7523895502090454 0.048013053834438324
0.6936492919921875 0.6987061500549316 0.13898912072181702
0.6533022522926331 0.7546663284301758 0.07564183324575424
0.6919238567352295 0.7175045609474182 0.19459708034992218
0.6347984671592712 0.7076147198677063 0.027142217382788658
0.5745741128921509 0.5582516193389893 -0.02635074593126774
0.5821902751922607 0.6290326714515686 -0.07789230346679688
0.5902921557426453 0.6363800764083862 -0.05257972329854965
0.5787760019302368 0.6109453439712524 -0.09575094282627106
0.5851526260375977 0.4475087523460388 0.015103419311344624
0.6199318170547485 0.433693528175354 0.0195773858577013
0.6493582129478455 0.43154406547546387 0.029183279722929
0.6721452474594116 0.43647515773773193 0.04538936913013458
0.6854477524757385 0.448306679725647 0.06371714919805527
0.6882606744766235 0.4945892095565796 0.1004752516746521
0.7222267389297485 0.5631454586982727 0.21576027572155
0.6760857701301575 0.5296686887741089 0.07765725255012512
0.6568699479103088 0.5364999175071716 0.05836876109242439
0.6305637359619141 0.5357734560966492 0.04256445914506912
0.6047317981719971 0.5294070839881897 0.0316903330385685
0.5849253535270691 0.5200846195220947 0.025671998038887978
0.571914792060852 0.5110530257225037 0.020780153572559357
0.7021781206130981 0.5659797191619873 0.3020462691783905
0.5867864489555359 0.6430768370628357 -0.041859209537506104
0.5692446231842041 0.5621163845062256 -0.06307105720043182
0.5722686052322388 0.6292015910148621 -0.09940891712903976
0.5567421913146973 0.6414176225662231 -0.09403277188539505
0.5687865018844604 0.6336655020713806 -0.08836120367050171
0.5791193842887878 0.650678813457489 -0.036695610731840134
0.5546736121177673 0.6436101794242859 -0.1005597785115242
0.5487847924232483 0.6491057276725769 -0.07523608952760696
0.5719059705734253 0.4911872148513794 0.032763201743364334
0.5621248483657837 0.4964268207550049 0.015277214348316193
0.558949887752533 0.4996336102485657 -0.0019310935167595744
0.6677398085594177 0.48297348618507385 0.07068292796611786
0.6789325475692749 0.47153037786483765 0.07425981014966965
