ply
format ascii 1.0
element vertex 468
property float x
property float y
property float z
end_header
0.5004912614822388 0.6894597411155701 -0.07462748885154724
0.5035246014595032 0.5991615056991577 -0.12688882648944855
0.5018689632415771 0.628433346748352 -0.0682106465101242
0.4844580590724945 0.524754524230957 -0.09196628630161285
0.5039830207824707 0.5747970342636108 -0.13379238545894623
0.5043856501579285 0.5447437167167664 -0.12310093641281128
0.5049709677696228 0.47566235065460205 -0.056829869747161865
0.3396313190460205 0.4773521423339844 0.034855060279369354
0.5054231882095337 0.4340795576572418 -0.04085085168480873
0.5062225461006165 0.4062076807022095 -0.044994138181209564
0.5079516768455505 0.2927373945713043 -0.010306142270565033
0.5001698732376099 0.7026702761650085 -0.07211882621049881
0.4999460279941559 0.7132907509803772 -0.06405463069677353
0.49976399540901184 0.718254566192627 -0.05329214781522751
0.4998089373111725 0.7260700464248657 -0.05092243477702141
0.4997595548629761 0.7371138334274292 -0.05502881109714508
0.4995092451572418 0.7511060833930969 -0.05957464873790741
0.49923834204673767 0.7661458253860474 -0.055274732410907745
0.49842965602874756 0.7886512279510498 -0.029995998367667198
0.5027285218238831 0.6122797727584839 -0.11519496142864227
0.4810900390148163 0.6124292612075806 -0.08306276053190231
0.26606106758117676 0.4039750099182129 0.14710329473018646
0.4048371911048889 0.4961434304714203 0.012053887359797955
0.3824782371520996 0.49879521131515503 0.012486552819609642
0.3609439730644226 0.498613178730011 0.01788296364247799
0.3322397470474243 0.4875441789627075 0.03721901774406433
0.4238196313381195 0.48948344588279724 0.01426964346319437
0.37574565410614014 0.44644695520401 0.0031375514809042215
0.399263471364975 0.4470803141593933 0.004109549801796675
0.3539471924304962 0.449471652507782 0.009383617900311947
0.338980495929718 0.45589593052864075 0.01879078336060047
0.3154345154762268 0.5041601061820984 0.047733791172504425
0.4089866578578949 0.8239928483963013 -0.007003932725638151
0.3319333493709564 0.4722169041633606 0.042073193937540054
0.25444933772087097 0.5008037686347961 0.15132594108581543
0.29062819480895996 0.49171823263168335 0.07125014811754227
0.3904756009578705 0.5918192863464355 -0.015483058989048004
0.4731854200363159 0.6853348612785339 -0.07162189483642578
0.47768861055374146 0.7133442163467407 -0.06095382943749428
0.4449397325515747 0.695405900478363 -0.05858870595693588
0.42735755443573 0.7092087864875793 -0.04260232299566269
0.45759978890419006 0.7161188125610352 -0.052520669996738434
0.44183349609375 0.7208216786384583 -0.03727523237466812
0.3957284688949585 0.7511269450187683 -0.008244918659329414
0.4836944043636322 0.598633885383606 -0.12499015778303146
0.48103588819503784 0.5758076310157776 -0.13153323531150818
0.30340296030044556 0.43616345524787903 0.024039920419454575
0.4345254898071289 0.5308859348297119 -0.016694646328687668
0.42790576815605164 0.598142683506012 -0.06663288176059723
0.42662373185157776 0.5864638686180115 -0.05868863686919212
0.32637256383895874 0.5940013527870178 0.012029139325022697
0.4827789068222046 0.5476840138435364 -0.11589743196964264
0.35835570096969604 0.41441142559051514 -0.016583137214183807
0.32544952630996704 0.42092379927635193 0.00035156458034180105
0.28679805994033813 0.3616448938846588 0.10229910165071487
0.4591192305088043 0.43166446685791016 -0.03416307643055916
0.42023199796676636 0.45206284523010254 0.011890234425663948
0.3805622160434723 0.7283459305763245 -0.0021881244610995054
0.2718423008918762 0.7184198498725891 0.2042555958032608
0.4450223445892334 0.6110111474990845 -0.05708484724164009
0.46494144201278687 0.6181280016899109 -0.06124632805585861
0.40702736377716064 0.7305623292922974 -0.005530697293579578
0.4173402190208435 0.7280666828155518 -0.011843524873256683
0.313489705324173 0.40666651725769043 0.01303801964968443
0.4273567199707031 0.6103984117507935 -0.054030075669288635
0.4026247560977936 0.4170196056365967 -0.02842770889401436
0.39861929416656494 0.3979036211967468 -0.03254154324531555
0.37739694118499756 0.3051605224609375 0.015980035066604614
0.30119937658309937 0.3820327818393707 0.05164352059364319
0.3904842436313629 0.34777960181236267 -0.009697306901216507
0.29102542996406555 0.42751652002334595 0.0454152412712574
0.2789931297302246 0.415921688079834 0.09352874010801315
0.4749774932861328 0.7013666033744812 -0.06933579593896866
0.4522271156311035 0.7079324126243591 -0.05702042579650879
0.4346989691257477 0.7155130505561829 -0.042130012065172195
0.45145225524902344 0.6157224178314209 -0.05348748713731766
0.41266173124313354 0.7300695776939392 -0.008891689591109753
0.4209163784980774 0.7325680255889893 -0.023384220898151398
0.41942262649536133 0.7260501384735107 -0.012838832102715969
0.45801228284835815 0.5996589064598083 -0.09030048549175262
0.44628503918647766 0.7200168371200562 -0.0333326980471611
0.46233275532722473 0.7182261347770691 -0.0431947186589241
0.48069217801094055 0.7178058624267578 -0.050967663526535034
0.46786993741989136 0.7879428267478943 -0.03014238364994526
0.470497727394104 0.764218807220459 -0.054522834718227386
0.4727684259414673 0.7486786842346191 -0.0579695850610733
0.47547677159309387 0.7345354557037354 -0.052827492356300354
0.4778381288051605 0.7254256010055542 -0.048633210361003876
0.4414859116077423 0.7261490225791931 -0.03142133355140686
0.43787437677383423 0.7296349406242371 -0.03571568429470062
0.43223074078559875 0.736709475517273 -0.03888371214270592
0.4268645644187927 0.7454456686973572 -0.0347101166844368
0.40848931670188904 0.6795451641082764 -0.033611565828323364
0.25188106298446655 0.6062385439872742 0.2441449761390686
0.5023816227912903 0.6185852885246277 -0.0843140110373497
0.43092823028564453 0.7269042730331421 -0.0206036027520895
0.426440954208374 0.7288755774497986 -0.02329692803323269
0.4727363586425781 0.6293430328369141 -0.06276962161064148
0.4365072250366211 0.6262267827987671 -0.03732917830348015
0.4690161645412445 0.6239417791366577 -0.06265608221292496
0.41127854585647583 0.546118974685669 -0.009573223069310188
0.3761714696884155 0.5639333724975586 -0.004361238330602646
0.42297273874282837 0.5984506011009216 -0.045704785734415054
0.32209500670433044 0.3278906047344208 0.05530109629034996
0.33678483963012695 0.3582662045955658 0.01863650418817997
0.35094404220581055 0.3958469033241272 -0.010605880990624428
0.41444066166877747 0.7649546265602112 -0.01849774830043316
0.45218101143836975 0.40255290269851685 -0.0432068295776844
0.4452957510948181 0.34479740262031555 -0.025581784546375275
0.4373694062232971 0.29467183351516724 -0.006193662062287331
0.34255340695381165 0.49531981348991394 0.027790088206529617
0.2928372025489807 0.5223885178565979 0.06000706925988197
0.4359693229198456 0.48302483558654785 0.018074633553624153
0.3136652708053589 0.4622534215450287 0.03814031556248665
0.45072823762893677 0.5145884156227112 -0.024833060801029205
0.44281935691833496 0.5868292450904846 -0.0893891304731369
0.2701927423477173 0.5401057004928589 0.08414644002914429
0.30805641412734985 0.5377917289733887 0.03845186159014702
0.33674356341362 0.5449974536895752 0.01735403947532177
0.37895363569259644 0.5389673113822937 0.006716604810208082
0.40988776087760925 0.527320384979248 0.0029365364462137222
0.43352270126342773 0.5149251818656921 -0.0030505273025482893
0.48227551579475403 0.4823366403579712 -0.04818229377269745
0.2747666835784912 0.5888569355010986 0.0755002424120903
0.29558420181274414 0.4613826870918274 0.04933146759867668
0.49118223786354065 0.6113537549972534 -0.11406064033508301
0.4360503554344177 0.55259108543396 -0.0267704539000988
0.24964982271194458 0.504363477230072 0.23065967857837677
0.4513491094112396 0.5015759468078613 -0.005638249218463898
0.42168962955474854 0.6016043424606323 -0.021275915205478668
0.32546868920326233 0.4755672514438629 0.04599229246377945
0.4419184625148773 0.573050320148468 -0.0795869454741478
0.25710272789001465 0.6611044406890869 0.23054173588752747
0.4356709420681 0.4745042622089386 0.024897873401641846
0.4618905186653137 0.5576832294464111 -0.10222312808036804
0.3163488805294037 0.7708430886268616 0.07905379682779312
0.3163737654685974 0.7980420589447021 0.11943661421537399
0.2533329725265503 0.5977044701576233 0.15923640131950378
0.2926460802555084 0.7384921312332153 0.10886503010988235
0.2666190266609192 0.4546964764595032 0.129440575838089
0.4023805856704712 0.8487735986709595 0.0053200190886855125
0.4932802617549896 0.61762934923172 -0.08280850946903229
0.4161417782306671 0.5717597603797913 -0.018877515569329262
0.27297157049179077 0.4976244270801544 0.09468597918748856
0.36207887530326843 0.48376062512397766 0.0214720256626606
0.38186922669410706 0.4852295517921448 0.016110757365822792
0.41482681035995483 0.7377822995185852 -0.019521115347743034
0.28002166748046875 0.6354916095733643 0.08102875202894211
0.4448249340057373 0.8830748796463013 0.012036996893584728
0.3743997812271118 0.850756824016571 0.05735017731785774
0.3465474247932434 0.8292725682258606 0.08433574438095093
0.5072272419929504 0.34550103545188904 -0.028974443674087524
0.49601277709007263 0.8876694440841675 0.0062903789803385735
0.40089768171310425 0.48339247703552246 0.015437238849699497
0.41863930225372314 0.4792495667934418 0.01891230419278145
0.42990854382514954 0.47680509090423584 0.024028230458498
0.28117287158966064 0.4587031602859497 0.07344874739646912
0.41637927293777466 0.45936742424964905 0.016502883285284042
0.39700639247894287 0.4540582299232483 0.011525588110089302
0.37752383947372437 0.4529229402542114 0.011995786800980568
0.35749396681785583 0.4568600654602051 0.017229435965418816
0.34496545791625977 0.46314793825149536 0.024741582572460175
0.2549411356449127 0.44870680570602417 0.1944740265607834
0.34859973192214966 0.4806542992591858 0.028640341013669968
0.5014528632164001 0.6476052403450012 -0.06426344066858292
0.42760801315307617 0.6624482274055481 -0.04383902624249458
0.44453343749046326 0.6061170101165771 -0.06608473509550095
0.47007426619529724 0.6509328484535217 -0.06338027119636536
0.5049763917922974 0.45442789793014526 -0.03884414955973625
0.34213823080062866 0.8020420074462891 0.05475185811519623
0.3703693151473999 0.8257243633270264 0.031125100329518318
0.4441368579864502 0.865252673625946 -0.01670181378722191
0.29298022389411926 0.7639530897140503 0.16322262585163116
0.42971673607826233 0.4678497612476349 0.021299492567777634
0.46629607677459717 0.5175120234489441 -0.05659498646855354
0.4967496395111084 0.8697048425674438 -0.021220719441771507
0.4063124358654022 0.8694989681243896 0.029646387323737144
0.26037561893463135 0.6483331918716431 0.15376313030719757
0.4582374393939972 0.7251821160316467 -0.04095269739627838
0.4543633759021759 0.7318465113639832 -0.045670706778764725
0.44980162382125854 0.7425792217254639 -0.049032751470804214
0.4457970857620239 0.7562558650970459 -0.04565310478210449
0.43768078088760376 0.7778481245040894 -0.02779935672879219
0.42773255705833435 0.724959671497345 -0.024110525846481323
0.4208834171295166 0.7234408855438232 -0.024538392201066017
0.4140300452709198 0.7199892401695251 -0.024413302540779114
0.39162322878837585 0.7026774287223816 -0.018581165000796318
0.31041717529296875 0.6459562182426453 0.03371373191475868
0.4668307900428772 0.4967936873435974 -0.03458055481314659
0.4555797874927521 0.46116575598716736 0.008372061885893345
0.4400925040245056 0.46422988176345825 0.016788532957434654
0.4325474798679352 0.721873939037323 -0.021420428529381752
0.3048240542411804 0.7040748000144958 0.06634226441383362
0.4756688177585602 0.45922815799713135 -0.02222808450460434
0.4227686822414398 0.8003857731819153 -0.014887700788676739
0.504646360874176 0.5204765200614929 -0.09970962256193161
0.48280248045921326 0.5039883852005005 -0.07208922505378723
0.5047578811645508 0.4982150197029114 -0.07707595825195312
0.44943439960479736 0.5545045733451843 -0.05727512389421463
0.4975067675113678 0.8441241383552551 -0.03340652957558632
0.49807974696159363 0.814189076423645 -0.03144824504852295
0.45868009328842163 0.8123706579208374 -0.027609098702669144
0.3714826703071594 0.7592536211013794 0.005656648427248001
0.4044027328491211 0.6226617693901062 -0.017815789207816124
0.39401644468307495 0.7833206653594971 -0.003883546916767955
0.35729652643203735 0.6217361688613892 -0.008237313479185104
0.385458767414093 0.6484084725379944 -0.016418086364865303
0.3383464217185974 0.6625962257385254 0.008143230341374874
0.4490258991718292 0.8405452966690063 -0.02794830873608589
0.43511050939559937 0.5694172382354736 -0.04112044349312782
0.3503689765930176 0.7760935425758362 0.02799774892628193
0.3788784444332123 0.8018049597740173 0.013512706384062767
0.35620570182800293 0.7294315099716187 0.009249559603631496
0.28503718972206116 0.675643801689148 0.0878710076212883
0.3289873003959656 0.7313331961631775 0.03334676846861839
0.27122706174850464 0.6952285170555115 0.14132928848266602
0.3682400584220886 0.6839454770088196 -0.008330357261002064
0.4513518214225769 0.5346355438232422 -0.040518272668123245
0.45037007331848145 0.5960854887962341 -0.09484869986772537
0.43479737639427185 0.6051207780838013 -0.0694841668009758
0.46081098914146423 0.5795773267745972 -0.11222034692764282
0.43841835856437683 0.44691258668899536 0.000664491206407547
0.40167132019996643 0.4372958540916443 -0.005581577308475971
0.3694404661655426 0.43493127822875977 -0.005631076171994209
0.3424786329269409 0.43728065490722656 0.002927961526438594
0.323302298784256 0.44588184356689453 0.01745053194463253
0.3103289008140564 0.48332685232162476 0.05477052554488182
0.2503305673599243 0.5484616756439209 0.15621398389339447
0.32748791575431824 0.5134104490280151 0.03607555478811264
0.35012897849082947 0.5189480185508728 0.021550849080085754
0.3795180320739746 0.5174471735954285 0.012233966961503029
0.4078775644302368 0.510671079158783 0.010167953558266163
0.4300559163093567 0.5018444657325745 0.008844997733831406
0.44561222195625305 0.4935634732246399 0.00836527906358242
0.25055810809135437 0.5554661750793457 0.2455744445323944
0.4357493221759796 0.6127700805664062 -0.05793789029121399
0.4660308361053467 0.5369117856025696 -0.07574228197336197
0.467182457447052 0.5955629944801331 -0.11356642842292786
0.4801369607448578 0.6079105734825134 -0.10445251315832138
0.4673922657966614 0.6000686883926392 -0.10208301246166229
0.4432125389575958 0.6208456754684448 -0.05020099878311157
0.48408493399620056 0.6098518967628479 -0.11078066378831863
0.48597294092178345 0.6160805821418762 -0.08300060033798218
0.4440559148788452 0.476333886384964 0.021116960793733597
0.4580678343772888 0.48133695125579834 0.006407022941857576
0.46530699729919434 0.48384889960289 -0.011487743817269802
0.33772891759872437 0.4679316282272339 0.03226849064230919
0.3269336223602295 0.4633859694004059 0.03245711699128151
0.5245707631111145 0.5250652432441711 -0.09090109914541245
0.6678321957588196 0.47773364186286926 0.04359503090381622
0.5235776305198669 0.6126462817192078 -0.08218298107385635
0.7387509942054749 0.40792497992515564 0.161419078707695
0.6022472381591797 0.4965454339981079 0.017531482502818108
0.6244794130325317 0.4992944598197937 0.018966756761074066
0.6458736062049866 0.4994059205055237 0.025521159172058105
0.6741171479225159 0.48815393447875977 0.04643337056040764
0.5835069417953491 0.4898685812950134 0.01841994933784008
0.6329340934753418 0.44713515043258667 0.010567561723291874
0.609262228012085 0.4476633667945862 0.00971341785043478
0.6547659635543823 0.4500879645347595 0.018054509535431862
0.6692212820053101 0.4564855098724365 0.027825746685266495
0.6894150376319885 0.5058894157409668 0.05743926763534546
0.5856193900108337 0.824604868888855 -0.0024296483024954796
0.6754409670829773 0.4725235104560852 0.05125897377729416
0.7454962730407715 0.5038039684295654 0.165510892868042
0.7131057977676392 0.4936792850494385 0.08255117386579514
0.6132341027259827 0.5933986902236938 -0.010272718034684658
0.5277764797210693 0.685570240020752 -0.07027594745159149
0.5220201015472412 0.713630199432373 -0.0597672313451767
0.5550403594970703 0.6962023377418518 -0.05597895011305809
0.5714402198791504 0.7101615071296692 -0.03879571706056595
0.5413058996200562 0.7167801856994629 -0.050282351672649384
0.5563536286354065 0.7217485904693604 -0.03397834673523903
0.6002591848373413 0.7524687647819519 -0.0028012976981699467
0.5229719877243042 0.5987953543663025 -0.12434764206409454
0.5267338156700134 0.5760643482208252 -0.1305459886789322
0.7049964666366577 0.43718981742858887 0.034959182143211365
0.5716012120246887 0.5318764448165894 -0.013316667638719082
0.5764403343200684 0.599403977394104 -0.06321457773447037
0.5780366063117981 0.5876646041870117 -0.055302754044532776
0.6754928231239319 0.5960798263549805 0.02097763679921627
0.5257977843284607 0.5480493307113647 -0.11476463079452515
0.6525744795799255 0.4150148034095764 -0.00884284172207117
0.6844459176063538 0.42167407274246216 0.01001109927892685
0.7216472625732422 0.3652459681034088 0.11530549824237823
0.5519378185272217 0.4319875240325928 -0.031398847699165344
0.5882336497306824 0.45279860496520996 0.016539648175239563
0.616042971611023 0.7298991680145264 0.004257231019437313
0.7155126333236694 0.7198857665061951 0.2172367423772812
0.5587916970252991 0.6119102239608765 -0.05467042326927185
0.5390245318412781 0.6188472509384155 -0.05995441973209381
0.589667797088623 0.7321248054504395 2.674306415428873e-05
0.5794841051101685 0.7295595407485962 -0.006898162420839071
0.6967321634292603 0.40776580572128296 0.02350282482802868
0.5761798620223999 0.6118704080581665 -0.05077940970659256
0.6086048483848572 0.41759181022644043 -0.023087192326784134
0.6136103868484497 0.39849233627319336 -0.02684924192726612
0.6364458203315735 0.30754172801971436 0.02369765192270279
0.7085847854614258 0.38436833024024963 0.06311509758234024
0.6230854988098145 0.34928804636001587 -0.0030944282189011574
0.7168822288513184 0.4291061460971832 0.05716255307197571
0.7276300191879272 0.4187822639942169 0.10646427422761917
0.5253439545631409 0.7017691731452942 -0.06797482818365097
0.5473984479904175 0.7085180282592773 -0.054626528173685074
0.5639517903327942 0.7164379358291626 -0.03868142142891884
0.5522719621658325 0.6166648864746094 -0.05149468034505844
0.5841065049171448 0.7313903570175171 -0.003992943093180656
0.5762537121772766 0.7338883876800537 -0.01926896721124649
0.5772355794906616 0.7273813486099243 -0.007948425598442554
0.5470860600471497 0.6000103950500488 -0.08806082606315613
0.5516142845153809 0.7208570837974548 -0.030344467610120773
0.5362590551376343 0.7189346551895142 -0.040972623974084854
0.5185362696647644 0.7180346250534058 -0.04992324113845825
0.5290310382843018 0.7882704734802246 -0.0288187675178051
0.527758002281189 0.764404833316803 -0.053268782794475555
0.5260891914367676 0.7490220665931702 -0.05668240413069725
0.5237858891487122 0.7348622679710388 -0.051608748733997345
0.521481990814209 0.725829005241394 -0.04736523702740669
0.556265115737915 0.7268757820129395 -0.02838941290974617
0.5598922967910767 0.7303975224494934 -0.03258814290165901
0.5654343962669373 0.7376897931098938 -0.035655997693538666
0.5704282522201538 0.7465182542800903 -0.03115127421915531
0.5916508436203003 0.6809186935424805 -0.02925027161836624
0.739345133304596 0.6088420152664185 0.2584035098552704
0.5661860108375549 0.7280679941177368 -0.01648332178592682
0.5706616640090942 0.7301678657531738 -0.019322620704770088
0.5308294296264648 0.629919707775116 -0.06147482618689537
0.566218376159668 0.6277254819869995 -0.03477325290441513
0.5346502065658569 0.6245573163032532 -0.06143651157617569
0.5940978527069092 0.5474468469619751 -0.005053822882473469
0.6282734274864197 0.5655016303062439 0.0018577000591903925
0.5807620286941528 0.5997969508171082 -0.04248467832803726
0.6892831325531006 0.33108383417129517 0.06583927571773529
0.6753778457641602 0.36026766896247864 0.028036318719387054
0.6606631875038147 0.3965601325035095 -0.002377160592004657
0.5819851160049438 0.7658432722091675 -0.01407824456691742
0.5604652166366577 0.40292051434516907 -0.04009076952934265
0.5690759420394897 0.3458405137062073 -0.022029906511306763
0.5778998136520386 0.2960940897464752 -0.002093682764098048
0.6639244556427002 0.4961737394332886 0.036175601184368134
0.7101128697395325 0.5246880650520325 0.07098466902971268
0.5719415545463562 0.48338842391967773 0.021986540406942368
0.693332314491272 0.46327394247055054 0.04857756942510605
0.5563896894454956 0.5153025388717651 -0.0221537034958601
0.5628158450126648 0.5876532196998596 -0.08667206764221191
0.7303436994552612 0.5426662564277649 0.09661338478326797
0.69541996717453 0.5399248003959656 0.04870922863483429
0.6674337387084961 0.5469285249710083 0.02570200152695179
0.6262921094894409 0.54036945104599 0.013024312444031239
0.5960432291030884 0.5283641219139099 0.007671664468944073
0.5729537010192871 0.5158042311668396 0.00035830275737680495
0.5271514058113098 0.48260682821273804 -0.04701203107833862
0.7237005233764648 0.5912345051765442 0.0877925306558609
0.7104295492172241 0.46295076608657837 0.060662250965833664
0.5143303871154785 0.6114984750747681 -0.11343083530664444
0.5695313215255737 0.553706705570221 -0.023470217362046242
0.7472817301750183 0.5077964067459106 0.24571724236011505
0.5558602809906006 0.5023074150085449 -0.003042657393962145
0.5814238786697388 0.6030433773994446 -0.017900682985782623
0.6813254356384277 0.4761144518852234 0.05562986060976982
0.563841700553894 0.5739688277244568 -0.07685697823762894
0.7317004799842834 0.6630158424377441 0.24460341036319733
0.5724313855171204 0.4747219979763031 0.02905023656785488
0.5455009937286377 0.558232307434082 -0.10023808479309082
0.6749380826950073 0.771854043006897 0.0887465849518776
0.672374427318573 0.7988502383232117 0.1293230503797531
0.7411208748817444 0.6001384854316711 0.17314913868904114
0.69781893491745 0.7397661209106445 0.12045641243457794
0.736646294593811 0.4577138125896454 0.1430078148841858
0.5907610058784485 0.8492723107337952 0.010214393027126789
0.511451780796051 0.6177095174789429 -0.08241835236549377
0.588327169418335 0.5731317400932312 -0.014823101460933685
0.7292848825454712 0.5000628232955933 0.10720047354698181
0.6457770466804504 0.48417431116104126 0.029083261266350746
0.6260276436805725 0.48558562994003296 0.022700287401676178
0.5821598768234253 0.7391406297683716 -0.015022321604192257
0.7160543203353882 0.6376516222953796 0.09292186796665192
0.5471733808517456 0.8834375739097595 0.01446722075343132
0.6166746616363525 0.8512961268424988 0.06386232376098633
0.6436817049980164 0.8298338651657104 0.09253208339214325
0.6068040132522583 0.4836193919181824 0.02105257660150528
0.589297890663147 0.47932168841362 0.023858997970819473
0.5781769752502441 0.4770837426185608 0.02837929129600525
0.723913311958313 0.4607155919075012 0.0856161043047905
0.5918496251106262 0.4598485827445984 0.02151503786444664
0.6109938025474548 0.45460599660873413 0.017357660457491875
0.6305777430534363 0.4533880949020386 0.019011111930012703
0.6505597829818726 0.4571382701396942 0.025094345211982727
0.6629337072372437 0.4634263515472412 0.03333958238363266
0.7462399005889893 0.4526742398738861 0.2093912810087204
0.6589799523353577 0.4811299443244934 0.03680526092648506
0.573880136013031 0.663722813129425 -0.04042676091194153
0.5597303509712219 0.6069002151489258 -0.06383237987756729
0.5325244069099426 0.6513254642486572 -0.06190168857574463
0.6497822999954224 0.8029003143310547 0.06296706199645996
0.6222401857376099 0.8264527916908264 0.03760300576686859
0.5494247674942017 0.8655437231063843 -0.01408013328909874
0.6945842504501343 0.7650717496871948 0.17482630908489227
0.578407883644104 0.4681922495365143 0.025686245411634445
0.5418388247489929 0.518152117729187 -0.05483288690447807
0.5854470729827881 0.8699804544448853 0.03437957540154457
0.7317147254943848 0.6503565907478333 0.16710439324378967
0.5405043363571167 0.7257574796676636 -0.03890225291252136
0.5441871881484985 0.7324345707893372 -0.0433506965637207
0.5484988689422607 0.743152916431427 -0.046797867864370346
0.5520930290222168 0.7569671869277954 -0.043079327791929245
0.5589042901992798 0.7785463333129883 -0.024848874658346176
0.5695871114730835 0.7260906100273132 -0.01994614489376545
0.5765402913093567 0.7246502637863159 -0.020022420212626457
0.5835164189338684 0.7213762998580933 -0.01953835040330887
0.606564998626709 0.7042516469955444 -0.012861405499279499
0.6875569820404053 0.6478515863418579 0.043678008019924164
0.541495680809021 0.4973675608634949 -0.03271446004509926
0.5533096790313721 0.4616449773311615 0.010948400013148785
0.568159818649292 0.46474510431289673 0.02056681178510189
0.5647151470184326 0.7229840755462646 -0.017433756962418556
0.688914954662323 0.7057758569717407 0.07668634504079819
0.5337831974029541 0.45961663126945496 -0.02048843540251255
0.572786808013916 0.8009053468704224 -0.011298168450593948
0.5264041423797607 0.50429767370224 -0.07103917002677917
0.5568201541900635 0.5553016662597656 -0.05492832884192467
0.5374048352241516 0.8127186298370361 -0.025875532999634743
0.6238598823547363 0.7604578733444214 0.012047791853547096
0.5979062914848328 0.6243655681610107 -0.013520152308046818
0.6010557413101196 0.7842866778373718 0.001070819329470396
0.6444621086120605 0.6235021948814392 -0.0013485562521964312
0.6156535744667053 0.6500923037528992 -0.010996617376804352
0.6605732440948486 0.6643214821815491 0.0163565780967474
0.5459586381912231 0.8409026861190796 -0.025542117655277252
0.5698422193527222 0.5706070065498352 -0.03818919137120247
0.6434837579727173 0.7770821452140808 0.03548426926136017
0.615231454372406 0.8025703430175781 0.01917177625000477
0.6398712992668152 0.7308953404426575 0.01679733581840992
0.7086641788482666 0.6775141358375549 0.09946310520172119
0.6654578447341919 0.7326552271842957 0.042327843606472015
0.7193408012390137 0.6969029903411865 0.1541229486465454
0.6305824518203735 0.685611367225647 -0.001477424637414515
0.5553445816040039 0.5354081392288208 -0.03801833838224411
0.5548591613769531 0.5965999960899353 -0.09235571324825287
0.5694607496261597 0.606126070022583 -0.06676029413938522
0.5460876226425171 0.5800774693489075 -0.11023914068937302
0.5709959268569946 0.4474056363105774 0.0044428207911551
0.6079801321029663 0.4376934766769409 8.239446469815448e-05
0.6403515934944153 0.4354362487792969 0.001836733310483396
0.667130172252655 0.438102126121521 0.011783277615904808
0.6852633953094482 0.44680631160736084 0.02731066569685936
0.6953313946723938 0.48462870717048645 0.06496201455593109
0.7468274235725403 0.5514557361602783 0.17052456736564636
0.6777161359786987 0.5148956775665283 0.0450490303337574
0.6552028656005859 0.5203326940536499 0.02941122092306614
0.6263399720191956 0.518419623374939 0.018503963947296143
0.5984766483306885 0.5113247632980347 0.015183927491307259
0.5768664479255676 0.5024998188018799 0.012422590516507626
0.5617812871932983 0.494057297706604 0.011291002854704857
0.7432460188865662 0.5584882497787476 0.2604493796825409
0.5678105354309082 0.6139238476753235 -0.055236343294382095
0.5417563319206238 0.5374799370765686 -0.0738740935921669
0.5389943718910217 0.5957483053207397 -0.11191783845424652
0.5251346230506897 0.608014702796936 -0.1034366562962532
0.538131594657898 0.6002033948898315 -0.10034216940402985
0.5600826740264893 0.6221038699150085 -0.048078857362270355
0.5213232636451721 0.6098542809486389 -0.11010129749774933
0.5185810327529907 0.6162180304527283 -0.08225828409194946
0.5641399621963501 0.4766067862510681 0.02435828000307083
0.5499407649040222 0.48177164793014526 0.008749171160161495
0.5429677367210388 0.48445814847946167 -0.009463227353990078
0.6699591279029846 0.46825990080833435 0.04129771143198013
0.6805124878883362 0.463916540145874 0.04179680719971657
