ply
format ascii 1.0
element vertex 468
property float x
property float y
property float z
end_header
0.5103714466094971 0.716813325881958 -0.039190951734781265
0.5135858654975891 0.651900053024292 -0.11912297457456589
0.5105489492416382 0.6675457954406738 -0.05155906453728676
0.48934540152549744 0.5671987533569336 -0.1092272475361824
0.513373613357544 0.6282591819763184 -0.13217619061470032
0.5118013620376587 0.593726396560669 -0.13050588965415955
0.5068464279174805 0.5042821764945984 -0.09029343724250793
0.32864677906036377 0.4870871305465698 -0.012291151098906994
0.5047644376754761 0.429185152053833 -0.09050371497869492
0.5045550465583801 0.3927488327026367 -0.10484766215085983
0.5017577409744263 0.26637905836105347 -0.1182304248213768
0.5101124048233032 0.7274512052536011 -0.033638134598731995
0.5095579624176025 0.7346420884132385 -0.024024583399295807
0.508880615234375 0.7364258170127869 -0.012309916317462921
0.5092347264289856 0.7561298608779907 -0.00024832916096784174
0.5096142888069153 0.7682512998580933 -0.0011002372484654188
0.5097060799598694 0.7821935415267944 -0.0010335397673770785
0.5097540020942688 0.7954343557357788 0.00862794741988182
0.5093364715576172 0.8084782958030701 0.039488475769758224
0.5128897428512573 0.6617681384086609 -0.10454954206943512
0.49079248309135437 0.656379222869873 -0.0727824792265892
0.230833500623703 0.3678628206253052 0.06453455984592438
0.40265005826950073 0.5084971189498901 -0.02992815151810646
0.3785574436187744 0.5109000205993652 -0.02789856493473053
0.35445636510849 0.5092220902442932 -0.02195504866540432
0.3199436664581299 0.49300235509872437 -0.0057985298335552216
0.4219900071620941 0.5021297335624695 -0.026546651497483253
0.36357688903808594 0.4422329068183899 -0.05171436443924904
0.39042598009109497 0.4441908299922943 -0.051169250160455704
0.3388287425041199 0.4460899233818054 -0.042477384209632874
0.3227009177207947 0.4549759328365326 -0.031902167946100235
0.3021399974822998 0.5058250427246094 0.009474127553403378
0.42575526237487793 0.8256120681762695 0.07369902729988098
0.3184150457382202 0.4796927571296692 -0.005860605277121067
0.22988566756248474 0.4759819507598877 0.10571295022964478
0.2739027142524719 0.4836803078651428 0.027401279658079147
0.3867625296115875 0.6110913157463074 -0.0202250387519598
0.47968360781669617 0.7128373384475708 -0.038261257112026215
0.48250335454940796 0.7334722280502319 -0.022324133664369583
0.44856423139572144 0.7160549163818359 -0.023964781314134598
0.4287901818752289 0.7196300625801086 -0.00495793204754591
0.46019038558006287 0.7321491837501526 -0.0140861039981246
0.44288983941078186 0.7307806611061096 0.0030124224722385406
0.3994932770729065 0.7492307424545288 0.04715226590633392
0.49422043561935425 0.6507093906402588 -0.11793796718120575
0.49061521887779236 0.6279422640800476 -0.13041475415229797
0.28333038091659546 0.42237168550491333 -0.032313864678144455
0.43353402614593506 0.5516651272773743 -0.038329850882291794
0.43816277384757996 0.6336735486984253 -0.06540515273809433
0.4354250133037567 0.6193748116493225 -0.0615319162607193
0.3136276602745056 0.6023017764091492 0.005251213908195496
0.4900607168674469 0.5956408977508545 -0.12435589730739594
0.33880671858787537 0.398217111825943 -0.07442992180585861
0.3057897686958313 0.4057481288909912 -0.0553215891122818
0.25233665108680725 0.3283453583717346 0.008019459433853626
0.4482969641685486 0.4220429062843323 -0.08757024258375168
0.4139088988304138 0.4532613158226013 -0.04254906624555588
0.3816787004470825 0.7249311208724976 0.042831454426050186
0.2775425612926483 0.6832572221755981 0.24138322472572327
0.4555515646934509 0.6464762687683105 -0.053171101957559586
0.47474533319473267 0.6552267074584961 -0.04923470318317413
0.4046423137187958 0.7267835736274719 0.040173955261707306
0.4161998927593231 0.7276530265808105 0.033910803496837616
0.2907106876373291 0.38631558418273926 -0.05076754093170166
0.4376389980316162 0.6410449147224426 -0.049682244658470154
0.3845711946487427 0.40113145112991333 -0.08617473393678665
0.3796994686126709 0.3798846900463104 -0.09698636829853058
0.35233741998672485 0.2771678566932678 -0.09167192876338959
0.2715699076652527 0.35781988501548767 -0.02674061432480812
0.36900627613067627 0.32933807373046875 -0.09637615829706192
0.2671951651573181 0.4072113335132599 -0.01757059618830681
0.24874232709407806 0.38956117630004883 0.01952281966805458
0.48075801134109497 0.7251107692718506 -0.03282124921679497
0.4549277424812317 0.726046085357666 -0.01968461461365223
0.4357173442840576 0.7255277037620544 -0.002757162321358919
0.4613116979598999 0.6502987146377563 -0.04549235850572586
0.4103942811489105 0.7275482416152954 0.036924172192811966
0.4207093119621277 0.7393490672111511 0.028418537229299545
0.4190952479839325 0.7265838980674744 0.03373086825013161
0.46779412031173706 0.6440324187278748 -0.08721930533647537
0.44730013608932495 0.7285325527191162 0.0072753410786390305
0.4646596610546112 0.7320018410682678 -0.0038083535619080067
0.4849555492401123 0.7349294424057007 -0.011311261914670467
0.47630348801612854 0.8062190413475037 0.03869752958416939
0.4772719442844391 0.7918443083763123 0.007884250022470951
0.4786219000816345 0.7785255312919617 -0.0006229834398254752
0.48088741302490234 0.7645581960678101 -0.0004907847614958882
0.48321476578712463 0.7544519901275635 0.000686424900777638
0.4434944987297058 0.7424026131629944 0.016674784943461418
0.43919986486434937 0.7460026741027832 0.014982032589614391
0.433370441198349 0.7523118853569031 0.014508768916130066
0.4285593628883362 0.7593355178833008 0.02094711735844612
0.4089043438434601 0.6945471167564392 -0.00348501093685627
0.24102115631103516 0.5673606991767883 0.2362162470817566
0.5117824673652649 0.6636900901794434 -0.07114303112030029
0.43237850069999695 0.7364069819450378 0.02771385759115219
0.4268661141395569 0.7374908328056335 0.02676258236169815
0.482136994600296 0.6658936738967896 -0.04621991142630577
0.4445289969444275 0.6533578634262085 -0.027602868154644966
0.47872382402420044 0.6608863472938538 -0.048544663935899734
0.4090805649757385 0.5636158585548401 -0.026982374489307404
0.36909034848213196 0.5783432126045227 -0.017084872350096703
0.4317469298839569 0.6273866295814514 -0.04572926461696625
0.29044461250305176 0.2971915900707245 -0.04600851237773895
0.3092576563358307 0.3362698554992676 -0.06479734182357788
0.32871419191360474 0.37647104263305664 -0.07806199043989182
0.41899576783180237 0.7710923552513123 0.042700257152318954
0.44008752703666687 0.3877573013305664 -0.10527125746011734
0.43176814913749695 0.33064502477645874 -0.11247231811285019
0.4206860065460205 0.26808199286460876 -0.11538064479827881
0.3326965570449829 0.5035393238067627 -0.012963836081326008
0.277434766292572 0.5201159715652466 0.025464756414294243
0.43390733003616333 0.4958671033382416 -0.024933388456702232
0.2972574830055237 0.4588252305984497 -0.011943388730287552
0.44991716742515564 0.5380013585090637 -0.04954720288515091
0.4520404636859894 0.6291278004646301 -0.08995469659566879
0.25400692224502563 0.5315968990325928 0.05598308891057968
0.29468977451324463 0.5403642654418945 0.010279042646288872
0.3262418508529663 0.5523859858512878 -0.007657625246793032
0.3730202615261078 0.5506600737571716 -0.016076328232884407
0.40696534514427185 0.5416689515113831 -0.022671950981020927
0.431094765663147 0.5315231680870056 -0.030508488416671753
0.48322638869285583 0.5097802877426147 -0.08152923732995987
0.2610343396663666 0.582697868347168 0.06406396627426147
0.2769019603729248 0.4505523443222046 -0.003601049305871129
0.5013629198074341 0.6607194542884827 -0.1037745475769043
0.43789058923721313 0.5778136849403381 -0.04205145686864853
0.2223103940486908 0.4627653658390045 0.18193475902080536
0.4489968419075012 0.5200039148330688 -0.03726794198155403
0.42831504344940186 0.6257372498512268 -0.022352928295731544
0.31074509024620056 0.47821786999702454 -0.000820427609141916
0.4495201110839844 0.6113904714584351 -0.08493620902299881
0.25534510612487793 0.6237598657608032 0.2448749840259552
0.4323273301124573 0.48703357577323914 -0.023216012865304947
0.468839168548584 0.6014114618301392 -0.10950593650341034
0.3304732143878937 0.7570981979370117 0.13591282069683075
0.3348829746246338 0.7731481790542603 0.1867823600769043
0.24063053727149963 0.5770813822746277 0.1490187793970108
0.29931020736694336 0.7224831581115723 0.15366169810295105
0.2378363311290741 0.42923253774642944 0.06759534776210785
0.42451784014701843 0.8429852724075317 0.09524425864219666
0.5029220581054688 0.6626882553100586 -0.06991099566221237
0.4167765974998474 0.5929991006851196 -0.02935830131173134
0.2535792887210846 0.48407644033432007 0.05001554265618324
0.35568153858184814 0.49664270877838135 -0.024362649768590927
0.3778168261051178 0.49835047125816345 -0.029314616695046425
0.4145635962486267 0.7418851852416992 0.032825808972120285
0.2693215012550354 0.6285552978515625 0.08736822009086609
0.46513625979423523 0.8707566261291504 0.11377767473459244
0.4005059003829956 0.8315863013267517 0.14382970333099365
0.3712860941886902 0.8071698546409607 0.16204310953617096
0.5032135844230652 0.33213114738464355 -0.11507642269134521
0.5091979503631592 0.875784158706665 0.11104170978069305
0.39809200167655945 0.4960345923900604 -0.029883822426199913
0.4166894257068634 0.49121665954589844 -0.027009084820747375
0.42763200402259827 0.48869237303733826 -0.02287255972623825
0.2583334445953369 0.44070327281951904 0.016991952434182167
0.4105009436607361 0.4711855947971344 -0.036575354635715485
0.38888847827911377 0.46500810980796814 -0.04197486490011215
0.36720892786979675 0.46442919969558716 -0.04124550148844719
0.3457382917404175 0.4681588113307953 -0.034783754497766495
0.33228111267089844 0.47373104095458984 -0.026567984372377396
0.22141852974891663 0.4100026786327362 0.12655220925807953
0.34009891748428345 0.4921668767929077 -0.017900485545396805
0.5101438760757446 0.6828042268753052 -0.04149603098630905
0.43146058917045593 0.6850824952125549 -0.01882457733154297
0.4549519121646881 0.6444186568260193 -0.06336702406406403
0.4776157736778259 0.6839016675949097 -0.03982062637805939
0.505264163017273 0.46502143144607544 -0.08259531855583191
0.36349016427993774 0.7893195748329163 0.126273974776268
0.39328762888908386 0.815291166305542 0.11289305984973907
0.4630410373210907 0.8636088371276855 0.08029744774103165
0.3049463629722595 0.7341381311416626 0.21765464544296265
0.4253789186477661 0.4810338616371155 -0.028977341949939728
0.468394935131073 0.5509308576583862 -0.07944069802761078
0.5097914934158325 0.8688148856163025 0.0788482055068016
0.4305528700351715 0.8544563055038452 0.1247449591755867
0.25326311588287354 0.628233790397644 0.16273902356624603
0.46124449372291565 0.7493226528167725 0.0073450175113976
0.4571852385997772 0.7561546564102173 0.005699253641068935
0.45294463634490967 0.7665831446647644 0.005515272729098797
0.4499252438545227 0.7787368297576904 0.01275644265115261
0.4439167082309723 0.7915250062942505 0.03793324530124664
0.42710012197494507 0.7284259796142578 0.019203828647732735
0.41978442668914795 0.7257487773895264 0.018509158864617348
0.4128319323062897 0.7216339111328125 0.016955675557255745
0.39065098762512207 0.7076623439788818 0.01704532280564308
0.2998385429382324 0.648255467414856 0.04497578367590904
0.4666272699832916 0.5226062536239624 -0.06428129225969315
0.44993856549263 0.4682471752166748 -0.041998252272605896
0.43550723791122437 0.4722414016723633 -0.0340578556060791
0.43231824040412903 0.7256356477737427 0.021637680009007454
0.30382317304611206 0.6979809999465942 0.09807424247264862
0.472202330827713 0.4681206941604614 -0.06923791766166687
0.4336785674095154 0.8071235418319702 0.05759930983185768
0.510011613368988 0.5640562772750854 -0.11643144488334656
0.48596587777137756 0.5406043529510498 -0.09820794314146042
0.5084435343742371 0.5360853672027588 -0.10325184464454651
0.45341286063194275 0.5881333351135254 -0.07032325863838196
0.5097907185554504 0.8523156642913818 0.05930794030427933
0.5094876885414124 0.8288679122924805 0.049926698207855225
0.4704384505748749 0.8252801895141602 0.052190158516168594
0.3813799023628235 0.7558401823043823 0.06347853690385818
0.4075271785259247 0.642683744430542 -0.011455836705863476
0.40517228841781616 0.7834426164627075 0.06292156130075455
0.3489791750907898 0.6370522379875183 -0.003451240947470069
0.38400962948799133 0.6644766330718994 -2.9878508939873427e-05
0.33229321241378784 0.6702785491943359 0.024579832330346107
0.46469956636428833 0.8473177552223206 0.061518628150224686
0.4401164650917053 0.5981812477111816 -0.050566717982292175
0.36581528186798096 0.7699074745178223 0.09107806533575058
0.3956768810749054 0.798073410987854 0.08732859045267105
0.3612590432167053 0.7265959978103638 0.05387767031788826
0.27990031242370605 0.6664227843284607 0.10903261601924896
0.3344372510910034 0.7271823287010193 0.07650946080684662
0.2711063623428345 0.6759693026542664 0.16971252858638763
0.3660627603530884 0.6896496415138245 0.01834215223789215
0.453171968460083 0.5640947222709656 -0.059387098997831345
0.460213840007782 0.6405537724494934 -0.09312945604324341
0.4456438422203064 0.6421602964401245 -0.06578314304351807
0.4703117609024048 0.6278917789459229 -0.11070678383111954
0.4289085268974304 0.4445543885231018 -0.055053889751434326
0.3886897563934326 0.42951884865760803 -0.06144561618566513
0.35401487350463867 0.42688068747520447 -0.05949240177869797
0.32563167810440063 0.4307798147201538 -0.04869287461042404
0.3062618672847748 0.44093263149261475 -0.032909635454416275
0.2952825427055359 0.48084014654159546 0.009507075883448124
0.23238283395767212 0.5266159176826477 0.1282014548778534
0.31604620814323425 0.5182827711105347 0.0002847410214599222
0.3420349657535553 0.5272942185401917 -0.010513138957321644
0.3750542104244232 0.5285061001777649 -0.018397264182567596
0.4053267538547516 0.5232391953468323 -0.024292398244142532
0.4275805950164795 0.5153575539588928 -0.02501458302140236
0.44263947010040283 0.5081573724746704 -0.028581226244568825
0.231228768825531 0.5139143466949463 0.2157575637102127
0.44641345739364624 0.6460155248641968 -0.052641116082668304
0.4701371490955353 0.5756141543388367 -0.09150508791208267
0.47759175300598145 0.6454331874847412 -0.10896892845630646
0.48951098322868347 0.6549368500709534 -0.09545085579156876
0.4771874248981476 0.6471166610717773 -0.0971318781375885
0.4523088037967682 0.6518827676773071 -0.04189382866024971
0.4941379427909851 0.6583971381187439 -0.10078810900449753
0.4958077371120453 0.6606346964836121 -0.07116690278053284
0.44113558530807495 0.4884932041168213 -0.024958930909633636
0.45440056920051575 0.49513888359069824 -0.03563616797327995
0.4627567231655121 0.5012621283531189 -0.047841817140579224
0.3242327868938446 0.47734466195106506 -0.01750263199210167
0.31116342544555664 0.4640328288078308 -0.016941100358963013
0.5298961400985718 0.5665123462677002 -0.1068824753165245
0.6747539043426514 0.4815988540649414 0.00395628996193409
0.531570553779602 0.6555088758468628 -0.07109376043081284
0.7554225921630859 0.3618568778038025 0.08908971399068832
0.6032792925834656 0.5053626894950867 -0.019402077421545982
0.6271649599075317 0.506993293762207 -0.015278100967407227
0.6505110859870911 0.5046760439872742 -0.007484077475965023
0.6822893619537354 0.48716700077056885 0.011435418389737606
0.5840209126472473 0.4997032582759857 -0.018372615799307823
0.6405858993530273 0.4382841885089874 -0.0387415736913681
0.613996148109436 0.4411470293998718 -0.04110834002494812
0.6646982431411743 0.4413236379623413 -0.027514489367604256
0.6799999475479126 0.44979822635650635 -0.01575963757932186
0.6991186141967773 0.49979931116104126 0.028105102479457855
0.5883339047431946 0.8212327361106873 0.08161250501871109
0.6838116645812988 0.47384199500083923 0.011113886721432209
0.7584940195083618 0.46835774183273315 0.13077880442142487
0.7235543727874756 0.4769076108932495 0.04827319085597992
0.6244086027145386 0.6069603562355042 -0.00896366685628891
0.5393292903900146 0.7110794186592102 -0.034928370267152786
0.5345178246498108 0.7319759726524353 -0.019058242440223694
0.5672313570976257 0.7122293710708618 -0.017446810379624367
0.5834240317344666 0.7146784067153931 0.004156673792749643
0.5544949173927307 0.7290520668029785 -0.008030000142753124
0.5688073039054871 0.7268593311309814 0.011060722172260284
0.6080188751220703 0.7437704801559448 0.05870175361633301
0.5321795344352722 0.6499374508857727 -0.11653970181941986
0.5349845290184021 0.6271355152130127 -0.1286429464817047
0.7163474559783936 0.4160858392715454 -0.012902973219752312
0.5770545601844788 0.5494158267974854 -0.03134338557720184
0.5798090696334839 0.630828320980072 -0.05872887000441551
0.5810972452163696 0.6165778040885925 -0.05459541082382202
0.692682147026062 0.595877468585968 0.023616205900907516
0.5327771306037903 0.5949302911758423 -0.12202488631010056
0.6653943061828613 0.3939301669597626 -0.061149392277002335
0.6962224245071411 0.4002559185028076 -0.03887088969349861
0.7378613352775574 0.32324153184890747 0.02999199740588665
0.5600873827934265 0.4210493564605713 -0.08320502191781998
0.5911436676979065 0.45113539695739746 -0.034354355186223984
0.6242227554321289 0.7187548279762268 0.05648704245686531
0.7106578946113586 0.6739510893821716 0.26454657316207886
0.563139796257019 0.6442056894302368 -0.04828662797808647
0.5447875261306763 0.6537511944770813 -0.04660521075129509
0.6014676094055176 0.7210110425949097 0.05237506702542305
0.59006267786026 0.722396731376648 0.044996753334999084
0.7095404863357544 0.38063108921051025 -0.03277084231376648
0.5791371464729309 0.638100802898407 -0.04304734990000725
0.6217752695083618 0.3984951376914978 -0.07708873599767685
0.6263512372970581 0.3770190179347992 -0.0877712219953537
0.6466256976127625 0.27444785833358765 -0.07932685315608978
0.7240868806838989 0.35232704877853394 -0.007228126283735037
0.6339865922927856 0.32668113708496094 -0.0858563706278801
0.7298888564109802 0.40071070194244385 0.0031281025148928165
0.7433057427406311 0.3833077549934387 0.04176807403564453
0.5376515984535217 0.7234522104263306 -0.02951854094862938
0.5604203939437866 0.722613513469696 -0.013374644331634045
0.5765059590339661 0.7210837602615356 0.006057026330381632
0.5572519898414612 0.6483221054077148 -0.04146901145577431
0.5956642627716064 0.7219124436378479 0.04839133843779564
0.5875540375709534 0.7344239354133606 0.038404759019613266
0.5870526432991028 0.7214938402175903 0.044585488736629486
0.5540714859962463 0.6422698497772217 -0.08275122940540314
0.5636419653892517 0.7248992323875427 0.014900519512593746
0.549092710018158 0.7293845415115356 0.0018658166518434882
0.5309498906135559 0.7336297035217285 -0.00817359983921051
0.5409539937973022 0.8045545816421509 0.042005278170108795
0.5404366850852966 0.7902238965034485 0.011542858555912971
0.5390511751174927 0.7768568396568298 0.0034227098803967237
0.5364530086517334 0.7629011273384094 0.0034628789871931076
0.5333914756774902 0.7528542280197144 0.004484474193304777
0.567542314529419 0.7384729981422424 0.024776751175522804
0.5718742609024048 0.7419639825820923 0.022949853911995888
0.5778130292892456 0.7480901479721069 0.022890090942382812
0.5826253890991211 0.75497967004776 0.02984292432665825
0.6029054522514343 0.6898514032363892 0.006697159260511398
0.7421180009841919 0.559039294719696 0.2619566321372986
0.5762099623680115 0.7319560647010803 0.03722502291202545
0.5817263126373291 0.732776403427124 0.03646245226264
0.5377678275108337 0.6646226644515991 -0.043813638389110565
0.5716204643249512 0.6507765054702759 -0.022149059921503067
0.5410001277923584 0.659592866897583 -0.04619772359728813
0.6011457443237305 0.5604750514030457 -0.017383437603712082
0.6401040554046631 0.573984682559967 -0.00401214137673378
0.5836693644523621 0.6244308948516846 -0.038567233830690384
0.7038765549659729 0.29310598969459534 -0.028558865189552307
0.6899129152297974 0.33199411630630493 -0.04917904734611511
0.6743632555007935 0.3720153570175171 -0.06396546214818954
0.5916561484336853 0.7665623426437378 0.0524786151945591
0.5681567788124084 0.3866059184074402 -0.10055653005838394
0.573616087436676 0.32939809560775757 -0.10700654983520508
0.5812076926231384 0.2666892409324646 -0.10914833098649979
0.670863151550293 0.49813607335090637 0.0032863302621990442
0.7221009731292725 0.5133755803108215 0.04634368419647217
0.5723245739936829 0.49404725432395935 -0.01766689121723175
0.7032760381698608 0.4526830315589905 0.006699239835143089
0.5611464977264404 0.5362878441810608 -0.04406266659498215
0.5685295462608337 0.6268112659454346 -0.08461513370275497
0.7425939440727234 0.5240364074707031 0.07930151373147964
0.7077944278717041 0.5340692400932312 0.029935309663414955
0.6793355345726013 0.5469379425048828 0.009168646298348904
0.6345223188400269 0.5465906858444214 -0.003011437365785241
0.6012572050094604 0.5385213494300842 -0.012845576740801334
0.577552080154419 0.5293260812759399 -0.02322111465036869
0.5296611785888672 0.5091811418533325 -0.07920794934034348
0.7377843856811523 0.5746841430664062 0.08767035603523254
0.7213426232337952 0.444000780582428 0.016774877905845642
0.5239627957344055 0.6602256894111633 -0.1027505025267601
0.5749455094337463 0.5755118131637573 -0.034980613738298416
0.7593523263931274 0.45525676012039185 0.20865605771541595
0.5600775480270386 0.5185118913650513 -0.03176857903599739
0.5852317214012146 0.6226809620857239 -0.014881858602166176
0.6905972957611084 0.47227591276168823 0.016963250935077667
0.5688454508781433 0.6092509031295776 -0.07954797893762589
0.7299374938011169 0.6148055195808411 0.26968085765838623
0.5731937885284424 0.48515281081199646 -0.015515289269387722
0.551878035068512 0.5998868346214294 -0.10561543703079224
0.6702963709831238 0.7484560012817383 0.15291793644428253
0.6632283926010132 0.7641763687133789 0.20401175320148468
0.7502231597900391 0.5682731866836548 0.17448469996452332
0.6975467205047607 0.7130877375602722 0.1738446056842804
0.7519654035568237 0.42237693071365356 0.09168998897075653
0.5896477699279785 0.837973952293396 0.10348782688379288
0.5204624533653259 0.6624127626419067 -0.06928487867116928
0.5951362252235413 0.589862048625946 -0.02071412093937397
0.741094172000885 0.47684359550476074 0.07306000590324402
0.649390459060669 0.49200230836868286 -0.010025848634541035
0.6277905106544495 0.494505375623703 -0.016447551548480988
0.5934732556343079 0.7365761995315552 0.04339198023080826
0.7296451330184937 0.6200649738311768 0.11025182157754898
0.5519182682037354 0.868077278137207 0.11859605461359024
0.6084360480308533 0.825145959854126 0.15513433516025543
0.6326720118522644 0.7994226217269897 0.17594285309314728
0.607499361038208 0.4928566813468933 -0.01908765733242035
0.5888904929161072 0.4886348843574524 -0.01756342686712742
0.5779052376747131 0.4865458309650421 -0.014627854339778423
0.7368302345275879 0.43383485078811646 0.03927449509501457
0.5942413806915283 0.4685635566711426 -0.027539266273379326
0.6153941750526428 0.46154505014419556 -0.03129434958100319
0.6369898319244385 0.4601478576660156 -0.02856975607573986
0.6582615375518799 0.46315041184425354 -0.02023821696639061
0.6711726188659668 0.468269944190979 -0.011080344207584858
0.7621039152145386 0.4033883512020111 0.1526503562927246
0.6641499996185303 0.4870937168598175 -0.0022147034760564566
0.5833161473274231 0.6814113259315491 -0.011099236086010933
0.5644989609718323 0.6420692205429077 -0.05863261967897415
0.5412898659706116 0.6821533441543579 -0.03647885471582413
0.6417003870010376 0.7817861437797546 0.14003752171993256
0.615728497505188 0.8087515830993652 0.1239379346370697
0.5550510287284851 0.8609950542449951 0.08492304384708405
0.6878949403762817 0.7247987985610962 0.23811258375644684
0.5798216462135315 0.4788260757923126 -0.0205116868019104
0.5465831756591797 0.5497685670852661 -0.07575156539678574
0.5830894112586975 0.8496257066726685 0.1327681541442871
0.7383933067321777 0.6189649105072021 0.1868894100189209
0.5527006387710571 0.7464126944541931 0.013514169491827488
0.557124674320221 0.7531394958496094 0.012210243381559849
0.5617290735244751 0.7634832262992859 0.012303633615374565
0.5648412704467773 0.7756524085998535 0.019731227308511734
0.5701330304145813 0.7880987524986267 0.045411817729473114
0.5814108848571777 0.7235891819000244 0.029169179499149323
0.588810920715332 0.7205139398574829 0.029049983248114586
0.5956135392189026 0.7161561846733093 0.028085744008421898
0.6176636219024658 0.7020629048347473 0.029589204117655754
0.7040656805038452 0.6406366229057312 0.06478875130414963
0.5453174710273743 0.5214812755584717 -0.06040089949965477
0.556811511516571 0.46704891324043274 -0.03728974610567093
0.570101797580719 0.4706246256828308 -0.02699858881533146
0.5755959749221802 0.7212474346160889 0.031249621883034706
0.6969107985496521 0.6894673109054565 0.11794145405292511
0.5369335412979126 0.46746450662612915 -0.06620565801858902
0.5797142386436462 0.8030487298965454 0.06522350013256073
0.530219554901123 0.53994220495224 -0.09617023169994354
0.5626458525657654 0.5861924886703491 -0.06543786823749542
0.5469956398010254 0.823157548904419 0.05556745082139969
0.6257810592651367 0.7500260472297668 0.07608333975076675
0.6049278974533081 0.6387907862663269 -0.00195773271843791
0.6047276854515076 0.7783582210540771 0.07321878522634506
0.6604258418083191 0.631416380405426 0.011072810739278793
0.6266121864318848 0.6596440076828003 0.011689750477671623
0.6748706102371216 0.6634868383407593 0.04098193719983101
0.5535658597946167 0.8449695110321045 0.06572192907333374
0.5743328928947449 0.5957752466201782 -0.04412190616130829
0.640485405921936 0.7630287408828735 0.10486084222793579
0.6138771772384644 0.7922759056091309 0.09793289005756378
0.6443438529968262 0.7199913263320923 0.06911037862300873
0.7184174060821533 0.6574956774711609 0.13095857203006744
0.6692494750022888 0.7195771932601929 0.09337810426950455
0.7223153710365295 0.666516125202179 0.1925739347934723
0.6415682435035706 0.6840060353279114 0.03254194185137749
0.560562252998352 0.5623987913131714 -0.05415114387869835
0.5614838004112244 0.6386301517486572 -0.08838281035423279
0.5733985900878906 0.63944011926651 -0.06002964451909065
0.553199291229248 0.6263453364372253 -0.10705268383026123
0.5772859454154968 0.44274812936782837 -0.04855920374393463
0.6166033744812012 0.4265586733818054 -0.051778752356767654
0.6504807472229004 0.42274704575538635 -0.04670127481222153
0.6777304410934448 0.4258041977882385 -0.033271949738264084
0.6956757307052612 0.43521857261657715 -0.015687882900238037
0.7046031355857849 0.47458046674728394 0.028439931571483612
0.7571145296096802 0.5184539556503296 0.15433822572231293
0.6869310140609741 0.5125263333320618 0.017964541912078857
0.6627976298332214 0.522267758846283 0.004817903507500887
0.6311056017875671 0.5244836807250977 -0.005699920933693647
0.6014592051506042 0.5200884342193604 -0.014266910962760448
0.5795490145683289 0.5131361484527588 -0.0175432488322258
0.5647238492965698 0.5065556764602661 -0.02247091755270958
0.750529408454895 0.506121039390564 0.24263112246990204
0.5714224576950073 0.6435439586639404 -0.04706455394625664
0.5477476716041565 0.5744057297706604 -0.08762666583061218
0.5470348596572876 0.6441411375999451 -0.10591644793748856
0.53392094373703 0.6540298461914062 -0.09383008629083633
0.5461484789848328 0.645598828792572 -0.0941295474767685
0.5650844573974609 0.6496630311012268 -0.03713441640138626
0.5304920673370361 0.6576477289199829 -0.09941543638706207
0.5271008610725403 0.6598394513130188 -0.07015855610370636
0.5650200843811035 0.4869304597377777 -0.018589891493320465
0.5529298186302185 0.49390771985054016 -0.03092220053076744
0.5464392304420471 0.5003005266189575 -0.04391413554549217
0.6786727905273438 0.4715959429740906 -0.0011847688583657146
0.6905059218406677 0.4582045376300812 2.495511762390379e-05
