ply
format ascii 1.0
element vertex 468
property float x
property float y
property float z
end_header
0.5046592354774475 0.6893405318260193 -0.07737564295530319
0.5082362294197083 0.6206202507019043 -0.14496827125549316
0.5046022534370422 0.6438573002815247 -0.08411603420972824
0.4848209023475647 0.5410283803939819 -0.1060590147972107
0.5081596374511719 0.5951454043388367 -0.15165838599205017
0.5068052411079407 0.5628083348274231 -0.13939626514911652
0.501853346824646 0.4865071475505829 -0.06466250121593475
0.329609215259552 0.4897879958152771 0.027921533212065697
0.5001524090766907 0.43633022904396057 -0.04082607850432396
0.5000869035720825 0.4055972397327423 -0.041369982063770294
0.49809446930885315 0.29138657450675964 -0.004563257098197937
0.5043230652809143 0.7001397013664246 -0.0745144635438919
0.5037693381309509 0.7063779830932617 -0.06888444721698761
0.5028796195983887 0.7062262296676636 -0.05964097008109093
0.5044468641281128 0.7712866067886353 -0.03986814618110657
0.5048486590385437 0.7799030542373657 -0.045922305434942245
0.5049175024032593 0.7901831865310669 -0.05339959263801575
0.5046015381813049 0.8028692603111267 -0.05147446319460869
0.5031450390815735 0.8243266344070435 -0.03546353802084923
0.5072579979896545 0.634178102016449 -0.13307656347751617
0.4813457131385803 0.6320793032646179 -0.1004139706492424
0.23184368014335632 0.41313081979751587 0.14428377151489258
0.39914268255233765 0.5053399801254272 0.006758119910955429
0.3754136860370636 0.5072861313819885 0.006602427456527948
0.3516380190849304 0.50701504945755 0.011336716823279858
0.3172840476036072 0.498657763004303 0.030014943331480026
0.41889113187789917 0.49972623586654663 0.010439767502248287
0.36637651920318604 0.4528595805168152 -0.0010998643701896071
0.3910154402256012 0.452741801738739 0.002444404410198331
0.34229499101638794 0.4576042890548706 0.004302000626921654
0.325702428817749 0.4662264287471771 0.013527330942451954
0.29583972692489624 0.5134412050247192 0.03997017815709114
0.4015122056007385 0.8520280122756958 -0.008145223371684551
0.3197682201862335 0.4867924749851227 0.03560079261660576
0.21684867143630981 0.5147442817687988 0.1456834226846695
0.26692938804626465 0.5038349628448486 0.06427798420190811
0.37085574865341187 0.5977526307106018 -0.029403772205114365
0.4619450271129608 0.6858716607093811 -0.07618334889411926
0.4637714624404907 0.7055739164352417 -0.06561897695064545
0.418254554271698 0.69038987159729 -0.06038496643304825
0.3895830512046814 0.6968080401420593 -0.033679425716400146
0.4313174784183502 0.705801784992218 -0.05200248956680298
0.40629735589027405 0.7071272730827332 -0.027894092723727226
0.3610003590583801 0.7482017278671265 0.012621276080608368
0.4869757294654846 0.6205152273178101 -0.14337845146656036
0.48461905121803284 0.59573894739151 -0.14974668622016907
0.287961483001709 0.44764289259910583 0.017792360857129097
0.4274435043334961 0.5411114692687988 -0.024366287514567375
0.4205166697502136 0.6099144816398621 -0.08456232398748398
0.41884925961494446 0.596798837184906 -0.07585051655769348
0.29308247566223145 0.5937426090240479 -0.0012479388387873769
0.48481473326683044 0.5658098459243774 -0.13301296532154083
0.3492256700992584 0.4193003177642822 -0.01848040707409382
0.3140636682510376 0.4295119345188141 -0.0031081580091267824
0.25916290283203125 0.36881527304649353 0.10200167447328568
0.45323267579078674 0.43295371532440186 -0.03525330871343613
0.412762314081192 0.45853543281555176 0.010842550545930862
0.33931440114974976 0.7142381072044373 0.015055506490170956
0.23231741786003113 0.7494081854820251 0.18975761532783508
0.4382323622703552 0.6234834790229797 -0.07463593780994415
0.4597591757774353 0.6318002939224243 -0.077778160572052
0.35452818870544434 0.7144973278045654 0.01843600906431675
0.3678846061229706 0.7162396907806396 0.013663304969668388
0.2997268736362457 0.41538742184638977 0.010135289281606674
0.4161915183067322 0.6183183193206787 -0.07162223011255264
0.39516931772232056 0.41846975684165955 -0.029494252055883408
0.39043018221855164 0.39919131994247437 -0.03325996920466423
0.3606037497520447 0.3068826198577881 0.018992748111486435
0.28047817945480347 0.39092206954956055 0.05159415304660797
0.3781713843345642 0.3497987985610962 -0.006755699869245291
0.27203088998794556 0.4383906126022339 0.03906184807419777
0.2523902654647827 0.42684000730514526 0.09097419679164886
0.4623090326786041 0.6986380815505981 -0.07268432527780533
0.42551618814468384 0.7003341317176819 -0.056305985897779465
0.3980664610862732 0.702176570892334 -0.03242688626050949
0.443350613117218 0.6273394823074341 -0.06988371908664703
0.36059895157814026 0.7150568962097168 0.0159965381026268
0.3778655230998993 0.7382804751396179 0.0038497550413012505
0.37303993105888367 0.7172867655754089 0.013144458644092083
0.4568021297454834 0.6196831464767456 -0.10865861922502518
0.4106005132198334 0.7044087052345276 -0.02473030984401703
0.4357278048992157 0.7041754126548767 -0.04314178600907326
0.4659702181816101 0.7055211663246155 -0.05628419294953346
0.45892083644866943 0.8224278688430786 -0.033954694867134094
0.4611600637435913 0.7995675802230835 -0.04919855296611786
0.4631582498550415 0.7866787910461426 -0.04976284131407738
0.4651539623737335 0.7764763236045837 -0.04157531261444092
0.46759888529777527 0.7689433097839355 -0.03656422719359398
0.4105543792247772 0.7504605054855347 -0.010010125115513802
0.40571412444114685 0.7525420188903809 -0.014120502397418022
0.3990817964076996 0.7571349740028381 -0.017947830259799957
0.3938673436641693 0.7636452317237854 -0.01380244456231594
0.3759472668170929 0.6772294044494629 -0.02810538373887539
0.20907098054885864 0.6283496618270874 0.2327471375465393
0.5061197876930237 0.6391505002975464 -0.10120530426502228
0.39344456791877747 0.7391999363899231 0.005733077879995108
0.3851197361946106 0.7376694083213806 0.00341155962087214
0.46803703904151917 0.6426119208335876 -0.0788414478302002
0.4217289686203003 0.631365954875946 -0.053206611424684525
0.464034765958786 0.6374286413192749 -0.07923642545938492
0.3996906876564026 0.5531708598136902 -0.01915189065039158
0.35678011178970337 0.566683292388916 -0.016729144379496574
0.4117299020290375 0.6061641573905945 -0.06225036829710007
0.2999121844768524 0.33224743604660034 0.057545606046915054
0.3204050660133362 0.3642144501209259 0.020103728398680687
0.34004172682762146 0.4010266661643982 -0.011930367909371853
0.3856185972690582 0.7777218818664551 -0.0017628048080950975
0.4455348551273346 0.4017745852470398 -0.04188203066587448
0.43543654680252075 0.34537991881370544 -0.0205999668687582
0.4242633581161499 0.2946052849292755 -0.0018395945662632585
0.3302620053291321 0.504574179649353 0.02051456831395626
0.2672472298145294 0.5299555063247681 0.05124659463763237
0.4309734106063843 0.49365562200546265 0.014406062662601471
0.2974015474319458 0.4758508801460266 0.032624997198581696
0.4459569454193115 0.5265089273452759 -0.032117489725351334
0.4405652582645416 0.6036685705184937 -0.1078968197107315
0.23837724328041077 0.5495039820671082 0.07486067712306976
0.2854601740837097 0.5405044555664062 0.028776245191693306
0.3176010549068451 0.5452432036399841 0.00830778293311596
0.36509519815444946 0.542834997177124 -0.0011087418533861637
0.4009525775909424 0.5351205468177795 -0.0032380365300923586
0.42739126086235046 0.524803876876831 -0.008098517544567585
0.479173868894577 0.4938143789768219 -0.055955417454242706
0.2359752655029297 0.5950852632522583 0.064605213701725
0.2761223316192627 0.4742814600467682 0.04287748038768768
0.4943983256816864 0.6333350539207458 -0.13220980763435364
0.4276304543018341 0.5629756450653076 -0.03823424503207207
0.2065090835094452 0.5181514024734497 0.22309494018554688
0.4463759660720825 0.5121705532073975 -0.010113144293427467
0.4073134660720825 0.6070153713226318 -0.03539588302373886
0.3098852038383484 0.48857206106185913 0.039504341781139374
0.43889591097831726 0.5873919129371643 -0.09702844172716141
0.21479344367980957 0.6874697208404541 0.21676495671272278
0.4296976625919342 0.48602497577667236 0.021940702572464943
0.46229982376098633 0.5747219324111938 -0.11977255344390869
0.2892971932888031 0.7933798432350159 0.07671179622411728
0.29260575771331787 0.8303383588790894 0.10934003442525864
0.20990729331970215 0.6150181293487549 0.14911377429962158
0.25469017028808594 0.7642385959625244 0.10006529092788696
0.23399335145950317 0.46690165996551514 0.12530596554279327
0.39911141991615295 0.8795105814933777 -8.798457565717399e-05
0.4957107603549957 0.6382090449333191 -0.10003746300935745
0.4026164710521698 0.5787804126739502 -0.0316716730594635
0.24399186670780182 0.5105394124984741 0.08727970719337463
0.35547906160354614 0.49309641122817993 0.014913802966475487
0.376323938369751 0.4938456416130066 0.010011585429310799
0.37146711349487305 0.7401227355003357 0.006694848649203777
0.2336423695087433 0.6459712982177734 0.0696542039513588
0.4469597041606903 0.9155589938163757 0.0003331592015456408
0.36797669529914856 0.8828786611557007 0.050545528531074524
0.33343130350112915 0.8607383966445923 0.07810726016759872
0.49938011169433594 0.3457178771495819 -0.023074127733707428
0.5005922317504883 0.9190417528152466 -0.004407163243740797
0.3955436944961548 0.4925767183303833 0.010334881022572517
0.4135586619377136 0.4895361065864563 0.014742990955710411
0.42455607652664185 0.4877387285232544 0.020604141056537628
0.25677594542503357 0.4708986282348633 0.06672048568725586
0.40905073285102844 0.4748380184173584 0.013356314972043037
0.38912057876586914 0.4716295599937439 0.007524035405367613
0.37036755681037903 0.47154971957206726 0.0071509117260575294
0.3502974212169647 0.47522759437561035 0.011388509534299374
0.3361673355102539 0.48047131299972534 0.018300868570804596
0.21514621376991272 0.4595252275466919 0.18920576572418213
0.34063661098480225 0.4915289878845215 0.021464629098773003
0.5044668912887573 0.6593865156173706 -0.07625602930784225
0.4048290550708771 0.6644474864006042 -0.0494825504720211
0.43934008479118347 0.6210917830467224 -0.08345433324575424
0.46250754594802856 0.6602697372436523 -0.07485149800777435
0.5002972483634949 0.4611778259277344 -0.042918745428323746
0.32723140716552734 0.8258441686630249 0.056704387068748474
0.3618960678577423 0.8525004386901855 0.030171150341629982
0.44645455479621887 0.897355318069458 -0.024735836312174797
0.26010990142822266 0.7972722053527832 0.1486685425043106
0.4231671392917633 0.4812091588973999 0.018501317128539085
0.46404996514320374 0.5319876074790955 -0.06677399575710297
0.5017383694648743 0.9000603556632996 -0.028220070526003838
0.4041561484336853 0.9024103879928589 0.020308198407292366
0.21361687779426575 0.6704188585281372 0.14159534871578217
0.43660593032836914 0.7613468170166016 -0.02473435550928116
0.43187105655670166 0.7664076089859009 -0.029177803546190262
0.42756158113479614 0.7744715809822083 -0.03376544266939163
0.4240352213382721 0.7855839729309082 -0.03108253702521324
0.4164561927318573 0.8041796088218689 -0.019516203552484512
0.38219696283340454 0.7092509269714355 -0.00569521076977253
0.37415146827697754 0.7066132426261902 -0.0053056650795042515
0.3669334948062897 0.7027779817581177 -0.005683158989995718
0.35096991062164307 0.6923505067825317 -0.003939745016396046
0.2662782371044159 0.6519641280174255 0.022533046081662178
0.4634767174720764 0.5090211033821106 -0.04206618294119835
0.44920262694358826 0.4684717059135437 0.007461070083081722
0.43379080295562744 0.47281864285469055 0.015741582959890366
0.38902008533477783 0.7065984010696411 -0.004003736190497875
0.26174670457839966 0.718418300151825 0.059404242783784866
0.470060259103775 0.46610575914382935 -0.026347072795033455
0.40885859727859497 0.8252129554748535 -0.013279714621603489
0.5050599575042725 0.5368123054504395 -0.11308498680591583
0.4818919599056244 0.5186452865600586 -0.08236819505691528
0.5035266876220703 0.5126675963401794 -0.08713122457265854
0.4455169141292572 0.5679344534873962 -0.07124971598386765
0.502295732498169 0.8743379712104797 -0.03733621910214424
0.5025740265846252 0.8457874059677124 -0.03598726540803909
0.4538390636444092 0.8443485498428345 -0.03140682354569435
0.34834563732147217 0.761868417263031 0.021222449839115143
0.386325478553772 0.626799464225769 -0.028799094259738922
0.3757140338420868 0.7970572710037231 0.006208689883351326
0.32631728053092957 0.6264035701751709 -0.021156027913093567
0.3595511317253113 0.6514343619346619 -0.02015073224902153
0.3015175461769104 0.6659606695175171 0.0012448421912267804
0.4483286142349243 0.872454822063446 -0.03277846798300743
0.4275563061237335 0.5799016356468201 -0.055064860731363297
0.33269309997558594 0.789136528968811 0.03590824827551842
0.3666704297065735 0.8216748833656311 0.017498042434453964
0.32560157775878906 0.7247307896614075 0.019762234762310982
0.23791074752807617 0.6911935806274414 0.07745404541492462
0.2963724732398987 0.7393545508384705 0.03664444759488106
0.22715070843696594 0.7214578986167908 0.12896929681301117
0.3335881233215332 0.6779798269271851 -0.0050889537669718266
0.446750670671463 0.5477831363677979 -0.051159776747226715
0.4489055275917053 0.6152983903884888 -0.11355920135974884
0.428422749042511 0.6184898018836975 -0.08768647909164429
0.4620629549026489 0.5992887020111084 -0.13065707683563232
0.4316593110561371 0.45105624198913574 0.0014438321813941002
0.39371830224990845 0.4406353831291199 -0.005159846041351557
0.3600708544254303 0.43993282318115234 -0.007085675373673439
0.3308521807193756 0.4457549452781677 0.00024488967028446496
0.309492290019989 0.45743948221206665 0.014000204391777515
0.2916921377182007 0.4962024688720703 0.04801977798342705
0.21093177795410156 0.5641529560089111 0.1486005038022995
0.3106417953968048 0.5203487873077393 0.028061164543032646
0.33677709102630615 0.5244953036308289 0.014736626297235489
0.36975640058517456 0.5242007970809937 0.0065625375136733055
0.40071195363998413 0.5196033716201782 0.004998414311558008
0.4245351254940033 0.5119011402130127 0.005003436468541622
0.4402329921722412 0.5038832426071167 0.004673243034631014
0.2072071135044098 0.5729736685752869 0.2365659922361374
0.4268021285533905 0.6229771375656128 -0.07563883811235428
0.46507322788238525 0.5525761842727661 -0.08977822214365005
0.46871405839920044 0.6174409985542297 -0.1321248561143875
0.4812759757041931 0.6294362545013428 -0.12232626229524612
0.46785616874694824 0.6214448809623718 -0.12028510868549347
0.43147751688957214 0.6290764808654785 -0.06702879816293716
0.48619726300239563 0.6317933797836304 -0.12892389297485352
0.48724377155303955 0.6362313032150269 -0.10012463480234146
0.43882477283477783 0.4865022897720337 0.018232833594083786
0.4522569477558136 0.4909575581550598 0.003200121223926544
0.46016648411750793 0.49391356110572815 -0.016060058027505875
0.32704609632492065 0.4841439723968506 0.02555721066892147
0.31222599744796753 0.4761608839035034 0.02639496512711048
0.5246994495391846 0.5401978492736816 -0.10344023257493973
0.6618322134017944 0.4819868206977844 0.047519978135824203
0.5298346877098083 0.630916178226471 -0.09833484143018723
0.744459867477417 0.40569233894348145 0.1758478283882141
0.5949695110321045 0.5006715059280396 0.019225504249334335
0.6185000538825989 0.5016059875488281 0.021498674526810646
0.641521155834198 0.5004746913909912 0.02860323153436184
0.6727533936500549 0.49068987369537354 0.05073843523859978
0.5755051970481873 0.49594682455062866 0.020169364288449287
0.6270548105239868 0.4473973512649536 0.01470865961164236
0.602569043636322 0.44836142659187317 0.01482721883803606
0.6503844261169434 0.45134127140045166 0.022976430132985115
0.6660097241401672 0.4593520760536194 0.033340658992528915
0.6933226585388184 0.5053979158401489 0.062440548092126846
0.5970374345779419 0.846458911895752 0.0016384844202548265
0.6705620288848877 0.4788929522037506 0.05623751878738403
0.7592699527740479 0.5047279596328735 0.17744530737400055
0.7185286283493042 0.4949326515197754 0.08972261101007462
0.628568172454834 0.5924782752990723 -0.016740744933485985
0.5459128022193909 0.6837440133094788 -0.07272636145353317
0.5421434640884399 0.703855037689209 -0.06235915422439575
0.5864261388778687 0.6859381794929504 -0.05330374836921692
0.6115550994873047 0.6912744045257568 -0.023985842242836952
0.5720137357711792 0.7023504972457886 -0.045778416097164154
0.5944340229034424 0.7026684284210205 -0.0197218656539917
0.6348345279693604 0.741690456867218 0.02554815262556076
0.5286638736724854 0.619513213634491 -0.14179490506649017
0.5307663083076477 0.5947062373161316 -0.14771361649036407
0.7024142742156982 0.4397227168083191 0.04192356392741203
0.5720681548118591 0.5381580591201782 -0.016537299379706383
0.5862911939620972 0.6063050031661987 -0.07706402242183685
0.5863673686981201 0.5932244658470154 -0.06799880415201187
0.7003741264343262 0.5854024887084961 0.019980397075414658
0.5279970169067383 0.5649686455726624 -0.13057488203048706
0.6460832357406616 0.4135383665561676 -0.0017647554632276297
0.6791870594024658 0.4224138855934143 0.017910970374941826
0.7222410440444946 0.3625154495239258 0.1301891952753067
0.5458534359931946 0.43108096718788147 -0.029629580676555634
0.581000566482544 0.4550434947013855 0.02091401256620884
0.654947817325592 0.7068833708763123 0.030396314337849617
0.7368009090423584 0.7362674474716187 0.2192852795124054
0.5689705014228821 0.6204771995544434 -0.06910856813192368
0.5484300851821899 0.629895806312561 -0.07480716705322266
0.6409314274787903 0.7079654932022095 0.031708478927612305
0.6283197999000549 0.7103279232978821 0.025392523035407066
0.6922490000724792 0.4080885052680969 0.0326266884803772
0.5889546871185303 0.6147215962409973 -0.06419316679239273
0.6020743250846863 0.4144402742385864 -0.01801375113427639
0.6070556640625 0.39504706859588623 -0.021482419222593307
0.6306570768356323 0.30344608426094055 0.03499751538038254
0.7068545818328857 0.38405609130859375 0.07631397247314453
0.6170222759246826 0.3461878299713135 0.006869361270219088
0.7160260677337646 0.4303831458091736 0.06499094516038895
0.730531632900238 0.4191441237926483 0.11901157349348068
0.544884979724884 0.6965780854225159 -0.06935817748308182
0.5787072777748108 0.6961736083030701 -0.049656037241220474
0.6032272577285767 0.69711834192276 -0.02356616221368313
0.5636451840400696 0.6246115565299988 -0.06535226851701736
0.6353386640548706 0.7088280916213989 0.028312740847468376
0.6206002235412598 0.7328312397003174 0.01426862832158804
0.6230840086936951 0.7116504311561584 0.024543095380067825
0.5542440414428711 0.6170780062675476 -0.10367364436388016
0.5891804099082947 0.7002567052841187 -0.017006922513246536
0.5664225816726685 0.7011398673057556 -0.03716101497411728
0.5383416414260864 0.7039342522621155 -0.05325743928551674
0.5458322167396545 0.8204703330993652 -0.03061983734369278
0.5461707711219788 0.7976592779159546 -0.045506544411182404
0.5450111031532288 0.7847554683685303 -0.04608284682035446
0.5428632497787476 0.7747724652290344 -0.03809003531932831
0.539526104927063 0.7673251032829285 -0.03299746662378311
0.590753436088562 0.746235191822052 -0.0017815224127843976
0.5957962870597839 0.7480685710906982 -0.006029697600752115
0.6024726629257202 0.7526130080223083 -0.009402175433933735
0.6071676015853882 0.7588987350463867 -0.004774118307977915
0.6245133876800537 0.6713858842849731 -0.017050355672836304
0.7571059465408325 0.6167994141578674 0.2657609283924103
0.6052523851394653 0.7344035506248474 0.01578495278954506
0.6137201189994812 0.7325357794761658 0.013497788459062576
0.5403107404708862 0.6410288214683533 -0.07606998085975647
0.582318127155304 0.6280695796012878 -0.047231320291757584
0.5441004037857056 0.6358213424682617 -0.0764879360795021
0.5986840724945068 0.5490802526473999 -0.008424140512943268
0.6405370831489563 0.5609005689620972 -0.0018481522565707564
0.5920121073722839 0.6026073098182678 -0.05424053594470024
0.6862829923629761 0.3271956145763397 0.08053495734930038
0.6709083318710327 0.3587508499622345 0.03994937241077423
0.6548132300376892 0.39509859681129456 0.005697465501725674
0.6128683090209961 0.7721803188323975 0.008737158961594105
0.5539757609367371 0.39977359771728516 -0.0358230397105217
0.5622972846031189 0.34351667761802673 -0.013351170346140862
0.5703510046005249 0.2929319143295288 0.0060775564052164555
0.6613435745239258 0.49693533778190613 0.03996290639042854
0.71983802318573 0.5209246873855591 0.07630793005228043
0.5636501312255859 0.49039584398269653 0.02307821251451969
0.6919283866882324 0.4679352045059204 0.055561792105436325
0.5543441772460938 0.5241418480873108 -0.025914078578352928
0.5693554878234863 0.6006957292556763 -0.10171249508857727
0.7452594041824341 0.5395037531852722 0.10367482155561447
0.7047515511512756 0.5321077704429626 0.05224110186100006
0.6758713722229004 0.5380858778953552 0.02793859876692295
0.6306557059288025 0.5373307466506958 0.013770601712167263
0.5955653190612793 0.5309445858001709 0.007671869359910488
0.5699204206466675 0.5216513872146606 3.746145375771448e-05
0.5237955451011658 0.4929085373878479 -0.05313029885292053
0.7488967180252075 0.5841754674911499 0.0930977314710617
0.7113755345344543 0.46577247977256775 0.06803954392671585
0.5198351740837097 0.6327180862426758 -0.1308346539735794
0.5740270018577576 0.5600488185882568 -0.030569875612854958
0.7612395882606506 0.5086667537689209 0.25731679797172546
0.5517665147781372 0.5098165273666382 -0.0038545923307538033
0.5944082736968994 0.6031923890113831 -0.027262600138783455
0.6794283390045166 0.4804973006248474 0.06119260564446449
0.568806529045105 0.584673285484314 -0.09086207300424576
0.7518677711486816 0.6749680042266846 0.24855540692806244
0.5643776059150696 0.4826241433620453 0.031104836612939835
0.5481448173522949 0.572939932346344 -0.11521216481924057
0.694308340549469 0.7816572189331055 0.09853636473417282
0.6868030428886414 0.818065345287323 0.13155652582645416
0.7658764719963074 0.6034334897994995 0.18087375164031982
0.7249694466590881 0.7513951659202576 0.12566331028938293
0.745081901550293 0.45834046602249146 0.15571770071983337
0.5983994603157043 0.873356819152832 0.010299930348992348
0.5162417888641357 0.6376978754997253 -0.09913145750761032
0.5976110696792603 0.5747044682502747 -0.022094164043664932
0.7384704351425171 0.5011392831802368 0.11567466706037521
0.6379716992378235 0.4863658547401428 0.032131511718034744
0.6176303625106812 0.4880358576774597 0.025309061631560326
0.6263677477836609 0.7343858480453491 0.017963165417313576
0.7503039836883545 0.6342934966087341 0.09749197959899902
0.5526232123374939 0.912301242351532 0.006122457794845104
0.6229337453842163 0.8745535612106323 0.06483261287212372
0.6522271037101746 0.8502296209335327 0.09598779678344727
0.598324716091156 0.487615704536438 0.023219609633088112
0.5803369283676147 0.4852429926395416 0.025949284434318542
0.5694463849067688 0.4840630888938904 0.030590573325753212
0.7278462648391724 0.46220076084136963 0.09411429613828659
0.5842446684837341 0.4707326591014862 0.024736857041716576
0.6036299467086792 0.4668869376182556 0.02052132785320282
0.622461199760437 0.46576637029647827 0.02236156351864338
0.64219069480896 0.46853211522102356 0.029034076258540154
0.6556074619293213 0.47308939695358276 0.03729456663131714
0.7566795349121094 0.451372355222702 0.22249336540699005
0.6519051790237427 0.4841897189617157 0.040247976779937744
0.5985606908798218 0.6599106788635254 -0.04118935391306877
0.5688852071762085 0.618007481098175 -0.0781717449426651
0.5450063943862915 0.6581697463989258 -0.07132723182439804
0.660920262336731 0.815754771232605 0.07430398464202881
0.6301062107086182 0.8440049290657043 0.04417641460895538
0.5553085803985596 0.8940746784210205 -0.019010240212082863
0.7136116623878479 0.7843198776245117 0.1751510351896286
0.5705638527870178 0.47749754786491394 0.028568891808390617
0.5409109592437744 0.5304927229881287 -0.06257040798664093
0.5917137861251831 0.8963510990142822 0.030873022973537445
0.7618244886398315 0.6578012704849243 0.17202362418174744
0.5679727792739868 0.7583204507827759 -0.018884148448705673
0.5730504989624023 0.7632511854171753 -0.022897176444530487
0.5774015188217163 0.7711570262908936 -0.02722419984638691
0.5804929137229919 0.7821354866027832 -0.024139797315001488
0.5850992798805237 0.8002938628196716 -0.011617264710366726
0.6157875657081604 0.7039514780044556 0.004652620293200016
0.6239654421806335 0.7006309628486633 0.006203906144946814
0.6309456825256348 0.6965872645378113 0.006224588956683874
0.6462455987930298 0.6854959726333618 0.009857160970568657
0.7233656048774719 0.6415469646453857 0.046078894287347794
0.5381763577461243 0.5074985027313232 -0.037592411041259766
0.5467022061347961 0.46620506048202515 0.01303858496248722
0.5604503154754639 0.4696425199508667 0.024053137749433517
0.6085972785949707 0.7017004489898682 0.005820505786687136
0.7234688997268677 0.7067372798919678 0.08356927335262299
0.5289909839630127 0.46485787630081177 -0.023012615740299225
0.5903679132461548 0.8202193975448608 -0.004398411605507135
0.52446049451828 0.5177485942840576 -0.07999951392412186
0.5597958564758301 0.5656212568283081 -0.0656701922416687
0.5493241548538208 0.8418127298355103 -0.027236949652433395
0.6454557180404663 0.7542669773101807 0.03598069027066231
0.6142926216125488 0.6220895648002625 -0.01832318678498268
0.6201096177101135 0.7905200719833374 0.017963798716664314
0.6705827713012695 0.618963360786438 -0.00471474789083004
0.6394580602645874 0.645314633846283 -0.006997381336987019
0.6921018958091736 0.6570368409156799 0.020609751343727112
0.5544875860214233 0.8694478869438171 -0.02730080671608448
0.5757429599761963 0.5769972205162048 -0.048124589025974274
0.6584824919700623 0.7799475193023682 0.05293458700180054
0.6273339986801147 0.8141661882400513 0.03036833554506302
0.666967511177063 0.7163235545158386 0.037399232387542725
0.7447153925895691 0.6788358688354492 0.10398407280445099
0.6925961971282959 0.728981077671051 0.057127099484205246
0.7490352392196655 0.7084243297576904 0.15814591944217682
0.6621002554893494 0.6706081628799438 0.011005216278135777
0.5564051866531372 0.545467734336853 -0.045176468789577484
0.5621024966239929 0.6124914884567261 -0.10794396698474884
0.5793440341949463 0.6149967908859253 -0.08124402910470963
0.5511062145233154 0.5973910689353943 -0.12597878277301788
0.5640590190887451 0.4481274485588074 0.009386989288032055
0.6013626456260681 0.4360668659210205 0.006684049963951111
0.6345544457435608 0.43440723419189453 0.008929171599447727
0.6625380516052246 0.43936842679977417 0.019500257447361946
0.6819002628326416 0.4502311050891876 0.035496119409799576
0.6963053941726685 0.4878315329551697 0.07108878344297409
0.7648377418518066 0.5532968640327454 0.18122759461402893
0.6802192330360413 0.51263028383255 0.0489947646856308
0.6560944318771362 0.5177236199378967 0.03286420553922653
0.6246025562286377 0.518685519695282 0.02120456099510193
0.5941848754882812 0.5151623487472534 0.016479816287755966
0.5710998177528381 0.5085211992263794 0.01359113771468401
0.5558285117149353 0.5011129379272461 0.011713612824678421
0.7588898539543152 0.5626240372657776 0.27049410343170166
0.579460620880127 0.6195493340492249 -0.06940805166959763
0.5427347421646118 0.5510889887809753 -0.0853625237941742
0.5452713370323181 0.6154025197029114 -0.12869864702224731
0.5313100814819336 0.6280015707015991 -0.12028990685939789
0.5447577834129333 0.6193557977676392 -0.11666204780340195
0.5740590691566467 0.6261613368988037 -0.06180880591273308
0.5273306369781494 0.630684494972229 -0.12724237143993378
0.5242711305618286 0.6353632211685181 -0.09866484254598618
0.5559059977531433 0.48350584506988525 0.025597015395760536
0.544003963470459 0.488642156124115 0.00858366023749113
0.5383558869361877 0.4921718239784241 -0.011384927667677402
0.6640763878822327 0.47660887241363525 0.04539522901177406
0.6779839396476746 0.46847304701805115 0.047507092356681824
