ply
format ascii 1.0
element vertex 468
property float x
property float y
property float z
end_header
0.5197360515594482 0.7268048524856567 -0.06996312737464905
0.5283756256103516 0.6468262672424316 -0.13884924352169037
0.5204826593399048 0.6717067956924438 -0.07546054571866989
0.4996511936187744 0.553509533405304 -0.10602326691150665
0.5283091068267822 0.618251383304596 -0.14684908092021942
0.5249374508857727 0.5805432200431824 -0.1360834538936615
0.5140766501426697 0.49016499519348145 -0.06557437777519226
0.32983461022377014 0.47864705324172974 0.010207605548202991
0.510222852230072 0.43660008907318115 -0.04588636755943298
0.5102406144142151 0.4028886556625366 -0.04898418113589287
0.50273597240448 0.2666306793689728 -0.015812864527106285
0.5191609263420105 0.7387806177139282 -0.06631435453891754
0.518261730670929 0.7455244660377502 -0.05943566560745239
0.5169163942337036 0.7458304166793823 -0.049354188144207
0.5187329649925232 0.7599188089370728 -0.04833598434925079
0.5198380947113037 0.7675802111625671 -0.05431578680872917
0.5205657482147217 0.778268575668335 -0.06264106184244156
0.520801842212677 0.7921584248542786 -0.06361360102891922
0.5194920301437378 0.8263747692108154 -0.04704342782497406
0.5262365937232971 0.6614789366722107 -0.1260427087545395
0.49613291025161743 0.6578707098960876 -0.09435967355966568
0.19844448566436768 0.38702070713043213 0.11546532809734344
0.40337175130844116 0.5010759830474854 -0.00423809327185154
0.37821507453918457 0.5023032426834106 -0.00676666060462594
0.3525938391685486 0.5016986131668091 -0.004240937530994415
0.31571075320243835 0.4895634055137634 0.01127665862441063
0.4240300953388214 0.4958992004394531 0.0014586097095161676
0.3699316084384918 0.44566208124160767 -0.017394687980413437
0.3952288031578064 0.4455430805683136 -0.011127480305731297
0.3453928232192993 0.45007577538490295 -0.014137260615825653
0.32783955335617065 0.4578853249549866 -0.006401538848876953
0.28853482007980347 0.5083990097045898 0.020649675279855728
0.41510477662086487 0.8825340270996094 -0.026358915492892265
0.3186758756637573 0.4741365909576416 0.016143299639225006
0.18264174461364746 0.5047191381454468 0.12210482358932495
0.25220146775245667 0.49646562337875366 0.04185795411467552
0.37751972675323486 0.6136732697486877 -0.0364387221634388
0.4810374975204468 0.7215144634246826 -0.07215423136949539
0.48228919506073 0.7437974214553833 -0.059642642736434937
0.43940144777297974 0.7256541848182678 -0.06092022359371185
0.41080528497695923 0.7320879697799683 -0.04141119122505188
0.4510619044303894 0.7427968978881836 -0.05112724378705025
0.4260372519493103 0.7430243492126465 -0.03295711800456047
0.37877392768859863 0.7734265923500061 -0.007168646436184645
0.5057363510131836 0.6462287306785583 -0.13886164128780365
0.5031948089599609 0.6179051995277405 -0.1466711163520813
0.2829431891441345 0.4398920238018036 -0.008449040353298187
0.43447619676589966 0.5480170845985413 -0.030172914266586304
0.43292760848999023 0.6314776539802551 -0.0841166153550148
0.4304090738296509 0.6160497069358826 -0.07593771815299988
0.29165446758270264 0.6076216101646423 -0.016751108691096306
0.5017375349998474 0.5831131935119629 -0.13172547519207
0.35471779108047485 0.4135868549346924 -0.04112954065203667
0.3149106800556183 0.4228680729866028 -0.029187792912125587
0.23556087911128998 0.33923429250717163 0.07164175808429718
0.4644467532634735 0.43151339888572693 -0.04560604318976402
0.4176909029483795 0.45148444175720215 0.0001602173433639109
0.35345888137817383 0.7458763718605042 -0.003848856780678034
0.18662187457084656 0.7778080105781555 0.18043316900730133
0.4507063031196594 0.64750736951828 -0.07128065079450607
0.4729151129722595 0.6566293239593506 -0.0719049796462059
0.3772009313106537 0.7428698539733887 0.0006950717070139945
0.38885992765426636 0.7428534030914307 -0.002924323547631502
0.2968888282775879 0.4063345789909363 -0.017218122258782387
0.42764684557914734 0.6409323215484619 -0.0701148584485054
0.4048584997653961 0.4144030213356018 -0.04608379304409027
0.39909887313842773 0.3926893472671509 -0.050917137414216995
0.35581815242767334 0.2773894667625427 -0.005636982154101133
0.26749902963638306 0.3710629642009735 0.021918894723057747
0.3804560899734497 0.33145469427108765 -0.02870349958539009
0.2615353465080261 0.42836514115333557 0.011489658616483212
0.23034381866455078 0.4087144136428833 0.062125205993652344
0.4814241826534271 0.7359662055969238 -0.06829755008220673
0.4467303454875946 0.7370497584342957 -0.05658919736742973
0.4192439615726471 0.7382282614707947 -0.03911230340600014
0.4558369815349579 0.6517614722251892 -0.06596989929676056
0.3830758333206177 0.742524266242981 -0.0011598647106438875
0.4010790288448334 0.7521453499794006 -0.01610621251165867
0.391774445772171 0.7436135411262512 -0.0038261746522039175
0.47163280844688416 0.6439472436904907 -0.10657885670661926
0.42874082922935486 0.7403097748756409 -0.028681686148047447
0.4540913701057434 0.7417871952056885 -0.04124170541763306
0.48352354764938354 0.7442393898963928 -0.04957178980112076
0.48081040382385254 0.8261926770210266 -0.048712097108364105
0.48493692278862 0.7906033992767334 -0.06450273096561432
0.4860108494758606 0.7753558158874512 -0.06400157511234283
0.4861586391925812 0.7651869058609009 -0.054525524377822876
0.48685339093208313 0.7588269710540771 -0.04891016334295273
0.43045178055763245 0.7530859708786011 -0.027598699554800987
0.42750388383865356 0.7549557089805603 -0.03285687416791916
0.42317140102386475 0.7604555487632751 -0.037525493651628494
0.41919761896133423 0.7693226933479309 -0.03436657786369324
0.39014071226119995 0.7071802616119385 -0.036593809723854065
0.1596446931362152 0.6348798274993896 0.21846388280391693
0.5234904885292053 0.6662706136703491 -0.09297531098127365
0.4123580753803253 0.7506155967712402 -0.012748508714139462
0.4070478081703186 0.7496899962425232 -0.01602008379995823
0.48299935460090637 0.669155478477478 -0.07300378382205963
0.4338875710964203 0.6563510894775391 -0.04999542608857155
0.47818565368652344 0.6632529497146606 -0.07317718118429184
0.4060066044330597 0.5618836879730225 -0.026844700798392296
0.36143729090690613 0.5774021148681641 -0.027780253440141678
0.42275136709213257 0.6264634728431702 -0.061972182244062424
0.28616976737976074 0.3016849160194397 0.028350386768579483
0.31589287519454956 0.34443235397338867 -0.0066312868148088455
0.3437187075614929 0.39253106713294983 -0.03569461777806282
0.40620195865631104 0.7953003644943237 -0.021912652999162674
0.4563940167427063 0.3970775902271271 -0.05446917563676834
0.44127851724624634 0.3284837603569031 -0.03695950284600258
0.42507150769233704 0.26696518063545227 -0.019810380414128304
0.3296814560890198 0.497660756111145 0.003161847358569503
0.2539750933647156 0.5281526446342468 0.030773965641856194
0.43690475821495056 0.48987001180648804 0.006762256380170584
0.29275479912757874 0.46682536602020264 0.009201356209814548
0.45410430431365967 0.5316040515899658 -0.03723588585853577
0.4549156725406647 0.6252975463867188 -0.10697577893733978
0.21714207530021667 0.5495807528495789 0.05288193002343178
0.2774837613105774 0.5431280732154846 0.00970443431288004
0.3159067630767822 0.5509170293807983 -0.007714050356298685
0.3684269189834595 0.5482679605484009 -0.013361068442463875
0.40620964765548706 0.5389988422393799 -0.012311010621488094
0.4332517683506012 0.5278249979019165 -0.015218769200146198
0.4901610314846039 0.49702537059783936 -0.05919094383716583
0.2176140546798706 0.604653000831604 0.04461653530597687
0.2653564512729645 0.4653078019618988 0.017701180651783943
0.5123725533485413 0.6601666212081909 -0.12642046809196472
0.43618762493133545 0.574862003326416 -0.041184622794389725
0.16053041815757751 0.5057369470596313 0.20258785784244537
0.453438937664032 0.5142988562583923 -0.015878181904554367
0.4169410765171051 0.6270893812179565 -0.03545049950480461
0.3080979883670807 0.47790461778640747 0.018985921517014503
0.4520803391933441 0.6060892939567566 -0.09684354066848755
0.16616764664649963 0.7054737210273743 0.20517678558826447
0.43479591608047485 0.48034560680389404 0.013618226163089275
0.477561891078949 0.5922231674194336 -0.1193029060959816
0.2704022228717804 0.8290314674377441 0.059431109577417374
0.2661380469799042 0.8709840774536133 0.09871841222047806
0.1756531000137329 0.6229255199432373 0.13130788505077362
0.2263944298028946 0.7954576015472412 0.08488709479570389
0.2050095498561859 0.4513678252696991 0.09891997277736664
0.4086393713951111 0.9165230393409729 -0.01614946685731411
0.5122808814048767 0.6648685336112976 -0.09239222854375839
0.41024383902549744 0.5929949879646301 -0.035370875149965286
0.22224298119544983 0.5031564831733704 0.06394442915916443
0.357819139957428 0.4842939078807831 -0.00028958808979950845
0.37985074520111084 0.48637133836746216 -0.0035307283978909254
0.3951173722743988 0.7569043040275574 -0.01298365369439125
0.214768648147583 0.6631253361701965 0.05213083699345589
0.46103864908218384 0.9558234214782715 -0.0089351125061512
0.3660746216773987 0.9263567328453064 0.03770174831151962
0.32041531801223755 0.9041998982429504 0.06534023582935333
0.5070962905883789 0.33108198642730713 -0.03269433602690697
0.5190442204475403 0.9580557346343994 -0.009196675382554531
0.3998672664165497 0.485741525888443 -0.00120575784239918
0.41863662004470825 0.4831709563732147 0.004945642780512571
0.42986613512039185 0.48187893629074097 0.011644069105386734
0.2391660362482071 0.4605724513530731 0.040600914508104324
0.4136192202568054 0.4629126787185669 0.002752195345237851
0.3924106955528259 0.45642539858818054 -0.004967806860804558
0.3721771538257599 0.45520055294036865 -0.007503362372517586
0.35043710470199585 0.4592864513397217 -0.005351795349270105
0.3358880281448364 0.46585315465927124 0.0008384402608498931
0.17467236518859863 0.4386446475982666 0.1642172634601593
0.34197473526000977 0.4815065264701843 0.004867170471698046
0.5198106169700623 0.6894305944442749 -0.06798769533634186
0.41952258348464966 0.6935999989509583 -0.05178958550095558
0.4524340033531189 0.6448498368263245 -0.08083254843950272
0.4792933464050293 0.6893048286437988 -0.0709611251950264
0.510535478591919 0.4618699550628662 -0.04516865313053131
0.3185105323791504 0.8638948798179626 0.03854912519454956
0.36204296350479126 0.8912959098815918 0.012892733328044415
0.4625740647315979 0.9317226409912109 -0.03855166211724281
0.22243893146514893 0.8329058885574341 0.140273317694664
0.4283725619316101 0.4732504189014435 0.00895253662019968
0.47569599747657776 0.5404854416847229 -0.06918492168188095
0.5219889879226685 0.9326611161231995 -0.03775392100214958
0.4118286371231079 0.9443525075912476 0.00834609754383564
0.17915749549865723 0.6872535943984985 0.12613065540790558
0.4569956958293915 0.7558220028877258 -0.03997069224715233
0.45438486337661743 0.7605780363082886 -0.04586523026227951
0.45255109667778015 0.7688034772872925 -0.052006322890520096
0.4504813849925995 0.7823030352592468 -0.05063004419207573
0.4398949146270752 0.8137561082839966 -0.03841504082083702
0.40239304304122925 0.7423076033592224 -0.017046451568603516
0.3956439197063446 0.7403725981712341 -0.018142351880669594
0.3881217837333679 0.7366146445274353 -0.01930912956595421
0.3644264340400696 0.723670482635498 -0.01909906230866909
0.2578282356262207 0.671985387802124 0.00658660102635622
0.47306162118911743 0.5128208994865417 -0.045817673206329346
0.45671698451042175 0.4648887515068054 0.0013340248260647058
0.43961280584335327 0.46747949719429016 0.006997134070843458
0.40720707178115845 0.7394261360168457 -0.014473911374807358
0.24613478779792786 0.7449702620506287 0.04277538135647774
0.4793055057525635 0.4654248356819153 -0.03079560212790966
0.4266774654388428 0.8476351499557495 -0.0316288061439991
0.5211729407310486 0.5493786334991455 -0.11102785170078278
0.4946742653846741 0.5264685750007629 -0.08427656441926956
0.5176451802253723 0.5205742120742798 -0.08690713346004486
0.45737960934638977 0.5823873281478882 -0.07188970595598221
0.5225107669830322 0.8991205096244812 -0.050979986786842346
0.5208728909492493 0.8594783544540405 -0.049316469579935074
0.4741823673248291 0.8608242869377136 -0.04788669943809509
0.35595938563346863 0.792242169380188 0.0005969039630144835
0.3941602110862732 0.6486702561378479 -0.03279248625040054
0.38884130120277405 0.8246566653251648 -0.013926166109740734
0.32960405945777893 0.6447171568870544 -0.032891519367694855
0.36613476276397705 0.6751746535301208 -0.029570359736680984
0.2996487021446228 0.6892179846763611 -0.013793622143566608
0.4668321907520294 0.8996236324310303 -0.049857158213853836
0.43760597705841064 0.5958259105682373 -0.05605495721101761
0.33188486099243164 0.8225089907646179 0.016033487394452095
0.37308192253112793 0.8547912836074829 -0.0018019098788499832
0.32994043827056885 0.7564295530319214 0.00043042137986049056
0.21692323684692383 0.7139676213264465 0.06150659918785095
0.2902405261993408 0.7695212364196777 0.017785679548978806
0.19282379746437073 0.7458649277687073 0.11471571773290634
0.3386490046977997 0.7063320875167847 -0.019329464063048363
0.45670852065086365 0.5577148199081421 -0.054001983255147934
0.46371713280677795 0.6390231251716614 -0.1120171844959259
0.4412021338939667 0.6416623592376709 -0.08563164621591568
0.4784707725048065 0.6214185953140259 -0.12906290590763092
0.4395311176776886 0.4467848539352417 -0.008646865375339985
0.40082985162734985 0.43571993708610535 -0.02082750014960766
0.36569035053253174 0.43409213423728943 -0.02688787877559662
0.33428093791007996 0.4386962950229645 -0.0226926039904356
0.3095601797103882 0.4492341876029968 -0.010810197331011295
0.2837609052658081 0.48749828338623047 0.026638662442564964
0.17601773142814636 0.5626508593559265 0.12742604315280914
0.3067966103553772 0.517451286315918 0.01027704868465662
0.3359792232513428 0.5240998268127441 -0.0010226973099634051
0.37221014499664307 0.5239319801330566 -0.006446226499974728
0.4050440788269043 0.5190545916557312 -0.004846228752285242
0.42979565262794495 0.5113677978515625 -0.0026349357794970274
0.44655296206474304 0.5034034848213196 -0.0014564162120223045
0.1590176820755005 0.5697401762008667 0.21900181472301483
0.4389435946941376 0.6466638445854187 -0.07302865386009216
0.4786917269229889 0.5655962228775024 -0.0904991626739502
0.4853817820549011 0.6421709060668945 -0.12919755280017853
0.497160941362381 0.6550736427307129 -0.11710882931947708
0.48337310552597046 0.6463063359260559 -0.11694469302892685
0.4439832270145416 0.653780460357666 -0.06334122270345688
0.5032753348350525 0.6579522490501404 -0.12335925549268723
0.5027199387550354 0.6625584959983826 -0.09338758885860443
0.44467824697494507 0.4826659560203552 0.011679169721901417
0.45949631929397583 0.4897450804710388 -0.0017077435040846467
0.4684217870235443 0.49450045824050903 -0.020328719168901443
0.32656195759773254 0.4708084166049957 0.006949734408408403
0.3118705153465271 0.4663843512535095 0.005631717853248119
0.540863037109375 0.5538631677627563 -0.09833578020334244
0.6667100787162781 0.4824632406234741 0.06528493762016296
0.5470877289772034 0.658341109752655 -0.08855722099542618
0.7527562975883484 0.3960784673690796 0.2008802592754364
0.5996658205986023 0.5039201974868774 0.03123496286571026
0.6243487596511841 0.5053764581680298 0.0358709916472435
0.6479741334915161 0.5047956109046936 0.045030076056718826
0.6772122383117676 0.4936012625694275 0.06965155899524689
0.5792165994644165 0.4981998801231384 0.029432380571961403
0.6323690414428711 0.44870373606681824 0.02727976255118847
0.6077427864074707 0.44815748929977417 0.024272581562399864
0.6547417640686035 0.4539029002189636 0.037618331611156464
0.6693083047866821 0.46217262744903564 0.04924236238002777
0.7014992237091064 0.5123944282531738 0.08395757526159286
0.61545729637146 0.8798161149024963 0.0005918038077652454
0.6751092076301575 0.4784339666366577 0.07408520579338074
0.7729644775390625 0.5102883577346802 0.20901425182819366
0.7291935682296753 0.5008633136749268 0.11281313747167587
0.6388473510742188 0.6156814694404602 0.00020027086429763585
0.5556826591491699 0.7221866846084595 -0.06233972683548927
0.5512416362762451 0.7443480491638184 -0.0503079816699028
0.5913628339767456 0.7271252870559692 -0.04068971052765846
0.6136168837547302 0.7340043187141418 -0.014056599698960781
0.5773870944976807 0.7439055442810059 -0.03364882618188858
0.5973888039588928 0.7446452975273132 -0.009561463259160519
0.6388860940933228 0.7743340730667114 0.028512662276625633
0.5490871071815491 0.6464490294456482 -0.13398723304271698
0.5512393712997437 0.6183273792266846 -0.14086651802062988
0.7089385390281677 0.4436909854412079 0.058439381420612335
0.5807406902313232 0.5495252013206482 -0.006677929311990738
0.6004160642623901 0.6333181262016296 -0.06190194562077522
0.5992504358291626 0.617900550365448 -0.05315021798014641
0.7123205065727234 0.61026930809021 0.04412897303700447
0.5462201833724976 0.5834560990333557 -0.1242193654179573
0.6527720093727112 0.4159863591194153 0.005899077747017145
0.6854581832885742 0.4259898364543915 0.0293431356549263
0.7293510437011719 0.3486422896385193 0.14803873002529144
0.5530543327331543 0.4317580461502075 -0.029600121080875397
0.5852855443954468 0.4536103904247284 0.028924796730279922
0.6605142951011658 0.7476654052734375 0.03935481980443001
0.7617443799972534 0.7760226726531982 0.26128968596458435
0.5827972888946533 0.6489813327789307 -0.05525243654847145
0.5630038976669312 0.6578401923179626 -0.06353653222322464
0.6384208798408508 0.7454286217689514 0.037643421441316605
0.6264114379882812 0.7452836036682129 0.029374785721302032
0.6988546848297119 0.4099631905555725 0.04503590986132622
0.6018087863922119 0.6429305076599121 -0.048356927931308746
0.6087286472320557 0.41586554050445557 -0.013830818235874176
0.6147794723510742 0.3944645822048187 -0.017778657376766205
0.6369080543518066 0.28398263454437256 0.03816620260477066
0.714024543762207 0.3774411976337433 0.08984643220901489
0.624617874622345 0.33562973141670227 0.009076147340238094
0.7235299348831177 0.43282976746559143 0.08314081281423569
0.7391214370727539 0.4154162108898163 0.13942554593086243
0.5542581677436829 0.7365463376045227 -0.05838386341929436
0.5836295485496521 0.7381699681282043 -0.0375051349401474
0.6054387092590332 0.7399328351020813 -0.013774472288787365
0.5772506594657898 0.6533078551292419 -0.0524587444961071
0.6326923966407776 0.7451270222663879 0.033089250326156616
0.619308590888977 0.7539942264556885 0.013019554316997528
0.6220234036445618 0.7459217309951782 0.027910126373171806
0.5707873106002808 0.6446400880813599 -0.09146413207054138
0.5919713377952576 0.7418748140335083 -0.0064787729643285275
0.5718775391578674 0.7428643107414246 -0.024542290717363358
0.547273576259613 0.7447165846824646 -0.040356725454330444
0.5556364059448242 0.8258992433547974 -0.03931573033332825
0.5540355443954468 0.79069983959198 -0.054866619408130646
0.5527280569076538 0.7756174802780151 -0.05382627993822098
0.5508816242218018 0.7656222581863403 -0.04462680220603943
0.5482742786407471 0.7592681646347046 -0.039312079548835754
0.5943496823310852 0.754294753074646 -0.00545914052054286
0.5981541275978088 0.7561882734298706 -0.010592106729745865
0.6030438542366028 0.7617085576057434 -0.014425980858504772
0.6073111891746521 0.7703011631965637 -0.009208139032125473
0.6326483488082886 0.7086764574050903 -0.005196626763790846
0.774497389793396 0.6372883915901184 0.3079721927642822
0.6070642471313477 0.7522179484367371 0.014675777405500412
0.6134428977966309 0.7515949606895447 0.011820297688245773
0.5547038316726685 0.6700120568275452 -0.06490003317594528
0.5939491987228394 0.6582782864570618 -0.03257592394948006
0.5587199926376343 0.6643204689025879 -0.0651954635977745
0.6070106625556946 0.5637551546096802 0.004920154344290495
0.6499325037002563 0.5799192190170288 0.015490205027163029
0.6038051843643188 0.628408670425415 -0.038399916142225266
0.6926804780960083 0.310253381729126 0.09041692316532135
0.6775847673416138 0.3499709367752075 0.048140011727809906
0.6617928147315979 0.39532166719436646 0.013696063309907913
0.6177770495414734 0.7951796054840088 0.007056586444377899
0.5622967481613159 0.3978867530822754 -0.03750540688633919
0.5703078508377075 0.3308130204677582 -0.017142511904239655
0.5763167142868042 0.27088603377342224 0.0020818726625293493
0.6668621897697449 0.5011520385742188 0.05814557522535324
0.7320305705070496 0.5323050022125244 0.10094475746154785
0.5666732788085938 0.4918806254863739 0.031626589596271515
0.6974538564682007 0.4710436761379242 0.07337750494480133
0.563721776008606 0.5327864289283752 -0.01839875429868698
0.5856490135192871 0.6266241073608398 -0.08912739902734756
0.7601752281188965 0.5536888241767883 0.13265742361545563
0.7164582014083862 0.5468751192092896 0.0757889524102211
0.6861438155174255 0.5541595220565796 0.048380445688962936
0.6387457847595215 0.5507357716560364 0.029844650998711586
0.6026208400726318 0.5410627126693726 0.02017187513411045
0.5769158601760864 0.5293937921524048 0.009105874225497246
0.5355166792869568 0.49749988317489624 -0.05111299082636833
0.7646772861480713 0.6077272891998291 0.12435737252235413
0.7196902632713318 0.4696962237358093 0.08780435472726822
0.5391889214515686 0.6602184176445007 -0.12243828177452087
0.584088921546936 0.5765150785446167 -0.018492860719561577
0.7729243040084839 0.511928915977478 0.2948414385318756
0.5588448643684387 0.5155345797538757 0.0031060106121003628
0.6044211387634277 0.6290128827095032 -0.011617669835686684
0.6831274628639221 0.482333242893219 0.07990236580371857
0.5836657285690308 0.6076282262802124 -0.0785241574048996
0.7727295756340027 0.7058912515640259 0.2911595404148102
0.5668850541114807 0.4822213053703308 0.03959941491484642
0.5651836395263672 0.5930070877075195 -0.10602764785289764
0.7226098775863647 0.825985312461853 0.11994244903326035
0.7153497338294983 0.8660412430763245 0.16013364493846893
0.7835385799407959 0.6256021857261658 0.21840240061283112
0.7534258365631104 0.7935793399810791 0.15584303438663483
0.7559946179389954 0.457835853099823 0.18216121196746826
0.6208818554878235 0.9126737117767334 0.012903238646686077
0.5339727997779846 0.6650082468986511 -0.08999201655387878
0.6070088148117065 0.594878077507019 -0.00726107694208622
0.7510828375816345 0.5078631639480591 0.14228318631649017
0.6435864567756653 0.48794668912887573 0.048122432082891464
0.6230103969573975 0.4898432493209839 0.03952883556485176
0.62479168176651 0.7587280869483948 0.018127890303730965
0.7676877379417419 0.6649705767631531 0.1298561692237854
0.5733164548873901 0.9531581401824951 0.007531964220106602
0.6461724638938904 0.9209405779838562 0.07762246578931808
0.6782350540161133 0.898317813873291 0.11550745368003845
0.6028575897216797 0.4889293909072876 0.03538629040122032
0.5834456086158752 0.4856681823730469 0.036193739622831345
0.5719493627548218 0.48390114307403564 0.03956165537238121
0.7377810478210449 0.4653765857219696 0.11643046885728836
0.5877638459205627 0.46507081389427185 0.03461776673793793
0.6086702346801758 0.45915600657463074 0.03211558237671852
0.6290848851203918 0.4583023190498352 0.0359838530421257
0.6493180990219116 0.46291667222976685 0.04424959793686867
0.6618322134017944 0.46982845664024353 0.053848013281822205
0.7665239572525024 0.44684603810310364 0.25449731945991516
0.6571968197822571 0.48516297340393066 0.05759136751294136
0.6083552241325378 0.6950215101242065 -0.027995862066745758
0.583394467830658 0.646260142326355 -0.06511417776346207
0.5574758648872375 0.6900948882102966 -0.06117973476648331
0.6867583394050598 0.8597829937934875 0.08736085146665573
0.6543716192245483 0.886833131313324 0.05165598914027214
0.5770527124404907 0.9296822547912598 -0.02249535545706749
0.7416976094245911 0.8295588493347168 0.21301515400409698
0.5735482573509216 0.475117564201355 0.03737398609519005
0.5536603331565857 0.5412319898605347 -0.05672070384025574
0.6134853363037109 0.9398823380470276 0.03773186355829239
0.7822158336639404 0.6883520483970642 0.21016515791416168
0.5736933350563049 0.7565898299217224 -0.023496704176068306
0.5775122046470642 0.7612898945808411 -0.028769761323928833
0.5807359218597412 0.7696454524993896 -0.03387049213051796
0.5835601687431335 0.7827004194259644 -0.03141571208834648
0.5908118486404419 0.813524603843689 -0.01738489232957363
0.6155692934989929 0.7446284294128418 0.011857776902616024
0.623343825340271 0.7426064014434814 0.013667531311511993
0.6305935382843018 0.7390612959861755 0.014236862771213055
0.6533917784690857 0.7255451679229736 0.0201624296605587
0.7396382093429565 0.6737605333328247 0.072588711977005
0.548552930355072 0.5137273073196411 -0.03266926854848862
0.5507839918136597 0.4658818244934082 0.017713896930217743
0.5640313625335693 0.4690744876861572 0.03096630796790123
0.6086591482162476 0.7415958046913147 0.013286051340401173
0.7452260255813599 0.744937539100647 0.10977648198604584
0.5368103981018066 0.46596264839172363 -0.021298089995980263
0.6027894616127014 0.845969557762146 -0.00782950408756733
0.538774847984314 0.5267533659934998 -0.0773235559463501
0.5724120140075684 0.583573579788208 -0.05526383966207504
0.5638389587402344 0.8596561551094055 -0.03649154677987099
0.6588131785392761 0.7917042970657349 0.04164640232920647
0.6249861717224121 0.6504868865013123 -0.0026635811664164066
0.6324863433837891 0.8232111930847168 0.018750598654150963
0.6834354996681213 0.646614670753479 0.014629063196480274
0.651094913482666 0.6767988801002502 0.008282722905278206
0.7081443071365356 0.6904714107513428 0.040636494755744934
0.5737531781196594 0.8979111909866333 -0.0345822349190712
0.5867265462875366 0.5974485874176025 -0.03521231934428215
0.6788448095321655 0.8200398087501526 0.06267400830984116
0.6468424797058105 0.8519572019577026 0.034385163336992264
0.6813491582870483 0.7567002773284912 0.04982119798660278
0.7651441097259521 0.7146527171134949 0.13578861951828003
0.7128596305847168 0.7688194513320923 0.07438290119171143
0.7741252779960632 0.7455737590789795 0.19480980932712555
0.6749893426895142 0.7077775001525879 0.026153553277254105
0.5674825310707092 0.5588324666023254 -0.03602185472846031
0.5787962079048157 0.6398818492889404 -0.09566164761781693
0.5938888192176819 0.643234133720398 -0.06686285138130188
0.5699889659881592 0.6221439838409424 -0.11615326255559921
0.5684092044830322 0.4478585720062256 0.013923358172178268
0.6067204475402832 0.43747079372406006 0.012952126562595367
0.6398522853851318 0.4374152421951294 0.017824186012148857
0.6672755479812622 0.4429459571838379 0.03144166246056557
0.6863276958465576 0.45367178320884705 0.049663759768009186
0.7033329606056213 0.49169987440109253 0.0914950892329216
0.780994176864624 0.5669328570365906 0.2166692614555359
0.6879048943519592 0.5211269855499268 0.0695078894495964
0.6642779111862183 0.5269774198532104 0.050480276346206665
0.6313685774803162 0.5268262028694153 0.035991378128528595
0.599934458732605 0.5213515758514404 0.028734104707837105
0.5760070085525513 0.51328045129776 0.022788068279623985
0.5604779720306396 0.5047985911369324 0.019274311140179634
0.7726298570632935 0.5741956233978271 0.3111386299133301
0.5929228663444519 0.6483346819877625 -0.054760027676820755
0.5574090480804443 0.5663155913352966 -0.07756368070840836
0.5647318959236145 0.6424424052238464 -0.11876180022954941
0.549705982208252 0.6552703380584717 -0.11123628169298172
0.56276535987854 0.646643340587616 -0.1063510850071907
0.5868288278579712 0.6555324792861938 -0.04785701632499695
0.5465483665466309 0.6581305861473083 -0.11843748390674591
0.5420323610305786 0.6628293991088867 -0.0892491266131401
0.5591123700141907 0.4843217134475708 0.03308238461613655
0.5485679507255554 0.4908261001110077 0.014510201290249825
0.5453430414199829 0.4955190122127533 -0.006960581056773663
0.6693596839904785 0.47494226694107056 0.06265993416309357
0.6814153790473938 0.47072717547416687 0.06463409960269928
