ply
format ascii 1.0
element vertex 468
property float x
property float y
property float z
end_header
0.5016559958457947 0.7187463641166687 -0.03578686714172363
0.5024929046630859 0.6673673987388611 -0.1232970803976059
0.5018908381462097 0.6807823777198792 -0.0546206496655941
0.4845837652683258 0.5760945081710815 -0.11136073619127274
0.5030236840248108 0.6423941254615784 -0.13622622191905975
0.5033919215202332 0.6054881811141968 -0.13428664207458496
0.5045351386070251 0.5122477412223816 -0.09482583403587341
0.3373093903064728 0.47655177116394043 -0.004741447977721691
0.5056231021881104 0.45124202966690063 -0.09486893564462662
0.5066086649894714 0.41856932640075684 -0.10964597016572952
0.5096133351325989 0.2716212868690491 -0.12216642498970032
0.5017420053482056 0.728766679763794 -0.030842289328575134
0.5016188621520996 0.7342095971107483 -0.02292683906853199
0.5016144514083862 0.7337670922279358 -0.012311086989939213
0.5030806660652161 0.7702323198318481 0.002126812469214201
0.5028854608535767 0.7805689573287964 0.00040080741746351123
0.502541184425354 0.7929102182388306 -0.0008964609587565064
0.5022396445274353 0.8062400221824646 0.007391832303255796
0.5013259053230286 0.8259738683700562 0.03575754538178444
0.5019357204437256 0.6777859926223755 -0.10868106782436371
0.4801211953163147 0.6697971224784851 -0.07570483535528183
0.25993120670318604 0.36587297916412354 0.06838875263929367
0.40934237837791443 0.50401771068573 -0.023116039112210274
0.38607344031333923 0.5044007897377014 -0.02156376838684082
0.3627941906452179 0.5022690296173096 -0.016066232696175575
0.3289377689361572 0.4837208390235901 0.0008588852360844612
0.4272118806838989 0.5006473660469055 -0.021801598370075226
0.37209099531173706 0.4413551092147827 -0.0419522300362587
0.39853107929229736 0.44543954730033875 -0.042841169983148575
0.3481031656265259 0.44343024492263794 -0.033883191645145416
0.3323526978492737 0.4504817724227905 -0.023978354409337044
0.31238386034965515 0.49943485856056213 0.015925563871860504
0.4149929881095886 0.8484432697296143 0.07638385146856308
0.3269417881965637 0.46812015771865845 0.0012919381260871887
0.2484932541847229 0.4763697385787964 0.11143341660499573
0.2877620756626129 0.48221340775489807 0.03318265452980995
0.3825501501560211 0.6107569932937622 -0.018502801656723022
0.4673093557357788 0.7127885818481445 -0.03412648290395737
0.4698858857154846 0.7310749888420105 -0.01904434710741043
0.4327392280101776 0.7110410928726196 -0.01771092414855957
0.41130876541137695 0.7104761004447937 0.006903501693159342
0.4446679353713989 0.7264147996902466 -0.007098023314028978
0.42564842104911804 0.7225853204727173 0.014807303436100483
0.38656142354011536 0.7456693053245544 0.06439454108476639
0.4834200143814087 0.6653040647506714 -0.12174948304891586
0.48134225606918335 0.6403723359107971 -0.13405203819274902
0.30177444219589233 0.428060919046402 -0.029176149517297745
0.43411362171173096 0.5528191328048706 -0.03750578314065933
0.4281250834465027 0.6386917233467102 -0.06616964191198349
0.42744937539100647 0.6228014826774597 -0.06161024421453476
0.31121140718460083 0.5972102880477905 0.009093916043639183
0.4829166531562805 0.6061478853225708 -0.12714911997318268
0.3571579158306122 0.41342484951019287 -0.07423906028270721
0.324150025844574 0.41520556807518005 -0.05567783862352371
0.2822260558605194 0.3270114064216614 0.012100196443498135
0.4574785828590393 0.4456650912761688 -0.08888004720211029
0.42053037881851196 0.45565006136894226 -0.03453758358955383
0.36680251359939575 0.7147544026374817 0.059301432222127914
0.27395278215408325 0.6995155811309814 0.24168570339679718
0.44388774037361145 0.6535021066665649 -0.053498391062021255
0.4635961949825287 0.6641618609428406 -0.05248750373721123
0.3840535879135132 0.7142950296401978 0.06018027663230896
0.3955515921115875 0.7176012992858887 0.05461128428578377
0.31272611021995544 0.3968544006347656 -0.049898117780685425
0.4261505901813507 0.644336462020874 -0.050418779253959656
0.40092477202415466 0.42238497734069824 -0.0861455500125885
0.3975006639957428 0.40128278732299805 -0.09770241379737854
0.37353411316871643 0.27905797958374023 -0.08927810937166214
0.298644483089447 0.36163055896759033 -0.023712171241641045
0.3885359764099121 0.3381598889827728 -0.0959809273481369
0.2888038158416748 0.4137609601020813 -0.013707290403544903
0.27491435408592224 0.3915432095527649 0.024580635130405426
0.4681054949760437 0.7243443727493286 -0.02858695387840271
0.43933430314064026 0.7209153175354004 -0.012311761267483234
0.4185292422771454 0.7167465686798096 0.009803541004657745
0.44899478554725647 0.6572915315628052 -0.047961726784706116
0.3893471360206604 0.7155881524085999 0.056992918252944946
0.4038364887237549 0.7358412742614746 0.04840127006173134
0.39961233735084534 0.7184529900550842 0.0540248267352581
0.45722201466560364 0.6558474898338318 -0.08918068557977676
0.429718554019928 0.720130980014801 0.018433110788464546
0.4491558074951172 0.7252695560455322 0.0026520509272813797
0.47252699732780457 0.7308080196380615 -0.008810380473732948
0.46555182337760925 0.8220572471618652 0.03838733211159706
0.46801555156707764 0.8009863495826721 0.010416928678750992
0.46927449107170105 0.7874572277069092 0.003302451455965638
0.4713284373283386 0.7754934430122375 0.004731561057269573
0.47386354207992554 0.7667965292930603 0.0060917409136891365
0.42944395542144775 0.7468448877334595 0.03126606345176697
0.42537638545036316 0.7494425773620605 0.02982662245631218
0.4201606214046478 0.7547722458839417 0.03036634810268879
0.41605982184410095 0.7617696523666382 0.03753335773944855
0.39470183849334717 0.6907699108123779 0.007240648381412029
0.24948149919509888 0.5744841694831848 0.23622697591781616
0.5017573833465576 0.6793800592422485 -0.07473473250865936
0.41616618633270264 0.7362847924232483 0.04678775370121002
0.4097282886505127 0.7355446815490723 0.04627831280231476
0.47142019867897034 0.6757622957229614 -0.04838399961590767
0.43179529905319214 0.6563715934753418 -0.0284565519541502
0.4676768481731415 0.6704708933830261 -0.051783449947834015
0.41004490852355957 0.5622863173484802 -0.025723896920681
0.3695454001426697 0.574579656124115 -0.016577430069446564
0.4225921034812927 0.6296728253364563 -0.045675862580537796
0.31783002614974976 0.2973143756389618 -0.04172581434249878
0.33478766679763794 0.3423818051815033 -0.06264839321374893
0.35014623403549194 0.3917020857334137 -0.0769910216331482
0.40675416588783264 0.7765088081359863 0.05756579339504242
0.4506215453147888 0.4131033718585968 -0.107253298163414
0.4439173936843872 0.339504599571228 -0.11373808234930038
0.4353561997413635 0.27138134837150574 -0.11534462869167328
0.3413475453853607 0.49534881114959717 -0.007179435342550278
0.28794652223587036 0.5151765942573547 0.03245125710964203
0.4381427764892578 0.496690034866333 -0.020295090973377228
0.31065231561660767 0.4565833508968353 -0.0056483750231564045
0.45072051882743835 0.5411348342895508 -0.049361374229192734
0.44317376613616943 0.6377869844436646 -0.09131429344415665
0.2638716697692871 0.5287135243415833 0.06262636929750443
0.3031606674194336 0.5334345102310181 0.017118368297815323
0.33302170038223267 0.5455517172813416 -0.0011032859329134226
0.37820446491241455 0.5459162592887878 -0.012149311602115631
0.41149434447288513 0.5394224524497986 -0.01913641393184662
0.43425968289375305 0.5316807627677917 -0.028850868344306946
0.48246583342552185 0.5167952179908752 -0.08462218940258026
0.26255449652671814 0.5794928073883057 0.06979015469551086
0.2935972809791565 0.452522873878479 0.0021184785291552544
0.4903027415275574 0.6758666038513184 -0.10759411007165909
0.43487563729286194 0.5801873207092285 -0.04096509888768196
0.24301660060882568 0.4642218351364136 0.1842661201953888
0.45112380385398865 0.5224623084068298 -0.03609737381339073
0.4193453788757324 0.6268349885940552 -0.02106284908950329
0.32096952199935913 0.4700350761413574 0.005956095643341541
0.4428095817565918 0.6181845664978027 -0.08596807718276978
0.25744709372520447 0.6351849436759949 0.24410763382911682
0.43631991744041443 0.48763465881347656 -0.01708533987402916
0.46259230375289917 0.6104049682617188 -0.11160537600517273
0.3208919167518616 0.7724093198776245 0.1428695023059845
0.32664960622787476 0.7962695360183716 0.18857143819332123
0.24522051215171814 0.5801776647567749 0.15302471816539764
0.28987306356430054 0.7360615730285645 0.15801897644996643
0.26081517338752747 0.4297237992286682 0.0729440376162529
0.41410818696022034 0.8713614344596863 0.09474898129701614
0.49255266785621643 0.6777646541595459 -0.07324229180812836
0.4130432903766632 0.5933094024658203 -0.028038866817951202
0.2690213620662689 0.48410654067993164 0.05592426657676697
0.3641969859600067 0.4879349172115326 -0.016534410417079926
0.38557419180870056 0.4907526969909668 -0.021624702960252762
0.3982243835926056 0.7373335361480713 0.05315140634775162
0.2638684809207916 0.6292264461517334 0.09255750477313995
0.45453205704689026 0.9053066968917847 0.10776206105947495
0.3911455273628235 0.8615508079528809 0.14424942433834076
0.3628067374229431 0.83392733335495 0.16443604230880737
0.5080323219299316 0.34190526604652405 -0.11858189105987549
0.49831902980804443 0.9125022888183594 0.10252957046031952
0.40495771169662476 0.49022984504699707 -0.022906897589564323
0.4228363037109375 0.4882437586784363 -0.02043885365128517
0.43299099802970886 0.48812150955200195 -0.01695338636636734
0.2778025269508362 0.4438895285129547 0.02274506911635399
0.41518110036849976 0.4630633592605591 -0.027614207938313484
0.39463698863983154 0.45093053579330444 -0.03223571553826332
0.3729068636894226 0.447371244430542 -0.03143616393208504
0.3512328267097473 0.45090389251708984 -0.025521088391542435
0.33865517377853394 0.45844537019729614 -0.016922151669859886
0.24744948744773865 0.4091469645500183 0.12968242168426514
0.3486565053462982 0.4826487898826599 -0.010069355368614197
0.5018383264541626 0.6921687126159668 -0.042149677872657776
0.41836726665496826 0.6846997737884521 -0.01395869068801403
0.44362810254096985 0.6526582837104797 -0.06485536694526672
0.46709635853767395 0.6896542310714722 -0.03905835375189781
0.5049452781677246 0.4780178666114807 -0.08631174266338348
0.3549337387084961 0.8084636926651001 0.1332034468650818
0.3840906023979187 0.8391810655593872 0.11645849794149399
0.45264220237731934 0.8943908214569092 0.07633315771818161
0.298217236995697 0.7541986703872681 0.21804898977279663
0.4295765459537506 0.47874751687049866 -0.021848289296030998
0.46655434370040894 0.5571606755256653 -0.08053137362003326
0.4994155168533325 0.9018222093582153 0.07262182235717773
0.4203837811946869 0.8870612978935242 0.12190698832273483
0.25148552656173706 0.6351962089538574 0.166058748960495
0.4496924877166748 0.7582794427871704 0.017071843147277832
0.4455801248550415 0.7640459537506104 0.015866681933403015
0.4420459568500519 0.7733097672462463 0.016790566965937614
0.4392772614955902 0.7855679988861084 0.024242231622338295
0.4321271777153015 0.8034462332725525 0.04679238796234131
0.4069724380970001 0.7181916236877441 0.03544989973306656
0.39988523721694946 0.7141575813293457 0.035787295550107956
0.39357680082321167 0.7094864249229431 0.0340752974152565
0.3749642074108124 0.69962477684021 0.03216913715004921
0.29078933596611023 0.6479601860046387 0.04969828575849533
0.46707606315612793 0.5279641151428223 -0.0653570145368576
0.4545513391494751 0.4758378863334656 -0.038046784698963165
0.43950462341308594 0.4755191206932068 -0.028502069413661957
0.41278648376464844 0.7163800597190857 0.037905123084783554
0.29221394658088684 0.7037822008132935 0.10416872799396515
0.4748692214488983 0.4797411262989044 -0.0689694881439209
0.42264819145202637 0.8240209817886353 0.06325077265501022
0.5036967992782593 0.5741069912910461 -0.11973878741264343
0.4833352565765381 0.5482211112976074 -0.10070551931858063
0.5040692090988159 0.5446416735649109 -0.10675080865621567
0.4493063986301422 0.5936822891235352 -0.07070976495742798
0.5001319050788879 0.8802794814109802 0.05410422384738922
0.5008580684661865 0.8507992029190063 0.04557935521006584
0.45968177914619446 0.8455862998962402 0.05097218602895737
0.3721034526824951 0.7578492164611816 0.07793136686086655
0.3993609845638275 0.642906665802002 -0.008999859914183617
0.39542055130004883 0.7937157154083252 0.0740845650434494
0.3417724668979645 0.6360432505607605 -0.00037949252873659134
0.37516170740127563 0.6635092496871948 0.0064296238124370575
0.32180821895599365 0.6694549322128296 0.03190968185663223
0.45390909910202026 0.8735395669937134 0.05910549312829971
0.4351450800895691 0.6015596985816956 -0.05015387386083603
0.35733872652053833 0.7803847789764404 0.10159570723772049
0.3866983652114868 0.8148840069770813 0.09404067695140839
0.3508605360984802 0.7229932546615601 0.0669931098818779
0.2710014581680298 0.6711429357528687 0.11435005813837051
0.3235953748226166 0.7314276695251465 0.08662911504507065
0.2652781009674072 0.6869325041770935 0.1731022745370865
0.3544449806213379 0.6846211552619934 0.028538886457681656
0.4511013329029083 0.568596363067627 -0.05913214758038521
0.44999992847442627 0.6514233350753784 -0.0951230451464653
0.4345480799674988 0.6487447023391724 -0.06695445626974106
0.46135038137435913 0.639259397983551 -0.11435524374246597
0.4373231828212738 0.4565422236919403 -0.0499752052128315
0.4003654718399048 0.4400389790534973 -0.057108547538518906
0.36660170555114746 0.4337877631187439 -0.05473678559064865
0.33870893716812134 0.43408575654029846 -0.0442316010594368
0.31975826621055603 0.4411405920982361 -0.0290204044431448
0.30780085921287537 0.47638189792633057 0.015930604189634323
0.2443574070930481 0.5279708504676819 0.13385580480098724
0.3255157470703125 0.5109061598777771 0.007153117563575506
0.35100483894348145 0.5210192799568176 -0.0048430319875478745
0.3826611638069153 0.5232261419296265 -0.01368267834186554
0.41142702102661133 0.5200557112693787 -0.018515346571803093
0.43199336528778076 0.5149989724159241 -0.022166050970554352
0.44592171907424927 0.5098972320556641 -0.025306792929768562
0.2458222508430481 0.5181353092193604 0.21741822361946106
0.4345109462738037 0.651212215423584 -0.05385035648941994
0.466193288564682 0.5833461284637451 -0.0926673412322998
0.46720090508461 0.6587309837341309 -0.11195910722017288
0.4789142906665802 0.6689345240592957 -0.0988280400633812
0.4664526581764221 0.6601740717887878 -0.09994573146104813
0.43956732749938965 0.6568054556846619 -0.043454769998788834
0.4832688271999359 0.6729351282119751 -0.10438571870326996
0.48534393310546875 0.6747209429740906 -0.0742955356836319
0.44422388076782227 0.4913235306739807 -0.020396441221237183
0.45701587200164795 0.4992769956588745 -0.032946933060884476
0.4643196165561676 0.5065541863441467 -0.04811977222561836
0.33180180191993713 0.4640986919403076 -0.00873744860291481
0.3218856751918793 0.45827358961105347 -0.009477845393121243
0.5227801203727722 0.5770719051361084 -0.11094743013381958
0.6700438261032104 0.48421385884284973 -0.001856811810284853
0.5233166813850403 0.6709821224212646 -0.07529275864362717
0.7527353167533875 0.3756958246231079 0.07247060537338257
0.5981995463371277 0.5093791484832764 -0.021329941228032112
0.6212049722671509 0.5105788111686707 -0.019407929852604866
0.6443747282028198 0.5091193914413452 -0.01385433692485094
0.6779930591583252 0.49162131547927856 0.003956352826207876
0.5801430344581604 0.5051019787788391 -0.020515287294983864
0.6379499435424805 0.44775307178497314 -0.039689697325229645
0.6113860607147217 0.4505458474159241 -0.04144945368170738
0.6615486741065979 0.45095694065093994 -0.03130879998207092
0.6766865849494934 0.45871275663375854 -0.021205110475420952
0.6943526864051819 0.5077975988388062 0.01876126229763031
0.5849349498748779 0.8516383767127991 0.07787049561738968
0.6803743839263916 0.47625359892845154 0.004402931779623032
0.7581708431243896 0.48572301864624023 0.11605162173509598
0.7196025848388672 0.4911905527114868 0.03689184784889221
0.6226381659507751 0.615581750869751 -0.01694532297551632
0.5365456342697144 0.7136578559875488 -0.03383689373731613
0.5338128805160522 0.7317696809768677 -0.01907612755894661
0.5714021921157837 0.712950587272644 -0.016874194145202637
0.5931209921836853 0.7128697633743286 0.007940760813653469
0.5591636896133423 0.7277581095695496 -0.006766714155673981
0.5784608721733093 0.724164605140686 0.015422645024955273
0.6172491908073425 0.7491874098777771 0.06566208600997925
0.5216520428657532 0.6661368012428284 -0.12139048427343369
0.5244536399841309 0.6413356065750122 -0.13356511294841766
0.7092797756195068 0.4377947151660919 -0.025818826630711555
0.5728163123130798 0.5562167167663574 -0.03649832308292389
0.5763245224952698 0.6422109603881836 -0.06478513777256012
0.5775963068008423 0.6263980865478516 -0.06029513105750084
0.6929868459701538 0.6045256853103638 0.011630022898316383
0.52372807264328 0.6072642803192139 -0.12672901153564453
0.6554505228996277 0.4206457734107971 -0.07180600613355637
0.6879491806030273 0.4241389036178589 -0.05272093415260315
0.7335096597671509 0.33648681640625 0.015913940966129303
0.5539973378181458 0.4479602575302124 -0.08808666467666626
0.5891557335853577 0.45979636907577515 -0.03312148526310921
0.6369208097457886 0.7186716198921204 0.06115354970097542
0.7225385904312134 0.7078797221183777 0.24624067544937134
0.5599051117897034 0.6565408110618591 -0.05276985839009285
0.5399893522262573 0.6660127639770508 -0.05206960067152977
0.6208040714263916 0.7168383002281189 0.061427194625139236
0.6091167330741882 0.7197033166885376 0.055715952068567276
0.7004626989364624 0.4062938392162323 -0.046943701803684235
0.5777480602264404 0.6478227376937866 -0.0491274818778038
0.6114063858985901 0.4276372194290161 -0.08451984077692032
0.6160894632339478 0.4065380096435547 -0.09580208361148834
0.6444529294967651 0.2850058376789093 -0.08680664747953415
0.7160430550575256 0.37099596858024597 -0.020390361547470093
0.6273614168167114 0.3438543379306793 -0.09389391541481018
0.7228065729141235 0.423942506313324 -0.010081639513373375
0.7373663783073425 0.4016447961330414 0.02836030349135399
0.5358350872993469 0.7252237200737 -0.028163764625787735
0.5648306608200073 0.7225300073623657 -0.01191131491214037
0.5860483050346375 0.718819260597229 0.010399553924798965
0.5544935464859009 0.6598371863365173 -0.04715511202812195
0.6153488755226135 0.7178590297698975 0.05825961381196976
0.601686418056488 0.7379765510559082 0.049216512590646744
0.604850709438324 0.7205883860588074 0.05488055944442749
0.5468106269836426 0.6585241556167603 -0.08822068572044373
0.5742630362510681 0.7212575078010559 0.018977252766489983
0.5546916127204895 0.7262533903121948 0.0028025703504681587
0.5310966372489929 0.7313266396522522 -0.008837118744850159
0.5372265577316284 0.822812557220459 0.03825327754020691
0.5368627309799194 0.8017616271972656 0.010136649012565613
0.5362535715103149 0.7883328199386597 0.0031610706355422735
0.5346978902816772 0.7762227058410645 0.00459666782990098
0.5323148965835571 0.7675740122795105 0.006003720685839653
0.576678454875946 0.7483122944831848 0.03178088366985321
0.5807266235351562 0.7511022686958313 0.030011869966983795
0.5858173966407776 0.7567241787910461 0.030811727046966553
0.5894513130187988 0.7638094425201416 0.03799491003155708
0.609207034111023 0.6940396428108215 0.008686025626957417
0.7511594295501709 0.583625853061676 0.24079899489879608
0.589468777179718 0.7380803823471069 0.04762696102261543
0.5959715247154236 0.7373587489128113 0.04694916307926178
0.531997799873352 0.6769933104515076 -0.04800191521644592
0.5713430643081665 0.6591504216194153 -0.027499468997120857
0.5357476472854614 0.6720243692398071 -0.05146665871143341
0.5965607166290283 0.5666168928146362 -0.024522898718714714
0.6362245678901672 0.5801941156387329 -0.014896591193974018
0.5819519758224487 0.6331760287284851 -0.04443984478712082
0.6993507742881775 0.3054526448249817 -0.03894685208797455
0.6808863878250122 0.35037901997566223 -0.05985410884022713
0.663294792175293 0.3992282748222351 -0.07449808716773987
0.5970282554626465 0.779115617275238 0.058377768844366074
0.5628954768180847 0.41558465361595154 -0.10602109879255295
0.5721121430397034 0.3426026999950409 -0.11226385086774826
0.5833607912063599 0.2745288610458374 -0.11406572163105011
0.6655490398406982 0.5027772784233093 -0.004453000146895647
0.7180917263031006 0.524102509021759 0.03601859509944916
0.5693668127059937 0.5005355477333069 -0.01899566501379013
0.6983168125152588 0.46555179357528687 -0.0023774034343659878
0.5568307638168335 0.5437616109848022 -0.04862239584326744
0.5616260766983032 0.6409182548522949 -0.09020331501960754
0.7410482168197632 0.5382001399993896 0.06654314696788788
0.7022503614425659 0.5419020056724548 0.02057231403887272
0.6729401350021362 0.552912175655365 0.0017274611163884401
0.6282812356948853 0.5517337918281555 -0.01035378873348236
0.595430850982666 0.5439972877502441 -0.017696509137749672
0.5730529427528381 0.5352252125740051 -0.02789284847676754
0.5265454649925232 0.5178068280220032 -0.08438647538423538
0.739983856678009 0.5885915756225586 0.07413779944181442
0.7159433364868164 0.461782842874527 0.005621818359941244
0.5135900378227234 0.6765018701553345 -0.1072697564959526
0.5715718269348145 0.5833584666252136 -0.03994292765855789
0.7628035545349121 0.47338438034057617 0.18897566199302673
0.5565632581710815 0.5252893567085266 -0.03535931929945946
0.5850186944007874 0.6301854848861694 -0.019712187349796295
0.6863585114479065 0.47837162017822266 0.009142857044935226
0.5626153945922852 0.6210909485816956 -0.08483260124921799
0.740922212600708 0.6443273425102234 0.24875082075595856
0.5713425278663635 0.49137258529663086 -0.015785032883286476
0.5434999465942383 0.6124076843261719 -0.11078787595033646
0.6774888634681702 0.7790826559066772 0.14624755084514618
0.6694945693016052 0.8027698993682861 0.19219042360782623
0.7560784220695496 0.5896398425102234 0.15762968361377716
0.708098828792572 0.7437049746513367 0.1623203307390213
0.7486307621002197 0.4392662048339844 0.0772876888513565
0.584422767162323 0.8746346235275269 0.09684284776449203
0.5108991861343384 0.6782699823379517 -0.0732511579990387
0.5927963852882385 0.5970596671104431 -0.02665386162698269
0.7380059361457825 0.49344396591186523 0.06014934927225113
0.6432677507400513 0.494873583316803 -0.013900457881391048
0.6220242977142334 0.49700745940208435 -0.019382935017347336
0.6071228981018066 0.7397568821907043 0.05395618453621864
0.7370032072067261 0.6378055214881897 0.09634319692850113
0.5422831773757935 0.9071059226989746 0.10865848511457443
0.6056408882141113 0.8660873770713806 0.14686840772628784
0.6338671445846558 0.8394986987113953 0.16751472651958466
0.6026926040649414 0.4958457946777344 -0.021077586337924004
0.5849378108978271 0.493014931678772 -0.01892862655222416
0.5747367143630981 0.49237367510795593 -0.01566736027598381
0.7316759824752808 0.4534856677055359 0.026753347367048264
0.5932769179344177 0.46742627024650574 -0.02630929835140705
0.6139075756072998 0.4560995399951935 -0.03059062920510769
0.6354591846466064 0.45339179039001465 -0.029625922441482544
0.656684160232544 0.4576856195926666 -0.022947290912270546
0.6690796613693237 0.4658735394477844 -0.014512822963297367
0.7616925239562988 0.4185682237148285 0.13419215381145477
0.6587504148483276 0.4901391267776489 -0.007403768133372068
0.5850043296813965 0.687446117401123 -0.012840881012380123
0.5602463483810425 0.6558342576026917 -0.06388621032238007
0.5367997884750366 0.6908382773399353 -0.03851668909192085
0.6435952186584473 0.8143059015274048 0.13590110838413239
0.6143754124641418 0.8438822031021118 0.11872091889381409
0.5458601713180542 0.896287202835083 0.07714060693979263
0.6976000070571899 0.7614785432815552 0.22178417444229126
0.5783066749572754 0.48267465829849243 -0.020623749122023582
0.5409788489341736 0.5591089129447937 -0.07988915592432022
0.5763331055641174 0.8902642726898193 0.12366551905870438
0.7476588487625122 0.6440069079399109 0.1704086810350418
0.5564900040626526 0.759629487991333 0.017153264954686165
0.5605992078781128 0.7654371857643127 0.015770820900797844
0.5637978911399841 0.7747321128845215 0.016759833320975304
0.5659300088882446 0.7870180606842041 0.02440362237393856
0.5712408423423767 0.805103063583374 0.04710094630718231
0.5974665880203247 0.7200420498847961 0.036273833364248276
0.6046845316886902 0.7165278196334839 0.03637796267867088
0.6111423969268799 0.712253987789154 0.03529653325676918
0.6290448307991028 0.7031529545783997 0.03411225602030754
0.7110956311225891 0.6553993225097656 0.052292607724666595
0.5412134528160095 0.5298129320144653 -0.0650494396686554
0.5545419454574585 0.47837552428245544 -0.03723118081688881
0.5691014528274536 0.47877106070518494 -0.027092207223176956
0.591494619846344 0.7179944515228271 0.038749925792217255
0.7077897787094116 0.7110864520072937 0.10734862834215164
0.5348538756370544 0.48112812638282776 -0.06851000338792801
0.578963577747345 0.8263610601425171 0.06421622633934021
0.5247530341148376 0.5493323802947998 -0.10040397942066193
0.5568986535072327 0.5961615443229675 -0.06995273381471634
0.5418905019760132 0.8468362092971802 0.05118405073881149
0.6298300623893738 0.7625731229782104 0.07952137291431427
0.6046784520149231 0.6469132304191589 -0.007709462661296129
0.6061835885047913 0.7974202036857605 0.07532422244548798
0.662360429763794 0.6419309973716736 0.001380642643198371
0.6290283799171448 0.6681644916534424 0.008126550354063511
0.6808769702911377 0.6759120225906372 0.03414042666554451
0.5460879802703857 0.8751826286315918 0.05973436310887337
0.5705968141555786 0.604690432548523 -0.04900491237640381
0.6428648233413696 0.7857930660247803 0.10375943034887314
0.6135314106941223 0.8192788362503052 0.09588152170181274
0.6515684127807617 0.728124737739563 0.06880307197570801
0.7287983298301697 0.6793709397315979 0.11801654100418091
0.6770830154418945 0.7377076745033264 0.08904724568128586
0.7328539490699768 0.695334792137146 0.177249938249588
0.6491459608078003 0.6894896626472473 0.03010076843202114
0.5557937622070312 0.5710763335227966 -0.05844965577125549
0.5542640089988708 0.6543437242507935 -0.09407694637775421
0.569682776927948 0.6521131992340088 -0.06577879190444946
0.5440375804901123 0.6414214372634888 -0.11394020915031433
0.5725796222686768 0.45991337299346924 -0.048980001360177994
0.6102440357208252 0.4453907012939453 -0.05537114664912224
0.6441857814788818 0.4405941367149353 -0.052503686398267746
0.6718921065330505 0.4422469139099121 -0.04144607111811638
0.690231442451477 0.4501073658466339 -0.02584148198366165
0.700032114982605 0.4852025508880615 0.019086230546236038
0.759681224822998 0.5374965667724609 0.1386817991733551
0.6809663772583008 0.5188486576080322 0.009938214905560017
0.6556693315505981 0.528124988079071 -0.002403832506388426
0.6243873238563538 0.5293567180633545 -0.011717082932591438
0.5958139896392822 0.5250164270401001 -0.01701337657868862
0.5754287242889404 0.5190107822418213 -0.021090514957904816
0.5616759061813354 0.5131311416625977 -0.02434331551194191
0.7573392391204834 0.5272027254104614 0.22188407182693481
0.5691851377487183 0.6544685363769531 -0.05272918567061424
0.5406765937805176 0.5851137042045593 -0.09195339679718018
0.5375228524208069 0.6606981158256531 -0.11133063584566116
0.5247398614883423 0.6703017950057983 -0.09851307421922684
0.5376642942428589 0.6623249650001526 -0.09918951988220215
0.5636723041534424 0.6595743894577026 -0.04253401607275009
0.5206601619720459 0.6740058660507202 -0.10413720458745956
0.5181546211242676 0.6756254434585571 -0.07405105978250504
0.5635544061660767 0.4945984184741974 -0.019178248941898346
0.5511248111724854 0.5018482208251953 -0.03206483647227287
0.544137716293335 0.5084777474403381 -0.0473044253885746
0.6758091449737549 0.4718623161315918 -0.00600469671189785
0.6865475177764893 0.46676796674728394 -0.006652908865362406
