ply
format ascii 1.0
element vertex 468
property float x
property float y
property float z
end_header
0.4518599212169647 0.7385847568511963 -0.04046298563480377
0.40341323614120483 0.6644411683082581 -0.12052863091230392
0.44286859035491943 0.6831653714179993 -0.055189572274684906
0.4058848023414612 0.5705254077911377 -0.09133107960224152
0.39925670623779297 0.6378340125083923 -0.13244393467903137
0.40830621123313904 0.6001622080802917 -0.1290469765663147
0.4432184100151062 0.5043268203735352 -0.0868615135550499
0.35279157757759094 0.4760490953922272 0.10900089144706726
0.45034170150756836 0.4456207752227783 -0.08341395854949951
0.4460827708244324 0.4124588966369629 -0.0947309210896492
0.4573628902435303 0.26283612847328186 -0.09555629640817642
0.45504388213157654 0.7506978511810303 -0.0350046344101429
0.461382120847702 0.7581846714019775 -0.02661222778260708
0.4688596725463867 0.759231448173523 -0.015343878418207169
0.4680231213569641 0.7663978338241577 -0.010051284916698933
0.4657660126686096 0.7771023511886597 -0.012635285034775734
0.4654509425163269 0.7903595566749573 -0.0160475205630064
0.4683932662010193 0.8057814240455627 -0.011580139398574829
0.480284720659256 0.8323807716369629 0.011540942825376987
0.41399049758911133 0.676482081413269 -0.1067415103316307
0.40775632858276367 0.6691580414772034 -0.06366189569234848
0.33921635150909424 0.3754374384880066 0.24494905769824982
0.4091187119483948 0.4993932843208313 0.053508780896663666
0.3892385959625244 0.5010837912559509 0.0680672824382782
0.37036457657814026 0.5002149343490601 0.08551385998725891
0.35251519083976746 0.4841254651546478 0.11924301832914352
0.42285507917404175 0.4940630793571472 0.039705730974674225
0.3668414056301117 0.4460439682006836 0.05140449479222298
0.3892761766910553 0.4473075270652771 0.03347475454211235
0.35020899772644043 0.44859009981155396 0.07199998199939728
0.3430553376674652 0.4548468589782715 0.09012170135974884
0.34269970655441284 0.5014066100120544 0.1408715844154358
0.4206887483596802 0.8661223649978638 0.09861160069704056
0.34836485981941223 0.4700621962547302 0.11934593319892883
0.34487611055374146 0.4814739227294922 0.28290480375289917
0.3360280394554138 0.4843994379043579 0.17396298050880432
0.36932069063186646 0.6147483587265015 0.05239999666810036
0.4255599081516266 0.7323432564735413 -0.021339181810617447
0.4409966766834259 0.7555508613586426 -0.006952145602554083
0.4075542688369751 0.7321966886520386 0.012511685490608215
0.40299421548843384 0.7361707091331482 0.04735204204916954
0.42778635025024414 0.7517223358154297 0.019032811746001244
0.4206302762031555 0.7497501373291016 0.04819222912192345
0.40334057807922363 0.7689809203147888 0.10861615091562271
0.3872777223587036 0.6618574857711792 -0.10985052585601807
0.38219887018203735 0.6365659832954407 -0.1190994381904602
0.3204987943172455 0.4375467896461487 0.10550486296415329
0.40885239839553833 0.5499007701873779 0.012430991046130657
0.37240174412727356 0.6391529440879822 -0.021575836464762688
0.3778102993965149 0.6230061650276184 -0.014871587045490742
0.3282504379749298 0.6032673716545105 0.12308601289987564
0.39215582609176636 0.6014790534973145 -0.10789845883846283
0.3390086889266968 0.42031294107437134 0.022983260452747345
0.32338014245033264 0.424685001373291 0.06308364123106003
0.33303162455558777 0.3358897566795349 0.17507968842983246
0.4130842685699463 0.4416959881782532 -0.04926975071430206
0.4104676842689514 0.4531290829181671 0.029974671080708504
0.38630276918411255 0.7431174516677856 0.12162310630083084
0.39990565180778503 0.7091830968856812 0.38156405091285706
0.3888651430606842 0.6545737385749817 -0.01983014866709709
0.4062482714653015 0.6666659116744995 -0.036570824682712555
0.40366509556770325 0.7452878355979919 0.11113259941339493
0.4138869345188141 0.7458425760269165 0.09773486852645874
0.3189919888973236 0.4074428379535675 0.0782356709241867
0.38020071387290955 0.6477758884429932 -0.007326349150389433
0.36729463934898376 0.42465877532958984 -0.015143856406211853
0.36019980907440186 0.40350204706192017 -0.022593462839722633
0.3588555157184601 0.28179481625556946 0.01759856753051281
0.32497647404670715 0.37077611684799194 0.12010285258293152
0.35852354764938354 0.33996328711509705 -0.004733065143227577
0.3182885944843292 0.42453551292419434 0.13138487935066223
0.3270076811313629 0.40172743797302246 0.1844555288553238
0.431918203830719 0.7466030120849609 -0.01585076004266739
0.41759783029556274 0.7442352771759033 0.0152784688398242
0.41086816787719727 0.7436181902885437 0.04604979231953621
0.3963160812854767 0.6596377491950989 -0.021419433876872063
0.40836867690086365 0.745733916759491 0.10329420119524002
0.4130837917327881 0.7542601227760315 0.08097009360790253
0.4181603193283081 0.745216429233551 0.09490551054477692
0.38304808735847473 0.6527568697929382 -0.05780023708939552
0.4298422932624817 0.7480205297470093 0.050403892993927
0.43780702352523804 0.7517122030258179 0.027014736086130142
0.4508543014526367 0.7565693855285645 0.004238181747496128
0.45400720834732056 0.8273479342460632 0.029852760955691338
0.4445415735244751 0.8003073930740356 0.007770722731947899
0.44315457344055176 0.7850880026817322 0.004398108460009098
0.44468754529953003 0.7722981572151184 0.008072962053120136
0.44908207654953003 0.7635110020637512 0.009963246062397957
0.42759644985198975 0.7548866271972656 0.05427658557891846
0.4233596920967102 0.7577699422836304 0.05191872641444206
0.41866281628608704 0.7638649344444275 0.05198988690972328
0.41644906997680664 0.7718629240989685 0.06093110889196396
0.38325491547584534 0.7087883949279785 0.056093115359544754
0.389717161655426 0.5818657875061035 0.4038237929344177
0.42772528529167175 0.6794941425323486 -0.07431109994649887
0.4238302409648895 0.7514268159866333 0.07842180132865906
0.4180411696434021 0.7519552111625671 0.07765337079763412
0.41586410999298096 0.6799123883247375 -0.03406740352511406
0.3933427035808563 0.663063645362854 0.005040177144110203
0.41083312034606934 0.6740026473999023 -0.03692919760942459
0.3940594792366028 0.5620705485343933 0.038254547864198685
0.3646319508552551 0.5780689120292664 0.06685374677181244
0.381696492433548 0.631968080997467 0.0019318819977343082
0.3374113142490387 0.3039834797382355 0.09654407948255539
0.335032194852829 0.3491613268852234 0.058090049773454666
0.33332735300064087 0.39893847703933716 0.02828921005129814
0.41627398133277893 0.7905879616737366 0.08666384220123291
0.39954936504364014 0.4102557301521301 -0.06208287924528122
0.39589613676071167 0.3364037275314331 -0.05545085296034813
0.3967035412788391 0.26916131377220154 -0.04804867506027222
0.357856422662735 0.494249552488327 0.10510927438735962
0.3311688005924225 0.5184276700019836 0.1697983592748642
0.43025755882263184 0.4886230528354645 0.035829097032547
0.33554592728614807 0.46040356159210205 0.12329144775867462
0.41729897260665894 0.5365778803825378 -0.0077232131734490395
0.37195876240730286 0.6354827284812927 -0.05418482422828674
0.3247883915901184 0.5329806804656982 0.21648317575454712
0.3313058316707611 0.5381585955619812 0.14561162889003754
0.34445106983184814 0.5499337911605835 0.10859528928995132
0.3765217661857605 0.5475062131881714 0.07266075164079666
0.40173691511154175 0.5376160144805908 0.04722113162279129
0.41753506660461426 0.5276157855987549 0.023368123918771744
0.42819857597351074 0.5094904899597168 -0.06171492859721184
0.31764137744903564 0.5853864550590515 0.2204662561416626
0.32823753356933594 0.4571998417377472 0.14301197230815887
0.4036976099014282 0.6743095517158508 -0.0985085517168045
0.4016466736793518 0.5789040327072144 0.00739037711173296
0.3739362955093384 0.47232410311698914 0.3661102056503296
0.4273495078086853 0.5172027945518494 0.006807887926697731
0.39002931118011475 0.6305422782897949 0.026256658136844635
0.3472614884376526 0.47136443853378296 0.1284991353750229
0.37934765219688416 0.615725040435791 -0.047395091503858566
0.39333876967430115 0.6426084041595459 0.39988380670547485
0.43084171414375305 0.4792267680168152 0.041509293019771576
0.38408195972442627 0.6067219376564026 -0.08186613768339157
0.38061627745628357 0.7863568067550659 0.23691295087337494
0.40660327672958374 0.8132389783859253 0.28341323137283325
0.34374913573265076 0.5860938429832458 0.3174435794353485
0.36856454610824585 0.7459214329719543 0.27713271975517273
0.33599746227264404 0.4371470808982849 0.24069473147392273
0.4224695563316345 0.8954584002494812 0.11986806243658066
0.418465793132782 0.6777302622795105 -0.06822437047958374
0.3909420073032379 0.59511798620224 0.029399652034044266
0.3344930112361908 0.4868152141571045 0.21085308492183685
0.3686298429965973 0.48478204011917114 0.08441214263439178
0.386716365814209 0.48697778582572937 0.06887536495923996
0.4100654125213623 0.7579066753387451 0.08969628065824509
0.32419052720069885 0.6357011795043945 0.2346593588590622
0.4605589509010315 0.9401493072509766 0.10791193693876266
0.42501652240753174 0.8888911008834839 0.19179150462150574
0.41692864894866943 0.8563092350959778 0.2337225377559662
0.4494170546531677 0.3349215090274811 -0.09680278599262238
0.5032395720481873 0.9526047706604004 0.07339807599782944
0.40473294258117676 0.48536595702171326 0.05539962649345398
0.41971707344055176 0.4814588129520416 0.0480988547205925
0.4278205633163452 0.4799024164676666 0.04528823122382164
0.32749658823013306 0.4505164623260498 0.17494754493236542
0.4143167734146118 0.46373721957206726 0.04343251883983612
0.3969631493091583 0.4580309987068176 0.04761972650885582
0.3765900433063507 0.45654207468032837 0.059993643313646317
0.35940277576446533 0.4591876268386841 0.07688555866479874
0.3516872823238373 0.464476078748703 0.09205660969018936
0.35245853662490845 0.4178301692008972 0.31194040179252625
0.35839709639549255 0.48043137788772583 0.09823451191186905
0.44830161333084106 0.7003933787345886 -0.04486234113574028
0.3911669850349426 0.6979288458824158 0.024162959307432175
0.3832637369632721 0.6522485613822937 -0.03279886767268181
0.4194142818450928 0.6990610957145691 -0.024693287909030914
0.4535093903541565 0.4715076982975006 -0.07633963227272034
0.39658671617507935 0.8263099789619446 0.20036278665065765
0.40965068340301514 0.8610832691192627 0.1618407964706421
0.4467107057571411 0.9206797480583191 0.07573434710502625
0.4036109447479248 0.7669181227684021 0.3378908336162567
0.42490705847740173 0.47289514541625977 0.04200805723667145
0.4103006422519684 0.552071750164032 -0.04999006539583206
0.48889583349227905 0.9335029125213623 0.04221272096037865
0.4369538724422455 0.9181504249572754 0.1482820212841034
0.350768119096756 0.6411834359169006 0.3195604383945465
0.43568211793899536 0.7593675255775452 0.03228457272052765
0.4312559962272644 0.765407919883728 0.03023924119770527
0.42796754837036133 0.7750857472419739 0.030011219903826714
0.4272376298904419 0.7885252237319946 0.03685181960463524
0.43189629912376404 0.8112726211547852 0.060080867260694504
0.4162595272064209 0.7471972703933716 0.07573787868022919
0.4079035818576813 0.7440923452377319 0.0802428349852562
0.4013407230377197 0.7395099401473999 0.08264109492301941
0.3800794780254364 0.7235662937164307 0.09237878769636154
0.3275693356990814 0.6549617648124695 0.16930699348449707
0.4233407974243164 0.5218053460121155 -0.03342008218169212
0.4351217746734619 0.4678810238838196 0.004550295881927013
0.42913252115249634 0.46773457527160645 0.02712092362344265
0.42427557706832886 0.7445822954177856 0.07595594227313995
0.3481399714946747 0.713180422782898 0.21907715499401093
0.4363359212875366 0.47304093837738037 -0.040165092796087265
0.4283819794654846 0.8370378017425537 0.07941276580095291
0.42047059535980225 0.5678862929344177 -0.11380773037672043
0.41594529151916504 0.5416072607040405 -0.08111709356307983
0.43185412883758545 0.537315845489502 -0.09979508072137833
0.3963998556137085 0.590984046459198 -0.03385833650827408
0.4821380376815796 0.9026488065719604 0.02364882081747055
0.4813995957374573 0.8644803762435913 0.017608975991606712
0.45065534114837646 0.8571287989616394 0.04349508509039879
0.3928801417350769 0.7782670855522156 0.1318511813879013
0.3803505301475525 0.6499375104904175 0.04690198227763176
0.41086345911026 0.8106715679168701 0.10835158079862595
0.34440210461616516 0.6419108510017395 0.08685121685266495
0.368099570274353 0.6739147305488586 0.07168750464916229
0.3410951793193817 0.6790778040885925 0.1280665248632431
0.4442375898361206 0.8917585611343384 0.05692880228161812
0.3942646086215973 0.6010084748268127 -0.005852627567946911
0.38697072863578796 0.7975404262542725 0.1660548746585846
0.4065186381340027 0.8334816098213196 0.1352393478155136
0.37314897775650024 0.7446717023849487 0.14234799146652222
0.33757150173187256 0.6787561178207397 0.24681323766708374
0.3621070086956024 0.7457928657531738 0.17747138440608978
0.359677255153656 0.6937563419342041 0.31383535265922546
0.36321210861206055 0.7029207944869995 0.10311058908700943
0.4066567122936249 0.5649920105934143 -0.01953740417957306
0.3753724694252014 0.6482276916503906 -0.061196550726890564
0.37589555978775024 0.6489441394805908 -0.029479002580046654
0.37429308891296387 0.635327160358429 -0.0863695740699768
0.41551217436790466 0.45067888498306274 0.005785503890365362
0.38120928406715393 0.44008100032806396 0.01755646988749504
0.3541974425315857 0.4377409517765045 0.03772180527448654
0.33656346797943115 0.4404247999191284 0.06544309109449387
0.33093562722206116 0.4476527273654938 0.09330271929502487
0.34240397810935974 0.4783303439617157 0.14544163644313812
0.34278997778892517 0.5331750512123108 0.3059464395046234
0.346956342458725 0.513167679309845 0.12483218312263489
0.3608352243900299 0.5220339894294739 0.09791620820760727
0.38460463285446167 0.5224554538726807 0.0724060982465744
0.40772777795791626 0.5165615677833557 0.05220384523272514
0.4231865108013153 0.5096096992492676 0.03282048553228378
0.4323013722896576 0.5035344958305359 0.02150547504425049
0.3866965174674988 0.5259029865264893 0.39417046308517456
0.38328611850738525 0.6537700295448303 -0.017278427258133888
0.39848312735557556 0.5791443586349487 -0.06224267929792404
0.37863415479660034 0.6546626091003418 -0.08970863372087479
0.39864063262939453 0.6669628024101257 -0.08594037592411041
0.38558682799339294 0.6565954685211182 -0.07730839401483536
0.3931379020214081 0.6614237427711487 -0.013212919235229492
0.3991941213607788 0.6712673902511597 -0.09346339851617813
0.41201984882354736 0.6744265556335449 -0.06596662849187851
0.43470507860183716 0.482369989156723 0.030043484643101692
0.43901604413986206 0.49173200130462646 0.006507099140435457
0.4351436495780945 0.4997624158859253 -0.014624661765992641
0.34885460138320923 0.46814048290252686 0.10467178374528885
0.3416207432746887 0.46129727363586426 0.11105599999427795
0.44307824969291687 0.5710654258728027 -0.11903728544712067
0.6659250259399414 0.47873109579086304 -0.09451969712972641
0.45593583583831787 0.6728612184524536 -0.08518873155117035
0.843603253364563 0.355383962392807 -0.06735768169164658
0.5831575393676758 0.5007204413414001 -0.0764366015791893
0.6090244650840759 0.5029677748680115 -0.08874011039733887
0.6378793716430664 0.5026473999023438 -0.09599664807319641
0.6836011409759521 0.48684433102607727 -0.09602372348308563
0.562061071395874 0.4950997531414032 -0.062443263828754425
0.6160984039306641 0.4407923221588135 -0.11359352618455887
0.5874220132827759 0.44207096099853516 -0.09596581012010574
0.6450010538101196 0.4440394639968872 -0.11870194971561432
0.6676079630851746 0.4512999355792999 -0.11591111123561859
0.7124788165092468 0.5035814046859741 -0.08996041119098663
0.5912356376647949 0.884987473487854 0.003030984429642558
0.6809180974960327 0.4721178412437439 -0.09337101876735687
0.855840802192688 0.47923392057418823 -0.03436141833662987
0.7566217184066772 0.48536986112594604 -0.08596986532211304
0.5992829203605652 0.6185188889503479 -0.07942542433738708
0.48686927556991577 0.7352831959724426 -0.0560290589928627
0.49444642663002014 0.758333683013916 -0.03874727338552475
0.5332854390144348 0.7386918663978577 -0.05820979177951813
0.5697759985923767 0.7428385019302368 -0.05036959797143936
0.5290817618370056 0.7565897703170776 -0.043073028326034546
0.5592644214630127 0.7546430230140686 -0.03455619141459465
0.6227944493293762 0.7788625359535217 -0.017824074253439903
0.42618244886398315 0.6639787554740906 -0.12764331698417664
0.42533373832702637 0.6377648711204529 -0.14062964916229248
0.7096845507621765 0.4312412738800049 -0.1396559476852417
0.5432283282279968 0.5514979958534241 -0.07301339507102966
0.5258278250694275 0.6437315940856934 -0.10167394578456879
0.5318747758865356 0.6264585256576538 -0.09774063527584076
0.6964019536972046 0.6105603575706482 -0.09561828523874283
0.4323478639125824 0.6021568179130554 -0.1352217048406601
0.6164530515670776 0.4112699031829834 -0.14701008796691895
0.6662792563438416 0.4166657328605652 -0.15068554878234863
0.7835114002227783 0.312118798494339 -0.10585080832242966
0.49837690591812134 0.4383981227874756 -0.10468209534883499
0.5651643872261047 0.4491373896598816 -0.07457409054040909
0.6449063420295715 0.752779483795166 -0.030829161405563354
0.8844877481460571 0.7389357089996338 0.09136830270290375
0.5104929804801941 0.6598867177963257 -0.07998848706483841
0.48763400316238403 0.6697622537612915 -0.06645753234624863
0.6193674802780151 0.7501963376998901 -0.02068243734538555
0.6087402701377869 0.7498581409454346 -0.018717098981142044
0.686976969242096 0.39722973108291626 -0.1498783975839615
0.536831796169281 0.6514184474945068 -0.0856364369392395
0.5593218207359314 0.4174468219280243 -0.13207808136940002
0.5613890886306763 0.39499038457870483 -0.14316917955875397
0.6171223521232605 0.2635323405265808 -0.14344261586666107
0.7310857772827148 0.3540782034397125 -0.1314442902803421
0.5826583504676819 0.3272555470466614 -0.14417976140975952
0.7377974390983582 0.41578853130340576 -0.1313220113515854
0.7880107164382935 0.38785475492477417 -0.09977946430444717
0.4902031421661377 0.7498547434806824 -0.050041183829307556
0.5290811061859131 0.750376284122467 -0.0510467030107975
0.5628658533096313 0.7494443655014038 -0.04368089139461517
0.5066819190979004 0.6641417741775513 -0.07008055597543716
0.6133739948272705 0.7500156760215759 -0.019122609868645668
0.5930179953575134 0.7589777708053589 -0.022254742681980133
0.6074936985969543 0.749638020992279 -0.018135102465748787
0.47763073444366455 0.6591269373893738 -0.11266524344682693
0.5604223608970642 0.7510840892791748 -0.028434719890356064
0.5306593179702759 0.7551549077033997 -0.031131120398640633
0.4996562600135803 0.7585404515266418 -0.028126845136284828
0.5165248513221741 0.8321678638458252 -0.00236892094835639
0.5031622648239136 0.8041260838508606 -0.027011260390281677
0.4986475110054016 0.7887385487556458 -0.03145265579223633
0.49742215871810913 0.7754034996032715 -0.026970069855451584
0.4981845021247864 0.766485333442688 -0.02348962612450123
0.5612350106239319 0.7594508528709412 -0.024712368845939636
0.5630210041999817 0.7625840306282043 -0.027442865073680878
0.5674425959587097 0.7692213654518127 -0.02959027886390686
0.5728884935379028 0.7782635688781738 -0.026860302314162254
0.5873294472694397 0.7156439423561096 -0.055945299565792084
0.9168894290924072 0.594220757484436 0.08007185161113739
0.5834958553314209 0.7555931806564331 -0.020253514871001244
0.586847186088562 0.7563399076461792 -0.021443698555231094
0.47863513231277466 0.682116687297821 -0.06336347758769989
0.5356385111808777 0.6657741665840149 -0.05743259936571121
0.48267048597335815 0.6764345169067383 -0.06571801006793976
0.5733539462089539 0.5641078352928162 -0.07615628093481064
0.6182735562324524 0.5810319781303406 -0.08849406987428665
0.5442424416542053 0.6349695324897766 -0.08350276201963425
0.7087194323539734 0.28063464164733887 -0.13273227214813232
0.6638802289962769 0.3328462839126587 -0.14441394805908203
0.6266725063323975 0.38824981451034546 -0.1518755406141281
0.5923015475273132 0.8013269901275635 -0.016697267070412636
0.49975550174713135 0.4043858051300049 -0.12261001765727997
0.5149619579315186 0.3294864296913147 -0.1274692863225937
0.5367847084999084 0.25859037041664124 -0.12889285385608673
0.6663311719894409 0.4972184896469116 -0.09769777953624725
0.7506551742553711 0.5215581059455872 -0.08665406703948975
0.5484649538993835 0.4898954927921295 -0.055239517241716385
0.7069199681282043 0.45920330286026 -0.11252585053443909
0.5198634266853333 0.5375986099243164 -0.07616415619850159
0.49369192123413086 0.6400545835494995 -0.11906912177801132
0.7981023788452148 0.5377504229545593 -0.07420005649328232
0.7195339202880859 0.5413990020751953 -0.09522448480129242
0.6727412343025208 0.5524353981018066 -0.09574191272258759
0.6152817010879517 0.5494285225868225 -0.0834035873413086
0.577139139175415 0.539116382598877 -0.07047341763973236
0.5494450330734253 0.5291276574134827 -0.06489942967891693
0.46969515085220337 0.5095945000648499 -0.0910324901342392
0.7950698733329773 0.5956787467002869 -0.06920640170574188
0.7374984622001648 0.4548622667789459 -0.11537948250770569
0.42837730050086975 0.676062822341919 -0.11262261122465134
0.5364495515823364 0.5805983543395996 -0.0751798003911972
0.9093930721282959 0.46690282225608826 0.03158813342452049
0.5262062549591064 0.517860472202301 -0.06187307462096214
0.5564633011817932 0.6331489682197571 -0.05848963186144829
0.6943553686141968 0.47258642315864563 -0.09458416700363159
0.5017081499099731 0.6187242865562439 -0.11329501122236252
0.9093940258026123 0.6642917990684509 0.0895930603146553
0.5528827905654907 0.481242299079895 -0.05376630276441574
0.46508902311325073 0.6084671020507812 -0.12995405495166779
0.7592801451683044 0.8195009827613831 0.020011302083730698
0.7832789421081543 0.8505364656448364 0.06360411643981934
0.8653120398521423 0.5983766317367554 0.0014153196243569255
0.8095875978469849 0.7778779864311218 0.022042689844965935
0.8260008096694946 0.42780494689941406 -0.0634286031126976
0.6037254929542542 0.9178822040557861 0.017174309119582176
0.4386778175830841 0.6786254644393921 -0.0772232636809349
0.5655468702316284 0.5972990393638611 -0.07240545749664307
0.7952425479888916 0.4877428412437439 -0.07538345456123352
0.6304548382759094 0.4872303903102875 -0.09373652189970016
0.6055630445480347 0.48849451541900635 -0.08850640803575516
0.6008896231651306 0.7630967497825623 -0.02093534916639328
0.8011020421981812 0.6523596048355103 -0.04462384432554245
0.5582225918769836 0.9536314010620117 0.050913095474243164
0.6654068231582642 0.9190088510513306 0.04987635463476181
0.7192075848579407 0.8914583921432495 0.05487562716007233
0.5854797959327698 0.4862459897994995 -0.07836943864822388
0.5674806833267212 0.482410728931427 -0.06669562309980392
0.5567353367805481 0.4814470112323761 -0.057514119893312454
0.7720807790756226 0.4456092417240143 -0.10319122672080994
0.574288547039032 0.4641713500022888 -0.07521191239356995
0.5966581106185913 0.457360178232193 -0.08983701467514038
0.6189036965370178 0.4569844901561737 -0.1005592867732048
0.6429673433303833 0.46057599782943726 -0.10568763315677643
0.6595226526260376 0.46584397554397583 -0.10330121219158173
0.8837491273880005 0.40350234508514404 -0.01611560769379139
0.649871826171875 0.4834684133529663 -0.09535165876150131
0.5524387955665588 0.7027329802513123 -0.06072156876325607
0.5051839351654053 0.65802401304245 -0.0891006663441658
0.48616939783096313 0.7017284631729126 -0.05993291363120079
0.7069838047027588 0.858630895614624 0.02479613572359085
0.6576992273330688 0.8899590969085693 0.023272603750228882
0.545400857925415 0.933653712272644 0.019326094537973404
0.8385077118873596 0.8020473718643188 0.07810050249099731
0.5591012239456177 0.4748261570930481 -0.06336921453475952
0.48254144191741943 0.5530019998550415 -0.09618908911943436
0.6111698150634766 0.9410989880561829 0.04281150549650192
0.8634986877441406 0.6611335873603821 0.01633377932012081
0.5297669768333435 0.7637621164321899 -0.0266766007989645
0.5317108631134033 0.7702040672302246 -0.031000809744000435
0.5343998670578003 0.7801477313041687 -0.033876676112413406
0.5383747220039368 0.7942193746566772 -0.0301558505743742
0.5568742752075195 0.8200510144233704 -0.015103655867278576
0.5902029871940613 0.7513955235481262 -0.02818034030497074
0.5952019691467285 0.7488617897033691 -0.03332868218421936
0.6021296381950378 0.7447531223297119 -0.03797689825296402
0.6218392252922058 0.7317094206809998 -0.04766547307372093
0.7414388060569763 0.6701419353485107 -0.06851659715175629
0.49410608410835266 0.5222288966178894 -0.08166132867336273
0.5229156613349915 0.4676421880722046 -0.056988753378391266
0.5446410179138184 0.4673052430152893 -0.0605766735970974
0.5877389907836914 0.7479783892631531 -0.023327641189098358
0.7705824375152588 0.7373602986335754 -0.021758468821644783
0.4901926517486572 0.47234877943992615 -0.07651476562023163
0.5761292576789856 0.8512153625488281 -0.004001670517027378
0.4562610387802124 0.5419739484786987 -0.10592973232269287
0.5037381052970886 0.592847466468811 -0.09440089017152786
0.5261651873588562 0.8649275302886963 0.0030974855180829763
0.6511496901512146 0.7961980700492859 -0.014456506818532944
0.5833722352981567 0.6538415551185608 -0.06107931211590767
0.6179545521736145 0.8278995752334595 -0.0068082185462117195
0.6505499482154846 0.6503770351409912 -0.08406999707221985
0.6141288876533508 0.6810948848724365 -0.06390107423067093
0.6916759014129639 0.6929838061332703 -0.06779979169368744
0.5351709723472595 0.9024591445922852 0.00370447663590312
0.5310995578765869 0.6031220555305481 -0.08180631697177887
0.6833338737487793 0.8233508467674255 -0.0011221262393519282
0.6388633847236633 0.8570632338523865 0.007072168868035078
0.6728395819664001 0.761156439781189 -0.03396745026111603
0.8048356771469116 0.7010555267333984 -0.021345987915992737
0.7208377718925476 0.7695406079292297 -0.025761093944311142
0.8497859835624695 0.720993161201477 0.02542753890156746
0.6495403051376343 0.7132063508033752 -0.05880703777074814
0.5096728205680847 0.5664857029914856 -0.08469108492136002
0.48384636640548706 0.6549489498138428 -0.12023826688528061
0.5167289972305298 0.654629647731781 -0.09700571000576019
0.4587068557739258 0.6392093896865845 -0.13444586098194122
0.5366212725639343 0.4489924907684326 -0.07965133339166641
0.5746513605117798 0.43606001138687134 -0.10727996379137039
0.6121770739555359 0.4318617582321167 -0.12526458501815796
0.6494508385658264 0.4336845576763153 -0.13253870606422424
0.6823153495788574 0.4426978826522827 -0.1285737007856369
0.7208181023597717 0.47969314455986023 -0.09279777109622955
0.8635835647583008 0.5382532477378845 -0.01823662780225277
0.6901946663856506 0.5155026316642761 -0.09192948788404465
0.6548649072647095 0.5241144299507141 -0.0906810536980629
0.6146849393844604 0.5240134596824646 -0.08272341638803482
0.580781877040863 0.5180644392967224 -0.0696415975689888
0.5560136437416077 0.51079922914505 -0.05893392860889435
0.5378130674362183 0.504533588886261 -0.05293672904372215
0.916354775428772 0.5296011567115784 0.06104889139533043
0.5236081480979919 0.6582854986190796 -0.08375965058803558
0.4716871380805969 0.5801684260368347 -0.1098635122179985
0.4520946443080902 0.6600748896598816 -0.1272135078907013
0.4486779570579529 0.6714343428611755 -0.10759391635656357
0.4609948396682739 0.6630941033363342 -0.11557670682668686
0.521278977394104 0.6649144887924194 -0.06875427067279816
0.4392135739326477 0.6742602586746216 -0.11138411611318588
0.44884052872657776 0.6770474314689636 -0.08107741922140121
0.5404014587402344 0.4836311340332031 -0.0489354282617569
0.5227745771408081 0.4923518896102905 -0.05180876702070236
0.5078949332237244 0.5000965595245361 -0.0635618194937706
0.670441746711731 0.4697352349758148 -0.09967599809169769
0.6872951984405518 0.459988534450531 -0.10738212615251541
