ply
format ascii 1.0
element vertex 468
property float x
property float y
property float z
end_header
0.5170654058456421 0.6823102235794067 -0.06052614375948906
0.5285681486129761 0.6208142042160034 -0.13147957623004913
0.520636260509491 0.6406672596931458 -0.06710981577634811
0.502021312713623 0.544903039932251 -0.10571436583995819
0.528805673122406 0.5970770716667175 -0.14084678888320923
0.5260515213012695 0.5661146640777588 -0.1327960342168808
0.5164697766304016 0.49210694432258606 -0.07265875488519669
0.3305160701274872 0.4896581470966339 0.006179823540151119
0.5126408934593201 0.4383630156517029 -0.059216395020484924
0.5122273564338684 0.40699994564056396 -0.06647219508886337
0.5064622163772583 0.2819354236125946 -0.04941074922680855
0.5161116719245911 0.6921752691268921 -0.057053495198488235
0.5148848295211792 0.698722779750824 -0.04950214549899101
0.5134983062744141 0.6998725533485413 -0.038917213678359985
0.5137524008750916 0.7137534022331238 -0.03545326367020607
0.5142855048179626 0.7218980193138123 -0.0393407866358757
0.5144078135490417 0.7325254678726196 -0.044459268450737
0.5143120884895325 0.7454028129577637 -0.040855515748262405
0.5134299993515015 0.769890308380127 -0.017703276127576828
0.5266172885894775 0.6325304508209229 -0.11828291416168213
0.5010805726051331 0.6299999952316284 -0.08677870035171509
0.22539621591567993 0.3976038098335266 0.10388528555631638
0.40352126955986023 0.5087332129478455 -0.011732980608940125
0.3786205053329468 0.5105134844779968 -0.012100344523787498
0.3546048402786255 0.5088379979133606 -0.0077440268360078335
0.32028132677078247 0.49741363525390625 0.009661143645644188
0.4244595170021057 0.5031015872955322 -0.0066291531547904015
0.37079310417175293 0.4532693028450012 -0.02623395435512066
0.3972345292568207 0.4541861414909363 -0.023099452257156372
0.3456189036369324 0.45716214179992676 -0.020093970000743866
0.3282102644443512 0.46491116285324097 -0.010995801538228989
0.3000072240829468 0.5101575255393982 0.021709667518734932
0.42363232374191284 0.8101775646209717 0.006546784192323685
0.32089972496032715 0.4845160245895386 0.013273420743644238
0.2193428874015808 0.5006154775619507 0.12190061062574387
0.2708413600921631 0.4966513514518738 0.04267573729157448
0.38676273822784424 0.5961468815803528 -0.02994857169687748
0.4829827547073364 0.6787445545196533 -0.061629101634025574
0.48279982805252075 0.6977079510688782 -0.0491972491145134
0.44561663269996643 0.6822376847267151 -0.049997489899396896
0.41905608773231506 0.6867459416389465 -0.03146214410662651
0.45537516474723816 0.6968955397605896 -0.04117520898580551
0.4328119158744812 0.6963543891906738 -0.023984450846910477
0.3900550603866577 0.7211945056915283 0.008359257131814957
0.5082903504371643 0.6204505562782288 -0.13094912469387054
0.5057602524757385 0.5972254872322083 -0.13992024958133698
0.2883981466293335 0.4423065781593323 -0.009372423402965069
0.4389064610004425 0.5425439476966858 -0.031900063157081604
0.4434875547885895 0.6096986532211304 -0.07725831866264343
0.4405726194381714 0.5971664786338806 -0.07063265144824982
0.30593597888946533 0.5927607417106628 -0.005958303809165955
0.504319965839386 0.5686837434768677 -0.1277550458908081
0.35292690992355347 0.418783038854599 -0.046773482114076614
0.31548500061035156 0.42640069127082825 -0.03100382164120674
0.25322240591049194 0.35459545254707336 0.055997930467128754
0.4620978534221649 0.4358466863632202 -0.05714551731944084
0.41990625858306885 0.46093103289604187 -0.013338053598999977
0.36830514669418335 0.6975702047348022 0.008963554166257381
0.2459746152162552 0.7152683734893799 0.20386631786823273
0.4603692889213562 0.6223772168159485 -0.06502771377563477
0.481327086687088 0.629564106464386 -0.06395117938518524
0.388340562582016 0.6938269734382629 0.010634324513375759
0.399736225605011 0.6941390633583069 0.0059497966431081295
0.2999497652053833 0.4100896716117859 -0.02162199839949608
0.43999171257019043 0.6173264980316162 -0.06297982484102249
0.4012608230113983 0.42043668031692505 -0.05610855296254158
0.396610289812088 0.39989346265792847 -0.06296556442975998
0.3608202338218689 0.29568058252334595 -0.03144143521785736
0.27786320447921753 0.3810238838195801 0.011671247892081738
0.3821673095226288 0.3449568748474121 -0.048544883728027344
0.27085819840431213 0.43094611167907715 0.009071511216461658
0.24866706132888794 0.41502082347869873 0.05375417694449425
0.48254817724227905 0.6905031800270081 -0.057881198823451996
0.4513794183731079 0.6914007067680359 -0.04623286798596382
0.42635947465896606 0.6918027400970459 -0.029528679326176643
0.46587949991226196 0.6257427930831909 -0.0588117279112339
0.393792986869812 0.6936578750610352 0.008362820371985435
0.4088827669620514 0.7032089233398438 -0.004119793884456158
0.40309327840805054 0.694722592830658 0.005502236075699329
0.4772159457206726 0.6189352869987488 -0.0993596762418747
0.4359997510910034 0.69430011510849 -0.019815577194094658
0.45860931277275085 0.6965081095695496 -0.031374603509902954
0.484088271856308 0.6987137794494629 -0.03923426568508148
0.4786515235900879 0.7691810131072998 -0.019280653446912766
0.48123839497566223 0.7432811260223389 -0.04198669269680977
0.48240455985069275 0.7299713492393494 -0.04497487470507622
0.4834711253643036 0.7195436358451843 -0.039394982159137726
0.4848560392856598 0.7127336859703064 -0.03534280136227608
0.43521371483802795 0.7053568363189697 -0.015759378671646118
0.43180033564567566 0.7074074149131775 -0.019642828032374382
0.42718881368637085 0.712658703327179 -0.02288747951388359
0.42345917224884033 0.7204093933105469 -0.018373047932982445
0.4021720886230469 0.6679255962371826 -0.02651723101735115
0.21394091844558716 0.6032665967941284 0.2280910164117813
0.5239691734313965 0.6364212036132812 -0.08539160341024399
0.4201016128063202 0.7018277645111084 -0.0021875984966754913
0.4147297739982605 0.7013186812400818 -0.004562115762382746
0.48932990431785583 0.6391174793243408 -0.06362071633338928
0.4460587501525879 0.6291061043739319 -0.04230673983693123
0.4856877028942108 0.6346473693847656 -0.06452986598014832
0.41128668189048767 0.5543990135192871 -0.02548609860241413
0.3686377704143524 0.5676798820495605 -0.021498965099453926
0.43432244658470154 0.6055819988250732 -0.056457046419382095
0.29636842012405396 0.3198760449886322 0.008240477181971073
0.320526123046875 0.3566950261592865 -0.021393368020653725
0.34338057041168213 0.39866507053375244 -0.04502349719405174
0.41364774107933044 0.740985631942749 -0.002208280609920621
0.4541226029396057 0.40394559502601624 -0.06920550763607025
0.44268324971199036 0.3415822386741638 -0.061139676719903946
0.42853084206581116 0.2841111719608307 -0.05048355087637901
0.332855224609375 0.5050069689750671 0.0010764036560431123
0.273007333278656 0.5253448486328125 0.034048497676849365
0.43789324164390564 0.49705609679222107 -0.0027691747527569532
0.29928529262542725 0.47141754627227783 0.008086559362709522
0.4574625790119171 0.5285089612007141 -0.04003556817770004
0.4616767466068268 0.6041118502616882 -0.10036354511976242
0.24514886736869812 0.5415612459182739 0.05944237485527992
0.29146742820739746 0.5392670035362244 0.014450452290475368
0.3250610828399658 0.5463180541992188 -0.004399954341351986
0.3735489249229431 0.5444499254226685 -0.011817294172942638
0.40943217277526855 0.5366204977035522 -0.01432343665510416
0.4359993040561676 0.5267593264579773 -0.01920526660978794
0.49277228116989136 0.498501181602478 -0.06546594947576523
0.24726544320583344 0.587579071521759 0.05573148652911186
0.27780842781066895 0.46769681572914124 0.016890844330191612
0.5143895149230957 0.6315900087356567 -0.11821691691875458
0.44306421279907227 0.5640053749084473 -0.04091576859354973
0.20497658848762512 0.498561292886734 0.2003185898065567
0.4556504487991333 0.514554500579834 -0.022104861214756966
0.4292280077934265 0.6060510873794556 -0.03134831413626671
0.3123225271701813 0.4862630069255829 0.017317896708846092
0.4588584899902344 0.5886291265487671 -0.09203105419874191
0.2253493368625641 0.6589367985725403 0.22229869663715363
0.43711698055267334 0.4887959957122803 0.002349123125895858
0.48160427808761597 0.5766482353210449 -0.11470113694667816
0.30920150876045227 0.7626301646232605 0.08559287339448929
0.31160542368888855 0.7907006740570068 0.12994994223117828
0.22117561101913452 0.597929060459137 0.1412034034729004
0.2727106511592865 0.7349960207939148 0.10977976769208908
0.2326083481311798 0.45426487922668457 0.09400522708892822
0.4217211604118347 0.8336728811264038 0.020686589181423187
0.5144925713539124 0.6354515552520752 -0.08449626713991165
0.41889458894729614 0.5788799524307251 -0.03287021070718765
0.24795380234718323 0.5009671449661255 0.06481565535068512
0.3565027117729187 0.49627190828323364 -0.006190116982907057
0.3783302307128906 0.49814724922180176 -0.010382800363004208
0.4031860828399658 0.7071678042411804 -0.000559663400053978
0.24926574528217316 0.6341462135314941 0.06711302697658539
0.4664256274700165 0.8607312440872192 0.03142813593149185
0.39129623770713806 0.8362387418746948 0.07354623079299927
0.35547009110450745 0.8179956674575806 0.09845457226037979
0.5097213387489319 0.3421351909637451 -0.06029868498444557
0.512643039226532 0.8626641035079956 0.029886923730373383
0.39911603927612305 0.49682435393333435 -0.009330973029136658
0.41880232095718384 0.4931545853614807 -0.00426742946729064
0.4311029016971588 0.4910917282104492 0.001510133733972907
0.25723010301589966 0.46212238073349 0.03911318629980087
0.41500407457351685 0.4720725417137146 -0.009474732913076878
0.3937076926231384 0.4655311405658722 -0.015533686615526676
0.37274640798568726 0.46440762281417847 -0.016571372747421265
0.3509116768836975 0.46855103969573975 -0.012100872583687305
0.3367214798927307 0.47522443532943726 -0.004976356867700815
0.21065452694892883 0.44276362657546997 0.1567492038011551
0.3413124978542328 0.49310943484306335 0.00025856110733002424
0.5189061164855957 0.6542962789535522 -0.05890008807182312
0.43060368299484253 0.6576705574989319 -0.040648527443408966
0.4611184597015381 0.620267927646637 -0.07465215027332306
0.4832906424999237 0.6546511650085449 -0.0601663701236248
0.5132823586463928 0.4640354812145233 -0.056848593056201935
0.3493129014968872 0.7905201315879822 0.06771630793809891
0.38459646701812744 0.8124171495437622 0.04589736461639404
0.46558013558387756 0.8468418121337891 0.0006546482327394187
0.2763141989707947 0.7591028809547424 0.1688721477985382
0.4303740859031677 0.4820674657821655 -0.0026602745056152344
0.47875070571899414 0.534968912601471 -0.0716557577252388
0.5144843459129333 0.848317563533783 0.0002985552418977022
0.42736539244651794 0.8511768579483032 0.046953871846199036
0.22932764887809753 0.6486679911613464 0.1417214721441269
0.4583767056465149 0.7094539403915405 -0.02715771272778511
0.45518991351127625 0.7142165303230286 -0.03149702027440071
0.4524957537651062 0.7223327159881592 -0.035499896854162216
0.45043694972991943 0.7344216108322144 -0.03154285252094269
0.44286614656448364 0.7578235864639282 -0.01380278542637825
0.41170597076416016 0.6947028040885925 -0.00809099618345499
0.4048810601234436 0.6925902366638184 -0.008852393366396427
0.39817067980766296 0.6893718838691711 -0.010011173784732819
0.3782474994659424 0.6803211569786072 -0.00931887049227953
0.2823517322540283 0.6434961557388306 0.021505212411284447
0.47570857405662537 0.5121598839759827 -0.05099574849009514
0.4574698507785797 0.47150683403015137 -0.013015925884246826
0.44140830636024475 0.4760160446166992 -0.005847427528351545
0.4168590307235718 0.6925718188285828 -0.005867880303412676
0.28049901127815247 0.6991736888885498 0.06229983642697334
0.4810658097267151 0.46894174814224243 -0.04304330423474312
0.4317846894264221 0.783942699432373 -0.0021966672502458096
0.5227346420288086 0.5411121249198914 -0.11148978024721146
0.4975331723690033 0.5231937766075134 -0.08773095905780792
0.5196599960327148 0.5179150104522705 -0.09131655097007751
0.46217992901802063 0.5695028305053711 -0.07073219120502472
0.514909565448761 0.8260914087295532 -0.01441540103405714
0.5140299201011658 0.796643078327179 -0.01632850430905819
0.47244587540626526 0.7964317202568054 -0.014681142754852772
0.3728605806827545 0.7367523908615112 0.019299635663628578
0.4068766236305237 0.6231779456138611 -0.025644153356552124
0.40043774247169495 0.7638299465179443 0.01039408054202795
0.34232082962989807 0.6220496892929077 -0.021856876090168953
0.3787442743778229 0.6445797085762024 -0.01999259740114212
0.318339467048645 0.657325029373169 -0.0009797555394470692
0.46707823872566223 0.8252355456352234 -0.01301328744739294
0.4455466866493225 0.5807442665100098 -0.05382488667964935
0.35508298873901367 0.760556697845459 0.0398525632917881
0.3895171880722046 0.7867531776428223 0.026970161125063896
0.3490315079689026 0.7076958417892456 0.015941431745886803
0.25562965869903564 0.6736577749252319 0.0795869305729866
0.3176804184913635 0.7190424203872681 0.0364670529961586
0.24409575760364532 0.6947329044342041 0.1357680857181549
0.3540828227996826 0.6686422824859619 -0.008086374960839748
0.46133771538734436 0.5494309663772583 -0.05502140522003174
0.4699242413043976 0.61509108543396 -0.10492813587188721
0.45102769136428833 0.6177934408187866 -0.07854879647493362
0.4832758903503418 0.6002770662307739 -0.1215904951095581
0.4386155605316162 0.45448553562164307 -0.02351469360291958
0.39963892102241516 0.4434956908226013 -0.03210197389125824
0.3644537627696991 0.4413791000843048 -0.03367897868156433
0.3341279625892639 0.44502463936805725 -0.026017747819423676
0.31139034032821655 0.4546241760253906 -0.012340468354523182
0.29450392723083496 0.4911477565765381 0.026557516306638718
0.21738487482070923 0.5490052700042725 0.13234618306159973
0.31480643153190613 0.519184410572052 0.010882680304348469
0.3419427275657654 0.5250654816627502 -0.000990837230347097
0.375449538230896 0.5259681344032288 -0.00811192486435175
0.4069121479988098 0.5217156410217285 -0.010316763073205948
0.4312869608402252 0.5143225193023682 -0.009036073461174965
0.4478750228881836 0.5065319538116455 -0.009757726453244686
0.2083008587360382 0.5506395101547241 0.22183085978031158
0.4499790668487549 0.6217470765113831 -0.065935418009758
0.4818107783794403 0.5551369190216064 -0.08967285603284836
0.48992401361465454 0.6172100305557251 -0.12140408158302307
0.5011325478553772 0.6276014447212219 -0.10928672552108765
0.48802870512008667 0.6205275654792786 -0.10954344272613525
0.45525985956192017 0.6272328495979309 -0.05590066686272621
0.5063217878341675 0.6298565864562988 -0.1151970624923706
0.5066285133361816 0.6337135434150696 -0.08556196838617325
0.44629237055778503 0.49003303050994873 0.000328824418829754
0.46087002754211426 0.49383363127708435 -0.012619352899491787
0.4701738953590393 0.49678921699523926 -0.028641607612371445
0.32814157009124756 0.48028677701950073 0.0027986555360257626
0.31440597772598267 0.4737257957458496 0.0027097908314317465
0.5415297746658325 0.5444880723953247 -0.10035393387079239
0.6741427779197693 0.48408791422843933 0.04462137818336487
0.5440648794174194 0.6295401453971863 -0.08269524574279785
0.7428847551345825 0.3942810297012329 0.16322147846221924
0.607211172580719 0.5061590075492859 0.013112029060721397
0.6310776472091675 0.5070066452026367 0.017641859129071236
0.6531981825828552 0.5046937465667725 0.02661907486617565
0.6815404891967773 0.49184083938598633 0.05025673657655716
0.5872493982315063 0.5010347366333008 0.012808610685169697
0.6380101442337036 0.4491420388221741 0.005391022656112909
0.6126121878623962 0.4511660933494568 0.0018406048184260726
0.6612576246261597 0.45210757851600647 0.016381405293941498
0.67643141746521 0.4594644010066986 0.028065811842679977
0.6990922093391418 0.5050250291824341 0.06550277024507523
0.5956646203994751 0.8051435351371765 0.02547115460038185
0.6813777685165405 0.47848570346832275 0.053521569818258286
0.752130389213562 0.4945012927055359 0.1816961169242859
0.7209072113037109 0.4908831715583801 0.09167379140853882
0.6329436898231506 0.5935307741165161 -0.0038381016347557306
0.5485017895698547 0.678045392036438 -0.05425098165869713
0.5437091588973999 0.6971267461776733 -0.04197969660162926
0.579138457775116 0.6808614134788513 -0.034976616501808167
0.5978643298149109 0.6851974129676819 -0.011025802232325077
0.5660704374313354 0.6958093047142029 -0.027760786935687065
0.582965612411499 0.6953877210617065 -0.006179437041282654
0.6178451180458069 0.7186030745506287 0.034751810133457184
0.5471678972244263 0.6198203563690186 -0.12761998176574707
0.5495046377182007 0.5966715216636658 -0.13593409955501556
0.7107840776443481 0.435396671295166 0.03723875433206558
0.5821424722671509 0.5409855842590332 -0.015285386703908443
0.593189001083374 0.6080997586250305 -0.061823077499866486
0.5929877161979675 0.5956861972808838 -0.05479037016630173
0.702211856842041 0.588065505027771 0.03691033646464348
0.5459973216056824 0.5681586265563965 -0.12246394902467728
0.6584599614143372 0.4133351445198059 -0.013629158958792686
0.6901559829711914 0.41984277963638306 0.010090864263474941
0.7250778675079346 0.35244670510292053 0.10887482017278671
0.559685468673706 0.4340623617172241 -0.04576846584677696
0.5907743573188782 0.45875728130340576 0.006785047240555286
0.6373612880706787 0.6949586868286133 0.04047618806362152
0.7188193798065186 0.7050373554229736 0.2593747675418854
0.5763883590698242 0.6211714744567871 -0.053855422884225845
0.5571208000183105 0.6290816068649292 -0.05800892040133476
0.6171107292175293 0.6927064061164856 0.03817378729581833
0.6059879064559937 0.6934434771537781 0.03054313361644745
0.7017053961753845 0.4034637212753296 0.022150661796331406
0.5930797457695007 0.615956723690033 -0.047741953283548355
0.6158617734909058 0.4167267680168152 -0.03322601318359375
0.6202330589294434 0.3963145613670349 -0.039679255336523056
0.6403041481971741 0.2953605055809021 -0.0009332394693046808
0.7130980491638184 0.37663209438323975 0.059056930243968964
0.6282452344894409 0.3430294692516327 -0.02236383967101574
0.7228814363479614 0.4243725836277008 0.05882274731993675
0.7333269715309143 0.40998831391334534 0.10736063867807388
0.5467821359634399 0.6897144913673401 -0.05042467638850212
0.5720380544662476 0.6901080012321472 -0.03205420821905136
0.5905230045318604 0.6904221773147583 -0.010437088087201118
0.5703362226486206 0.6248577833175659 -0.04947280138731003
0.6118505597114563 0.6928328275680542 0.034221943467855453
0.6006577610969543 0.702248215675354 0.017692361027002335
0.6021190881729126 0.694034218788147 0.029447315260767937
0.5675352811813354 0.6174887418746948 -0.08888865262269974
0.5777072310447693 0.6935384273529053 -0.002981355879455805
0.5606342554092407 0.6958334445953369 -0.018703307956457138
0.5396702289581299 0.6983065605163574 -0.03193486109375954
0.5456724762916565 0.7679392099380493 -0.011974208988249302
0.5444789528846741 0.7425323724746704 -0.034104522317647934
0.5437132120132446 0.7291642427444458 -0.036878399550914764
0.5420449376106262 0.7189056873321533 -0.03128015995025635
0.5395445227622986 0.7121485471725464 -0.027581868693232536
0.5789589881896973 0.7042590379714966 0.001245992723852396
0.582707405090332 0.7062808275222778 -0.002563675632700324
0.5874788165092468 0.7114107608795166 -0.005018268246203661
0.5911705493927002 0.7188800573348999 0.0007235601078718901
0.6167412996292114 0.6657294034957886 -0.0036361331585794687
0.7418262958526611 0.5953723192214966 0.2895507216453552
0.5896003246307373 0.7008621692657471 0.01872466504573822
0.5951606631278992 0.7004306316375732 0.01664963737130165
0.5496662855148315 0.6386880874633789 -0.05772436410188675
0.584642231464386 0.628175675868988 -0.030173415318131447
0.5532160401344299 0.6342220306396484 -0.05881417542695999
0.6073236465454102 0.5523533225059509 -0.0030214048456400633
0.6470761299133301 0.5648030042648315 0.009094654582440853
0.5961407423019409 0.6041948795318604 -0.03981063514947891
0.692991316318512 0.3186497986316681 0.05147252976894379
0.6798434257507324 0.3532675802707672 0.01673811487853527
0.6661863923072815 0.39332902431488037 -0.010065848007798195
0.5995451211929321 0.7381214499473572 0.019610732793807983
0.5678067207336426 0.4022497236728668 -0.05728624388575554
0.5737805366516113 0.3408789038658142 -0.047397393733263016
0.5804007053375244 0.2842507064342499 -0.0352138988673687
0.6717367172241211 0.5000572800636292 0.03936595842242241
0.7224037647247314 0.5200122594833374 0.08274757117033005
0.5747148394584656 0.4953480362892151 0.014523983001708984
0.6997390985488892 0.46518760919570923 0.05257755145430565
0.5658397078514099 0.5272366404533386 -0.026915837079286575
0.581412136554718 0.6027164459228516 -0.08802119642496109
0.7431607842445374 0.5354999303817749 0.11446874588727951
0.7099977731704712 0.5345512628555298 0.06028188019990921
0.6828938722610474 0.542482852935791 0.035064004361629486
0.6392933130264282 0.5414903163909912 0.018535811454057693
0.6057549715042114 0.5343912243843079 0.008589417673647404
0.5810170769691467 0.5250176787376404 -0.002132376888766885
0.5375587940216064 0.4979236423969269 -0.059758465737104416
0.7446914911270142 0.5810443758964539 0.11081891506910324
0.7167391777038574 0.4614280164241791 0.0655621886253357
0.5377760529518127 0.6312273740768433 -0.11544635891914368
0.582429051399231 0.5627070665359497 -0.024979403242468834
0.7503997683525085 0.49306589365005493 0.26421335339546204
0.5633703470230103 0.5132287740707397 -0.008727649226784706
0.596856951713562 0.6045935153961182 -0.014425634406507015
0.6878975033760071 0.4801771938800812 0.05975614860653877
0.5801754593849182 0.5873277187347412 -0.079306960105896
0.7338162064552307 0.6497604846954346 0.2810417115688324
0.5739593505859375 0.4866921007633209 0.02054593525826931
0.5635374784469604 0.5755853652954102 -0.10552088171243668
0.6832942366600037 0.7528119087219238 0.12744781374931335
0.6736086010932922 0.7796400189399719 0.17214040458202362
0.7532806396484375 0.590164303779602 0.2010127156972885
0.7120713591575623 0.7248291373252869 0.15861628949642181
0.7433702945709229 0.449019193649292 0.15139985084533691
0.596781313419342 0.8274633288383484 0.040990062057971954
0.5329604148864746 0.635273277759552 -0.08281354606151581
0.6034547090530396 0.5771274566650391 -0.012988305650651455
0.7373771667480469 0.49491721391677856 0.11880718171596527
0.652114748954773 0.4920562505722046 0.02757139876484871
0.6317777633666992 0.49467331171035767 0.019723081961274147
0.6056082844734192 0.705880343914032 0.02288600616157055
0.7415462732315063 0.6266667246818542 0.12098092585802078
0.5561649203300476 0.8572342395782471 0.04294060915708542
0.615408182144165 0.8276641368865967 0.10102750360965729
0.6413882374763489 0.8078510761260986 0.13295398652553558
0.6113476753234863 0.4939854145050049 0.016170674934983253
0.5920795798301697 0.4910077154636383 0.01754242368042469
0.5798389315605164 0.4890115559101105 0.021022098138928413
0.730847954750061 0.45590677857398987 0.09167759120464325
0.5942599773406982 0.4692225456237793 0.012881259433925152
0.6142916083335876 0.4618922173976898 0.010650107637047768
0.6349019408226013 0.4597567319869995 0.014004693366587162
0.655768096446991 0.46309471130371094 0.022529136389493942
0.6684753894805908 0.4694027900695801 0.03226812183856964
0.750581681728363 0.43850094079971313 0.2194991409778595
0.665475606918335 0.4881698191165924 0.03709722310304642
0.5956776142120361 0.6560718417167664 -0.023280316963791847
0.5778570175170898 0.6187777519226074 -0.06366675347089767
0.5516172647476196 0.6539146304130554 -0.05280914902687073
0.651716947555542 0.7814319133758545 0.10149022936820984
0.624252200126648 0.8043467402458191 0.07292285561561584
0.5603324174880981 0.8435869216918945 0.01201628241688013
0.6982080340385437 0.7483458518981934 0.21884803473949432
0.5802174210548401 0.47964444756507874 0.017111774533987045
0.5546013116836548 0.5339418649673462 -0.06280697137117386
0.5887742042541504 0.8448013067245483 0.06740924715995789
0.7460715770721436 0.6398560404777527 0.1994173228740692
0.5615488290786743 0.7084827423095703 -0.014274047687649727
0.5652053952217102 0.7130900621414185 -0.01817598007619381
0.5684065818786621 0.7212336659431458 -0.02121898904442787
0.5704640746116638 0.7331486940383911 -0.01664852537214756
0.5761661529541016 0.7556740045547485 0.0025090717244893312
0.5976906418800354 0.6938671469688416 0.01370583288371563
0.6050117611885071 0.6914594769477844 0.014822381548583508
0.6116846799850464 0.6881533861160278 0.014836319722235203
0.633094310760498 0.6779298782348633 0.0193705465644598
0.7187782526016235 0.637157678604126 0.06798869371414185
0.5510802865028381 0.5113025903701782 -0.0415118969976902
0.5580346584320068 0.4700085520744324 -0.001463577151298523
0.570825457572937 0.4741436243057251 0.010976235382258892
0.5913943648338318 0.6919095516204834 0.015468153171241283
0.7131929993629456 0.6910159587860107 0.10915984213352203
0.5411767363548279 0.46815982460975647 -0.03605012968182564
0.5865095853805542 0.78007972240448 0.015221802517771721
0.5398447513580322 0.5226075649261475 -0.08288213610649109
0.571442186832428 0.5682389140129089 -0.05913383886218071
0.5525809526443481 0.7942720055580139 -0.006381962914019823
0.6341354250907898 0.7320889830589294 0.04932883009314537
0.6153289675712585 0.621205747127533 -0.004088064655661583
0.6113736629486084 0.7592519521713257 0.034338150173425674
0.6719040870666504 0.6179284453392029 0.012228410691022873
0.6382614374160767 0.6416418552398682 0.007292709778994322
0.6893851161003113 0.6518175601959229 0.038115013390779495
0.5595365762710571 0.822485089302063 -0.0020898450165987015
0.5835811495780945 0.579422652721405 -0.039275795221328735
0.6494688987731934 0.753291130065918 0.07302757352590561
0.6212924718856812 0.7803619503974915 0.052471309900283813
0.6560934782028198 0.7030373811721802 0.05183803662657738
0.7330857515335083 0.6652804017066956 0.1312803328037262
0.6825079321861267 0.7116761207580566 0.07685937732458115
0.7336606383323669 0.6851704120635986 0.19106325507164001
0.655914306640625 0.6651462316513062 0.02484860084950924
0.5676618218421936 0.5482867360115051 -0.04233723506331444
0.5749841928482056 0.6135379672050476 -0.09353186935186386
0.587089478969574 0.616209864616394 -0.06536482274532318
0.5668457746505737 0.5991968512535095 -0.11276334524154663
0.5761682391166687 0.4521768093109131 -0.0077582900412380695
0.6134009957313538 0.4398089647293091 -0.008260754868388176
0.6463416218757629 0.43685299158096313 -0.0021871537901461124
0.6733681559562683 0.43965086340904236 0.011722063645720482
0.6917936205863953 0.44853100180625916 0.029826192185282707
0.7020773887634277 0.4852660596370697 0.07146285474300385
0.755400538444519 0.5420681238174438 0.19365550577640533
0.688017725944519 0.5144087672233582 0.05213915556669235
0.6652125120162964 0.5211054086685181 0.03513885661959648
0.6348960399627686 0.5228509902954102 0.021647442132234573
0.6053905487060547 0.519243061542511 0.013240317814052105
0.5824083685874939 0.5124721527099609 0.008652516640722752
0.5671373009681702 0.5049819350242615 0.004666831344366074
0.7456695437431335 0.5441418886184692 0.28555336594581604
0.5851979851722717 0.6204379796981812 -0.053055040538311005
0.5576614141464233 0.5542778372764587 -0.08071362972259521
0.561292290687561 0.6158705949783325 -0.11426094174385071
0.5470976233482361 0.6268224716186523 -0.10521350800991058
0.5597922801971436 0.6192449927330017 -0.10218445956707001
0.5784591436386108 0.6263697743415833 -0.04507559910416603
0.5442458391189575 0.6293268799781799 -0.1117623969912529
0.5396544337272644 0.6333006620407104 -0.08277241140604019
0.5665162205696106 0.48832517862319946 0.01509346254169941
0.555173397064209 0.49262890219688416 -0.0012620692141354084
0.5500850081443787 0.49588221311569214 -0.019155308604240417
0.6758649349212646 0.4743381142616272 0.04177815094590187
0.687343418598175 0.46774154901504517 0.0437057763338089
