ply
format ascii 1.0
element vertex 468
property float x
property float y
property float z
end_header
0.5137790441513062 0.6858996152877808 -0.09881950914859772
0.5143162608146667 0.6041913628578186 -0.15314584970474243
0.5121889710426331 0.6328251361846924 -0.09067196398973465
0.48895224928855896 0.5240750312805176 -0.10457076877355576
0.5149490833282471 0.5776064395904541 -0.15860122442245483
0.5137677192687988 0.5454757809638977 -0.14240197837352753
0.5102843642234802 0.47074031829833984 -0.053573645651340485
0.3149351477622986 0.4729505777359009 0.043474942445755005
0.5096383690834045 0.4126299321651459 -0.02350013703107834
0.5099766254425049 0.3808613419532776 -0.020456349477171898
0.5085769891738892 0.28596553206443787 0.03302522376179695
0.5136430263519287 0.6978461742401123 -0.0973309725522995
0.5129165649414062 0.7081623077392578 -0.09036372601985931
0.5117878317832947 0.7132776379585266 -0.0799844041466713
0.5124580264091492 0.7824903726577759 -0.06114155799150467
0.5127444267272949 0.795218825340271 -0.06717818975448608
0.5124799609184265 0.8102564811706543 -0.07305464148521423
0.5115067958831787 0.8259013295173645 -0.06697256118059158
0.5087714791297913 0.8476617336273193 -0.04229399189352989
0.513221263885498 0.6190412640571594 -0.14134761691093445
0.48595553636550903 0.6194972395896912 -0.10659321397542953
0.20332133769989014 0.40131816267967224 0.18485794961452484
0.3920794725418091 0.48888838291168213 0.01785912737250328
0.3652280569076538 0.491537868976593 0.01804366335272789
0.3384232521057129 0.4920731782913208 0.024001874029636383
0.30128926038742065 0.4824879467487335 0.044870201498270035
0.41422611474990845 0.48206979036331177 0.022545060142874718
0.35738295316696167 0.42751264572143555 0.014281313866376877
0.3856067359447479 0.42803990840911865 0.017676694318652153
0.33024317026138306 0.4326992928981781 0.020468946546316147
0.31145143508911133 0.4430338144302368 0.029871322214603424
0.27621451020240784 0.5009849071502686 0.05365545675158501
0.39090704917907715 0.8709425926208496 -0.023393113166093826
0.3042953908443451 0.4692037105560303 0.0524807833135128
0.18438515067100525 0.5024847388267517 0.17150071263313293
0.24387839436531067 0.48822319507598877 0.08241010457277298
0.3661724328994751 0.592504620552063 -0.02859938144683838
0.4740739166736603 0.6829544305801392 -0.09561064094305038
0.4792780876159668 0.7093396186828613 -0.08747760951519012
0.4337678551673889 0.6943299770355225 -0.08131691068410873
0.41004082560539246 0.7086775302886963 -0.05874145030975342
0.45101484656333923 0.7139913439750671 -0.0758851170539856
0.43048161268234253 0.7208439707756042 -0.0547964945435524
0.3709970712661743 0.7702644467353821 -0.015424935147166252
0.490788996219635 0.6040242314338684 -0.15152621269226074
0.4879818856716156 0.5785560607910156 -0.15617291629314423
0.27099424600601196 0.42322471737861633 0.04033371061086655
0.42413783073425293 0.5294257402420044 -0.01887371577322483
0.4225442707538605 0.6013253331184387 -0.0878121629357338
0.4197080433368683 0.5886107683181763 -0.0776907280087471
0.28076550364494324 0.5925688743591309 -0.00047168813762255013
0.4884531497955322 0.5488859415054321 -0.13549628853797913
0.33819684386253357 0.3894578814506531 0.0030396664515137672
0.3001716732978821 0.4024597108364105 0.020244013518095016
0.23747199773788452 0.3564872145652771 0.14274685084819794
0.4542345404624939 0.4046291410923004 -0.017120299860835075
0.41009631752967834 0.4353981614112854 0.02594844251871109
0.3524163067340851 0.7363853454589844 -0.01103906612843275
0.19321498274803162 0.750323474407196 0.1955963373184204
0.4428628385066986 0.6155991554260254 -0.07836808264255524
0.4655472934246063 0.623430073261261 -0.08218484371900558
0.38199710845947266 0.7406421899795532 -0.012318362481892109
0.397492378950119 0.7401702404022217 -0.018532825633883476
0.28421488404273987 0.38961124420166016 0.03600984066724777
0.4202684760093689 0.6133721470832825 -0.07493115216493607
0.38866734504699707 0.3877714276313782 -0.009409482590854168
0.38363200426101685 0.37026745080947876 -0.010968314483761787
0.3542415499687195 0.2973633408546448 0.057131942361593246
0.2610854208469391 0.3729848563671112 0.08316623419523239
0.37185513973236084 0.33284470438957214 0.023131607100367546
0.25245755910873413 0.4160098433494568 0.06528644263744354
0.2279089391231537 0.41032832860946655 0.12307579070329666
0.4763461649417877 0.6979936361312866 -0.09443242847919464
0.44310930371284485 0.7060249447822571 -0.07960668206214905
0.42007967829704285 0.7149323225021362 -0.05889022350311279
0.44958430528640747 0.6204994320869446 -0.07312081009149551
0.389678955078125 0.7408396005630493 -0.01554443221539259
0.4012553095817566 0.7596323490142822 -0.028080128133296967
0.40165916085243225 0.7388885021209717 -0.018642699345946312
0.45929864048957825 0.6063421964645386 -0.11354830116033554
0.4361128509044647 0.719846785068512 -0.05142994225025177
0.4563041925430298 0.7154967188835144 -0.06650245934724808
0.48192495107650757 0.7135052680969238 -0.07749691605567932
0.46336573362350464 0.8435709476470947 -0.042685847729444504
0.46827974915504456 0.8210721611976624 -0.06587429344654083
0.4720250368118286 0.8057485818862915 -0.0696902945637703
0.4758264720439911 0.7907330989837646 -0.06343184411525726
0.4792831242084503 0.7802391052246094 -0.05824809893965721
0.4315146505832672 0.7658190727233887 -0.03653549775481224
0.4254170358181 0.769607663154602 -0.04075658321380615
0.4165850579738617 0.7762700915336609 -0.04489146173000336
0.4085162281990051 0.7838709354400635 -0.041044652462005615
0.38669297099113464 0.6835126876831055 -0.048039063811302185
0.1691921353340149 0.6201491951942444 0.25645896792411804
0.5124571323394775 0.6256070137023926 -0.10808958858251572
0.4177456796169281 0.7572062611579895 -0.024638483300805092
0.40957844257354736 0.7577597498893738 -0.02754000946879387
0.4749178886413574 0.6344927549362183 -0.08476047962903976
0.42804640531539917 0.6298154592514038 -0.05651457980275154
0.47044071555137634 0.6292628645896912 -0.08412428200244904
0.3941137492656708 0.5439059138298035 -0.014571874402463436
0.3479692339897156 0.5607452988624573 -0.012559207156300545
0.41386160254478455 0.6009597182273865 -0.06412123888731003
0.2852464020252228 0.32058772444725037 0.09651798754930496
0.3065328299999237 0.34589725732803345 0.05093863233923912
0.32795512676239014 0.3734056353569031 0.012151689268648624
0.39170852303504944 0.7983269095420837 -0.026211459189653397
0.44672998785972595 0.3743222951889038 -0.021010112017393112
0.4367659389972687 0.33161553740501404 0.008564665913581848
0.4258784055709839 0.287678986787796 0.035462766885757446
0.3152276873588562 0.48912951350212097 0.03436347097158432
0.24341823160648346 0.5200144648551941 0.06397520005702972
0.42854100465774536 0.4748940169811249 0.02796023152768612
0.27992886304855347 0.4550285041332245 0.05060740187764168
0.44480979442596436 0.5129075050354004 -0.025480272248387337
0.4413192570209503 0.5906588435173035 -0.1115371510386467
0.20941393077373505 0.5405808687210083 0.08760075271129608
0.2635023295879364 0.5333436727523804 0.03748780116438866
0.2999006509780884 0.5395238995552063 0.013671544380486012
0.3541862964630127 0.534318208694458 0.004912530072033405
0.3939386308193207 0.5237318277359009 0.0031131580471992493
0.4235127866268158 0.5117559432983398 -0.00011378189083188772
0.48397520184516907 0.47747689485549927 -0.04513672739267349
0.21012310683727264 0.5912747979164124 0.0706859827041626
0.25560247898101807 0.45360976457595825 0.06320735067129135
0.4989642798900604 0.618278443813324 -0.14047175645828247
0.42588239908218384 0.5525832176208496 -0.03570910543203354
0.1701226830482483 0.5076485872268677 0.25910767912864685
0.4452069103717804 0.49766790866851807 -0.0006000776193104684
0.4092775583267212 0.60368812084198 -0.036538176238536835
0.2928099036216736 0.4697728157043457 0.056211791932582855
0.4390675723552704 0.575082540512085 -0.09904471039772034
0.173711895942688 0.6826888918876648 0.23286359012126923
0.42744240164756775 0.46683210134506226 0.03689754381775856
0.4636020362377167 0.559328019618988 -0.12203086167573929
0.2626112699508667 0.8061202764511108 0.06312620639801025
0.2565610408782959 0.8439521193504333 0.09908951073884964
0.174803227186203 0.6076034903526306 0.16355152428150177
0.22687388956546783 0.7705560326576233 0.0929126963019371
0.20511774718761444 0.4527226686477661 0.15586239099502563
0.3815050721168518 0.9025290012359619 -0.015150638297200203
0.5013883709907532 0.6246318221092224 -0.10688383132219315
0.3998688757419586 0.57180255651474 -0.02991139516234398
0.21711432933807373 0.4959036707878113 0.10754838585853577
0.3432922661304474 0.47629880905151367 0.028521409258246422
0.36652272939682007 0.4771299362182617 0.0231612678617239
0.39286231994628906 0.7621247172355652 -0.02530668117105961
0.2113777995109558 0.6442196369171143 0.07050692290067673
0.43455201387405396 0.9486982822418213 -0.014179633930325508
0.3388625979423523 0.9057261347770691 0.03650081530213356
0.2997038960456848 0.879360556602478 0.06413085758686066
0.5094769597053528 0.3340568244457245 0.0059090908616781235
0.5024587512016296 0.9549785852432251 -0.019072530791163445
0.38808363676071167 0.47540271282196045 0.023615770041942596
0.40848231315612793 0.47166508436203003 0.028607791289687157
0.42111849784851074 0.4688698351383209 0.03562019020318985
0.23299318552017212 0.4520326852798462 0.09053552895784378
0.4056091904640198 0.4589376449584961 0.028036419302225113
0.3830839991569519 0.457284152507782 0.022426219657063484
0.3617413640022278 0.4573877155780792 0.022440867498517036
0.33910995721817017 0.46035483479499817 0.02695954404771328
0.32318949699401855 0.46466267108917236 0.03418060019612312
0.18160372972488403 0.4481528699398041 0.22893044352531433
0.32714417576789856 0.47485488653182983 0.036239564418792725
0.5124340057373047 0.6503142714500427 -0.08599302172660828
0.4127998650074005 0.6663241386413574 -0.06235992908477783
0.443051815032959 0.6110608577728271 -0.08714831620454788
0.47080546617507935 0.6539979577064514 -0.08457180112600327
0.5092170834541321 0.4424627125263214 -0.027825960889458656
0.30062049627304077 0.8422631025314331 0.03970499336719513
0.3381797671318054 0.8723097443580627 0.013866716995835304
0.43712595105171204 0.9244214296340942 -0.03966009244322777
0.22316017746925354 0.8048909306526184 0.14602142572402954
0.42071881890296936 0.463268518447876 0.0332426056265831
0.46554288268089294 0.516852617263794 -0.06227497011423111
0.5046072006225586 0.9315568208694458 -0.0432346947491169
0.3820702135562897 0.930205225944519 0.006133809685707092
0.17914122343063354 0.6659066677093506 0.14966252446174622
0.4528326988220215 0.7739882469177246 -0.04833117127418518
0.44673022627830505 0.7813189625740051 -0.05317731946706772
0.44001495838165283 0.7926075458526611 -0.05753154307603836
0.43348589539527893 0.8061555027961731 -0.053908005356788635
0.4212879538536072 0.8245965242385864 -0.03747965395450592
0.41166841983795166 0.7286244630813599 -0.035307250916957855
0.4016893208026886 0.7261689901351929 -0.03489664942026138
0.39249077439308167 0.7222174406051636 -0.03481453284621239
0.3656124770641327 0.7066845893859863 -0.02876410447061062
0.2553659677505493 0.6525492072105408 0.019483553245663643
0.4650278687477112 0.493656724691391 -0.033389199525117874
0.45067763328552246 0.4479248523712158 0.022316759452223778
0.43349897861480713 0.4521837830543518 0.0309592317789793
0.4184523820877075 0.7253224849700928 -0.033374689519405365
0.24656890332698822 0.7232736945152283 0.051153555512428284
0.4743294417858124 0.44624340534210205 -0.01163788978010416
0.40543392300605774 0.8439598679542542 -0.027959544211626053
0.5125822424888611 0.5197558999061584 -0.1117548793554306
0.48615553975105286 0.5021353363990784 -0.07621189206838608
0.5115090608596802 0.49601417779922485 -0.08094140142202377
0.4453311264514923 0.555374264717102 -0.07047650218009949
0.5062577724456787 0.9006841778755188 -0.05089768022298813
0.5074735879898071 0.8695774674415588 -0.04537113383412361
0.45449599623680115 0.8645842671394348 -0.041717108339071274
0.3427083194255829 0.7800387144088745 -0.0025296646635979414
0.38635364174842834 0.6257955431938171 -0.031898774206638336
0.36926886439323425 0.815618634223938 -0.014383798465132713
0.3223433792591095 0.6247765421867371 -0.02323862537741661
0.36075741052627563 0.6528089046478271 -0.029606405645608902
0.2980521321296692 0.6690141558647156 -0.006919906474649906
0.44395872950553894 0.8940699100494385 -0.046312760561704636
0.42687052488327026 0.5705550312995911 -0.05469097942113876
0.31516724824905396 0.8056738972663879 0.01602364517748356
0.350965678691864 0.8399405479431152 -0.000652033428195864
0.32414859533309937 0.7412577867507935 -0.0014297532616183162
0.21664147078990936 0.6913978457450867 0.0745285376906395
0.28422075510025024 0.7513046264648438 0.0206504724919796
0.19461727142333984 0.7210522890090942 0.12979114055633545
0.3386930823326111 0.68756103515625 -0.019963443279266357
0.44625014066696167 0.5346274375915527 -0.04772823676466942
0.45049217343330383 0.6018965840339661 -0.11830500513315201
0.431530237197876 0.6093420386314392 -0.09175600856542587
0.46323639154434204 0.5836424231529236 -0.13525821268558502
0.43053311109542847 0.4254007935523987 0.01724245585501194
0.3880215585231781 0.41228392720222473 0.011928737163543701
0.3503478467464447 0.41153496503829956 0.010329242795705795
0.3181818723678589 0.41957715153694153 0.01828572526574135
0.2944689989089966 0.433574914932251 0.03251195326447487
0.27209317684173584 0.4791101813316345 0.0650065615773201
0.17617273330688477 0.5539321899414062 0.1683640480041504
0.29189082980155945 0.5086379051208496 0.03940527141094208
0.3206835389137268 0.51352858543396 0.024583524093031883
0.358155757188797 0.5117846727371216 0.015476108528673649
0.3932705819606781 0.5053706169128418 0.013527696952223778
0.4201866388320923 0.4964904189109802 0.01549131516367197
0.43853166699409485 0.487840473651886 0.015750989317893982
0.16935431957244873 0.5636849403381348 0.2673129737377167
0.43150341510772705 0.6165695190429688 -0.0792660266160965
0.46656960248947144 0.5372384190559387 -0.08845697343349457
0.47045615315437317 0.6018661260604858 -0.13849665224552155
0.48489806056022644 0.615378737449646 -0.12948265671730042
0.47027450799942017 0.6069157719612122 -0.12632527947425842
0.43784669041633606 0.6249428987503052 -0.0706748440861702
0.49005353450775146 0.6170006394386292 -0.13695646822452545
0.49202752113342285 0.6233693361282349 -0.10660960525274277
0.4381924569606781 0.46672722697257996 0.03269055858254433
0.45320117473602295 0.473425030708313 0.016135158017277718
0.46183666586875916 0.4775804281234741 -0.004069146234542131
0.31285130977630615 0.46760261058807373 0.04163302108645439
0.29620012640953064 0.45478856563568115 0.04331451281905174
0.5352584719657898 0.523961067199707 -0.10184592753648758
0.69127357006073 0.4717381000518799 0.06269804388284683
0.5374971628189087 0.6191517114639282 -0.10448309779167175
0.7862460017204285 0.4029959440231323 0.21546770632266998
0.6157573461532593 0.48842525482177734 0.030251655727624893
0.6419134736061096 0.49075332283973694 0.03269824758172035
0.6678265333175659 0.49129828810691833 0.0411330945789814
0.7032510638237 0.4815062880516052 0.065040722489357
0.5943372845649719 0.48200923204421997 0.03250512480735779
0.6520971655845642 0.4274076223373413 0.029337910935282707
0.6236376762390137 0.4284401834011078 0.029749393463134766
0.6790010929107666 0.4324604272842407 0.038155604153871536
0.6967655420303345 0.442876935005188 0.048933591693639755
0.7258524894714355 0.5001412034034729 0.07589824497699738
0.6153019070625305 0.8665739893913269 -0.014579085633158684
0.7012245655059814 0.46818414330482483 0.07234985381364822
0.8024919033050537 0.5019727349281311 0.20268532633781433
0.755100429058075 0.4875023365020752 0.1074247732758522
0.6450862288475037 0.5907835364341736 -0.01621697098016739
0.5519334077835083 0.6820194721221924 -0.09246533364057541
0.5451567769050598 0.7087219953536987 -0.08459138870239258
0.5890370607376099 0.6914496421813965 -0.07462462782859802
0.6103683114051819 0.7054420113563538 -0.04998665675520897
0.5711331367492676 0.7119300365447998 -0.07040726393461227
0.589441180229187 0.7182496786117554 -0.04734683036804199
0.6412137150764465 0.7663518786430359 -0.004704177845269442
0.5370873212814331 0.6039500832557678 -0.14974121749401093
0.5407566428184509 0.5782933831214905 -0.15435092151165009
0.7357076406478882 0.4229974150657654 0.06349385529756546
0.5879679322242737 0.5292447805404663 -0.01052050106227398
0.596595048904419 0.5998401641845703 -0.08006705343723297
0.5981114506721497 0.5871797800064087 -0.06964531540870667
0.7229231595993042 0.590423583984375 0.02031790465116501
0.5382955074310303 0.5484434962272644 -0.13309787213802338
0.6750501394271851 0.3904745280742645 0.01836681179702282
0.7105919122695923 0.40239256620407104 0.03941909223794937
0.7594308257102966 0.3586217761039734 0.1694980263710022
0.5632550716400146 0.4053799510002136 -0.012063966132700443
0.5993041396141052 0.43591296672821045 0.03567727282643318
0.6594282388687134 0.7320751547813416 0.0021000017877668142
0.7777472138404846 0.7444236874580383 0.22434593737125397
0.5760447382926941 0.6142526268959045 -0.0729382261633873
0.555083692073822 0.6223902106285095 -0.07924078404903412
0.6337399482727051 0.7367061376571655 -0.001051370520144701
0.6181561350822449 0.736500084400177 -0.008387324400246143
0.7249021530151367 0.3899058699607849 0.05670776218175888
0.5971539616584778 0.6114200353622437 -0.06719445437192917
0.6273411512374878 0.3887488543987274 0.0009150720434263349
0.6329278349876404 0.3714127540588379 -0.0002865422866307199
0.656553328037262 0.29913243651390076 0.07196294516324997
0.7423800826072693 0.37405773997306824 0.10684461891651154
0.6428828239440918 0.3344954550266266 0.03576849028468132
0.7511715888977051 0.41594183444976807 0.09050741791725159
0.7689167261123657 0.4112395644187927 0.15049058198928833
0.5495214462280273 0.6968408226966858 -0.09139768034219742
0.5797600746154785 0.7037205696105957 -0.07357969880104065
0.600403904914856 0.7118690013885498 -0.0509016327559948
0.569521427154541 0.6190497279167175 -0.06848179548978806
0.6262694001197815 0.7371922731399536 -0.0049126301892101765
0.6162688732147217 0.7564107179641724 -0.01920781284570694
0.6133479475975037 0.7356401085853577 -0.009240147657692432
0.5629875659942627 0.6057730317115784 -0.1084628701210022
0.5823954343795776 0.7172107100486755 -0.044368159025907516
0.5639605522155762 0.7137151956558228 -0.06139880791306496
0.5406306385993958 0.7128549814224243 -0.07463576644659042
0.5525516867637634 0.8424211740493774 -0.0400901697576046
0.5537421107292175 0.8201934695243835 -0.06300698965787888
0.5518691539764404 0.8048985600471497 -0.06672100722789764
0.5484693050384521 0.7898603081703186 -0.06022325158119202
0.5445034503936768 0.779535174369812 -0.055105019360780716
0.587517261505127 0.7633779048919678 -0.02945403940975666
0.5938892364501953 0.7671487927436829 -0.03380008786916733
0.6027173399925232 0.7737696170806885 -0.0375329852104187
0.6097400188446045 0.7813286185264587 -0.03304281085729599
0.6300850510597229 0.6803005933761597 -0.03770379349589348
0.8026213645935059 0.6179049015045166 0.2888675034046173
0.5991218090057373 0.7542053461074829 -0.01576986350119114
0.6078803539276123 0.7547349333763123 -0.018808633089065552
0.5470553636550903 0.633223295211792 -0.08187619596719742
0.5886188745498657 0.6273386478424072 -0.05049557238817215
0.5508001446723938 0.6281909346580505 -0.0813220664858818
0.6161227226257324 0.5432838201522827 -0.0037236830685287714
0.6608834266662598 0.559694230556488 0.002240566536784172
0.6023088097572327 0.5991923213005066 -0.05598760023713112
0.7190979719161987 0.32275497913360596 0.11791308969259262
0.7032394409179688 0.3474579453468323 0.06936342269182205
0.6853190660476685 0.37448954582214355 0.028400760143995285
0.6210582256317139 0.7949773073196411 -0.01738409884274006
0.5721684098243713 0.37539416551589966 -0.01569000631570816
0.5806363224983215 0.3324800431728363 0.015122092328965664
0.588962972164154 0.28856825828552246 0.04256619140505791
0.6902408599853516 0.48808515071868896 0.053287722170352936
0.7559108734130859 0.5188906788825989 0.08891185373067856
0.5808192491531372 0.47491520643234253 0.036718569695949554
0.7251465916633606 0.4544575810432434 0.0726827010512352
0.5690407752990723 0.5127697587013245 -0.01912022940814495
0.5806205868721008 0.5899889469146729 -0.10550372302532196
0.7848443984985352 0.53913813829422 0.11612629145383835
0.738503634929657 0.5321958065032959 0.06090942397713661
0.7047195434570312 0.5384789109230042 0.0335838720202446
0.6534176468849182 0.5335435271263123 0.01982162706553936
0.6150732040405273 0.5233238339424133 0.01448508258908987
0.586912214756012 0.5116075277328491 0.008171618916094303
0.5352363586425781 0.47763991355895996 -0.04246861860156059
0.7834143042564392 0.5885336399078369 0.09892180562019348
0.7467832565307617 0.4533674716949463 0.08789946883916855
0.5272525548934937 0.6181808710098267 -0.13894407451152802
0.5880927443504333 0.5519939064979553 -0.02770092897117138
0.8071247339248657 0.5080217123031616 0.29265648126602173
0.5667598843574524 0.4975939989089966 0.005714850500226021
0.6046980023384094 0.6017559766769409 -0.02819168195128441
0.71198970079422 0.46879610419273376 0.07712481170892715
0.5813034772872925 0.5744723081588745 -0.09271405637264252
0.7965179681777954 0.6785236597061157 0.26381734013557434
0.5814136266708374 0.466547429561615 0.04599599167704582
0.5602442622184753 0.5589024424552917 -0.11743485927581787
0.7263578772544861 0.7988682389259338 0.0834396481513977
0.7247578501701355 0.8357905149459839 0.12089662998914719
0.8078852891921997 0.6047759056091309 0.19488024711608887
0.7570085525512695 0.7640423774719238 0.11737728863954544
0.7861678004264832 0.4535365700721741 0.18541191518306732
0.621091902256012 0.8976433277130127 -0.005456629674881697
0.5234541893005371 0.6244370341300964 -0.10596704483032227
0.6122692227363586 0.5704973340034485 -0.020206917077302933
0.7782033681869507 0.4951763153076172 0.1355609893798828
0.6639854311943054 0.4756423234939575 0.04540137201547623
0.6411123275756836 0.47646111249923706 0.03823038563132286
0.624040961265564 0.7589097619056702 -0.015634607523679733
0.7795307636260986 0.6403559446334839 0.09759962558746338
0.5684885382652283 0.9460756182670593 -0.008839628659188747
0.654232382774353 0.8987041115760803 0.04987000674009323
0.6879370212554932 0.8711535930633545 0.08123540878295898
0.6198353171348572 0.4752037525177002 0.03630402684211731
0.599929690361023 0.471449077129364 0.039530061185359955
0.5874656438827515 0.4687407314777374 0.04548987001180649
0.7655378580093384 0.45183417201042175 0.1174912303686142
0.6022214889526367 0.45872431993484497 0.03883076831698418
0.623932421207428 0.45701342821121216 0.03474007174372673
0.6454845666885376 0.45665621757507324 0.036897312849760056
0.6680249571800232 0.4594201445579529 0.04378323629498482
0.6836601495742798 0.46360939741134644 0.0521945059299469
0.8017221689224243 0.4498392939567566 0.26113492250442505
0.679763674736023 0.4737645983695984 0.054217204451560974
0.6054787635803223 0.6634206771850586 -0.054388634860515594
0.5767189860343933 0.6102057099342346 -0.08126130700111389
0.552509605884552 0.6528081297874451 -0.08134908974170685
0.6929254531860352 0.8348169922828674 0.056098438799381256
0.658652663230896 0.8654263615608215 0.026703601703047752
0.5703178644180298 0.9218068718910217 -0.03433145210146904
0.7520180940628052 0.7979256510734558 0.17171621322631836
0.5880376100540161 0.46291905641555786 0.04325537011027336
0.5535078644752502 0.5166970491409302 -0.057764168828725815
0.6166074872016907 0.9249885678291321 0.015767114236950874
0.80104660987854 0.6615355610847473 0.17982597649097443
0.5689517855644226 0.7724149823188782 -0.043227385729551315
0.5750765800476074 0.7797380089759827 -0.047679122537374496
0.581649661064148 0.791018545627594 -0.05145334079861641
0.5866897106170654 0.8043633103370667 -0.047684445977211
0.593061089515686 0.8223527073860168 -0.031081978231668472
0.6062692403793335 0.72552490234375 -0.02641463093459606
0.6165533661842346 0.7227351069450378 -0.025343170389533043
0.6253200769424438 0.718561053276062 -0.02476535364985466
0.6492135524749756 0.7028674483299255 -0.016364095732569695
0.7430647015571594 0.6490726470947266 0.041413914412260056
0.5515527725219727 0.493725061416626 -0.028986802324652672
0.5615206360816956 0.4484412670135498 0.028181450441479683
0.5766547918319702 0.45194011926651 0.03956787660717964
0.5984711647033691 0.7224335074424744 -0.024707602337002754
0.7462197542190552 0.7181409597396851 0.07387063652276993
0.5417612791061401 0.44649559259414673 -0.008328976109623909
0.6038360595703125 0.8404520750045776 -0.020539073273539543
0.5357457995414734 0.5020445585250854 -0.07417381554841995
0.5727285742759705 0.5550157427787781 -0.06458310782909393
0.5585923790931702 0.862868070602417 -0.037959303706884384
0.6636373400688171 0.7750757336616516 0.009980802424252033
0.6267123222351074 0.6234050393104553 -0.02176513709127903
0.6378786563873291 0.8108883500099182 -0.0040593985468149185
0.6861618757247925 0.6223851442337036 -0.00785949919372797
0.6517595052719116 0.6502582430839539 -0.017228350043296814
0.706464409828186 0.6656564474105835 0.010841929353773594
0.5667351484298706 0.891891598701477 -0.0412771962583065
0.5887225866317749 0.5697778463363647 -0.047436874359846115
0.6848289966583252 0.7993476390838623 0.0312489103525877
0.6511280536651611 0.8342419862747192 0.011110988445580006
0.6825447678565979 0.7365168333053589 0.01383654773235321
0.7721384763717651 0.6867640614509583 0.10001257807016373
0.7143282294273376 0.7459520101547241 0.038873832672834396
0.7853602170944214 0.7155421376228333 0.1580946445465088
0.6716172695159912 0.6841136813163757 -0.0058655692264437675
0.5698544383049011 0.5343242287635803 -0.04157751798629761
0.5719369649887085 0.6013327836990356 -0.11244894564151764
0.5882367491722107 0.6080422401428223 -0.08501030504703522
0.5622475743293762 0.5831066966056824 -0.13082724809646606
0.5819759964942932 0.42574673891067505 0.024775877594947815
0.6243896484375 0.4125627875328064 0.022901473566889763
0.6614097356796265 0.4122554361820221 0.025347532704472542
0.6924042701721191 0.4197307229042053 0.03649595379829407
0.7135056257247925 0.4333333671092987 0.05285051465034485
0.7304013967514038 0.47820448875427246 0.08781035989522934
0.8084926009178162 0.552482008934021 0.20036417245864868
0.7117658853530884 0.5077471137046814 0.06044034659862518
0.6843851804733276 0.5126624703407288 0.042517729103565216
0.6486536860466003 0.5111137628555298 0.030168281868100166
0.6148087382316589 0.5049352645874023 0.025135859847068787
0.5889244675636292 0.4962015450000763 0.02410462312400341
0.5715484023094177 0.48773130774497986 0.022971106693148613
0.8043445348739624 0.562752366065979 0.3006577491760254
0.5868759155273438 0.6149539947509766 -0.07272946834564209
0.5548945069313049 0.5369207859039307 -0.08413705974817276
0.5549031496047974 0.6014523506164551 -0.13494685292243958
0.5393931865692139 0.6149024367332458 -0.1275305151939392
0.5535168647766113 0.6065384149551392 -0.1224265769124031
0.5799658298492432 0.6230362057685852 -0.06516136229038239
0.5352240204811096 0.6169064044952393 -0.1350124180316925
0.5319868922233582 0.6229670643806458 -0.1052262932062149
0.5715161561965942 0.4666171967983246 0.040359485894441605
0.5581178665161133 0.4735482931137085 0.021782228723168373
0.5516287088394165 0.47765740752220154 0.0005504126893356442
0.6933765411376953 0.4665621817111969 0.06090923398733139
0.7099953889846802 0.45431992411613464 0.0637514740228653
