ply
format ascii 1.0
element vertex 468
property float x
property float y
property float z
end_header
0.5273732542991638 0.7137988805770874 -0.05758552625775337
0.5461922287940979 0.6353593468666077 -0.135949045419693
0.5318501591682434 0.6582971811294556 -0.0688026025891304
0.5154824256896973 0.5496308207511902 -0.11634717881679535
0.5473215579986572 0.6088800430297852 -0.14673291146755219
0.5429398417472839 0.5739320516586304 -0.13989774882793427
0.5266317129135132 0.490013062953949 -0.08267582952976227
0.32919320464134216 0.4818124771118164 -0.024965006858110428
0.5219343900680542 0.42994630336761475 -0.07226137816905975
0.5229008793830872 0.3956207036972046 -0.0810931995511055
0.517172634601593 0.2633622884750366 -0.06963914632797241
0.525804877281189 0.7255223989486694 -0.053137023001909256
0.5228961706161499 0.7325139045715332 -0.045235540717840195
0.5192510485649109 0.7333364486694336 -0.034169796854257584
0.520962119102478 0.7731310129165649 -0.01885918341577053
0.5220375657081604 0.7839160561561584 -0.02237466536462307
0.5221999883651733 0.7963980436325073 -0.026644350960850716
0.5207610726356506 0.8106433153152466 -0.020704684779047966
0.5156134963035583 0.8316640853881836 0.0038218775298446417
0.5422954559326172 0.6479633450508118 -0.12219060212373734
0.51221764087677 0.6454066038131714 -0.09222973138093948
0.2004746049642563 0.3818879723548889 0.05554865300655365
0.4052579998970032 0.5027843713760376 -0.032662224024534225
0.379681259393692 0.5047543048858643 -0.03639283403754234
0.3538399040699005 0.5038321018218994 -0.035353705286979675
0.3158912658691406 0.4909733533859253 -0.022412609308958054
0.426561564207077 0.4967089891433716 -0.02525809034705162
0.371504545211792 0.4424668252468109 -0.054701752960681915
0.3985542058944702 0.4436269998550415 -0.047202326357364655
0.3451232314109802 0.4464130997657776 -0.05123426020145416
0.3263007700443268 0.4549272656440735 -0.04364185407757759
0.2917739152908325 0.5075392723083496 -0.011891849339008331
0.41257065534591675 0.8659796714782715 0.02116081863641739
0.31784510612487793 0.4765865206718445 -0.0193436611443758
0.18832653760910034 0.49665567278862 0.07961834222078323
0.2574126124382019 0.49199777841567993 0.005057487171143293
0.38570305705070496 0.6080076098442078 -0.04606333002448082
0.48969823122024536 0.7106049060821533 -0.06247647479176521
0.48747995495796204 0.732450544834137 -0.04800885170698166
0.44697433710098267 0.7154813408851624 -0.05325159430503845
0.4159667491912842 0.7211101651191711 -0.03369564563035965
0.45635080337524414 0.7323369383811951 -0.041855692863464355
0.4299362599849701 0.7319739460945129 -0.02414494752883911
0.37686508893966675 0.7649208307266235 0.013240809552371502
0.5245071649551392 0.6349563002586365 -0.13759329915046692
0.5226231813430786 0.6092321872711182 -0.14805062115192413
0.28383803367614746 0.4289780259132385 -0.0493541844189167
0.44109898805618286 0.5447413921356201 -0.04711868613958359
0.44831761717796326 0.6233732104301453 -0.08996028453111649
0.44416940212249756 0.6089397668838501 -0.08382255584001541
0.29878246784210205 0.6044565439224243 -0.03228028118610382
0.5198022127151489 0.5768792629241943 -0.1375536322593689
0.35596928000450134 0.40128159523010254 -0.07850661128759384
0.315332293510437 0.410270631313324 -0.0678783729672432
0.2384958118200302 0.33493971824645996 0.008294454775750637
0.4701792597770691 0.4238453507423401 -0.07571674883365631
0.4216584265232086 0.45100343227386475 -0.03402947261929512
0.35523295402526855 0.7341256737709045 0.008340630680322647
0.19629745185375214 0.7443628907203674 0.18121017515659332
0.46592363715171814 0.6376197934150696 -0.07450342178344727
0.4885469675064087 0.646121084690094 -0.06986352801322937
0.3759475350379944 0.7336564064025879 0.01207968033850193
0.38781851530075073 0.7339861392974854 0.008954028598964214
0.2976838946342468 0.39210206270217896 -0.061243314296007156
0.4427655339241028 0.6325631141662598 -0.07448915392160416
0.40749049186706543 0.4044104516506195 -0.08204393833875656
0.4034574031829834 0.38195791840553284 -0.09071008861064911
0.3657376766204834 0.27405044436454773 -0.0681920051574707
0.26997727155685425 0.36273425817489624 -0.03125178813934326
0.38871151208877563 0.3255505859851837 -0.08023585379123688
0.262673556804657 0.4166332483291626 -0.03343893215060234
0.23257462680339813 0.4007303714752197 0.009205932728946209
0.4884573221206665 0.7244104743003845 -0.057755693793296814
0.4526712894439697 0.7260937690734863 -0.04795302823185921
0.42352649569511414 0.726915717124939 -0.03035215474665165
0.4711829721927643 0.6417508125305176 -0.06680051982402802
0.38180649280548096 0.7337388396263123 0.01051979698240757
0.399143248796463 0.7506547570228577 0.0023111128248274326
0.3912508189678192 0.7338777780532837 0.008761205710470676
0.4876120686531067 0.6327378153800964 -0.10934285074472427
0.4321916997432709 0.728967547416687 -0.01925705187022686
0.4581443965435028 0.7310699820518494 -0.031137598678469658
0.4868699312210083 0.7328346967697144 -0.03757384046912193
0.4753991663455963 0.8309781551361084 -0.000839423737488687
0.48139867186546326 0.8081910014152527 -0.02615545131266117
0.48454898595809937 0.7940228581428528 -0.030786672607064247
0.4863434135913849 0.7813470363616943 -0.026368804275989532
0.48782265186309814 0.7722338438034058 -0.022435922175645828
0.4303365647792816 0.7577807903289795 -0.007623405195772648
0.42657047510147095 0.760593831539154 -0.010784885846078396
0.42067021131515503 0.7665483951568604 -0.012924439273774624
0.41523775458335876 0.7743079662322998 -0.008268346078693867
0.39891669154167175 0.6958215832710266 -0.03249238803982735
0.16564267873764038 0.6127251982688904 0.19399727880954742
0.5375657081604004 0.6523535251617432 -0.08820117264986038
0.4120638072490692 0.749062716960907 0.0035007258411496878
0.4057455360889435 0.7489732503890991 0.0017129406332969666
0.4971519708633423 0.6577617526054382 -0.06802684813737869
0.4475197196006775 0.6468291878700256 -0.05051499232649803
0.4933204650878906 0.6522257924079895 -0.06977904587984085
0.41218987107276917 0.5582708716392517 -0.042866870760917664
0.3676007091999054 0.5745806694030762 -0.042958445847034454
0.4359191656112671 0.6190280318260193 -0.06876852363348007
0.29203712940216064 0.297873854637146 -0.03488214313983917
0.31999921798706055 0.3361804485321045 -0.05967980995774269
0.34582462906837463 0.3791801333427429 -0.07898543030023575
0.4027135968208313 0.791548490524292 0.007098894566297531
0.46397003531455994 0.3887723684310913 -0.08993443846702576
0.4529668688774109 0.3247719407081604 -0.08553078770637512
0.4381481111049652 0.26366859674453735 -0.0790427103638649
0.3301120400428772 0.49951159954071045 -0.029676854610443115
0.2597627341747284 0.5256611108779907 -0.0012354400241747499
0.4400183856487274 0.49059244990348816 -0.02082086354494095
0.2937133312225342 0.4622821807861328 -0.02805590257048607
0.4615262746810913 0.5292668342590332 -0.05432616546750069
0.47091594338417053 0.6162139177322388 -0.11225326359272003
0.2242848128080368 0.5442962050437927 0.021734289824962616
0.28243333101272583 0.5418022871017456 -0.018343346193432808
0.3205634355545044 0.5499509572982788 -0.03234853968024254
0.37285593152046204 0.5467542409896851 -0.03442656248807907
0.4103148281574249 0.5369780659675598 -0.032777294516563416
0.4378843307495117 0.52573162317276 -0.035372115671634674
0.5018064379692078 0.4968150854110718 -0.07806653529405594
0.2257879078388214 0.5973846316337585 0.021401599049568176
0.26841747760772705 0.45825526118278503 -0.022485768422484398
0.5290454626083374 0.6473315358161926 -0.1236000582575798
0.4452396631240845 0.569713830947876 -0.05486343801021576
0.16379496455192566 0.4936789572238922 0.15690261125564575
0.4588763415813446 0.5126261115074158 -0.03706257790327072
0.42850521206855774 0.6194025874137878 -0.0422489233314991
0.3071625828742981 0.47814643383026123 -0.016191115602850914
0.46625566482543945 0.5985493063926697 -0.10425908118486404
0.17374300956726074 0.676954984664917 0.19316993653774261
0.4379359781742096 0.4819640517234802 -0.016723046079277992
0.4935765266418457 0.5854604244232178 -0.1259998381137848
0.28040680289268494 0.8050946593284607 0.0796775072813034
0.27406877279281616 0.8370805978775024 0.12287355214357376
0.1836749017238617 0.608496904373169 0.1058923602104187
0.23914030194282532 0.7708708047866821 0.09463350474834442
0.2089356631040573 0.4445568919181824 0.049946341663599014
0.4070761501789093 0.8929324150085449 0.03573811426758766
0.5275548696517944 0.6515627503395081 -0.08840983361005783
0.4189968705177307 0.5872589349746704 -0.0475783608853817
0.22834467887878418 0.4971774220466614 0.024820657446980476
0.35812103748321533 0.48850271105766296 -0.03351425752043724
0.3807990550994873 0.49028903245925903 -0.03530208021402359
0.392479807138443 0.7537515759468079 0.005136336665600538
0.22469493746757507 0.6514277458190918 0.038337692618370056
0.4525335133075714 0.9259735345840454 0.05276660993695259
0.3654266893863678 0.8940653204917908 0.0815001130104065
0.32402509450912476 0.8708596229553223 0.0999106764793396
0.5210947394371033 0.32729974389076233 -0.07701471447944641
0.5042639970779419 0.9270502328872681 0.057484570890665054
0.4016187787055969 0.48890596628189087 -0.031653448939323425
0.4209180176258087 0.4852638244628906 -0.024874811992049217
0.4326174855232239 0.48347973823547363 -0.018133804202079773
0.24303774535655975 0.45220836997032166 -0.002458002185449004
0.41533347964286804 0.46647608280181885 -0.03138039633631706
0.39309436082839966 0.46072253584861755 -0.04038003459572792
0.3721742033958435 0.4598754346370697 -0.04392457753419876
0.3501792550086975 0.46373140811920166 -0.0418277233839035
0.33527982234954834 0.4695245027542114 -0.035648755729198456
0.17704862356185913 0.4314054250717163 0.11005227267742157
0.3416709005832672 0.48526322841644287 -0.029292842373251915
0.5290791988372803 0.6764276027679443 -0.05881211534142494
0.4302521049976349 0.6827155947685242 -0.047408491373062134
0.4680013656616211 0.6348170638084412 -0.08430969715118408
0.4899168610572815 0.6781712174415588 -0.06332384794950485
0.5217466950416565 0.4587717056274414 -0.06830292195081711
0.32423827052116394 0.839092493057251 0.0702502653002739
0.3640781044960022 0.8665517568588257 0.05517890676856041
0.45656949281692505 0.9095557928085327 0.022098762914538383
0.23250694572925568 0.7981794476509094 0.15249422192573547
0.43117865920066833 0.4757910370826721 -0.022852612659335136
0.4872003197669983 0.5375822186470032 -0.08399161696434021
0.5098575353622437 0.9104582071304321 0.02794301137328148
0.4077084958553314 0.9138088822364807 0.06161890923976898
0.18899241089820862 0.6676504611968994 0.11178408563137054
0.4574860632419586 0.7663865089416504 -0.017407292500138283
0.4538235068321228 0.7727333307266235 -0.02084045112133026
0.44979995489120483 0.7822908759117126 -0.023748384788632393
0.445901095867157 0.7951724529266357 -0.018562598153948784
0.4346133768558502 0.815184473991394 -0.0005823475657962263
0.4038175642490387 0.7312588095664978 -0.007596239913254976
0.3969145119190216 0.7289119362831116 -0.009003951214253902
0.39024320244789124 0.7251412868499756 -0.01095250528305769
0.3707309067249298 0.7122489213943481 -0.013464518822729588
0.26757311820983887 0.6633203029632568 -0.0016706336755305529
0.4822816848754883 0.5115228295326233 -0.0644698515534401
0.4612019658088684 0.46380913257598877 -0.029413381591439247
0.44343680143356323 0.4678651690483093 -0.02478555031120777
0.4088060259819031 0.7280271053314209 -0.0043238489888608456
0.25710567831993103 0.7289111614227295 0.0459887869656086
0.4874454140663147 0.46265649795532227 -0.057412728667259216
0.42243167757987976 0.8384695649147034 0.012272343039512634
0.5372989773750305 0.5455283522605896 -0.11954807490110397
0.5086575746536255 0.5248569250106812 -0.09900375455617905
0.5321003198623657 0.5191369652748108 -0.10029497742652893
0.4683498740196228 0.5765008926391602 -0.08309481292963028
0.5130523443222046 0.8855148553848267 0.012142461724579334
0.5142772197723389 0.8557539582252502 0.00839912984520197
0.46836939454078674 0.8554190993309021 0.006028774660080671
0.35713231563568115 0.7789351344108582 0.023352758958935738
0.40449008345603943 0.640078067779541 -0.037160106003284454
0.38668450713157654 0.8123911619186401 0.02008759416639805
0.3385830521583557 0.6392611265182495 -0.03895588964223862
0.37537485361099243 0.6659424304962158 -0.03068634681403637
0.30942875146865845 0.6806097030639648 -0.015701869502663612
0.4615043103694916 0.884782075881958 0.007783977780491114
0.4480884075164795 0.5891671180725098 -0.06655123084783554
0.3356626331806183 0.80483478307724 0.042401984333992004
0.37334388494491577 0.837047278881073 0.03678543120622635
0.33423933386802673 0.7431856989860535 0.012454510666429996
0.22814421355724335 0.6977394223213196 0.05636923015117645
0.29813873767852783 0.7547357678413391 0.029093829914927483
0.20503291487693787 0.7222543954849243 0.11190131306648254
0.3468378484249115 0.6956655979156494 -0.017223402857780457
0.4665296971797943 0.55353844165802 -0.06811831891536713
0.4802456796169281 0.628485381603241 -0.11575640738010406
0.4568970799446106 0.6323325037956238 -0.08945976942777634
0.49655643105506897 0.6121224164962769 -0.13270369172096252
0.4430776536464691 0.44393545389175415 -0.04319287836551666
0.4032806158065796 0.43086686730384827 -0.056588899344205856
0.3670611083507538 0.4280490577220917 -0.06243109330534935
0.3346420228481293 0.4321550726890564 -0.05877701938152313
0.30939215421676636 0.44318410754203796 -0.047360245138406754
0.2860143184661865 0.4849899113178253 -0.008771087974309921
0.18303337693214417 0.5520979166030884 0.09294383972883224
0.3091503381729126 0.5175030827522278 -0.020286576822400093
0.3389766216278076 0.5243280529975891 -0.02859674207866192
0.3751297891139984 0.5241612792015076 -0.0316692553460598
0.40797340869903564 0.5186896324157715 -0.029441263526678085
0.4329897463321686 0.5105065107345581 -0.026120029389858246
0.45025572180747986 0.5025016665458679 -0.025176405906677246
0.16301625967025757 0.5528064370155334 0.18260203301906586
0.45419853925704956 0.6374078392982483 -0.07628137618303299
0.49222394824028015 0.5607864260673523 -0.1016596332192421
0.5036191940307617 0.6311557292938232 -0.13024060428142548
0.5137685537338257 0.6430307626724243 -0.11549955606460571
0.5001031160354614 0.6348041296005249 -0.11803287267684937
0.45877593755722046 0.6441400647163391 -0.06440991908311844
0.5202518701553345 0.6455842852592468 -0.12100375443696976
0.5185568332672119 0.6496885418891907 -0.09022852778434753
0.44841182231903076 0.4831885099411011 -0.01721586287021637
0.46381404995918274 0.48874717950820923 -0.027474483475089073
0.4748210310935974 0.49321818351745605 -0.042819347232580185
0.32588568329811096 0.47363829612731934 -0.02892499789595604
0.3108478784561157 0.46433335542678833 -0.030790086835622787
0.5553790330886841 0.549047589302063 -0.105075903236866
0.6641722917556763 0.47838059067726135 0.057377010583877563
0.5579898953437805 0.6436023712158203 -0.08342882990837097
0.7187926769256592 0.38432061672210693 0.18308165669441223
0.6007946729660034 0.5013213753700256 0.020144082605838776
0.6235854625701904 0.5023490190505981 0.02725144475698471
0.6450162529945374 0.5004525780677795 0.038351260125637054
0.670971155166626 0.487117201089859 0.06499692052602768
0.5826115012168884 0.4959406852722168 0.015870608389377594
0.635068416595459 0.44416236877441406 0.01221425086259842
0.6105756759643555 0.4456281065940857 0.005370702128857374
0.6564477682113647 0.4472707509994507 0.026007816195487976
0.6692248582839966 0.45487362146377563 0.03978198766708374
0.6879549026489258 0.502870500087738 0.08190213888883591
0.5916975736618042 0.853023886680603 0.059849802404642105
0.6708626747131348 0.4736078381538391 0.0668693482875824
0.7281563878059387 0.4914799630641937 0.20830658078193665
0.7063033580780029 0.48776113986968994 0.11037245392799377
0.6342741250991821 0.602218508720398 0.00789220817387104
0.5596584677696228 0.7074347734451294 -0.04744350537657738
0.5512362122535706 0.7293784618377686 -0.033884573727846146
0.5882441401481628 0.707722544670105 -0.022471154108643532
0.6035999059677124 0.7116517424583435 0.007820275612175465
0.5722561478614807 0.7261884808540344 -0.014767215587198734
0.5866949558258057 0.7245149612426758 0.011826973408460617
0.6189122200012207 0.753270149230957 0.06567105650901794
0.564678430557251 0.633484423160553 -0.13030436635017395
0.5676463842391968 0.6081246733665466 -0.1394178718328476
0.7011485695838928 0.42965295910835266 0.049987707287073135
0.5846889615058899 0.5426573753356934 -0.012062760069966316
0.6052417159080505 0.6185095906257629 -0.05659480392932892
0.6036466956138611 0.6045799255371094 -0.04928119480609894
0.6958351135253906 0.5954934358596802 0.05646466091275215
0.5624237060546875 0.5759446024894714 -0.12652423977851868
0.6594440937042236 0.40619975328445435 -0.010834225453436375
0.6858011484146118 0.413338840007782 0.01747949607670307
0.7077844142913818 0.3404707610607147 0.12243928015232086
0.5671975016593933 0.4262949228286743 -0.05395561084151268
0.5889012813568115 0.4526776671409607 0.00848260335624218
0.6366576552391052 0.7221135497093201 0.07041822373867035
0.6908912062644958 0.723097562789917 0.2993279695510864
0.5883813500404358 0.6331761479377747 -0.04941596835851669
0.569147527217865 0.6433367729187012 -0.05715871974825859
0.6193143129348755 0.7229613065719604 0.06641300767660141
0.6077173948287964 0.7247077226638794 0.05731085315346718
0.6954105496406555 0.3962520956993103 0.030725441873073578
0.6036102175712585 0.6275168657302856 -0.041777465492486954
0.6211129426956177 0.40873903036117554 -0.03553932160139084
0.6268385648727417 0.3870093822479248 -0.04261437803506851
0.6414878368377686 0.2801711857318878 -0.003845973638817668
0.7022051811218262 0.3670555353164673 0.07047178596258163
0.633179783821106 0.3311954438686371 -0.02505897358059883
0.7105624675750732 0.41781774163246155 0.073091521859169
0.7156625986099243 0.40235453844070435 0.12444254010915756
0.55646812915802 0.7209014296531677 -0.042690567672252655
0.5798746943473816 0.7191082835197449 -0.018766315653920174
0.5956802368164062 0.718215823173523 0.007911781780421734
0.5820441842079163 0.6377637982368469 -0.046654876321554184
0.6142526865005493 0.7237352132797241 0.06133754551410675
0.6050248146057129 0.7414689064025879 0.04610417038202286
0.6026381850242615 0.7249845266342163 0.0559178963303566
0.5818386077880859 0.628919243812561 -0.08699476718902588
0.5799570679664612 0.7226147651672363 0.014756743796169758
0.5649201273918152 0.7259522676467896 -0.005587087478488684
0.5451215505599976 0.7302033305168152 -0.023122740909457207
0.5501257181167603 0.8266482949256897 0.013036887161433697
0.5539734959602356 0.8042449951171875 -0.01003921777009964
0.5538925528526306 0.7901418209075928 -0.01420423574745655
0.551757276058197 0.777708113193512 -0.009745831601321697
0.548000693321228 0.7686822414398193 -0.0069993361830711365
0.5833602547645569 0.7503185272216797 0.026871757581830025
0.5882149338722229 0.7528806924819946 0.02374666929244995
0.594024658203125 0.7583057880401611 0.02285686880350113
0.5978161096572876 0.7653122544288635 0.029553866013884544
0.6208415031433105 0.6872338056564331 0.014471474103629589
0.7095859050750732 0.6000658273696899 0.3252899944782257
0.5919343829154968 0.7412695288658142 0.045576635748147964
0.5990769863128662 0.7405586838722229 0.043990615755319595
0.561215341091156 0.655350387096405 -0.055730536580085754
0.5940279960632324 0.641956090927124 -0.024498840793967247
0.5652772784233093 0.6497097015380859 -0.05784181132912636
0.6077331304550171 0.5548819303512573 0.004169557709246874
0.645119845867157 0.5693848729133606 0.020376058295369148
0.6053950190544128 0.6140920519828796 -0.03312893211841583
0.6846463680267334 0.304946631193161 0.05746639147400856
0.6765543222427368 0.34236377477645874 0.021430470049381256
0.6671617031097412 0.3848641812801361 -0.006614085286855698
0.6019868850708008 0.7808722257614136 0.05031721666455269
0.5771747827529907 0.39249277114868164 -0.06614097207784653
0.5831977128982544 0.3275827169418335 -0.05690985918045044
0.587741494178772 0.26755890250205994 -0.04693511128425598
0.6621652841567993 0.4955449104309082 0.053087037056684494
0.7096753120422363 0.5194816589355469 0.10296961665153503
0.5714906454086304 0.49003785848617554 0.016011981293559074
0.6891126036643982 0.4604600667953491 0.06694301217794418
0.5699478387832642 0.5279864072799683 -0.026472782716155052
0.5953377485275269 0.6126492619514465 -0.08557649701833725
0.7277753353118896 0.535998523235321 0.13970847427845
0.6998575329780579 0.5354063510894775 0.0795838013291359
0.6760592460632324 0.5444229245185852 0.05109361931681633
0.6350907683372498 0.5426800847053528 0.029271531850099564
0.6033915281295776 0.5343522429466248 0.015438403002917767
0.5807064175605774 0.5241684317588806 0.0009991604601964355
0.5462380647659302 0.4966775178909302 -0.06637302786111832
0.7314660549163818 0.5861737728118896 0.13878121972084045
0.7040449380874634 0.45634725689888 0.08224140852689743
0.5534717440605164 0.6464633941650391 -0.11771412938833237
0.587881863117218 0.5670445561408997 -0.020570775493979454
0.7177857756614685 0.4892522394657135 0.2930063307285309
0.5648529529571533 0.5118625164031982 -0.009086411446332932
0.6039261221885681 0.6144438982009888 -0.006915049161761999
0.6766510009765625 0.475202739238739 0.07412435859441757
0.5925310850143433 0.5953564643859863 -0.07706277817487717
0.7046738266944885 0.6597996950149536 0.3189314007759094
0.5711116790771484 0.4812774062156677 0.022056106477975845
0.5779955387115479 0.5834765434265137 -0.10649356245994568
0.6678176522254944 0.7828718423843384 0.16651128232479095
0.6534277200698853 0.8127619028091431 0.21145500242710114
0.7328929901123047 0.5953207612037659 0.23425233364105225
0.6929774880409241 0.7491694688796997 0.19740861654281616
0.7220683097839355 0.44314801692962646 0.17360545694828033
0.5908858776092529 0.8781333565711975 0.07718101888895035
0.5469855666160583 0.6510076522827148 -0.0847790539264679
0.6069590449333191 0.5831701159477234 -0.0054464866407215595
0.7197796106338501 0.4920186996459961 0.1411094069480896
0.6436926126480103 0.4857531189918518 0.03870251029729843
0.6240439414978027 0.48856908082962036 0.0287142563611269
0.6096693277359009 0.7437562346458435 0.05177333578467369
0.7281789779663086 0.6366337537765503 0.15199653804302216
0.5497168898582458 0.9173635244369507 0.07591718435287476
0.6044842600822449 0.874220073223114 0.13929803669452667
0.6263677477836609 0.8475878238677979 0.1719626635313034
0.6046384572982788 0.48787084221839905 0.022433528676629066
0.5867680311203003 0.48459216952323914 0.021402645856142044
0.575950026512146 0.48279666900634766 0.023400550708174706
0.7149806022644043 0.450522780418396 0.11047763377428055
0.5901591181755066 0.466251015663147 0.01639196090400219
0.6094197034835815 0.46075189113616943 0.015173014253377914
0.6295498609542847 0.45918506383895874 0.020962072536349297
0.6489839553833008 0.46225476264953613 0.03196560963988304
0.6603590846061707 0.4675254225730896 0.04325830563902855
0.721853494644165 0.4307684898376465 0.2435981035232544
0.656085729598999 0.4820082187652588 0.04901060089468956
0.6033858060836792 0.6758776903152466 -0.011807775124907494
0.5904856324195862 0.6303659677505493 -0.06062612310051918
0.5622929334640503 0.6750463843345642 -0.04830905795097351
0.6395472884178162 0.8174859285354614 0.14065302908420563
0.6148988008499146 0.8470579385757446 0.11101190745830536
0.5564799308776855 0.9012657403945923 0.04469822347164154
0.6733405590057373 0.7749449014663696 0.2584725618362427
0.5773988366127014 0.47484225034713745 0.019573617726564407
0.5636880993843079 0.5365728735923767 -0.06515029072761536
0.5812411904335022 0.898581862449646 0.10406417399644852
0.7265119552612305 0.650503396987915 0.2351071536540985
0.5685563087463379 0.7605255246162415 0.00929183978587389
0.5732741355895996 0.7665127515792847 0.006728154141455889
0.5776793956756592 0.7758743762969971 0.00521687651053071
0.5798377394676208 0.7883111834526062 0.011009550653398037
0.5808967351913452 0.8070224523544312 0.03158445656299591
0.5998653769493103 0.7225632071495056 0.03639978542923927
0.6078908443450928 0.7192988395690918 0.0386664979159832
0.6146951913833618 0.7147845029830933 0.03894069790840149
0.6340856552124023 0.7018672227859497 0.04415126517415047
0.7091991901397705 0.6499454379081726 0.09470389038324356
0.5574185848236084 0.510978102684021 -0.04469011351466179
0.5590778589248657 0.46450841426849365 -0.004205105360597372
0.5693773627281189 0.46817225217819214 0.010670763440430164
0.5921366214752197 0.7204697132110596 0.03789477422833443
0.6997233033180237 0.7112284302711487 0.14293517172336578
0.5470023155212402 0.46315935254096985 -0.04264425113797188
0.5854809284210205 0.8275868892669678 0.04655350744724274
0.551253080368042 0.5242812633514404 -0.08886689692735672
0.5808305740356445 0.5741726756095886 -0.0579250305891037
0.5530713796615601 0.8496139645576477 0.02252870239317417
0.6307706236839294 0.7648337483406067 0.08270855247974396
0.6195948719978333 0.6336620450019836 0.007544047199189663
0.6090940833091736 0.7988536357879639 0.06723985821008682
0.6694758534431458 0.6302395462989807 0.03020269237458706
0.6388031840324402 0.6579080820083618 0.024727782234549522
0.6831590533256531 0.6684825420379639 0.06326664239168167
0.5578267574310303 0.8777350783348083 0.029246414080262184
0.5915050506591797 0.5859574675559998 -0.0348895788192749
0.6415651440620422 0.7867825627326965 0.10949211567640305
0.6152380704879761 0.8204386234283447 0.08843740820884705
0.6519326567649841 0.7292478084564209 0.08393006026744843
0.7180559635162354 0.6802589893341064 0.16512562334537506
0.673353910446167 0.7374383211135864 0.11103510111570358
0.7134407758712769 0.7020961046218872 0.2291417121887207
0.6528303623199463 0.6853026747703552 0.04885060712695122
0.5747914910316467 0.5517488718032837 -0.041211191564798355
0.589509129524231 0.6245817542076111 -0.09148366749286652
0.5995211005210876 0.6275032162666321 -0.0611906535923481
0.5829821228981018 0.609520673751831 -0.11305734515190125
0.577623188495636 0.44514840841293335 -0.008817985653877258
0.6144908666610718 0.4330044984817505 -0.0068060229532420635
0.6455460786819458 0.43070727586746216 0.002614166820421815
0.6696733832359314 0.433864951133728 0.0207879189401865
0.6840865612030029 0.4433717727661133 0.04172739014029503
0.6895356178283691 0.4813847839832306 0.0874013677239418
0.7327530384063721 0.542885959148407 0.22429881989955902
0.6783472299575806 0.5126619338989258 0.06809209287166595
0.6577602624893188 0.5199777483940125 0.04818527027964592
0.6288812756538391 0.5209766626358032 0.031476154923439026
0.6006931066513062 0.5167041420936584 0.020220838487148285
0.5795732140541077 0.5092625617980957 0.011248372495174408
0.5658905506134033 0.5017626881599426 0.005087676923722029
0.7117233276367188 0.5443258881568909 0.31825563311576843
0.5965209007263184 0.632480263710022 -0.048426538705825806
0.5694900751113892 0.5594956874847412 -0.08224333077669144
0.577798068523407 0.6283119916915894 -0.11479945480823517
0.5620392560958862 0.6407254338264465 -0.10660535842180252
0.5750053524971008 0.6316193342208862 -0.10214032977819443
0.5893542766571045 0.639601469039917 -0.041083816438913345
0.5595731735229492 0.6438642144203186 -0.11378826946020126
0.5536694526672363 0.6483453512191772 -0.08399131149053574
0.5645214319229126 0.4829738736152649 0.01481766439974308
0.5555655360221863 0.4889366626739502 -0.0036749772261828184
0.5533351898193359 0.4932694137096405 -0.022992104291915894
0.6665986776351929 0.4711676836013794 0.0538952611386776
0.6777011752128601 0.46277904510498047 0.057347074151039124
