ply
format ascii 1.0
element vertex 468
property float x
property float y
property float z
end_header
0.5040552616119385 0.7364671230316162 -0.04034823924303055
0.49279776215553284 0.6651171445846558 -0.1258799433708191
0.49851033091545105 0.6836391091346741 -0.055266302078962326
0.4748936593532562 0.5697153210639954 -0.1105075404047966
0.49196645617485046 0.6383596658706665 -0.1392083764076233
0.49270519614219666 0.5995737910270691 -0.13652007281780243
0.49715375900268555 0.5024604201316833 -0.09280917793512344
0.3307552933692932 0.47343710064888 0.011861685663461685
0.4990901052951813 0.43768540024757385 -0.09153006225824356
0.49927109479904175 0.40192583203315735 -0.10651320219039917
0.5013647675514221 0.2533758282661438 -0.11416079103946686
0.5051561594009399 0.7475688457489014 -0.034846123307943344
0.5060521364212036 0.753010630607605 -0.025359857827425003
0.5068003535270691 0.752357006072998 -0.013675620779395103
0.507461428642273 0.7555450201034546 -0.011725875549018383
0.5073028802871704 0.7643764019012451 -0.013568657450377941
0.5072832703590393 0.7758034467697144 -0.016340211033821106
0.5075678825378418 0.7887858748435974 -0.01087898574769497
0.5085768699645996 0.8140959143638611 0.017045708373188972
0.4940594732761383 0.6766180992126465 -0.11094266176223755
0.47547033429145813 0.6694364547729492 -0.0753856748342514
0.25046733021736145 0.36316630244255066 0.10190179198980331
0.4041285812854767 0.5029247999191284 -0.0119157824665308
0.3794211745262146 0.5040885210037231 -0.00897454097867012
0.35561269521713257 0.5017725825309753 -0.0014251867542043328
0.32389211654663086 0.4826558530330658 0.01886909268796444
0.4235904812812805 0.49791181087493896 -0.01182337012141943
0.36677199602127075 0.4385682940483093 -0.030195605009794235
0.39320462942123413 0.4419170916080475 -0.03285111486911774
0.3431680202484131 0.4408372640609741 -0.020168926566839218
0.3277814984321594 0.4478905200958252 -0.008639838546514511
0.30583930015563965 0.5008222460746765 0.03554230183362961
0.4233744442462921 0.8558295965194702 0.06301146000623703
0.3216911554336548 0.46491897106170654 0.01904616318643093
0.24343270063400269 0.48019158840179443 0.14346060156822205
0.28066888451576233 0.48209965229034424 0.056200068444013596
0.3820323348045349 0.6175450682640076 -0.009099487215280533
0.47335508465766907 0.7309759855270386 -0.03672998771071434
0.47851264476776123 0.7506147027015686 -0.020136967301368713
0.4437691569328308 0.7312804460525513 -0.01874290406703949
0.4250648617744446 0.7331772446632385 0.004297435749322176
0.4564390480518341 0.7472604513168335 -0.0078000277280807495
0.4389660358428955 0.7441632747650146 0.01259645540267229
0.4005673825740814 0.7612910270690918 0.055883537977933884
0.4735426604747772 0.6632129549980164 -0.12335643917322159
0.4701983332633972 0.6372730135917664 -0.13578398525714874
0.29021787643432617 0.42078903317451477 -0.009114514105021954
0.4309415817260742 0.5522337555885315 -0.02982359007000923
0.4249862730503082 0.6422955393791199 -0.06152743846178055
0.4248822331428528 0.6260027885437012 -0.05640610307455063
0.30934447050094604 0.6077547669410706 0.025496570393443108
0.4722157418727875 0.6013067960739136 -0.127723827958107
0.3438950181007385 0.4006766676902771 -0.06032445281744003
0.31131190061569214 0.40497756004333496 -0.03799755498766899
0.269661545753479 0.31900927424430847 0.040732234716415405
0.44931334257125854 0.43123286962509155 -0.08244223892688751
0.4162023663520813 0.451119601726532 -0.025232041254639626
0.379605233669281 0.7369726896286011 0.05681361258029938
0.28030824661254883 0.7190666198730469 0.2725679874420166
0.441934198141098 0.6569825410842896 -0.04963063821196556
0.46170905232429504 0.6673053503036499 -0.05044690892100334
0.4030255079269409 0.7351614236831665 0.054987769573926926
0.4127962589263916 0.7364022731781006 0.047872353345155716
0.2979688048362732 0.3853563964366913 -0.030737828463315964
0.4254366159439087 0.6502003073692322 -0.045241087675094604
0.389191597700119 0.40795063972473145 -0.07594243437051773
0.38392412662506104 0.3848583698272705 -0.08713103830814362
0.36038899421691895 0.26402121782302856 -0.07238348573446274
0.28399384021759033 0.3515043258666992 -0.0012633835431188345
0.37416523694992065 0.3225433826446533 -0.08274459838867188
0.2764508128166199 0.40660157799720764 0.008777243085205555
0.2633194625377655 0.3865160644054413 0.051309723407030106
0.4756534993648529 0.7437662482261658 -0.030935052782297134
0.4511261284351349 0.7418830394744873 -0.013802172616124153
0.4323701858520508 0.7392406463623047 0.0068270801566541195
0.4482143819332123 0.6611767411231995 -0.04444093257188797
0.4079388976097107 0.7356714010238647 0.05112972855567932
0.4203517436981201 0.7439551949501038 0.03661785647273064
0.4155450165271759 0.7364647388458252 0.04685533419251442
0.4517207741737366 0.6551971435546875 -0.08689737319946289
0.4432460069656372 0.7414569854736328 0.016703087836503983
0.46113884449005127 0.7458521127700806 0.002580914879217744
0.4819706976413727 0.750359058380127 -0.008609487675130367
0.4767795205116272 0.8128835558891296 0.020969772711396217
0.4783397316932678 0.7859905958175659 -0.006662464700639248
0.4787931442260742 0.7720187306404114 -0.011663786135613918
0.47989875078201294 0.7614642977714539 -0.008772827684879303
0.4818778932094574 0.7539699673652649 -0.006486811209470034
0.4411739408969879 0.7457427382469177 0.01915760710835457
0.43808597326278687 0.747816264629364 0.0164133682847023
0.43451446294784546 0.7530162334442139 0.015515674836933613
0.4313865602016449 0.7607244849205017 0.02255246974527836
0.40308451652526855 0.7077626585960388 0.006856968626379967
0.2531009614467621 0.5887454748153687 0.27532055974006653
0.4957846999168396 0.6792614459991455 -0.0755748599767685
0.4294353425502777 0.7425509095191956 0.035901427268981934
0.42493247985839844 0.7422823905944824 0.0347660593688488
0.4701743423938751 0.6801905035972595 -0.047573238611221313
0.4340473711490631 0.6643250584602356 -0.023945773020386696
0.46610769629478455 0.6742198467254639 -0.05000351369380951
0.40709561109542847 0.5650385618209839 -0.015862561762332916
0.36657026410102844 0.5809066891670227 -0.003744428977370262
0.42195042967796326 0.6347801685333252 -0.03973541408777237
0.3039161264896393 0.28519392013549805 -0.019515261054039
0.31903666257858276 0.32856035232543945 -0.044739507138729095
0.33492788672447205 0.3770912289619446 -0.06197672337293625
0.4205320477485657 0.7824413776397705 0.04455758258700371
0.4403018057346344 0.395674467086792 -0.10073467344045639
0.4322858452796936 0.3234899342060089 -0.10495450347661972
0.4240853786468506 0.25463077425956726 -0.10360386222600937
0.3350915312767029 0.4946134686470032 0.00934121385216713
0.2813161611557007 0.5194981098175049 0.0540834479033947
0.43534350395202637 0.49253201484680176 -0.01063384860754013
0.3033873438835144 0.4527971148490906 0.013178685680031776
0.4464852213859558 0.5374467372894287 -0.04285872355103493
0.43691885471343994 0.6379699110984802 -0.0885697454214096
0.2582293748855591 0.5353115200996399 0.08774925023317337
0.29676464200019836 0.539797842502594 0.03616537153720856
0.3272324204444885 0.5520886778831482 0.014495817944407463
0.3734028935432434 0.5501418113708496 0.0005164857720956206
0.4074946343898773 0.5406902432441711 -0.008767337538301945
0.4310181438922882 0.5301951169967651 -0.02025965228676796
0.47529110312461853 0.508159875869751 -0.08063959330320358
0.26018673181533813 0.5911685228347778 0.09397922456264496
0.2843523323535919 0.4485405683517456 0.023358378559350967
0.48285365104675293 0.6747549176216125 -0.1089404746890068
0.4327296316623688 0.5808573365211487 -0.0339268296957016
0.24176347255706787 0.4709782898426056 0.22479596734046936
0.4480559229850769 0.5183796286582947 -0.028575008735060692
0.4207853078842163 0.6333263516426086 -0.014364838600158691
0.3164657652378082 0.46777158975601196 0.024793561547994614
0.4374811053276062 0.6182237863540649 -0.08265931904315948
0.262688547372818 0.6528422832489014 0.28009921312332153
0.4342809021472931 0.48218202590942383 -0.007139971945434809
0.4539557099342346 0.6075411438941956 -0.11001484096050262
0.3246714472770691 0.789393424987793 0.15105916559696198
0.33282315731048584 0.8142757415771484 0.2027016282081604
0.24560949206352234 0.5923303961753845 0.18487165868282318
0.29347023367881775 0.7532505393028259 0.17546725273132324
0.2526744306087494 0.4290395975112915 0.10311540216207504
0.42167261242866516 0.8803054094314575 0.08369690924882889
0.48698997497558594 0.6776790022850037 -0.07354260236024857
0.4123084843158722 0.5974440574645996 -0.01972663402557373
0.26221829652786255 0.485288143157959 0.08221960067749023
0.3560466766357422 0.48566561937332153 -0.002281762193888426
0.378013551235199 0.48915356397628784 -0.008981912396848202
0.4155617356300354 0.7475942373275757 0.0423402339220047
0.26517772674560547 0.6436594724655151 0.11540384590625763
0.4652439057826996 0.9126859903335571 0.09545114636421204
0.399495393037796 0.875350832939148 0.14252403378486633
0.36995524168014526 0.8502895832061768 0.16933903098106384
0.49991968274116516 0.3253811001777649 -0.11324508488178253
0.5113018751144409 0.9180605411529541 0.08635731786489487
0.3990696668624878 0.48820239305496216 -0.011233266443014145
0.4184255599975586 0.4850215017795563 -0.009610999375581741
0.4298204183578491 0.48370587825775146 -0.006432320922613144
0.2684825360774994 0.44077742099761963 0.04733574390411377
0.41203001141548157 0.4576260447502136 -0.017424767836928368
0.39026427268981934 0.44638776779174805 -0.02127373032271862
0.367439329624176 0.4432007968425751 -0.019093351438641548
0.34543102979660034 0.44693970680236816 -0.011520630680024624
0.3329974412918091 0.4546974301338196 -0.0019472724525257945
0.24171346426010132 0.41080528497695923 0.1675863415002823
0.34099727869033813 0.47983500361442566 0.005656545981764793
0.5007957220077515 0.6998651623725891 -0.044332705438137054
0.4245338439941406 0.698144257068634 -0.012916049920022488
0.4405815601348877 0.6549472212791443 -0.06130451336503029
0.4688323140144348 0.6990457773208618 -0.040255848318338394
0.49889495968818665 0.4671213626861572 -0.0829601064324379
0.35964879393577576 0.8242005109786987 0.132880300283432
0.3901468515396118 0.8522685766220093 0.11039017885923386
0.461233913898468 0.8998239040374756 0.059960030019283295
0.304412841796875 0.7733365297317505 0.2422177642583847
0.42725759744644165 0.4727846384048462 -0.011775492690503597
0.4596269130706787 0.5516489744186401 -0.0767892524600029
0.5101550817489624 0.9041963815689087 0.05208459123969078
0.429933100938797 0.8973930478096008 0.1144607663154602
0.2547788918018341 0.6502065062522888 0.19534265995025635
0.4595593810081482 0.7501242160797119 0.005035348702222109
0.4564020037651062 0.7550630569458008 0.0020972287748008966
0.4543367028236389 0.7633401155471802 0.0010151101741939783
0.4525425434112549 0.7758297324180603 0.007318568415939808
0.4456380307674408 0.8003156185150146 0.030956994742155075
0.42287659645080566 0.7397235631942749 0.03126733750104904
0.41649991273880005 0.7369018197059631 0.03137596696615219
0.4101678431034088 0.7329186797142029 0.03012554906308651
0.3854546546936035 0.7204312682151794 0.030813897028565407
0.29214176535606384 0.6619625687599182 0.06627052277326584
0.46126240491867065 0.5213988423347473 -0.060041312128305435
0.45129409432411194 0.46770337224006653 -0.030184391885995865
0.43704861402511597 0.46963998675346375 -0.019218863919377327
0.42799630761146545 0.7373239398002625 0.03382273018360138
0.29585158824920654 0.7202041745185852 0.11889837682247162
0.46956247091293335 0.46970218420028687 -0.06339516490697861
0.4335264563560486 0.8280553221702576 0.04822967201471329
0.4942237138748169 0.5667047500610352 -0.12072411179542542
0.47461193799972534 0.5404770970344543 -0.09885043650865555
0.4956449866294861 0.5357978940010071 -0.10638472437858582
0.4446307420730591 0.5924571752548218 -0.06642671674489975
0.5092666149139404 0.8795877695083618 0.031448569148778915
0.5090208649635315 0.8451481461524963 0.024265533313155174
0.46964287757873535 0.8434306979179382 0.03178960829973221
0.38006332516670227 0.7750992774963379 0.07186513394117355
0.40148043632507324 0.6522488594055176 -0.0025709117762744427
0.40564122796058655 0.8047250509262085 0.06261683255434036
0.34180131554603577 0.6458055973052979 0.009928039275109768
0.3778568506240845 0.6757990121841431 0.011092623695731163
0.32312828302383423 0.6837049126625061 0.041448432952165604
0.46257856488227844 0.8764106035232544 0.040427882224321365
0.4331514835357666 0.6033649444580078 -0.04427317902445793
0.36264681816101074 0.7962008714675903 0.09899777173995972
0.3940175771713257 0.8272086977958679 0.08552433550357819
0.35717031359672546 0.7435864806175232 0.06765256822109222
0.27421873807907104 0.6872972846031189 0.13495688140392303
0.327924907207489 0.7485430836677551 0.0920972153544426
0.26903989911079407 0.7035670280456543 0.19839005172252655
0.3591049313545227 0.7032979726791382 0.03261644020676613
0.4466455280780792 0.5658384561538696 -0.053938452154397964
0.443928986787796 0.6510509848594666 -0.09291845560073853
0.43137937784194946 0.6520034670829773 -0.06304613500833511
0.4520190358161926 0.6371521353721619 -0.11325281858444214
0.4319593906402588 0.44763463735580444 -0.04183578118681908
0.3925512433052063 0.4323481023311615 -0.046939555555582047
0.35846513509750366 0.42706358432769775 -0.042561233043670654
0.33044999837875366 0.42794269323349 -0.029720712453126907
0.31195682287216187 0.43577829003334045 -0.012004386633634567
0.30131691694259644 0.4749951958656311 0.03628959134221077
0.24136343598365784 0.5358865261077881 0.16626039147377014
0.31912654638290405 0.513319730758667 0.025104869157075882
0.34430986642837524 0.5234619379043579 0.010365717113018036
0.3766937851905823 0.5247887372970581 -0.0007976251654326916
0.4068576693534851 0.5200547575950623 -0.007888225838541985
0.42899805307388306 0.512930154800415 -0.012815019115805626
0.4436696767807007 0.5059102773666382 -0.01702461764216423
0.24764186143875122 0.5290479063987732 0.2579778730869293
0.4331740140914917 0.6559942960739136 -0.04937458783388138
0.4582796096801758 0.5789994597434998 -0.08980073779821396
0.4586128890514374 0.6567651629447937 -0.11184919625520706
0.4728108048439026 0.6677488684654236 -0.09929457306861877
0.4598596394062042 0.6587205529212952 -0.0992092564702034
0.44019266963005066 0.6627815365791321 -0.03946476802229881
0.476284921169281 0.6718001365661621 -0.10545539855957031
0.48032307624816895 0.6746668815612793 -0.07440197467803955
0.4421813488006592 0.48583540320396423 -0.011121051385998726
0.4549669027328491 0.4932657480239868 -0.025255069136619568
0.46102917194366455 0.4998607635498047 -0.041456177830696106
0.3262869715690613 0.4604658782482147 0.007601507473737001
0.3168494999408722 0.45518434047698975 0.007627589162439108
0.5147783160209656 0.570193886756897 -0.11272373050451279
0.679997980594635 0.479787677526474 -0.00452139088883996
0.5170109868049622 0.6704386472702026 -0.07685231417417526
0.7828247547149658 0.3640821874141693 0.07604417949914932
0.6040958762168884 0.5065683126449585 -0.02281999960541725
0.6297922730445862 0.5079672336578369 -0.021800464019179344
0.6546175479888916 0.5058242082595825 -0.016618803143501282
0.6892753839492798 0.4884679913520813 0.001151703530922532
0.5832628607749939 0.5011110305786133 -0.020268460735678673
0.6423114538192749 0.44445139169692993 -0.04407297074794769
0.6150219440460205 0.44619840383529663 -0.04396568238735199
0.6667397618293762 0.4477171301841736 -0.03596752882003784
0.6831676363945007 0.45501047372817993 -0.025579048320651054
0.7098138332366943 0.5044025182723999 0.01643265224993229
0.5991777181625366 0.8573895692825317 0.05501329153776169
0.6901979446411133 0.47201091051101685 0.0017640514997765422
0.7909255623817444 0.4815254211425781 0.11821695417165756
0.7403155565261841 0.4856078624725342 0.03522660955786705
0.6259398460388184 0.618158221244812 -0.020828746259212494
0.5361232161521912 0.7306385636329651 -0.03991113603115082
0.5357635021209717 0.7499582171440125 -0.023370321840047836
0.5701507925987244 0.730232298374176 -0.02497914619743824
0.5947603583335876 0.7307984828948975 -0.004403362050652504
0.5609545707702637 0.7457938194274902 -0.013846898451447487
0.5822278261184692 0.741360604763031 0.0047134519554674625
0.6263559460639954 0.7593453526496887 0.044185519218444824
0.5127856135368347 0.6637274026870728 -0.12461000680923462
0.5149348378181458 0.637590229511261 -0.13731127977371216
0.7241871356964111 0.4277048408985138 -0.029312368482351303
0.5731937289237976 0.553545355796814 -0.03712601959705353
0.5715977549552917 0.6435796618461609 -0.06739843636751175
0.5731997489929199 0.6273815631866455 -0.06265820562839508
0.7054799795150757 0.6084930300712585 0.006434428971260786
0.5145748257637024 0.6016293168067932 -0.12967213988304138
0.662392258644104 0.40717679262161255 -0.07458541542291641
0.6986291408538818 0.41235047578811646 -0.05599566921591759
0.7565540075302124 0.3203297555446625 0.017561960965394974
0.5512577295303345 0.43356895446777344 -0.0871172621846199
0.591410756111145 0.45435458421707153 -0.03403725475072861
0.6470091342926025 0.7343699932098389 0.042662013322114944
0.7671716213226318 0.7219827175140381 0.2498808354139328
0.5551195740699768 0.6585651636123657 -0.05452391877770424
0.5350531935691833 0.6680499911308289 -0.05281476303935051
0.6251651644706726 0.7309132814407349 0.042724013328552246
0.6148801445960999 0.7317348718643188 0.03677569329738617
0.714206874370575 0.39252734184265137 -0.04972846060991287
0.5736797451972961 0.6511292457580566 -0.05114173889160156
0.6138824820518494 0.41292595863342285 -0.0859546810388565
0.6188074350357056 0.3894665241241455 -0.09698169678449631
0.6492894291877747 0.26497408747673035 -0.0854770764708519
0.7343623638153076 0.355415940284729 -0.0220014825463295
0.6310135126113892 0.3250764310359955 -0.0938682034611702
0.7414054870605469 0.41258764266967773 -0.012530885636806488
0.7619481086730957 0.3900149464607239 0.028265679255127907
0.5366009473800659 0.7434647679328918 -0.03398539870977402
0.5647658109664917 0.740776777267456 -0.020061250776052475
0.5881845951080322 0.7367490530014038 -0.0015348014421761036
0.5494943857192993 0.6623329520225525 -0.04802185297012329
0.6197726726531982 0.7310456037521362 0.03939376026391983
0.6057376265525818 0.7404062747955322 0.027016915380954742
0.6119678616523743 0.7322002649307251 0.03595218062400818
0.5402296781539917 0.6571699380874634 -0.09091589599847794
0.57884281873703 0.7381405830383301 0.009134783409535885
0.5573451519012451 0.744148850440979 -0.003082015784457326
0.5338711142539978 0.749515950679779 -0.012096544727683067
0.5416245460510254 0.8129971027374268 0.017411381006240845
0.5384372472763062 0.7859483361244202 -0.01015467755496502
0.5373921394348145 0.7720986604690552 -0.015401707962155342
0.536450207233429 0.7612457871437073 -0.012198047712445259
0.5348450541496277 0.7537212371826172 -0.009714321233332157
0.5819041728973389 0.7432551383972168 0.011856951750814915
0.5846249461174011 0.7454136610031128 0.009011411108076572
0.5882967114448547 0.7510473728179932 0.008162925019860268
0.5917097330093384 0.75913405418396 0.014485959894955158
0.6115059852600098 0.7063723802566528 -0.0026916516944766045
0.7945060729980469 0.5902019143104553 0.2497386634349823
0.5961435437202454 0.7389948964118958 0.026810672134160995
0.6006251573562622 0.7387591004371643 0.025265555828809738
0.5275130867958069 0.6804889440536499 -0.04995984956622124
0.5673459768295288 0.664577066898346 -0.02863747626543045
0.5308771133422852 0.6746004819869995 -0.05260259658098221
0.5993810892105103 0.5662786364555359 -0.02610309235751629
0.6425583958625793 0.5818209052085876 -0.017588429152965546
0.5783426761627197 0.6358045339584351 -0.04643088951706886
0.7139450907707214 0.28624820709228516 -0.038669973611831665
0.6927081346511841 0.3322364091873169 -0.06135699152946472
0.6719341278076172 0.3833315670490265 -0.07700809091329575
0.6036638021469116 0.7815327644348145 0.03494548797607422
0.559783935546875 0.39797481894493103 -0.1053990051150322
0.5691908001899719 0.3246992528438568 -0.11051785945892334
0.5809205770492554 0.25504252314567566 -0.11017970740795135
0.6766730546951294 0.4995928704738617 -0.007490487303584814
0.7381150126457214 0.5217404961585999 0.03333303704857826
0.5704787969589233 0.49569904804229736 -0.01804361864924431
0.7115074396133423 0.45911526679992676 -0.005922459065914154
0.5554417371749878 0.5387654304504395 -0.048854220658540726
0.5553573966026306 0.6397610902786255 -0.09338360279798508
0.766391396522522 0.5372803807258606 0.06412041187286377
0.7190512418746948 0.5417018532752991 0.016566431149840355
0.6852532625198364 0.5535270571708679 -0.0029347995296120644
0.6362752914428711 0.5516722798347473 -0.012823056429624557
0.6000576019287109 0.5425635576248169 -0.01897967793047428
0.5747155547142029 0.532041072845459 -0.027858227491378784
0.5208130478858948 0.5087019801139832 -0.08321130275726318
0.763802170753479 0.5926272869110107 0.0705837830901146
0.7339911460876465 0.45364049077033997 0.0026868977583944798
0.5060383677482605 0.6751923561096191 -0.10987987369298935
0.5695146918296814 0.5820313096046448 -0.04071568325161934
0.8026169538497925 0.4711853563785553 0.19750283658504486
0.5555577278137207 0.5201454758644104 -0.034431714564561844
0.582391619682312 0.6338561773300171 -0.020688040181994438
0.697354793548584 0.47458094358444214 0.006694061681628227
0.5567142963409424 0.6196236610412598 -0.08751097321510315
0.7855653762817383 0.6554421186447144 0.25590983033180237
0.5719362497329712 0.4858124256134033 -0.014881019480526447
0.5361340641975403 0.6084469556808472 -0.1136493980884552
0.7095859050750732 0.792064905166626 0.13332171738147736
0.7066850662231445 0.8178979158401489 0.18517491221427917
0.7897337675094604 0.5943996906280518 0.15983736515045166
0.7434573769569397 0.7558670043945312 0.1550322324037552
0.7774383425712585 0.43094950914382935 0.07888539135456085
0.6026264429092407 0.8823090195655823 0.07536982744932175
0.5048621892929077 0.6779537200927734 -0.07425986230373383
0.5927952527999878 0.5982876420021057 -0.028421590104699135
0.7634668946266174 0.48808738589286804 0.05937691405415535
0.6524397134780884 0.49089959263801575 -0.016764795407652855
0.6298348903656006 0.4937678575515747 -0.021782079711556435
0.6110550761222839 0.7443683743476868 0.03198111429810524
0.7619656324386597 0.6451371312141418 0.09240499138832092
0.5583619475364685 0.9140815734863281 0.09079991281032562
0.6308547854423523 0.878632664680481 0.1313478946685791
0.6650022864341736 0.8540375828742981 0.1552724391222
0.6084511280059814 0.4922923743724823 -0.0224906075745821
0.5885680317878723 0.48863327503204346 -0.01911674626171589
0.5767614245414734 0.4873111844062805 -0.01503843069076538
0.7541321516036987 0.4449230432510376 0.02501271665096283
0.5954748392105103 0.46187686920166016 -0.027562225237488747
0.6182275414466858 0.4513765573501587 -0.03307245671749115
0.640853762626648 0.4493219554424286 -0.03283294662833214
0.6631079912185669 0.45393872261047363 -0.026897219941020012
0.6765791773796082 0.46179965138435364 -0.018107758834958076
0.7969805002212524 0.4111509323120117 0.140767902135849
0.6685513854026794 0.4855915307998657 -0.010137694887816906
0.5834753513336182 0.6976847648620605 -0.020087243989109993
0.5550512671470642 0.6567338109016418 -0.06544209271669388
0.5342530608177185 0.6990656852722168 -0.04325814172625542
0.6717036366462708 0.827097475528717 0.11829745024442673
0.6378498673439026 0.8550890684127808 0.09914498031139374
0.5597227811813354 0.9010893106460571 0.054945677518844604
0.7394890785217285 0.7764793038368225 0.22133471071720123
0.5790778994560242 0.4765930771827698 -0.020686913281679153
0.5363290905952454 0.5525673627853394 -0.0805501714348793
0.5963407158851624 0.8998793363571167 0.10593971610069275
0.782366156578064 0.6526169180870056 0.1713654100894928
0.5599970817565918 0.7488352060317993 -0.0005799659411422908
0.5628551840782166 0.7539277672767639 -0.0037142764776945114
0.5649632215499878 0.7625845074653625 -0.004976263735443354
0.5669190883636475 0.7752546668052673 0.0010448269313201308
0.5755928158760071 0.8000584840774536 0.023641053587198257
0.6025007963180542 0.7357336282730103 0.021193187683820724
0.6085934042930603 0.7333413362503052 0.020564118400216103
0.6148934960365295 0.729385495185852 0.019232401624321938
0.635733425617218 0.7178916335105896 0.018516186624765396
0.7297642827033997 0.6625961065292358 0.045255452394485474
0.5376750826835632 0.5224170684814453 -0.06437695771455765
0.5527995228767395 0.4700666069984436 -0.03525512292981148
0.5688052773475647 0.47251570224761963 -0.02638970874249935
0.5975837707519531 0.7332743406295776 0.024171389639377594
0.7341479063034058 0.7215084433555603 0.09836514294147491
0.5307192802429199 0.471006840467453 -0.06649460643529892
0.58861243724823 0.8286746144294739 0.04067002609372139
0.5181328058242798 0.5411112904548645 -0.1008317843079567
0.5523136258125305 0.5936629772186279 -0.07118179649114609
0.5497917532920837 0.8440806865692139 0.027921073138713837
0.6460768580436707 0.7751994729042053 0.05855979397892952
0.6059256792068481 0.652466893196106 -0.011820049956440926
0.6192687749862671 0.8055089116096497 0.05229342356324196
0.6712476015090942 0.6461541652679443 -0.005860878620296717
0.6350237131118774 0.6755728721618652 -0.0008337225299328566
0.6963798403739929 0.6838910579681396 0.023453058674931526
0.5572625994682312 0.8772827386856079 0.03588451072573662
0.5673040747642517 0.6045714020729065 -0.05012945085763931
0.6652759313583374 0.7978689670562744 0.08443954586982727
0.6321018934249878 0.8290326595306396 0.0744875967502594
0.6685371398925781 0.7428368330001831 0.0513201579451561
0.7567808628082275 0.6891735792160034 0.11281372606754303
0.6999149918556213 0.7497771978378296 0.07400862872600555
0.7695525288581848 0.7060268521308899 0.17536069452762604
0.6606767773628235 0.701805830001831 0.017229458317160606
0.5525392293930054 0.5670725107192993 -0.05919311195611954
0.5477100014686584 0.6530097723007202 -0.09727079421281815
0.564778745174408 0.6536135673522949 -0.06810854375362396
0.5362013578414917 0.6383523344993591 -0.11741027981042862
0.5725589990615845 0.45095688104629517 -0.04886866733431816
0.61336350440979 0.4374726712703705 -0.057250335812568665
0.6489131450653076 0.43340158462524414 -0.056200865656137466
0.6786535978317261 0.4349973797798157 -0.04586826264858246
0.6999130845069885 0.4430497884750366 -0.03002079948782921
0.715706467628479 0.480154812335968 0.016946326941251755
0.7935460805892944 0.5376290678977966 0.14059031009674072
0.6946176290512085 0.5166924595832825 0.006854768842458725
0.6674344539642334 0.526202917098999 -0.005521450657397509
0.6332857012748718 0.5276072025299072 -0.014071713201701641
0.6013233661651611 0.5226792693138123 -0.018140554428100586
0.5777981281280518 0.5154366493225098 -0.020368242636322975
0.5617269277572632 0.5082497000694275 -0.023111309856176376
0.7991344928741455 0.5295705199241638 0.23104171454906464
0.5646532773971558 0.6573949456214905 -0.05440819263458252
0.5345787405967712 0.5798845291137695 -0.0935923159122467
0.5298770070075989 0.6580785512924194 -0.11464431881904602
0.5176181197166443 0.6688553094863892 -0.10097656399011612
0.5304415225982666 0.6603740453720093 -0.10202114284038544
0.5590538382530212 0.6636751890182495 -0.043861012905836105
0.5133373141288757 0.6725643873214722 -0.10668724775314331
0.5121210813522339 0.6752192974090576 -0.07550700008869171
0.563277006149292 0.48884573578834534 -0.017644817009568214
0.5491749048233032 0.495418518781662 -0.030004208907485008
0.5411299467086792 0.5013027787208557 -0.04543096199631691
0.6843761801719666 0.4675692319869995 -0.009367389604449272
0.6959594488143921 0.46233123540878296 -0.010245351120829582
