ply
format ascii 1.0
element vertex 468
property float x
property float y
property float z
end_header
0.5048456788063049 0.6724761128425598 -0.09679614752531052
0.5078768134117126 0.5915712118148804 -0.14254212379455566
0.5058056712150574 0.6249462962150574 -0.08893118798732758
0.4931253492832184 0.5232672095298767 -0.09202200919389725
0.5098630785942078 0.5667914748191833 -0.14605475962162018
0.512083888053894 0.5398961305618286 -0.12928619980812073
0.5171223878860474 0.4800146222114563 -0.041461281478405
0.339508593082428 0.4881049394607544 0.05091756954789162
0.5213474631309509 0.42831847071647644 -0.009535775519907475
0.524158239364624 0.3964681327342987 -0.005041063297539949
0.5323653817176819 0.2950858771800995 0.04947419837117195
0.50411057472229 0.6840457916259766 -0.09582863003015518
0.5036160349845886 0.6931731104850769 -0.09065768122673035
0.5029942989349365 0.6964872479438782 -0.08203814923763275
0.49986329674720764 0.7512492537498474 -0.06946408748626709
0.49926552176475525 0.7600691318511963 -0.07642050832509995
0.4983549118041992 0.7718604207038879 -0.08410714566707611
0.49675801396369934 0.7863161563873291 -0.08270052820444107
0.4928659200668335 0.8130131959915161 -0.06681308150291443
0.5063860416412354 0.607495903968811 -0.13241681456565857
0.48489516973495483 0.6096656322479248 -0.1012105718255043
0.2560681104660034 0.41564106941223145 0.18853792548179626
0.40943443775177 0.5084893703460693 0.024566804990172386
0.3843340277671814 0.5096095204353333 0.02541784942150116
0.3603273630142212 0.5071929097175598 0.03156452253460884
0.3277924358844757 0.4959776997566223 0.05243150517344475
0.4309786558151245 0.5025848150253296 0.029370712116360664
0.38278722763061523 0.44014066457748413 0.02506778948009014
0.4085828959941864 0.44328367710113525 0.027399921789765358
0.3568824529647827 0.443726122379303 0.031088683754205704
0.33844122290611267 0.45388126373291016 0.03998824581503868
0.3069714307785034 0.5097215175628662 0.06153073534369469
0.3882724642753601 0.8408456444740295 -0.04658486694097519
0.3309495449066162 0.4831240177154541 0.06016743928194046
0.23646590113639832 0.5150964260101318 0.1712018847465515
0.28202736377716064 0.4976024329662323 0.08971995115280151
0.37819790840148926 0.5879136919975281 -0.026037702336907387
0.4656352400779724 0.6672375202178955 -0.09375520795583725
0.4671849310398102 0.6913690567016602 -0.08682561665773392
0.42507463693618774 0.6745271682739258 -0.07881901413202286
0.3983568251132965 0.6845163702964783 -0.05510108545422554
0.4374101758003235 0.6930193305015564 -0.07373610138893127
0.4144302010536194 0.6967161297798157 -0.05162729322910309
0.36465397477149963 0.740665078163147 -0.017454026266932487
0.48764100670814514 0.5909487009048462 -0.1406455785036087
0.4869600236415863 0.5673948526382446 -0.14358821511268616
0.3039134740829468 0.42856666445732117 0.05300429090857506
0.43738415837287903 0.5357911586761475 -0.011471103876829147
0.4286508560180664 0.5911872386932373 -0.08220772445201874
0.4277532696723938 0.5808857083320618 -0.07224830985069275
0.2997450828552246 0.5860824584960938 0.005946724209934473
0.49003303050994873 0.5422818660736084 -0.12247541546821594
0.3664034605026245 0.39699578285217285 0.01892399787902832
0.33066266775131226 0.40731725096702576 0.03523794189095497
0.2860448658466339 0.36779987812042236 0.15188443660736084
0.4711255133152008 0.42051345109939575 -0.0034405936021357775
0.4306492209434509 0.45340630412101746 0.03380879387259483
0.34704118967056274 0.7077614068984985 -0.010639297775924206
0.23766076564788818 0.7529034614562988 0.17538806796073914
0.44601714611053467 0.6053840517997742 -0.07498828321695328
0.4661540389060974 0.6144179701805115 -0.07934818416833878
0.36667999625205994 0.7071815133094788 -0.009116599336266518
0.379458487033844 0.7086884379386902 -0.014636123552918434
0.3180146813392639 0.3933725357055664 0.05040985345840454
0.42546045780181885 0.6029196381568909 -0.07138971984386444
0.4124028980731964 0.39963626861572266 0.005414709914475679
0.4098043143749237 0.38020384311676025 0.00507314084097743
0.39210259914398193 0.3041636645793915 0.07295092195272446
0.3026962876319885 0.37988045811653137 0.09558391571044922
0.40385866165161133 0.33966758847236633 0.039501532912254333
0.2895181179046631 0.42134279012680054 0.076482854783535
0.27303633093833923 0.41985630989074707 0.13082028925418854
0.46572792530059814 0.6813187003135681 -0.09259402006864548
0.4318951964378357 0.6853821277618408 -0.07684386521577835
0.40654003620147705 0.6903853416442871 -0.05515323206782341
0.45143041014671326 0.6106075644493103 -0.07024555653333664
0.3728847801685333 0.707636833190918 -0.011883797124028206
0.3860754668712616 0.7260332107543945 -0.026598887518048286
0.38397178053855896 0.7097451686859131 -0.015071871690452099
0.461299866437912 0.594977080821991 -0.1059432253241539
0.4189285933971405 0.6959657073020935 -0.04887395724654198
0.44218194484710693 0.6939818859100342 -0.06573717296123505
0.46986886858940125 0.6945599317550659 -0.07836021482944489
0.45061829686164856 0.8083269596099854 -0.0648609846830368
0.4560192823410034 0.780726432800293 -0.07951562106609344
0.45915383100509644 0.766135573387146 -0.07952375710010529
0.46254822611808777 0.7547448873519897 -0.07105507701635361
0.46596598625183105 0.7474262714385986 -0.06549084186553955
0.41501715779304504 0.7339655756950378 -0.038565777242183685
0.409995436668396 0.7360255122184753 -0.043641597032547
0.40287625789642334 0.7409849762916565 -0.04857777804136276
0.396886944770813 0.7486192584037781 -0.045038964599370956
0.3835964500904083 0.6648788452148438 -0.043958842754364014
0.22326251864433289 0.6355106234550476 0.2402801215648651
0.5059109926223755 0.6163999438285828 -0.10347956418991089
0.40033024549484253 0.7266282439231873 -0.02315228246152401
0.393044650554657 0.7250155806541443 -0.026369957253336906
0.47262415289878845 0.6248422265052795 -0.0836828425526619
0.4310078024864197 0.6183788180351257 -0.056405648589134216
0.46961021423339844 0.6199336647987366 -0.08177482336759567
0.408414363861084 0.5477925539016724 -0.00817632582038641
0.36420148611068726 0.5598036050796509 -0.005922248121351004
0.42131465673446655 0.592510461807251 -0.060723524540662766
0.32949310541152954 0.32940810918807983 0.1099701076745987
0.3442690372467041 0.3517434895038605 0.06530370563268661
0.35916224122047424 0.37918752431869507 0.027791334316134453
0.38495469093322754 0.767336905002594 -0.03347228839993477
0.46628522872924805 0.38814541697502136 -0.005007185507565737
0.4629446268081665 0.3397194743156433 0.02475971169769764
0.4572255611419678 0.29451701045036316 0.05175648629665375
0.3393601179122925 0.5033153295516968 0.04209134355187416
0.2794117331504822 0.5255362391471863 0.0708763524889946
0.44472676515579224 0.4958573877811432 0.033902961760759354
0.310905396938324 0.4648940861225128 0.06060321629047394
0.457256555557251 0.520795464515686 -0.016773954033851624
0.44630029797554016 0.580311119556427 -0.10337793081998825
0.25105082988739014 0.5458240509033203 0.09249476343393326
0.2945491373538971 0.5358866453170776 0.044886212795972824
0.32513627409935 0.5405571460723877 0.02170386165380478
0.3729135990142822 0.5394567847251892 0.012615624815225601
0.40997710824012756 0.5329709649085999 0.010269676335155964
0.4382704496383667 0.5229623317718506 0.007120421621948481
0.49343299865722656 0.4866660237312317 -0.03370283544063568
0.24477103352546692 0.5904852747917175 0.07394992560148239
0.2919096350669861 0.46246498823165894 0.07318108528852463
0.49484485387802124 0.6063722968101501 -0.1316743791103363
0.4369467496871948 0.5540804862976074 -0.029832832515239716
0.22728502750396729 0.5258871912956238 0.2502620220184326
0.4588457942008972 0.5099716186523438 0.007209608796983957
0.4171799421310425 0.5964028239250183 -0.03569633886218071
0.321277916431427 0.4835410416126251 0.06429101526737213
0.44576898217201233 0.5680086016654968 -0.09087184816598892
0.22558504343032837 0.6933498382568359 0.21421805024147034
0.4450809061527252 0.4886561632156372 0.04253801703453064
0.46817049384117126 0.5528052449226379 -0.11103460937738419
0.285688579082489 0.7880524396896362 0.047545067965984344
0.28679782152175903 0.8277603983879089 0.0779198557138443
0.22200444340705872 0.6143485903739929 0.15725789964199066
0.2552628517150879 0.7600971460342407 0.07865341752767563
0.25432801246643066 0.46498796343803406 0.1590082049369812
0.3832504153251648 0.868739128112793 -0.04205342009663582
0.4967350661754608 0.6151464581489563 -0.10216174274682999
0.41158154606819153 0.5704258680343628 -0.026188267394900322
0.26082706451416016 0.5054175853729248 0.11262430250644684
0.3642364740371704 0.4946109652519226 0.03588631749153137
0.38587653636932373 0.49701058864593506 0.030528299510478973
0.3793344497680664 0.7289600372314453 -0.02372676692903042
0.24050617218017578 0.6406273245811462 0.06916233152151108
0.4277421236038208 0.9088571071624756 -0.04631195589900017
0.3536129593849182 0.8754096031188965 0.009826856665313244
0.3229396939277649 0.8554816246032715 0.04097375273704529
0.5286713242530823 0.343938410282135 0.02138751931488514
0.4816040098667145 0.9168062210083008 -0.05306045338511467
0.4065496325492859 0.49658113718032837 0.03065519407391548
0.42619234323501587 0.49365365505218506 0.035332586616277695
0.43855708837509155 0.4911847710609436 0.041672155261039734
0.2743990421295166 0.46101313829421997 0.09839096665382385
0.4254361689090729 0.4748287796974182 0.03559716418385506
0.4051099419593811 0.4694634974002838 0.031609222292900085
0.3856971859931946 0.46749866008758545 0.0318363718688488
0.3643779754638672 0.4698999226093292 0.03652922436594963
0.3489832580089569 0.47514328360557556 0.042997825890779495
0.23781079053878784 0.46529120206832886 0.22625881433486938
0.3497307300567627 0.49154841899871826 0.04372841864824295
0.5055380463600159 0.6422501802444458 -0.08569112420082092
0.4119764268398285 0.6508112549781799 -0.06049799919128418
0.446331262588501 0.6007599830627441 -0.08194538205862045
0.4665721654891968 0.6430262327194214 -0.08424904197454453
0.5187979340553284 0.45655280351638794 -0.016134614124894142
0.3190886676311493 0.818735659122467 0.02093665301799774
0.350170761346817 0.8432409763336182 -0.009285369887948036
0.42817139625549316 0.8878399133682251 -0.06923140585422516
0.2595342993736267 0.7976882457733154 0.12569056451320648
0.4391539692878723 0.48290008306503296 0.04023083299398422
0.4742278754711151 0.5201732516288757 -0.051685646176338196
0.48417145013809204 0.8956243991851807 -0.07446388900279999
0.3867712914943695 0.8937978148460388 -0.02358545921742916
0.22243747115135193 0.6686925888061523 0.13962921500205994
0.43800148367881775 0.7412769794464111 -0.05354093387722969
0.43263304233551025 0.746123731136322 -0.05861213058233261
0.4273451268672943 0.7548753619194031 -0.06427274644374847
0.42251861095428467 0.7675783634185791 -0.06237845867872238
0.41196945309638977 0.7908644080162048 -0.050919149070978165
0.3931766450405121 0.7011250853538513 -0.031055212020874023
0.3853229880332947 0.6977524757385254 -0.030245104804635048
0.37823304533958435 0.6937957406044006 -0.029966361820697784
0.3597927689552307 0.6827995777130127 -0.024565478786826134
0.27181392908096313 0.6440950632095337 0.019890349358320236
0.47621631622314453 0.5024996995925903 -0.023151785135269165
0.46580183506011963 0.4665471315383911 0.029796630144119263
0.45078587532043457 0.47228777408599854 0.03835422173142433
0.3997277617454529 0.6995611786842346 -0.029996192082762718
0.2647917866706848 0.7121620774269104 0.04391374811530113
0.4870222210884094 0.4612635374069214 -0.001944853225722909
0.3996679186820984 0.8141690492630005 -0.04758509621024132
0.5137785077095032 0.5195657014846802 -0.09870574623346329
0.49309423565864563 0.5060009956359863 -0.0638633742928505
0.5154047012329102 0.5007615089416504 -0.0681772455573082
0.45331770181655884 0.5536158084869385 -0.06229596957564354
0.48705801367759705 0.8683063983917236 -0.08003845810890198
0.4902132451534271 0.8377161622047424 -0.0737900361418724
0.4416724741458893 0.8327311873435974 -0.06807202845811844
0.34703898429870605 0.7551605701446533 -0.009361764416098595
0.39446842670440674 0.6167529821395874 -0.03148932382464409
0.37013310194015503 0.7883321046829224 -0.027119223028421402
0.3320322632789612 0.615527868270874 -0.021994272246956825
0.365773469209671 0.6408121585845947 -0.02808399498462677
0.30567681789398193 0.6568048596382141 -0.00797619204968214
0.4324877858161926 0.8617236614227295 -0.07351784408092499
0.4361455738544464 0.5679086446762085 -0.04927945137023926
0.3272901177406311 0.7819720506668091 0.003606294747442007
0.3576362729072571 0.8124927878379822 -0.019293753430247307
0.32816827297210693 0.7182072997093201 -0.004460821393877268
0.24272483587265015 0.6858152151107788 0.06849104911088943
0.2963947057723999 0.7326496243476868 0.01400014292448759
0.23185881972312927 0.7186872959136963 0.11735180765390396
0.3398438096046448 0.6697385311126709 -0.01871190406382084
0.4561634063720703 0.5374221801757812 -0.03948831930756569
0.4536456763744354 0.5902608633041382 -0.1099017858505249
0.43588289618492126 0.598517894744873 -0.08648508042097092
0.4659455418586731 0.5724096298217773 -0.12411521375179291
0.44869813323020935 0.4434235692024231 0.026540035381913185
0.41061899065971375 0.4264788031578064 0.023674266412854195
0.37630125880241394 0.422477662563324 0.023524846881628036
0.346221923828125 0.42795073986053467 0.031393442302942276
0.3236118257045746 0.44179821014404297 0.04463687911629677
0.30463242530822754 0.4900730550289154 0.07336252927780151
0.22672173380851746 0.564062774181366 0.16524294018745422
0.31950342655181885 0.5172156691551208 0.04700520634651184
0.34493592381477356 0.5222244262695312 0.03252025693655014
0.37798890471458435 0.5238162279129028 0.02313290536403656
0.410366028547287 0.5203816294670105 0.020056456327438354
0.4360317885875702 0.5129782557487488 0.022181566804647446
0.4532899260520935 0.5045364499092102 0.022221842780709267
0.22500988841056824 0.5810317993164062 0.25430333614349365
0.43535178899765015 0.6058727502822876 -0.07549741119146347
0.47277265787124634 0.535987377166748 -0.07792726159095764
0.47137007117271423 0.5890164375305176 -0.12860947847366333
0.48391294479370117 0.6042597889900208 -0.12128666788339615
0.47118911147117615 0.5952216982841492 -0.11782892793416977
0.4403225779533386 0.6141502857208252 -0.06864208728075027
0.4876726269721985 0.6053421497344971 -0.12816838920116425
0.4894851744174957 0.613523542881012 -0.10149958729743958
0.4542640745639801 0.487822949886322 0.03853082284331322
0.46715986728668213 0.49090254306793213 0.02309512160718441
0.47469550371170044 0.49143582582473755 0.0046965680085122585
0.33907145261764526 0.4793546497821808 0.050211552530527115
0.3242662847042084 0.4666687250137329 0.05214133858680725
0.5339983105659485 0.5253558158874512 -0.09008942544460297
0.6928333640098572 0.5043588876724243 0.06403743475675583
0.528026282787323 0.6118936538696289 -0.09968655556440353
0.7834851145744324 0.4420880079269409 0.20906224846839905
0.6195560097694397 0.5178495645523071 0.03284125030040741
0.6441268920898438 0.5213167071342468 0.03528088703751564
0.6682201623916626 0.5215662717819214 0.042960938066244125
0.7023553252220154 0.5134161114692688 0.06593335419893265
0.5998303890228271 0.510351300239563 0.03577129915356636
0.6552985906600952 0.45385801792144775 0.03612276911735535
0.629433274269104 0.4548489451408386 0.03648703172802925
0.6806841492652893 0.45952075719833374 0.04442151263356209
0.6975998282432556 0.47131580114364624 0.05371779575943947
0.719558596611023 0.5298365950584412 0.07594261318445206
0.5891459584236145 0.8509706258773804 -0.04094382002949715
0.7020397186279297 0.5002831220626831 0.07380358129739761
0.7881794571876526 0.5424219965934753 0.1918286830186844
0.745680570602417 0.5206742286682129 0.10627949982881546
0.6389609575271606 0.6003209948539734 -0.018178028985857964
0.545268714427948 0.6707910895347595 -0.09189534187316895
0.5410051345825195 0.6948866844177246 -0.08531345427036285
0.5860031843185425 0.6815380454063416 -0.07487645745277405
0.6123356819152832 0.6939646601676941 -0.04979804903268814
0.5710636973381042 0.69902503490448 -0.07077308744192123
0.5944284200668335 0.7045831084251404 -0.047563549131155014
0.635378360748291 0.7529197931289673 -0.010986561886966228
0.5279443264007568 0.5930381417274475 -0.13944709300994873
0.532781720161438 0.5696831345558167 -0.14224891364574432
0.7343393564224243 0.45080703496932983 0.0691223293542862
0.5867449641227722 0.5430908799171448 -0.006149936467409134
0.5873437523841858 0.5987381935119629 -0.07681596279144287
0.5899445414543152 0.5884522199630737 -0.06666132062673569
0.7154253721237183 0.6060598492622375 0.018136415630578995
0.5336628556251526 0.5445602536201477 -0.12106534838676453
0.677838146686554 0.41401565074920654 0.030172359198331833
0.7114522457122803 0.4274091124534607 0.04913123697042465
0.7624647617340088 0.3918214440345764 0.17039033770561218
0.5723604559898376 0.42678380012512207 0.0005501509876921773
0.6068405508995056 0.46299833059310913 0.04147474467754364
0.658494770526886 0.7219240665435791 -0.002834608079865575
0.7475878596305847 0.7781498432159424 0.19380846619606018
0.5676089525222778 0.6111209392547607 -0.07124430686235428
0.5464898943901062 0.617963969707489 -0.07733389735221863
0.6416226029396057 0.7192115187644958 -0.0025759413838386536
0.6285403966903687 0.719494104385376 -0.008794568479061127
0.7259781360626221 0.41494259238243103 0.06551696360111237
0.5888168811798096 0.610392689704895 -0.06605304777622223
0.6327301263809204 0.41205379366874695 0.013230124488472939
0.6387664079666138 0.39318183064460754 0.01332115288823843
0.6692324876785278 0.3186820447444916 0.0841459110379219
0.7444284558296204 0.40243101119995117 0.1120777428150177
0.6520930528640747 0.35313674807548523 0.04895560070872307
0.7493419647216797 0.4451242685317993 0.09385505318641663
0.7663723230361938 0.4448063373565674 0.14968545734882355
0.5438314080238342 0.6847974061965942 -0.09073875099420547
0.5780980587005615 0.6917561888694763 -0.07348673045635223
0.6037048697471619 0.6990547776222229 -0.050647132098674774
0.5617655515670776 0.6157093644142151 -0.06694071739912033
0.6355340480804443 0.7190654873847961 -0.005723485257476568
0.6191174983978271 0.7365385890007019 -0.021344605833292007
0.6237779855728149 0.7201762199401855 -0.009504994377493858
0.5535345673561096 0.5995416045188904 -0.10237844288349152
0.5896884202957153 0.7031868100166321 -0.04524910822510719
0.5656457543373108 0.699428141117096 -0.06292500346899033
0.5375383496284485 0.6976518034934998 -0.07694879919290543
0.5357959866523743 0.8126773834228516 -0.06361444294452667
0.5383022427558899 0.7847189903259277 -0.07795125246047974
0.5383639931678772 0.7700932025909424 -0.07798486202955246
0.537001371383667 0.7585042119026184 -0.06977221369743347
0.5344012379646301 0.7509352564811707 -0.0639074370265007
0.5880533456802368 0.7416909337043762 -0.03481021523475647
0.592780590057373 0.7442453503608704 -0.039698682725429535
0.5992043018341064 0.7499488592147827 -0.0445575937628746
0.6037672758102417 0.758263111114502 -0.040718335658311844
0.6271398067474365 0.6758930087089539 -0.0376739539206028
0.7798634767532349 0.6633762121200562 0.2608453035354614
0.6041110157966614 0.735603392124176 -0.018070708960294724
0.612103283405304 0.7348556518554688 -0.021209198981523514
0.5389896631240845 0.6278420686721802 -0.08169307559728622
0.5815222263336182 0.6249951124191284 -0.05237872526049614
0.5423242449760437 0.623200535774231 -0.0800195261836052
0.6135922074317932 0.5576812624931335 -0.0014053902123123407
0.6560794115066528 0.573760449886322 0.002701429184526205
0.5945934653282166 0.6005711555480957 -0.055029645562171936
0.7262783646583557 0.3498072922229767 0.125717893242836
0.7081974148750305 0.37092092633247375 0.07915137708187103
0.6881659626960754 0.3971993327140808 0.04002115875482559
0.6099469661712646 0.7779552936553955 -0.028314227238297462
0.5827158093452454 0.39499688148498535 -0.0007998353685252368
0.5946932435035706 0.34686198830604553 0.030178118497133255
0.6069209575653076 0.302509069442749 0.05742959305644035
0.6898118257522583 0.5195976495742798 0.05471668764948845
0.744078516960144 0.5482386350631714 0.08678651601076126
0.5879107117652893 0.5025165677070618 0.03997150808572769
0.722590982913971 0.4854156970977783 0.07601980865001678
0.5697070956230164 0.5264343619346619 -0.012567230500280857
0.5711124539375305 0.5865134000778198 -0.09892185777425766
0.768721342086792 0.5713034868240356 0.11061345040798187
0.7278502583503723 0.5567429065704346 0.05996176600456238
0.6969340443611145 0.558394193649292 0.03403417766094208
0.6501818895339966 0.5526345372200012 0.02193502150475979
0.6143137812614441 0.5427711606025696 0.017414210364222527
0.5880175828933716 0.5302045345306396 0.012512601912021637
0.5397471189498901 0.48919612169265747 -0.031772565096616745
0.7672696709632874 0.6158123016357422 0.09166836738586426
0.7412465810775757 0.48518747091293335 0.09005335718393326
0.5183958411216736 0.6075179576873779 -0.13045722246170044
0.5846417546272278 0.5612243413925171 -0.024501962587237358
0.7935672998428345 0.5541945695877075 0.27198073267936707
0.5699707269668579 0.5155057907104492 0.011591356247663498
0.5978702306747437 0.6045727729797363 -0.030043872073292732
0.7108287215232849 0.501844584941864 0.07862897217273712
0.5733517408370972 0.5742807388305664 -0.08632953464984894
0.7684634327888489 0.7202450037002563 0.23400035500526428
0.5889464616775513 0.4953418970108032 0.048983681946992874
0.5536447167396545 0.5571295619010925 -0.10758607089519501
0.6976749897003174 0.808526873588562 0.061038170009851456
0.6888381242752075 0.8480179905891418 0.09217046946287155
0.7857065796852112 0.6425623297691345 0.17740470170974731
0.7314722537994385 0.7835358381271362 0.09486306458711624
0.7779840230941772 0.4911156892776489 0.17905394732952118
0.5879549980163574 0.879379153251648 -0.03575528785586357
0.5150404572486877 0.6159217953681946 -0.10136745125055313
0.6073203682899475 0.5796918869018555 -0.01965099386870861
0.7655553817749023 0.530730664730072 0.13111662864685059
0.6669571399688721 0.5084714889526367 0.04722139239311218
0.6450085043907166 0.508472740650177 0.04062445089221001
0.6253035664558411 0.7400137186050415 -0.017971036955714226
0.7640016078948975 0.6662325263023376 0.08628293126821518
0.5361640453338623 0.9147318005561829 -0.043039754033088684
0.6147862076759338 0.8890128135681152 0.018736178055405617
0.6487644910812378 0.8721288442611694 0.05229608714580536
0.6247341632843018 0.5061759948730469 0.03918895870447159
0.6064401268959045 0.5015846490859985 0.042474258691072464
0.5948387980461121 0.49823546409606934 0.048273298889398575
0.7585818767547607 0.4854440689086914 0.11691170930862427
0.6101668477058411 0.484174907207489 0.043489307165145874
0.6304407119750977 0.48093730211257935 0.040532186627388
0.6498144865036011 0.4802344739437103 0.04235517606139183
0.670861005783081 0.48414576053619385 0.04870881512761116
0.6855701804161072 0.4907108247280121 0.055880218744277954
0.793120265007019 0.49325039982795715 0.24749891459941864
0.6821089386940002 0.5067415237426758 0.05597088858485222
0.5991270542144775 0.6589798927307129 -0.05542750284075737
0.5677487850189209 0.6065787672996521 -0.07806454598903656
0.544863224029541 0.6464317440986633 -0.08222460746765137
0.6599226593971252 0.8356972932815552 0.03186338022351265
0.6252408027648926 0.8573004007339478 -0.0008121329010464251
0.5407288074493408 0.8937169909477234 -0.06601700186729431
0.7196298837661743 0.8207976222038269 0.14238575100898743
0.5957136750221252 0.49046722054481506 0.04708753526210785
0.5532402396202087 0.5242628455162048 -0.04864116013050079
0.5788875818252563 0.9038317203521729 -0.017044438049197197
0.7769917249679565 0.6962601542472839 0.1592821329832077
0.563666045665741 0.7471592426300049 -0.050619207322597504
0.5682432055473328 0.7525008320808411 -0.05567462369799614
0.5719775557518005 0.7617143392562866 -0.06119389459490776
0.5742207765579224 0.7748373746871948 -0.05900060757994652
0.5779722929000854 0.7990539073944092 -0.047512780874967575
0.6159692406654358 0.710884690284729 -0.025948509573936462
0.6244935989379883 0.7081843614578247 -0.024354472756385803
0.632095217704773 0.7050422430038452 -0.023813581094145775
0.6495215892791748 0.6958869695663452 -0.01695491373538971
0.7344092726707458 0.6665460467338562 0.03330843523144722
0.5540429949760437 0.506610631942749 -0.020262740552425385
0.5704538226127625 0.4722942113876343 0.034351930022239685
0.5848874449729919 0.47922176122665405 0.04473075270652771
0.6095503568649292 0.708504319190979 -0.025042785331606865
0.7306757569313049 0.7349244952201843 0.05853318050503731
0.549676239490509 0.464998334646225 0.0010415702126920223
0.5840895771980286 0.8233004808425903 -0.04331930726766586
0.5370470881462097 0.5082749724388123 -0.062203630805015564
0.5681647062301636 0.5593200922012329 -0.05812930315732956
0.5389233231544495 0.8376967906951904 -0.06601911038160324
0.6475589275360107 0.7693366408348083 -0.0016116539482027292
0.618945300579071 0.6270674467086792 -0.02482219599187374
0.6183414459228516 0.8001613020896912 -0.02098279446363449
0.680995523929596 0.6323000192642212 -0.01251954771578312
0.6460492610931396 0.6540268659591675 -0.020287254825234413
0.70088791847229 0.6757753491401672 0.0030000333208590746
0.5419761538505554 0.8673523664474487 -0.07050836831331253
0.5830587148666382 0.5749660730361938 -0.04435243830084801
0.6596570014953613 0.7980321645736694 0.013460190035402775
0.6246052384376526 0.8258168697357178 -0.012018747627735138
0.6721814274787903 0.7344369888305664 0.004877191036939621
0.7549945712089539 0.7108159065246582 0.08456520736217499
0.6981829404830933 0.7519866228103638 0.02588563784956932
0.7598870992660522 0.7449108362197876 0.1357543170452118
0.6686865091323853 0.6850358247756958 -0.010026990436017513
0.5679579377174377 0.5429540872573853 -0.03523481264710426
0.5620729327201843 0.5955873131752014 -0.10571279376745224
0.5789797902107239 0.6053723692893982 -0.0817326158285141
0.5528224110603333 0.5768861174583435 -0.12097009271383286
0.590654730796814 0.4514322876930237 0.03279166668653488
0.6298490762710571 0.4380747079849243 0.03218178451061249
0.6643258333206177 0.437214732170105 0.034466322511434555
0.6934276819229126 0.4454604387283325 0.04458710178732872
0.7136290669441223 0.4614068269729614 0.059196144342422485
0.7253398299217224 0.5107434988021851 0.08872080594301224
0.7892186045646667 0.592339038848877 0.18633708357810974
0.7062512636184692 0.5357352495193481 0.060545291751623154
0.680334210395813 0.5381655693054199 0.04425138235092163
0.6475880742073059 0.5364822149276733 0.03271869942545891
0.6161230802536011 0.5299656987190247 0.02773880958557129
0.5924074649810791 0.5202967524528503 0.028051268309354782
0.5769601464271545 0.5103238821029663 0.027186166495084763
0.7866239547729492 0.6092348098754883 0.2753557562828064
0.5783663988113403 0.6124247908592224 -0.0712004154920578
0.5519079566001892 0.5399753451347351 -0.07474914938211441
0.5444546341896057 0.5926414728164673 -0.12611529231071472
0.529604971408844 0.6064833402633667 -0.11986414343118668
0.5436544418334961 0.5987234711647034 -0.1149190366268158
0.5724835991859436 0.6200646758079529 -0.06496249884366989
0.5255976915359497 0.6072865724563599 -0.12697429955005646
0.5225896835327148 0.6151761412620544 -0.10053236037492752
0.5796191692352295 0.49376681447029114 0.043981533497571945
0.565510094165802 0.4956962466239929 0.027159439399838448
0.5575920939445496 0.4957676827907562 0.007988651283085346
0.6948034763336182 0.49586787819862366 0.06362263113260269
0.7097778916358948 0.48517906665802 0.06658144295215607
