ply
format ascii 1.0
element vertex 468
property float x
property float y
property float z
end_header
0.5270967483520508 0.7270055413246155 -0.02259185165166855
0.5588337182998657 0.6659658551216125 -0.10658041387796402
0.5313652753829956 0.6782923340797424 -0.03920083865523338
0.5246873497962952 0.5759219527244568 -0.11338114738464355
0.5617644786834717 0.6421786546707153 -0.12102987617254257
0.555246114730835 0.6048829555511475 -0.12252884358167648
0.528193473815918 0.5040198564529419 -0.09747379273176193
0.31986331939697266 0.48906588554382324 -0.07718516141176224
0.5202121138572693 0.43363702297210693 -0.10540049523115158
0.521844208240509 0.39962852001190186 -0.12377079576253891
0.5102003216743469 0.25555187463760376 -0.1497335284948349
0.5247679948806763 0.7376976609230042 -0.016521822661161423
0.5205792188644409 0.7446361184120178 -0.00682029640302062
0.515594482421875 0.7462209463119507 0.004891535732895136
0.5155947804450989 0.7545902132987976 0.015139501541852951
0.5169873833656311 0.766514778137207 0.015873609110713005
0.5168297290802002 0.7801971435546875 0.016735268756747246
0.5140698552131653 0.7927669286727905 0.027107076719403267
0.5036895871162415 0.8044610023498535 0.05922120437026024
0.551630973815918 0.6751022338867188 -0.09181731939315796
0.5188077688217163 0.672126829624176 -0.06675544381141663
0.1660071462392807 0.36060306429862976 -0.051825959235429764
0.4015505611896515 0.506281852722168 -0.07117994874715805
0.3763350248336792 0.510810136795044 -0.07698772847652435
0.3490794003009796 0.512126088142395 -0.07933852076530457
0.3066815137863159 0.4961293041706085 -0.07414307445287704
0.4218389093875885 0.49866315722465515 -0.06240970641374588
0.35920700430870056 0.4426361918449402 -0.10587919503450394
0.38811567425727844 0.44205912947654724 -0.09711770713329315
0.3322502076625824 0.4484604001045227 -0.10466407984495163
0.3131576478481293 0.4577937126159668 -0.09918690472841263
0.28242242336273193 0.5132206678390503 -0.06346277892589569
0.4072677195072174 0.8411881923675537 0.06974606215953827
0.30496832728385925 0.48041990399360657 -0.07489166408777237
0.16122758388519287 0.4807709753513336 -7.417379674734548e-05
0.2421954721212387 0.49285632371902466 -0.05754847824573517
0.39112669229507446 0.6242212057113647 -0.05056106671690941
0.49815160036087036 0.7270127534866333 -0.030028942972421646
0.4952448308467865 0.7471388578414917 -0.011967474594712257
0.4625215530395508 0.7348712682723999 -0.025462446734309196
0.4364021420478821 0.7405757308006287 -0.015334714204072952
0.46966350078582764 0.7489165663719177 -0.01228513102978468
0.4482264518737793 0.7495290637016296 -0.002253499813377857
0.389087438583374 0.7708756923675537 0.02837377041578293
0.538680911064148 0.6675536632537842 -0.11033809930086136
0.537663459777832 0.644108235836029 -0.12511122226715088
0.274396687746048 0.4379383623600006 -0.1180245578289032
0.4388301968574524 0.553755521774292 -0.06400033086538315
0.4581633508205414 0.6511614918708801 -0.07609943300485611
0.4521632790565491 0.633529782295227 -0.07406216859817505
0.30340299010276794 0.6209336519241333 -0.05363308638334274
0.5325152277946472 0.6087295413017273 -0.12357090413570404
0.35119205713272095 0.4160522222518921 -0.14144735038280487
0.30880600214004517 0.4229542016983032 -0.13538114726543427
0.21032048761844635 0.3220073878765106 -0.10159196704626083
0.4665674567222595 0.433017373085022 -0.11842400580644608
0.4125891327857971 0.4489324688911438 -0.08102411031723022
0.37191206216812134 0.7515143156051636 0.015378300100564957
0.1645818054676056 0.7034384608268738 0.1628229171037674
0.47484034299850464 0.6641961336135864 -0.057605188339948654
0.49482831358909607 0.6699684858322144 -0.04661474749445915
0.39968031644821167 0.7503536939620972 0.01778496243059635
0.4115079939365387 0.7493342161178589 0.016196900978684425
0.29029715061187744 0.40408259630203247 -0.13630017638206482
0.45190736651420593 0.6571264266967773 -0.05939846485853195
0.4029580056667328 0.4180537462234497 -0.13639399409294128
0.3995378315448761 0.3970390260219574 -0.1494981199502945
0.3516795039176941 0.2724263668060303 -0.16750578582286835
0.25299280881881714 0.36368072032928467 -0.12360621243715286
0.38131240010261536 0.3350709080696106 -0.1611723005771637
0.2499978095293045 0.42236727476119995 -0.10963378101587296
0.20937645435333252 0.3938942849636078 -0.08380886167287827
0.49707454442977905 0.7394668459892273 -0.02374476008117199
0.46754953265190125 0.7441070675849915 -0.019504930824041367
0.44345730543136597 0.7458954453468323 -0.010057074017822742
0.47902917861938477 0.66691654920578 -0.04845881089568138
0.40634676814079285 0.7502203583717346 0.017028309404850006
0.4194694459438324 0.7567198872566223 0.015100889839231968
0.4132537543773651 0.7477962970733643 0.016409656032919884
0.4985449016094208 0.663822591304779 -0.09026686102151871
0.4490443468093872 0.745993971824646 0.00312977097928524
0.46980029344558716 0.747239887714386 -0.0012549165403470397
0.49277374148368835 0.7476350665092468 -0.0013382516335695982
0.47270938754081726 0.8078392148017883 0.051266103982925415
0.4840545058250427 0.7943681478500366 0.018493738025426865
0.4883073568344116 0.7810148596763611 0.00902613252401352
0.490524560213089 0.7668772339820862 0.00792186800390482
0.49118760228157043 0.7566971778869629 0.008825976401567459
0.4444161653518677 0.7538056373596191 0.010406152345240116
0.44148483872413635 0.758063554763794 0.009394283406436443
0.4360753297805786 0.7654228806495667 0.010173860937356949
0.4298718571662903 0.7728651165962219 0.015020697377622128
0.4161357581615448 0.7156310081481934 -0.0206019077450037
0.12911418080329895 0.5734548568725586 0.13279154896736145
0.5423637628555298 0.6763548851013184 -0.05890405550599098
0.4291625916957855 0.7514214515686035 0.014341628178954124
0.4253309369087219 0.7538252472877502 0.014142345637083054
0.5026119351387024 0.6799849271774292 -0.041299525648355484
0.45554542541503906 0.6685072183609009 -0.03261477127671242
0.4989830255508423 0.6753502488136292 -0.04502487555146217
0.41238999366760254 0.5679306983947754 -0.05943504348397255
0.3709028959274292 0.5887631773948669 -0.060749590396881104
0.44389110803604126 0.6410202383995056 -0.05861228331923485
0.2706640362739563 0.29196518659591675 -0.14129121601581573
0.30837056040763855 0.3430368900299072 -0.14761804044246674
0.3405500650405884 0.3942362070083618 -0.14900286495685577
0.41196686029434204 0.7870615720748901 0.03243863210082054
0.46166619658470154 0.4008881151676178 -0.14033560454845428
0.4482898712158203 0.33229339122772217 -0.158110573887825
0.42868638038635254 0.26118341088294983 -0.16797417402267456
0.32302528619766235 0.5074777603149414 -0.07740714401006699
0.24916695058345795 0.5317159295082092 -0.05367337912321091
0.4348299205303192 0.49264082312583923 -0.05868697911500931
0.2816777527332306 0.46647295355796814 -0.09102975577116013
0.4590238034725189 0.5394421219825745 -0.07172225415706635
0.48177555203437805 0.6476275324821472 -0.09650779515504837
0.20996728539466858 0.5452204346656799 -0.03326036036014557
0.27664101123809814 0.5535278916358948 -0.061435602605342865
0.3191724419593811 0.564313530921936 -0.06681763380765915
0.3726385235786438 0.5563879013061523 -0.06247910112142563
0.4079931676387787 0.5425572991371155 -0.05853734910488129
0.4328036606311798 0.5305574536323547 -0.05995290353894234
0.5030439496040344 0.5112137794494629 -0.09653639048337936
0.2179112434387207 0.6013827323913574 -0.019302193075418472
0.2544798254966736 0.4618391990661621 -0.09054798632860184
0.539101243019104 0.6758207678794861 -0.09487580507993698
0.4465228319168091 0.5836689472198486 -0.06158813461661339
0.12427923083305359 0.4589131772518158 0.0658709853887558
0.453927606344223 0.5190221071243286 -0.06279526650905609
0.4351048469543457 0.637567937374115 -0.03592176362872124
0.2950409948825836 0.4807417392730713 -0.07369882613420486
0.47523435950279236 0.6259269118309021 -0.09341251105070114
0.13946837186813354 0.6369091272354126 0.15190769731998444
0.43108993768692017 0.48378872871398926 -0.05868549644947052
0.5045629143714905 0.6153215765953064 -0.11373378336429596
0.2692471742630005 0.7874743938446045 0.0891067162156105
0.25278759002685547 0.8029121160507202 0.13890163600444794
0.1620115488767624 0.5921148061752319 0.05354135483503342
0.2250405102968216 0.7507858872413635 0.0921618863940239
0.18176093697547913 0.4318280518054962 -0.03845644369721413
0.3971788287162781 0.8614699244499207 0.0904797911643982
0.5328933000564575 0.676308274269104 -0.06034044176340103
0.42192304134368896 0.6010150909423828 -0.05259024351835251
0.20949994027614594 0.49384015798568726 -0.0434369221329689
0.3540959656238556 0.4986554682254791 -0.08010127395391464
0.3779490888118744 0.49836182594299316 -0.07899075001478195
0.4117032587528229 0.7602587938308716 0.01761683262884617
0.2197427749633789 0.6509809494018555 0.011892048642039299
0.43633782863616943 0.8824694156646729 0.1241932064294815
0.3499845862388611 0.8568169474601746 0.12541821599006653
0.3064236044883728 0.8362516164779663 0.13004975020885468
0.51775062084198 0.32828426361083984 -0.14016875624656677
0.48333972692489624 0.8784055709838867 0.13631778955459595
0.39763718843460083 0.49374425411224365 -0.07373300194740295
0.4163685142993927 0.48743492364883423 -0.06654971092939377
0.42737695574760437 0.484897255897522 -0.06054536625742912
0.22511714696884155 0.4513770043849945 -0.07694807648658752
0.4059771001338959 0.4634989798069 -0.07747632265090942
0.3812867999076843 0.455439031124115 -0.08755098283290863
0.3579540252685547 0.45639216899871826 -0.09312840551137924
0.3350940942764282 0.46304842829704285 -0.09318596869707108
0.320995569229126 0.4711596965789795 -0.08864343166351318
0.13864737749099731 0.4035857915878296 0.008212413638830185
0.3351116478443146 0.4948156774044037 -0.07892297953367233
0.5281846523284912 0.6924664974212646 -0.027895161882042885
0.44267570972442627 0.7032380104064941 -0.027797650545835495
0.47781363129615784 0.6632308959960938 -0.06794934719800949
0.49651023745536804 0.6978839635848999 -0.03471416234970093
0.519559383392334 0.464760422706604 -0.09374305605888367
0.3131469786167145 0.818166971206665 0.09420938789844513
0.3531814515590668 0.8408135175704956 0.09483813494443893
0.4445986747741699 0.8740932941436768 0.09050856530666351
0.20553967356681824 0.7601317167282104 0.15387076139450073
0.4236190617084503 0.476557195186615 -0.06711109727621078
0.49072420597076416 0.5565180778503418 -0.09272994846105576
0.49297380447387695 0.8701785206794739 0.10359656810760498
0.39369696378707886 0.8739464282989502 0.11957265436649323
0.16899462044239044 0.6478695869445801 0.07679206132888794
0.46689561009407043 0.7560198307037354 0.007901153527200222
0.4639870226383209 0.763561487197876 0.006466721650213003
0.4601640999317169 0.7745177745819092 0.00726582296192646
0.45542097091674805 0.7868908643722534 0.014304216019809246
0.43971773982048035 0.8002634048461914 0.037555720657110214
0.42674773931503296 0.7491130232810974 0.005764119327068329
0.42064955830574036 0.7477658987045288 0.002175538334995508
0.41334906220436096 0.7442754507064819 -0.0013646507868543267
0.39093315601348877 0.7322059869766235 -0.008321690373122692
0.2719673216342926 0.6715182065963745 -0.015006438829004765
0.4815184473991394 0.524279773235321 -0.08283958584070206
0.4547879099845886 0.4670569896697998 -0.06943360716104507
0.43523159623146057 0.4684421122074127 -0.06881479918956757
0.4301545321941376 0.7453861236572266 0.010163872502744198
0.25557810068130493 0.7246260643005371 0.040227461606264114
0.48399239778518677 0.4694686532020569 -0.0893946960568428
0.42113468050956726 0.8194839358329773 0.05605429410934448
0.546062707901001 0.5712532997131348 -0.1131417527794838
0.5137796401977539 0.54572594165802 -0.10701877623796463
0.537497341632843 0.5392904877662659 -0.10558321326971054
0.473518967628479 0.5975997447967529 -0.08187171071767807
0.49852073192596436 0.8508315086364746 0.0819721594452858
0.50063556432724 0.8251446485519409 0.07138644903898239
0.4623621702194214 0.829052209854126 0.06350675225257874
0.36073529720306396 0.7810596227645874 0.03944874182343483
0.4119259715080261 0.657289445400238 -0.0316055491566658
0.3870023488998413 0.8034582138061523 0.0500754788517952
0.34793752431869507 0.6566877365112305 -0.04344124346971512
0.38678133487701416 0.6836937665939331 -0.027482779696583748
0.3180801570415497 0.6944679021835327 -0.019226135686039925
0.4534863233566284 0.8546854257583618 0.07078909128904343
0.45234906673431396 0.6074339747428894 -0.0647139698266983
0.33142945170402527 0.7976127862930298 0.060983285307884216
0.36784887313842773 0.820990264415741 0.07155931740999222
0.34227001667022705 0.7546535730361938 0.019166626036167145
0.22295834124088287 0.6913467049598694 0.040465839207172394
0.2985645532608032 0.7561641931533813 0.032884594053030014
0.18628419935703278 0.7000840902328491 0.09378733485937119
0.3615804612636566 0.7145546078681946 -0.01477392390370369
0.46822410821914673 0.5697202086448669 -0.07603730261325836
0.49198052287101746 0.6610755920410156 -0.09774478524923325
0.46712931990623474 0.6609528064727783 -0.07235235720872879
0.5099467039108276 0.6461122035980225 -0.11362280696630478
0.436456561088562 0.4477502107620239 -0.09061258286237717
0.39625465869903564 0.4373565912246704 -0.11086704581975937
0.3590838313102722 0.43613576889038086 -0.11959683150053024
0.32594165205955505 0.439988374710083 -0.11872267723083496
0.2995774745941162 0.44988423585891724 -0.11054649204015732
0.27319663763046265 0.48725786805152893 -0.06856866925954819
0.15869489312171936 0.5366795063018799 0.025940783321857452
0.3024110794067383 0.5254767537117004 -0.06665586680173874
0.33487460017204285 0.5335955619812012 -0.06928007304668427
0.3724934160709381 0.5306728482246399 -0.0667971596121788
0.40437451004981995 0.5219465494155884 -0.06196588650345802
0.4275885224342346 0.5127772688865662 -0.0572286918759346
0.4441540837287903 0.5057368278503418 -0.05604633316397667
0.1243714690208435 0.5145441889762878 0.10474201291799545
0.46359431743621826 0.6635193228721619 -0.0590396486222744
0.49966418743133545 0.5854049324989319 -0.10030033439397812
0.5172070264816284 0.6650391817092896 -0.10731260478496552
0.5229657888412476 0.6720026135444641 -0.08923090249300003
0.5116956233978271 0.6664255261421204 -0.0958174467086792
0.467123806476593 0.6679916977882385 -0.04554261267185211
0.5302796363830566 0.6748097538948059 -0.09291267395019531
0.5245720744132996 0.6754904985427856 -0.06370171159505844
0.44193407893180847 0.485750287771225 -0.05607466399669647
0.4578635096549988 0.4927380681037903 -0.060216277837753296
0.4704972505569458 0.5002957582473755 -0.06999168545007706
0.3127031922340393 0.4766136109828949 -0.0832153856754303
0.29846400022506714 0.46754467487335205 -0.08815833926200867
0.561267077922821 0.5707691311836243 -0.09675014019012451
0.6416304111480713 0.4425004720687866 0.047057293355464935
0.5601730346679688 0.6639993190765381 -0.05437890440225601
0.6752575635910034 0.3193555772304535 0.14011693000793457
0.5785109400749207 0.47874754667282104 0.007955494336783886
0.5999199151992798 0.47785818576812744 0.0183031614869833
0.6204346418380737 0.47369372844696045 0.031236067414283752
0.6422919631004333 0.4485439360141754 0.05714442580938339
0.5637537837028503 0.47615528106689453 -2.342800229371278e-07
0.6199412941932678 0.40887629985809326 -0.005100642330944538
0.594310998916626 0.41586971282958984 -0.01779944822192192
0.6405271887779236 0.4081871807575226 0.011871262453496456
0.6512902975082397 0.4135062098503113 0.026926221325993538
0.6532072424888611 0.4645422399044037 0.07809261977672577
0.5587270259857178 0.8082116842269897 0.12521865963935852
0.6474204063415527 0.4316573143005371 0.05527358874678612
0.6682307720184326 0.42526373267173767 0.19523748755455017
0.6654403209686279 0.4388222098350525 0.10152962803840637
0.6076010465621948 0.5946508646011353 0.02722712978720665
0.5490680932998657 0.7177060842514038 -0.011515016667544842
0.5372160077095032 0.7395501136779785 0.00475460197776556
0.564152181148529 0.7154127955436707 0.01312173530459404
0.5683138966560364 0.7172196507453918 0.038795147091150284
0.5482168197631836 0.7345064878463745 0.02096230909228325
0.5538409352302551 0.73162841796875 0.04293006658554077
0.5745365023612976 0.7386127710342407 0.10019537806510925
0.5743327140808105 0.661090612411499 -0.09977999329566956
0.5790486335754395 0.6378495097160339 -0.11233655363321304
0.6792078018188477 0.3859420120716095 0.032195083796978
0.56935715675354 0.5360365509986877 -0.013209141790866852
0.5927736163139343 0.6295475959777832 -0.02983773872256279
0.5887717008590698 0.6132978200912476 -0.026341579854488373
0.6536633372306824 0.5728026032447815 0.07828593999147415
0.5717010498046875 0.6031233072280884 -0.10759677737951279
0.651009738445282 0.37776798009872437 -0.03672127425670624
0.6715421676635742 0.37624216079711914 -0.004393785260617733
0.6753338575363159 0.285172700881958 0.07108909636735916
0.5650932192802429 0.4201895296573639 -0.0834367424249649
0.5728700160980225 0.42845645546913147 -0.017190294340252876
0.5899349451065063 0.7153165936470032 0.10312236100435257
0.607224702835083 0.6311586499214172 0.3378738760948181
0.5781578421592712 0.6456607580184937 -0.02291865088045597
0.5632599592208862 0.6592223644256592 -0.029442669823765755
0.5690491795539856 0.7239461541175842 0.09312097728252411
0.560564398765564 0.726290225982666 0.08225204795598984
0.6791260242462158 0.3554462790489197 0.0034927581436932087
0.5865952968597412 0.6370542645454407 -0.014453730545938015
0.6171575784683228 0.39074236154556274 -0.06421555578708649
0.6230596303939819 0.36926424503326416 -0.07572814077138901
0.6274643540382385 0.251366525888443 -0.06801251322031021
0.6781972646713257 0.3208945095539093 0.031209278851747513
0.6251699328422546 0.3109266459941864 -0.07589008659124374
0.6847079992294312 0.36974063515663147 0.05114204064011574
0.6816542148590088 0.34681814908981323 0.09079749882221222
0.5443834662437439 0.7306126356124878 -0.005578599404543638
0.5564542412757874 0.7272489666938782 0.01629544049501419
0.5621057748794556 0.724964439868927 0.03905626758933067
0.5719038844108582 0.6510894298553467 -0.020617099478840828
0.5649406313896179 0.7256172895431519 0.08675266802310944
0.5616277456283569 0.73395174741745 0.07316581159830093
0.5581401586532593 0.7250434160232544 0.08054730296134949
0.5811353325843811 0.6467528343200684 -0.058886781334877014
0.5468683242797852 0.7307004928588867 0.04604818671941757
0.5400605797767639 0.7356409430503845 0.03015618398785591
0.5296963453292847 0.7414025068283081 0.01579374074935913
0.527924120426178 0.7972683310508728 0.06834409385919571
0.5367586016654968 0.7843819856643677 0.03667079657316208
0.5378293991088867 0.7719219326972961 0.02787192538380623
0.5357248783111572 0.7589486241340637 0.0262297336012125
0.5318368077278137 0.7496311664581299 0.026004677638411522
0.5496196746826172 0.7366300821304321 0.053767140954732895
0.5535824298858643 0.7394472360610962 0.0528019517660141
0.5583995580673218 0.7445780038833618 0.05477578565478325
0.5611014366149902 0.7503403425216675 0.06375154107809067
0.5891197323799133 0.6885429620742798 0.04299715533852577
0.6275001168251038 0.5108798146247864 0.3312876522541046
0.5529681444168091 0.7321850061416626 0.06984373927116394
0.5575173497200012 0.7328546047210693 0.0698174312710762
0.555331826210022 0.6718559861183167 -0.024481667205691338
0.5764042139053345 0.6518667936325073 0.002542617730796337
0.5596921443939209 0.6661899089813232 -0.028391676023602486
0.584547758102417 0.5447103977203369 0.00898766703903675
0.6155151724815369 0.5560445189476013 0.03305637091398239
0.5864498615264893 0.6204882264137268 -0.00974803976714611
0.6620088815689087 0.2613079249858856 -0.0003436396655160934
0.6611223220825195 0.307233989238739 -0.02341773360967636
0.6580530405044556 0.3547998070716858 -0.03872215375304222
0.5635930299758911 0.7589577436447144 0.09093857556581497
0.5762100219726562 0.38773834705352783 -0.10232984274625778
0.5784499049186707 0.3200044631958008 -0.1134670078754425
0.5785923004150391 0.2501707375049591 -0.11785586178302765
0.6353865265846252 0.46334168314933777 0.04629998654127121
0.6668252944946289 0.4785078167915344 0.10344106703996658
0.5554860830307007 0.47301390767097473 -0.0026229999493807554
0.6624960899353027 0.41592666506767273 0.05387546494603157
0.5604356527328491 0.5254719853401184 -0.03098500333726406
0.5917048454284668 0.6289896965026855 -0.059009864926338196
0.6755610704421997 0.48629507422447205 0.14552585780620575
0.6619242429733276 0.5036787390708923 0.0857163518667221
0.6431165933609009 0.5221034288406372 0.05718397721648216
0.6071903705596924 0.5249090790748596 0.0318533256649971
0.5804563760757446 0.5185204148292542 0.012557157315313816
0.5645338296890259 0.5120323300361633 -0.006971969269216061
0.5452991724014282 0.505371630191803 -0.07869868725538254
0.6752815246582031 0.5399614572525024 0.15745744109153748
0.6728968620300293 0.4087435305118561 0.06748569756746292
0.5612263679504395 0.6717140078544617 -0.08670808374881744
0.5722980499267578 0.5665364861488342 -0.013245409354567528
0.6483055353164673 0.408387690782547 0.27127164602279663
0.5538597106933594 0.5048296451568604 -0.021523844450712204
0.5810115337371826 0.6174750924110413 0.012211478315293789
0.6496383547782898 0.43104851245880127 0.06307301670312881
0.5860341787338257 0.6089892983436584 -0.05533510819077492
0.6196461915969849 0.56816166639328 0.3409545123577118
0.5555123090744019 0.46309342980384827 4.187345984973945e-05
0.5809388160705566 0.6041374206542969 -0.08568459749221802
0.6054450869560242 0.7213795781135559 0.2190738022327423
0.5865373611450195 0.7353097796440125 0.2708936631679535
0.6616262197494507 0.5256580710411072 0.24725322425365448
0.6218076944351196 0.6796993017196655 0.2453586608171463
0.6758134961128235 0.38228777050971985 0.14793449640274048
0.556080162525177 0.8251769542694092 0.15077058970928192
0.5505111217498779 0.6734833717346191 -0.05522125959396362
0.5839018821716309 0.5791447758674622 0.007321752142161131
0.6711359024047852 0.43758445978164673 0.13225042819976807
0.6226696968078613 0.45922648906707764 0.028529426082968712
0.6028696298599243 0.4645065367221832 0.01721350848674774
0.5652015209197998 0.7355067133903503 0.08050825446844101
0.664507269859314 0.5862621068954468 0.18089015781879425
0.5215232372283936 0.8629009127616882 0.15706101059913635
0.5578098893165588 0.8089741468429565 0.20942996442317963
0.5696334838867188 0.7773718237876892 0.23648382723331451
0.5836221575737 0.46487483382225037 0.00832259003072977
0.5672823786735535 0.46299105882644653 0.004325158894062042
0.5585191249847412 0.4633123278617859 0.00317955669015646
0.6779009103775024 0.39790284633636475 0.09351843595504761
0.571828305721283 0.43833112716674805 -0.004775469657033682
0.590108335018158 0.4252738654613495 -0.0031645800918340683
0.6125384569168091 0.41969984769821167 0.004951486364006996
0.6327506899833679 0.42017632722854614 0.0184260755777359
0.6420421004295349 0.425258994102478 0.030792690813541412
0.6663968563079834 0.35853689908981323 0.2099243402481079
0.6346157789230347 0.4511595070362091 0.03946965932846069
0.5807812213897705 0.6822301149368286 0.019887981936335564
0.5824475884437561 0.6438049077987671 -0.03564300015568733
0.5540733337402344 0.6883811950683594 -0.015117171220481396
0.5868117213249207 0.759400486946106 0.1988544911146164
0.5706964731216431 0.791458010673523 0.17666687071323395
0.5322733521461487 0.8542864322662354 0.12298351526260376
0.5964506268501282 0.6884725093841553 0.3101767897605896
0.5610975623130798 0.4541212320327759 -0.002423881785944104
0.5615482330322266 0.5466041564941406 -0.06506267935037613
0.5436599254608154 0.8385462164878845 0.18120639026165009
0.6509358882904053 0.5772520303726196 0.26127976179122925
0.5431004166603088 0.7430993318557739 0.039352234452962875
0.5472280383110046 0.7492458820343018 0.03908364847302437
0.5510241985321045 0.7582923173904419 0.0413813591003418
0.5522329211235046 0.7691459655761719 0.05035945028066635
0.5485131740570068 0.7797942161560059 0.07921312749385834
0.5574912428855896 0.7283315062522888 0.06371193379163742
0.5639710426330566 0.7245559692382812 0.0658295750617981
0.5696649551391602 0.7189179062843323 0.06662393361330032
0.5925295948982239 0.7000177502632141 0.07185140252113342
0.6531994342803955 0.6145416498184204 0.12733566761016846
0.5527210235595703 0.5143133401870728 -0.05393030121922493
0.5481891632080078 0.4531415104866028 -0.032362475991249084
0.5558834671974182 0.4506255090236664 -0.015287373214960098
0.5520610809326172 0.7265753746032715 0.06524426490068436
0.6350562572479248 0.6607698202133179 0.18395841121673584
0.5414227247238159 0.4612662196159363 -0.06736759096384048
0.5524802207946777 0.7919710874557495 0.10352618247270584
0.5540652871131897 0.5399950742721558 -0.09208396822214127
0.5736456513404846 0.58318030834198 -0.04661506041884422
0.5298537015914917 0.8148249387741089 0.08644920587539673
0.5883605480194092 0.737898051738739 0.12352384626865387
0.5940592885017395 0.6323146224021912 0.030180074274539948
0.5705416798591614 0.7662762999534607 0.11616522073745728
0.6323960423469543 0.6154991984367371 0.05781805142760277
0.6078914999961853 0.6515592336654663 0.05125047639012337
0.6364020109176636 0.645260214805603 0.09628691524267197
0.5351812839508057 0.8371040225028992 0.10118380188941956
0.5762338638305664 0.5902606248855591 -0.02080225758254528
0.5951883792877197 0.7442065477371216 0.15939338505268097
0.5744475722312927 0.7762155532836914 0.14651601016521454
0.6059772968292236 0.7084224820137024 0.12166198343038559
0.6500202417373657 0.6241418123245239 0.20154087245464325
0.6189833879470825 0.6982529163360596 0.15333247184753418
0.63741534948349 0.6271933317184448 0.26765790581703186
0.6124284267425537 0.6757705807685852 0.07921381294727325
0.5665539503097534 0.5558793544769287 -0.037796035408973694
0.5879883170127869 0.6421027183532715 -0.06335346400737762
0.5891730785369873 0.6398701667785645 -0.03345240280032158
0.587896466255188 0.6326850652694702 -0.08542358875274658
0.5676883459091187 0.42888113856315613 -0.03886354714632034
0.6036381721496582 0.40865927934646606 -0.03403827175498009
0.6338215470314026 0.3999989628791809 -0.019160712137818336
0.6550527811050415 0.3981175422668457 0.0028224403504282236
0.6643763780593872 0.4024930000305176 0.02542922832071781
0.6563386917114258 0.4357781410217285 0.07761980593204498
0.6667166948318481 0.4749290347099304 0.22523313760757446
0.6462281346321106 0.47996747493743896 0.06599567085504532
0.6288837194442749 0.49430304765701294 0.0459904745221138
0.6024046540260315 0.4986885190010071 0.027435079216957092
0.5777555108070374 0.4964485168457031 0.01166174653917551
0.562021017074585 0.49250921607017517 -0.001921764574944973
0.5522030591964722 0.4893808960914612 -0.01120442058891058
0.6342282295227051 0.45814794301986694 0.30859801173210144
0.583450973033905 0.6439234018325806 -0.021187186241149902
0.5702725052833557 0.5752456188201904 -0.07232015579938889
0.5834203958511353 0.6517771482467651 -0.08516829460859299
0.5667493939399719 0.662825882434845 -0.07672058790922165
0.5780760049819946 0.6522367596626282 -0.0734231173992157
0.5755186080932617 0.6518380045890808 -0.013776496984064579
0.5659273266792297 0.6677516102790833 -0.0825195387005806
0.5563620924949646 0.669711709022522 -0.05460316687822342
0.550777018070221 0.4678456783294678 -0.007630753330886364
0.544264018535614 0.47963935136795044 -0.02508658543229103
0.5448776483535767 0.4896591305732727 -0.040290169417858124
0.6457823514938354 0.42911022901535034 0.04204264283180237
0.6544700264930725 0.41909265518188477 0.04490237683057785
