ply
format ascii 1.0
element vertex 468
property float x
property float y
property float z
end_header
0.44738513231277466 0.7023892998695374 -0.08330220729112625
0.40719449520111084 0.6263469457626343 -0.14408598840236664
0.4390946626663208 0.6543424129486084 -0.08364419639110565
0.4083600342273712 0.5385103225708008 -0.09142592549324036
0.40511736273765564 0.5978407859802246 -0.1506228893995285
0.4143890142440796 0.5624558329582214 -0.13770300149917603
0.44840139150619507 0.47825610637664795 -0.05930967628955841
0.32759347558021545 0.4788441061973572 0.1230340227484703
0.45955890417099 0.40218794345855713 -0.0321645624935627
0.458868145942688 0.3636431396007538 -0.03217398747801781
0.47310882806777954 0.2448502779006958 0.004224291071295738
0.45009443163871765 0.7148856520652771 -0.08072870224714279
0.45530059933662415 0.7245200872421265 -0.0744844600558281
0.4615541994571686 0.7276119589805603 -0.06452319771051407
0.4583382308483124 0.7758436799049377 -0.05004962161183357
0.45563578605651855 0.7877897024154663 -0.05537973716855049
0.4545040726661682 0.8022637367248535 -0.061327945441007614
0.4559108018875122 0.8180551528930664 -0.05862479284405708
0.4630296230316162 0.8380535840988159 -0.03922705352306366
0.41582414507865906 0.6418997645378113 -0.13238425552845
0.4061768054962158 0.640507698059082 -0.09010010212659836
0.31521475315093994 0.38737279176712036 0.2959862947463989
0.388811320066452 0.4999978542327881 0.06572114676237106
0.3665298819541931 0.5020620822906494 0.07825599610805511
0.34623193740844727 0.5006566643714905 0.09547185152769089
0.3250909149646759 0.4866746664047241 0.13113175332546234
0.40639734268188477 0.4931395351886749 0.05775513872504234
0.3532640039920807 0.4233073592185974 0.07602164894342422
0.37886926531791687 0.4265417456626892 0.0624363087117672
0.3315187990665436 0.4282480478286743 0.094786137342453
0.3198625445365906 0.44040098786354065 0.1109117791056633
0.31358182430267334 0.5034651160240173 0.14930886030197144
0.389236718416214 0.8561480641365051 0.029888221994042397
0.3228909373283386 0.4725872278213501 0.13627713918685913
0.3113654553890228 0.49435919523239136 0.29637783765792847
0.30734655261039734 0.4855594038963318 0.18841539323329926
0.3455204665660858 0.6013874411582947 0.030623026192188263
0.4134761691093445 0.6973477005958557 -0.06493398547172546
0.4266192317008972 0.7227449417114258 -0.05580539628863335
0.3863700330257416 0.7017712593078613 -0.03268234431743622
0.3755667209625244 0.7092587351799011 0.0038096425123512745
0.40684643387794495 0.7220067381858826 -0.02899712696671486
0.39518845081329346 0.7236706018447876 0.003008539555594325
0.3672066628932953 0.760037899017334 0.060765914618968964
0.38908737897872925 0.625622570514679 -0.13467256724834442
0.38508886098861694 0.5983761548995972 -0.13902124762535095
0.30096232891082764 0.41407036781311035 0.13864171504974365
0.395940899848938 0.5385993123054504 0.015629740431904793
0.36289650201797485 0.6163670420646667 -0.047538965940475464
0.36656126379966736 0.6020607948303223 -0.03755633533000946
0.29421013593673706 0.5962855219841003 0.10087927430868149
0.3948155641555786 0.5655818581581116 -0.11920367181301117
0.32783299684524536 0.3793025016784668 0.06859277188777924
0.3086453676223755 0.390928715467453 0.10539468377828598
0.31671419739723206 0.33930695056915283 0.23945403099060059
0.411146879196167 0.3972722291946411 -0.0025755581445991993
0.40106281638145447 0.4376848638057709 0.058673106133937836
0.3514918088912964 0.7269721627235413 0.07504905760288239
0.3588753938674927 0.7264071702957153 0.3261253237724304
0.38154545426368713 0.6319174766540527 -0.047240808606147766
0.40029245615005493 0.6423024535179138 -0.06279801577329636
0.3669336438179016 0.7284225225448608 0.06792961061000824
0.3799933195114136 0.730273425579071 0.0554647371172905
0.30486685037612915 0.3754136562347412 0.12425919622182846
0.36883345246315 0.6272129416465759 -0.03516629338264465
0.35910511016845703 0.3784520626068115 0.03106638416647911
0.3547276258468628 0.3578324317932129 0.02935192920267582
0.3586629629135132 0.2695900797843933 0.09927926957607269
0.3090685307979584 0.35782361030578613 0.1748548150062561
0.35670897364616394 0.31360942125320435 0.06302870064973831
0.2983206510543823 0.4043651223182678 0.16800548136234283
0.3049887418746948 0.3982897996902466 0.22817791998386383
0.41851627826690674 0.7116941809654236 -0.06207844242453575
0.39625853300094604 0.7134883999824524 -0.031251899898052216
0.3841783404350281 0.716302216053009 0.0014149332419037819
0.38890790939331055 0.6370605230331421 -0.04670131579041481
0.3726253807544708 0.7293728590011597 0.06055673211812973
0.3786749243736267 0.748440146446228 0.03929992765188217
0.3862784802913666 0.7303140163421631 0.05353406444191933
0.38032370805740356 0.624776303768158 -0.08316579461097717
0.4047151207923889 0.7225420475006104 0.004043865948915482
0.41698795557022095 0.7232739925384521 -0.021780170500278473
0.43550556898117065 0.7256472706794739 -0.04571970924735069
0.4271300435066223 0.8332033753395081 -0.0223492793738842
0.42093542218208313 0.8119474053382874 -0.03910860791802406
0.42082926630973816 0.7963851690292358 -0.04026447609066963
0.42455101013183594 0.7820138335227966 -0.033875759690999985
0.43032312393188477 0.7720358371734619 -0.03003341145813465
0.39952459931373596 0.7559487819671631 0.01559735182672739
0.39324915409088135 0.7590530514717102 0.011908630840480328
0.3857187032699585 0.7656603455543518 0.00881762895733118
0.3813408613204956 0.7736743688583374 0.01593087427318096
0.3586122393608093 0.68707275390625 0.017544271424412727
0.3481307625770569 0.6046951413154602 0.3861372768878937
0.4264654517173767 0.6482853293418884 -0.10085376352071762
0.3939654231071472 0.7472619414329529 0.03956034779548645
0.38516509532928467 0.7470444440841675 0.03740887716412544
0.40848058462142944 0.6536343693733215 -0.06493707001209259
0.3808395564556122 0.642409086227417 -0.024326054379343987
0.40415114164352417 0.6483349800109863 -0.06457323580980301
0.374122679233551 0.5523753762245178 0.034418508410453796
0.33836695551872253 0.5678039789199829 0.05716880410909653
0.36829325556755066 0.6132420897483826 -0.023165803402662277
0.3282274901866913 0.29938849806785583 0.1704317331314087
0.3250754773616791 0.32876038551330566 0.11973951011896133
0.32302719354629517 0.3597853481769562 0.07845526933670044
0.3805598020553589 0.7879104018211365 0.03691825643181801
0.40135711431503296 0.3620229959487915 -0.006349236238747835
0.4022233486175537 0.3087305426597595 0.018461918458342552
0.4049585461616516 0.2530357539653778 0.04179650545120239
0.3313928544521332 0.49601107835769653 0.11559587717056274
0.29923325777053833 0.5207122564315796 0.17212925851345062
0.41745591163635254 0.48562902212142944 0.05717922002077103
0.31116536259651184 0.4521922469139099 0.1452484130859375
0.4093248248100281 0.5222830772399902 0.0009017473785206676
0.36630797386169434 0.6073415279388428 -0.07760156691074371
0.28915929794311523 0.5382422208786011 0.2118069976568222
0.2995475232601166 0.5365554094314575 0.14094892144203186
0.3147231638431549 0.5443698167800903 0.1023365929722786
0.35113781690597534 0.5410641431808472 0.07160621136426926
0.38153088092803955 0.5317527651786804 0.05116720125079155
0.40353816747665405 0.5201975107192993 0.033735573291778564
0.42966678738594055 0.48611027002334595 -0.03832506388425827
0.2786725163459778 0.5882741808891296 0.19935283064842224
0.30383583903312683 0.4479449689388275 0.16690227389335632
0.40464383363723755 0.6407109498977661 -0.12520425021648407
0.38941627740859985 0.5634580254554749 -0.00064068753272295
0.33684927225112915 0.49476853013038635 0.3839380145072937
0.4182077646255493 0.5063061118125916 0.023009581491351128
0.37326085567474365 0.6144959926605225 0.0022098845802247524
0.3195570707321167 0.4719316065311432 0.14547695219516754
0.37232428789138794 0.5899499654769897 -0.06622976809740067
0.35157471895217896 0.6634250283241272 0.36344337463378906
0.4193944036960602 0.47654861211776733 0.06578417122364044
0.38216274976730347 0.5750487446784973 -0.09647893905639648
0.34640270471572876 0.7860162258148193 0.1697974056005478
0.37129294872283936 0.8155169486999512 0.20820611715316772
0.30154532194137573 0.5987249612808228 0.29714730381965637
0.33115702867507935 0.7519819736480713 0.21440815925598145
0.3079497516155243 0.443739116191864 0.2712869942188263
0.3923977017402649 0.8799757361412048 0.041902560740709305
0.41692739725112915 0.6472911834716797 -0.09559379518032074
0.37231725454330444 0.5815370082855225 0.01459086686372757
0.3036709725856781 0.4909297823905945 0.22351668775081635
0.345578670501709 0.48668718338012695 0.09700415283441544
0.36517828702926636 0.48862355947494507 0.08249498158693314
0.37391263246536255 0.751176655292511 0.04615148901939392
0.28355881571769714 0.6386702060699463 0.1985650658607483
0.43095090985298157 0.9193594455718994 0.023144595324993134
0.3935338854789734 0.8755893111228943 0.1123436838388443
0.3841865658760071 0.8497064709663391 0.1563151627779007
0.46378302574157715 0.3061882257461548 -0.015675300732254982
0.4753434956073761 0.9304893016815186 -0.008363931439816952
0.3851338028907776 0.4872601628303528 0.07215064018964767
0.40308576822280884 0.48248130083084106 0.06805599480867386
0.4141552448272705 0.47906267642974854 0.06873872876167297
0.3018202781677246 0.4441869854927063 0.20088249444961548
0.40111595392227173 0.4616085886955261 0.06738778948783875
0.3818795382976532 0.45544615387916565 0.07200643420219421
0.36068764328956604 0.4536735415458679 0.08250906318426132
0.3411922752857208 0.4573533535003662 0.09708580374717712
0.3305533826351166 0.4639706611633301 0.1099964827299118
0.3212856650352478 0.43638330698013306 0.34810903668403625
0.3343522548675537 0.48309487104415894 0.11169460415840149
0.4443269670009613 0.6703702807426453 -0.07760589569807053
0.3721212148666382 0.6749729514122009 -0.01262450497597456
0.37706124782562256 0.6282857656478882 -0.05735598877072334
0.4094920754432678 0.6711225509643555 -0.059881992638111115
0.4590314030647278 0.4409877061843872 -0.03705795481801033
0.36466437578201294 0.8200595378875732 0.13060437142848969
0.3791220188140869 0.8488928079605103 0.08807805925607681
0.41973400115966797 0.9042872190475464 -0.0035545381251722574
0.36461663246154785 0.7780889272689819 0.27013304829597473
0.41317039728164673 0.4704750180244446 0.06716437637805939
0.40780699253082275 0.5284876227378845 -0.0444498211145401
0.46524178981781006 0.9147529602050781 -0.03312202915549278
0.405967652797699 0.8998060822486877 0.06511203944683075
0.3074316084384918 0.6535121202468872 0.2823353707790375
0.4112582802772522 0.7647876143455505 -0.006964518688619137
0.40467363595962524 0.7715983986854553 -0.010435419157147408
0.3988701105117798 0.7827335596084595 -0.013365357182919979
0.39600270986557007 0.796527087688446 -0.008959528058767319
0.3981497287750244 0.8138488531112671 0.009254532866179943
0.3860384225845337 0.7253764867782593 0.032984163612127304
0.3763227164745331 0.7214616537094116 0.0376415029168129
0.36901283264160156 0.7165783047676086 0.040038492530584335
0.35047972202301025 0.7038729190826416 0.05142080411314964
0.2900884747505188 0.6516283750534058 0.13135556876659393
0.42033594846725464 0.5028207302093506 -0.016989126801490784
0.4274565577507019 0.45215946435928345 0.03613370284438133
0.42020922899246216 0.45819157361984253 0.0567689947783947
0.3956982493400574 0.7233009338378906 0.03266190364956856
0.310824453830719 0.7140130400657654 0.1663115918636322
0.43494129180908203 0.4473951458930969 -0.006836382672190666
0.3950802683830261 0.8327267169952393 0.019824670627713203
0.426408588886261 0.5342047214508057 -0.11080126464366913
0.41801708936691284 0.5141900181770325 -0.06842292845249176
0.43708890676498413 0.5082207918167114 -0.08397206664085388
0.38873618841171265 0.5682429671287537 -0.04304051026701927
0.4612705409526825 0.8907305002212524 -0.04224628210067749
0.4623633027076721 0.8615400195121765 -0.04055725783109665
0.4230348467826843 0.8550898432731628 -0.01708235964179039
0.3599531054496765 0.7695954442024231 0.07893440872430801
0.35995370149612427 0.6348298192024231 0.019304974004626274
0.3768339157104492 0.8038384914398193 0.05140423774719238
0.3149721920490265 0.6306341886520386 0.0556897334754467
0.34332045912742615 0.6589193344116211 0.03810498118400574
0.3085092008113861 0.6703104972839355 0.08656198531389236
0.41746044158935547 0.8818656206130981 -0.013194122351706028
0.38228505849838257 0.582597553730011 -0.020473184064030647
0.3546452522277832 0.7905611991882324 0.10467303544282913
0.3741443157196045 0.8234596848487854 0.06920062005519867
0.3406229317188263 0.7332617044448853 0.0921114981174469
0.29786399006843567 0.6826146841049194 0.1996348649263382
0.32730838656425476 0.7408914566040039 0.12296945601701736
0.31876200437545776 0.7050138115882874 0.26210588216781616
0.33517441153526306 0.6875962615013123 0.06356733292341232
0.39950335025787354 0.5461088418960571 -0.02072884514927864
0.3716115653514862 0.6198363900184631 -0.08596388250589371
0.36807188391685486 0.625324547290802 -0.056111931800842285
0.37335440516471863 0.6017821431159973 -0.10685098171234131
0.4072246551513672 0.42458054423332214 0.04086935520172119
0.37083202600479126 0.4083783030509949 0.05456341430544853
0.3408676087856293 0.4062671959400177 0.07272784411907196
0.3194751441478729 0.413610577583313 0.09688518196344376
0.30965548753738403 0.4286835193634033 0.12126876413822174
0.3149242103099823 0.4786166250705719 0.1617538332939148
0.3045618534088135 0.5462818145751953 0.301579087972641
0.31776127219200134 0.5133377313613892 0.1295703947544098
0.33398717641830444 0.5196467638015747 0.1028810441493988
0.36014875769615173 0.5199452638626099 0.07875354588031769
0.3872685134410858 0.5145872235298157 0.05988668277859688
0.4079214036464691 0.5058839321136475 0.04843434318900108
0.4207580089569092 0.49688538908958435 0.03959382697939873
0.346144437789917 0.549331784248352 0.39520877599716187
0.3741794228553772 0.6317873597145081 -0.044574327766895294
0.39630430936813354 0.5508614182472229 -0.06708552688360214
0.3786284327507019 0.6218423247337341 -0.1142563447356224
0.39875417947769165 0.6363638043403625 -0.11175047606229782
0.384900838136673 0.6265199184417725 -0.10217274725437164
0.3833886981010437 0.6395416855812073 -0.04117303341627121
0.3995935022830963 0.6389298439025879 -0.12031751871109009
0.410442054271698 0.6452033519744873 -0.0928046852350235
0.4250245690345764 0.47637075185775757 0.05499223992228508
0.4311062693595886 0.4813884496688843 0.030875200405716896
0.4298896789550781 0.48473820090293884 0.009348031133413315
0.3254737854003906 0.468822181224823 0.12200339138507843
0.3161846399307251 0.4542985260486603 0.12952230870723724
0.4508981704711914 0.538243293762207 -0.1137203723192215
0.6888315677642822 0.47331029176712036 -0.03913765773177147
0.4566008448600769 0.6424318552017212 -0.10761889070272446
0.8496124148368835 0.3635687232017517 0.04571493715047836
0.5987144708633423 0.4949674904346466 -0.0386856272816658
0.6269184350967407 0.4969753623008728 -0.046861231327056885
0.6568745374679565 0.49584829807281494 -0.049642954021692276
0.7054688334465027 0.4811135530471802 -0.04082515090703964
0.5754864811897278 0.48872214555740356 -0.023584622889757156
0.6362720131874084 0.4115775227546692 -0.05562329292297363
0.6039417386054993 0.41547146439552307 -0.0410158596932888
0.669831395149231 0.4166985750198364 -0.05722217261791229
0.6944574117660522 0.4293692409992218 -0.053494639694690704
0.7299039959907532 0.497268944978714 -0.03531777113676071
0.5802732110023499 0.8699221611022949 -0.04888520389795303
0.7037743926048279 0.4657875597476959 -0.03336934745311737
0.8572710156440735 0.4849170446395874 0.043487805873155594
0.7704998254776001 0.4775499999523163 -0.01922435685992241
0.6118197441101074 0.6003338694572449 -0.07672709971666336
0.49151769280433655 0.698479413986206 -0.09500058740377426
0.4971854090690613 0.7241551876068115 -0.08384773135185242
0.5455139875411987 0.7049722075462341 -0.09362665563821793
0.5847935080528259 0.7116585969924927 -0.0796862468123436
0.537017822265625 0.7246116995811462 -0.08331793546676636
0.5706426501274109 0.7251813411712646 -0.06917771697044373
0.6334353089332581 0.7640889883041382 -0.044976893812417984
0.4314255118370056 0.6263155937194824 -0.14894068241119385
0.4332274794578552 0.5982476472854614 -0.1560736894607544
0.7378397583961487 0.3998969793319702 -0.05688165873289108
0.5507286787033081 0.5367327928543091 -0.05370672419667244
0.5318716764450073 0.6163907647132874 -0.11321554332971573
0.5388514995574951 0.6013835668563843 -0.10529962182044983
0.7133346199989319 0.5955622792243958 -0.0761309340596199
0.4406084418296814 0.5651400089263916 -0.14094047248363495
0.6509969830513 0.3635569214820862 -0.06649702042341232
0.6986621618270874 0.3757818639278412 -0.06428848206996918
0.7993718981742859 0.31215527653694153 0.015054524876177311
0.5210883617401123 0.3913750648498535 -0.04615006223320961
0.5786914825439453 0.4287169575691223 -0.024852147325873375
0.6582993865013123 0.7298052310943604 -0.051814813166856766
0.8523532152175903 0.7438563108444214 0.09262659400701523
0.5137033462524414 0.6332458257675171 -0.09702158719301224
0.48872482776641846 0.642857015132904 -0.08744452148675919
0.6380048990249634 0.7280646562576294 -0.043242570012807846
0.625013530254364 0.7293304204940796 -0.04323996976017952
0.7193509340286255 0.3577709496021271 -0.05695203319191933
0.5418311357498169 0.6270061135292053 -0.09950391948223114
0.5923395156860352 0.36610397696495056 -0.06142127141356468
0.5955957770347595 0.34374189376831055 -0.06593931466341019
0.6424007415771484 0.24836888909339905 -0.028163494542241096
0.7565115690231323 0.33579209446907043 -0.025684138759970665
0.6128518581390381 0.2964538335800171 -0.04646514728665352
0.7632217407226562 0.3882521986961365 -0.0414862260222435
0.8043968677520752 0.3785502314567566 0.0013301015133038163
0.49439525604248047 0.7133045196533203 -0.09220459312200546
0.5399278998374939 0.7166463732719421 -0.08928189426660538
0.576953649520874 0.718430757522583 -0.0760238841176033
0.5091265439987183 0.6382061243057251 -0.08647095412015915
0.6315767765045166 0.728550910949707 -0.04236883670091629
0.6086097955703735 0.7485856413841248 -0.04819190502166748
0.6218245029449463 0.7296913862228394 -0.042244210839271545
0.48225027322769165 0.6275061368942261 -0.12781187891960144
0.5698595643043518 0.722748875617981 -0.0643182247877121
0.5363947749137878 0.7246538400650024 -0.07294115424156189
0.5003523826599121 0.7262539267539978 -0.07482485473155975
0.5097987651824951 0.8366617560386658 -0.05074905976653099
0.5023879408836365 0.8144372701644897 -0.07057107985019684
0.49919477105140686 0.7988842725753784 -0.07297059148550034
0.4976338744163513 0.7842779755592346 -0.06624334305524826
0.4973502457141876 0.7740755081176758 -0.06078842282295227
0.5697699189186096 0.7571550607681274 -0.052563901990652084
0.5734871625900269 0.7605283856391907 -0.057268932461738586
0.5798060297966003 0.7672874927520752 -0.061879962682724
0.5858427286148071 0.775877058506012 -0.05937548354268074
0.600948691368103 0.6888687014579773 -0.07599704712629318
0.8943716287612915 0.6076187491416931 0.12713147699832916
0.5942381024360657 0.7475789189338684 -0.04459189996123314
0.6008678078651428 0.7472915053367615 -0.04725019261240959
0.47940659523010254 0.6543383002281189 -0.08915244042873383
0.5399193167686462 0.6421681642532349 -0.07567661255598068
0.48346349596977234 0.6491082906723022 -0.08866191655397415
0.5842087864875793 0.5500861406326294 -0.058161426335573196
0.6339767575263977 0.5655201077461243 -0.0688444972038269
0.55077064037323 0.6125038862228394 -0.0931650772690773
0.7317178249359131 0.272539347410202 -0.01203463040292263
0.6954017281532288 0.3070424199104309 -0.04104575887322426
0.6623960137367249 0.3421840965747833 -0.06528591364622116
0.5994261503219604 0.7942754626274109 -0.05027701333165169
0.5262093544006348 0.3533180356025696 -0.053895484656095505
0.5388107299804688 0.2995249629020691 -0.038083214312791824
0.5589156150817871 0.2408965826034546 -0.02219027280807495
0.6866726279258728 0.4909587502479553 -0.046725038439035416
0.7649374008178711 0.5149087309837341 -0.03322839364409447
0.5605027079582214 0.48186731338500977 -0.015623689629137516
0.7301185131072998 0.4428566098213196 -0.042553212493658066
0.5265781879425049 0.5205116271972656 -0.05435165390372276
0.5010536909103394 0.6081541776657104 -0.13050681352615356
0.8076753616333008 0.5338905453681946 -0.020542608574032784
0.736652672290802 0.5316357612609863 -0.05230042710900307
0.6905841827392578 0.5399952530860901 -0.06229645758867264
0.6307344436645508 0.5377030968666077 -0.05430180951952934
0.5891421437263489 0.5287451148033142 -0.043892256915569305
0.5581828355789185 0.5176064372062683 -0.037808407098054886
0.47655147314071655 0.48483943939208984 -0.06167244538664818
0.8039674162864685 0.5889513492584229 -0.03274263069033623
0.7574129700660706 0.437031090259552 -0.039242129772901535
0.43055832386016846 0.6413064002990723 -0.13658496737480164
0.5434376001358032 0.5619410872459412 -0.06775612384080887
0.8982424139976501 0.4831865429878235 0.1156512126326561
0.5337780117988586 0.5037723183631897 -0.03204033151268959
0.5623828172683716 0.6133204102516174 -0.06732837855815887
0.7178802490234375 0.46469640731811523 -0.03225494176149368
0.509380578994751 0.5897323489189148 -0.12003425508737564
0.8815737366676331 0.6740546822547913 0.11513706296682358
0.5639153718948364 0.47326213121414185 -0.009824980050325394
0.4735449552536011 0.5749220848083496 -0.1356610655784607
0.7401067614555359 0.8080703020095825 -0.00460432656109333
0.7520654201507568 0.8421451449394226 0.031243033707141876
0.8609858751296997 0.6010393500328064 0.04424317553639412
0.791121244430542 0.7718592286109924 0.009073738940060139
0.8341185450553894 0.42835044860839844 0.028330259025096893
0.5841358304023743 0.8969259858131409 -0.042109742760658264
0.43795859813690186 0.6474541425704956 -0.10275384783744812
0.5745218992233276 0.5796837210655212 -0.06858235597610474
0.8050156235694885 0.4832424521446228 -0.0050726220943033695
0.6520163416862488 0.4813010096549988 -0.04509039968252182
0.6252375841140747 0.4826766848564148 -0.043167151510715485
0.6169472336769104 0.7518053650856018 -0.047591663897037506
0.8053682446479797 0.6450241208076477 -0.026978308334946632
0.5315750241279602 0.9300192594528198 -0.024225128814578056
0.6373427510261536 0.8987568020820618 -0.0034928875975310802
0.6892274618148804 0.8759675025939941 0.011493977159261703
0.6025698781013489 0.481052041053772 -0.0347752645611763
0.582379937171936 0.47755175828933716 -0.023187939077615738
0.5695964097976685 0.4751037359237671 -0.013082576915621758
0.7885412573814392 0.4314470589160919 -0.02162104658782482
0.5873540639877319 0.45613837242126465 -0.027027815580368042
0.6115801930427551 0.44805461168289185 -0.03828909993171692
0.6350892782211304 0.4462328553199768 -0.046136047691106796
0.6613678336143494 0.44978371262550354 -0.04877569526433945
0.6801999807357788 0.45659470558166504 -0.0461757518351078
0.881136417388916 0.4172425866127014 0.0853271484375
0.6725211143493652 0.47787147760391235 -0.04299280792474747
0.5622053742408752 0.6763583421707153 -0.08370914310216904
0.509000837802887 0.6297317743301392 -0.10345280915498734
0.48955023288726807 0.6720444560050964 -0.08964626491069794
0.6865813136100769 0.8429003357887268 -0.011888807639479637
0.6374021768569946 0.8703457117080688 -0.025055410340428352
0.5249877572059631 0.9141334295272827 -0.04989740625023842
0.8061104416847229 0.8009974360466003 0.06043143570423126
0.5707017183303833 0.46713942289352417 -0.016774604097008705
0.49020272493362427 0.527603268623352 -0.08173218369483948
0.5846514701843262 0.9177690744400024 -0.020785730332136154
0.8542505502700806 0.6628715395927429 0.03907301276922226
0.5345324873924255 0.7671443223953247 -0.05968688428401947
0.5381538271903992 0.7741643786430359 -0.06459654867649078
0.542178750038147 0.7853575944900513 -0.07029006630182266
0.545900285243988 0.7992826700210571 -0.06774609535932541
0.5587916374206543 0.8196805715560913 -0.05562172457575798
0.6046663522720337 0.7252574563026428 -0.05615619942545891
0.6114832758903503 0.7217094898223877 -0.05903070420026779
0.6189717054367065 0.7171952724456787 -0.06171664968132973
0.6362861394882202 0.7058243751525879 -0.06530962139368057
0.7511178851127625 0.6571053862571716 -0.06180178374052048
0.5009518265724182 0.5012128949165344 -0.056233860552310944
0.5347071886062622 0.4482576847076416 -0.013006433844566345
0.5558264851570129 0.4534913897514343 -0.013038858771324158
0.6002070903778076 0.7228571176528931 -0.05276230722665787
0.7668547034263611 0.727384090423584 -0.028826914727687836
0.49965983629226685 0.44480711221694946 -0.035438451915979385
0.5719501376152039 0.8426902294158936 -0.05016789957880974
0.46341633796691895 0.5135988593101501 -0.08819667249917984
0.5110909938812256 0.5676892399787903 -0.09241675585508347
0.5161777138710022 0.8607878684997559 -0.050950389355421066
0.6521199345588684 0.7798123955726624 -0.04238614812493324
0.5918303728103638 0.6342411637306213 -0.06968136131763458
0.6162914633750916 0.8153205513954163 -0.04440333694219589
0.6652392148971558 0.6319424510002136 -0.08345635235309601
0.6255488395690918 0.6604505181312561 -0.0732291042804718
0.7015012502670288 0.6754874587059021 -0.07340556383132935
0.5210278630256653 0.8899093866348267 -0.057097386568784714
0.5376392602920532 0.5813388824462891 -0.08240781724452972
0.6743676662445068 0.8072725534439087 -0.03211244195699692
0.6288213133811951 0.8402981758117676 -0.03592061251401901
0.6783212423324585 0.7406939268112183 -0.05382995679974556
0.8022897243499756 0.6939461827278137 -0.016887180507183075
0.7186313271522522 0.7545760273933411 -0.0430830754339695
0.8343348503112793 0.7203789353370667 0.029812902212142944
0.6609534025192261 0.6905285716056824 -0.07076404988765717
0.516531229019165 0.5449475049972534 -0.07366107404232025
0.4897790849208832 0.622324526309967 -0.13410963118076324
0.521524965763092 0.6265528202056885 -0.1117282286286354
0.46658095717430115 0.6028520464897156 -0.14602500200271606
0.5547875761985779 0.41852110624313354 -0.02683981880545616
0.5988370776176453 0.39803552627563477 -0.04437664896249771
0.640422523021698 0.3936871886253357 -0.05684530362486839
0.6793627738952637 0.40073591470718384 -0.06039196625351906
0.7107182145118713 0.4168078899383545 -0.05476938188076019
0.7394665479660034 0.47136932611465454 -0.028355557471513748
0.8621245622634888 0.5426244139671326 0.04241781681776047
0.7092323303222656 0.5077843070030212 -0.044195182621479034
0.6725246906280518 0.5149703025817871 -0.04882793501019478
0.6308538913726807 0.5157681107521057 -0.045935649424791336
0.594464898109436 0.5105599164962769 -0.038066316395998
0.5670456886291504 0.5023456811904907 -0.025167256593704224
0.5473162531852722 0.49389511346817017 -0.01986139640212059
0.898937463760376 0.5450431108474731 0.12779009342193604
0.5274490714073181 0.6324759721755981 -0.09940432757139206
0.4798371493816376 0.5505725741386414 -0.10543658584356308
0.4582158327102661 0.6241857409477234 -0.14454008638858795
0.4509585499763489 0.6386210918426514 -0.12942443788051605
0.4654776453971863 0.6294728517532349 -0.1335306316614151
0.524829626083374 0.6400366425514221 -0.08671718835830688
0.44164612889289856 0.6403113603591919 -0.13470327854156494
0.44861388206481934 0.6464502811431885 -0.10511258989572525
0.5506837964057922 0.4729827642440796 -0.007592489011585712
0.5312780737876892 0.478526771068573 -0.015393935143947601
0.5153664946556091 0.4823446273803711 -0.02975798211991787
0.6925989389419556 0.461767315864563 -0.04105807840824127
0.7130172848701477 0.4449908435344696 -0.04446523264050484
