ply
format ascii 1.0
element vertex 468
property float x
property float y
property float z
end_header
0.5561071634292603 0.7171403765678406 -0.025856170803308487
0.606945276260376 0.6391533017158508 -0.08120102435350418
0.5596074461936951 0.6587108373641968 -0.034501995891332626
0.5747681856155396 0.561877429485321 -0.08974501490592957
0.6131219267845154 0.6165285110473633 -0.0905105471611023
0.604520320892334 0.5854477882385254 -0.08925838023424149
0.5705481171607971 0.5041408538818359 -0.0644817054271698
0.3819836676120758 0.48328715562820435 -0.11729005724191666
0.5656818151473999 0.45290273427963257 -0.06646985560655594
0.5727055072784424 0.4242740571498871 -0.0766155794262886
0.5648439526557922 0.2930106222629547 -0.08228611946105957
0.552043080329895 0.7289717197418213 -0.021397119387984276
0.5449765920639038 0.7374187707901001 -0.014455175027251244
0.536621630191803 0.7408915758132935 -0.0057557495310902596
0.5374359488487244 0.7430678606033325 -0.0014700646279379725
0.5398585200309753 0.7538529634475708 -0.0021088747307658195
0.5396588444709778 0.7670885324478149 -0.002859071595594287
0.5346347689628601 0.7801451683044434 0.0029818217735737562
0.5148725509643555 0.7987942099571228 0.023088254034519196
0.5930283069610596 0.6498401165008545 -0.07129211723804474
0.5575544238090515 0.649559736251831 -0.06072969362139702
0.20965774357318878 0.36235013604164124 -0.12814760208129883
0.44576016068458557 0.5047515630722046 -0.08678259700536728
0.4249110817909241 0.5072723627090454 -0.10120000690221786
0.40123021602630615 0.5065194964408875 -0.11182726174592972
0.3633139133453369 0.49021288752555847 -0.12031179666519165
0.4630299210548401 0.497732013463974 -0.07115600258111954
0.4277683198451996 0.44896119832992554 -0.1227966845035553
0.4500889778137207 0.4497077465057373 -0.10248161852359772
0.40348389744758606 0.45121097564697266 -0.13187508285045624
0.38335004448890686 0.45683205127716064 -0.1334485560655594
0.33354246616363525 0.5065393447875977 -0.11966604739427567
0.4194388687610626 0.8427773118019104 -0.004985115025192499
0.3689482510089874 0.47602707147598267 -0.11932411044836044
0.1915285587310791 0.4765721559524536 -0.1021643728017807
0.2927151918411255 0.4875900447368622 -0.12543031573295593
0.4358692169189453 0.6139276623725891 -0.08178317546844482
0.5351662039756775 0.7163143754005432 -0.04244538024067879
0.5256909728050232 0.7403502464294434 -0.028569381684064865
0.5020718574523926 0.7254538536071777 -0.051654014736413956
0.4737008213996887 0.734778642654419 -0.053679633885622025
0.5013840198516846 0.742931604385376 -0.03879450261592865
0.4793533980846405 0.7449591159820557 -0.0386509895324707
0.41556674242019653 0.7687829732894897 -0.035999663174152374
0.5897366404533386 0.6397442817687988 -0.0903506800532341
0.5930579900741577 0.6180562973022461 -0.10098254680633545
0.34760648012161255 0.43805447220802307 -0.16236154735088348
0.480337917804718 0.5496305823326111 -0.07121121883392334
0.5031120777130127 0.6316137909889221 -0.08574829995632172
0.49550661444664 0.6170822381973267 -0.08398028463125229
0.3511244058609009 0.6102304458618164 -0.11449804157018661
0.5855875015258789 0.5880411267280579 -0.09964942187070847
0.43617674708366394 0.42295369505882263 -0.1518445909023285
0.3911058008670807 0.42650240659713745 -0.16369695961475372
0.27494117617607117 0.32717111706733704 -0.15086734294891357
0.5304132699966431 0.44684523344039917 -0.09477324783802032
0.4663359224796295 0.4548577666282654 -0.08197274804115295
0.4030751883983612 0.7484028935432434 -0.05187710374593735
0.13527236878871918 0.7125440239906311 0.007299464661628008
0.5141201019287109 0.64519864320755 -0.06567109376192093
0.5306608080863953 0.6519949436187744 -0.04908419027924538
0.4314805269241333 0.748688817024231 -0.042321689426898956
0.43989941477775574 0.7465646266937256 -0.03746676445007324
0.3729419410228729 0.40851035714149475 -0.16724637150764465
0.4913579821586609 0.6405588388442993 -0.07353638112545013
0.4838106036186218 0.42892149090766907 -0.12854821979999542
0.48431336879730225 0.4091412425041199 -0.13810379803180695
0.4340696334838867 0.2914517819881439 -0.15324772894382477
0.32796066999435425 0.3674594759941101 -0.1615654081106186
0.4656471908092499 0.3486759662628174 -0.14654916524887085
0.31988653540611267 0.42389577627182007 -0.1610761135816574
0.26736271381378174 0.3948764204978943 -0.14578962326049805
0.5318611860275269 0.7310615181922913 -0.03801553323864937
0.5045028328895569 0.7365367412567139 -0.04593733325600624
0.47846102714538574 0.7404894828796387 -0.046886052936315536
0.5161879062652588 0.6491477489471436 -0.05595380440354347
0.43690431118011475 0.7481544613838196 -0.039078038185834885
0.45031872391700745 0.750926673412323 -0.0362166203558445
0.4402276575565338 0.7445012331008911 -0.03658101707696915
0.5445833802223206 0.6397299766540527 -0.08785245567560196
0.47642070055007935 0.7424057126045227 -0.03307811915874481
0.4974948465824127 0.7428503036499023 -0.0288325734436512
0.5183635354042053 0.7421570420265198 -0.020375557243824005
0.4899798631668091 0.8013708591461182 0.006980203092098236
0.5110832452774048 0.7814566493034363 -0.014580653980374336
0.5172863006591797 0.7675103545188904 -0.019820718094706535
0.5193900465965271 0.7540072202682495 -0.01882787235081196
0.5180457830429077 0.7448114156723022 -0.016946617513895035
0.4728379547595978 0.7453026175498962 -0.030535345897078514
0.47191449999809265 0.7490026950836182 -0.032107654958963394
0.4678405523300171 0.7560781836509705 -0.033345092087984085
0.46142685413360596 0.7644586563110352 -0.033154189586639404
0.4551575183868408 0.7059003114700317 -0.0615062341094017
0.11124230921268463 0.5783169269561768 -0.013948474079370499
0.5766305327415466 0.6531641483306885 -0.047805365175008774
0.45601484179496765 0.745159924030304 -0.03420833498239517
0.45506733655929565 0.7474914193153381 -0.034952547401189804
0.5357956290245056 0.6616587042808533 -0.04614530876278877
0.4906136989593506 0.654488205909729 -0.04986006021499634
0.5336174964904785 0.6570548415184021 -0.04805998131632805
0.4538831114768982 0.5630144476890564 -0.07905928045511246
0.418134868144989 0.581089198589325 -0.09569130837917328
0.48341208696365356 0.6263493299484253 -0.07416798174381256
0.34983181953430176 0.3029804527759552 -0.16012492775917053
0.3936008810997009 0.3512628972530365 -0.1604001671075821
0.42852962017059326 0.4023464620113373 -0.15828827023506165
0.4368489682674408 0.782996416091919 -0.027609122917056084
0.5332441329956055 0.4176098108291626 -0.11087843030691147
0.521516740322113 0.35105249285697937 -0.11958955228328705
0.5027667284011841 0.2888164222240448 -0.12491660565137863
0.37776291370391846 0.5008639693260193 -0.11813923716545105
0.29715585708618164 0.5235850214958191 -0.12309239059686661
0.4750269651412964 0.4912271499633789 -0.06378763169050217
0.3448662757873535 0.46331971883773804 -0.1397491842508316
0.5017776489257812 0.5358468890190125 -0.07048540562391281
0.5325750112533569 0.6248524188995361 -0.09508851915597916
0.250423789024353 0.5365790724754333 -0.12196964770555496
0.32638639211654663 0.5444431900978088 -0.12418017536401749
0.36895766854286194 0.5562699437141418 -0.11503078788518906
0.41827288269996643 0.5517117381095886 -0.09497411549091339
0.44944363832473755 0.5401098728179932 -0.07772891223430634
0.4734176993370056 0.5291623473167419 -0.06798931956291199
0.5488467812538147 0.5090942978858948 -0.07391488552093506
0.25356432795524597 0.5925126075744629 -0.11489251255989075
0.31537654995918274 0.4593968391418457 -0.14707086980342865
0.5835171937942505 0.6502335071563721 -0.0785355195403099
0.4869002401828766 0.5757983326911926 -0.07043897360563278
0.12937501072883606 0.4608818292617798 -0.05689508467912674
0.49461665749549866 0.51816725730896 -0.06229497492313385
0.4704660177230835 0.6261342763900757 -0.056515105068683624
0.3554311990737915 0.4755561351776123 -0.12254051119089127
0.5231565237045288 0.6069238185882568 -0.09175719320774078
0.11472116410732269 0.643227756023407 -0.001364307594485581
0.47199416160583496 0.48308292031288147 -0.06438872218132019
0.5568434000015259 0.5951922535896301 -0.10009953379631042
0.2695610523223877 0.790171205997467 -0.026474665850400925
0.23332563042640686 0.8128963112831116 0.006009848788380623
0.17528176307678223 0.5876558423042297 -0.07082197070121765
0.2229093760251999 0.7521688342094421 -0.03414403274655342
0.2248733937740326 0.4298105835914612 -0.1219673603773117
0.40207356214523315 0.8675076961517334 0.005071441177278757
0.569259524345398 0.6528418064117432 -0.051811475306749344
0.4614083766937256 0.5931247472763062 -0.07152920961380005
0.25455379486083984 0.4882288873195648 -0.12387935817241669
0.41088709235191345 0.49225860834121704 -0.11042653024196625
0.43033459782600403 0.49436357617378235 -0.10182703286409378
0.4426710605621338 0.7553526163101196 -0.03704320639371872
0.24616718292236328 0.6434682607650757 -0.09204170107841492
0.4318135976791382 0.8942053914070129 0.043444085866212845
0.33954787254333496 0.8692827224731445 0.018190806731581688
0.2916988432407379 0.8477370738983154 0.010633064433932304
0.5723005533218384 0.35585904121398926 -0.08067196607589722
0.47475528717041016 0.8913432359695435 0.0718923881649971
0.4452987015247345 0.4921303391456604 -0.08952713012695312
0.45939552783966064 0.4869542121887207 -0.07750332355499268
0.4681359529495239 0.4842337667942047 -0.06869854778051376
0.2811357080936432 0.44992804527282715 -0.14319796860218048
0.4575861394405365 0.47051799297332764 -0.08480104058980942
0.4404333233833313 0.46681714057922363 -0.09962169080972672
0.422881156206131 0.4670875668525696 -0.11228599399328232
0.402870237827301 0.4694724380970001 -0.12060122936964035
0.388882577419281 0.4726022183895111 -0.12225524336099625
0.16348184645175934 0.4040360450744629 -0.09259176254272461
0.3952523469924927 0.4881443679332733 -0.11519812792539597
0.5564468502998352 0.6769517064094543 -0.02750983275473118
0.4809229373931885 0.6908212900161743 -0.056934457272291183
0.5200708508491516 0.6421643495559692 -0.07178325206041336
0.5323489904403687 0.6824666857719421 -0.04468001425266266
0.5604742765426636 0.4752911329269409 -0.058723170310258865
0.3138720691204071 0.8231087923049927 -0.011814477853477001
0.3554747998714447 0.8474794030189514 -0.0015200526686385274
0.4505707919597626 0.8795084953308105 0.019615156576037407
0.179243803024292 0.7700245976448059 0.007024229504168034
0.4682438373565674 0.47833824157714844 -0.0735013484954834
0.5378666520118713 0.5477458834648132 -0.07890598475933075
0.4940301179885864 0.8762405514717102 0.04778959974646568
0.3878379464149475 0.8856824636459351 0.024689562618732452
0.17363616824150085 0.6453669667243958 -0.053550153970718384
0.49627429246902466 0.7452461123466492 -0.026141317561268806
0.49501168727874756 0.752169668674469 -0.028524311259388924
0.49158501625061035 0.7626039981842041 -0.030005332082509995
0.48583370447158813 0.7752458453178406 -0.027487657964229584
0.4618490934371948 0.7945414185523987 -0.0159603301435709
0.45599329471588135 0.7453439831733704 -0.040245525538921356
0.4528895318508148 0.7440852522850037 -0.04635518789291382
0.4474794268608093 0.7407854199409485 -0.05169810354709625
0.4273828864097595 0.7258396744728088 -0.06283274292945862
0.307742714881897 0.6622512936592102 -0.09691298753023148
0.526094377040863 0.5210121273994446 -0.07079790532588959
0.4996885061264038 0.4711208939552307 -0.059269100427627563
0.4800681471824646 0.4699784219264984 -0.06809596717357635
0.4564169943332672 0.7419233918190002 -0.035424310714006424
0.2734798192977905 0.7204877734184265 -0.06322959810495377
0.5299351811408997 0.47605445981025696 -0.06702307611703873
0.43790316581726074 0.818231999874115 -0.008094978518784046
0.5924304723739624 0.5582185387611389 -0.08006297796964645
0.5619796514511108 0.5370538830757141 -0.08178185671567917
0.5816795825958252 0.532442569732666 -0.07198116183280945
0.5187371969223022 0.5845865607261658 -0.0788293182849884
0.5054379105567932 0.8521999716758728 0.033100999891757965
0.5094074606895447 0.8231801986694336 0.02822277508676052
0.47630274295806885 0.8264034390449524 0.009167257696390152
0.38197892904281616 0.7795893549919128 -0.03596958518028259
0.4487234950065613 0.6463252305984497 -0.062434349209070206
0.405394971370697 0.8025975227355957 -0.0211489275097847
0.3949025571346283 0.6447528600692749 -0.0919370949268341
0.4275825619697571 0.6728115677833557 -0.0710194781422615
0.3575935959815979 0.6844892501831055 -0.0857362300157547
0.4651201665401459 0.8552100658416748 0.00770769314840436
0.4924537241458893 0.595799446105957 -0.07259274274110794
0.34537696838378906 0.7976499795913696 -0.029844000935554504
0.38032111525535583 0.8229220509529114 -0.012286990880966187
0.36973443627357483 0.7507932782173157 -0.05766311660408974
0.23955458402633667 0.6863130331039429 -0.07062028348445892
0.3200567066669464 0.7525100111961365 -0.0570305660367012
0.18387217819690704 0.6996020674705505 -0.04089905694127083
0.39970842003822327 0.7068178057670593 -0.07249828428030014
0.5120128393173218 0.5612620711326599 -0.07430733740329742
0.5408229827880859 0.6363791227340698 -0.09440199285745621
0.5112658739089966 0.6403851509094238 -0.07921881228685379
0.564184308052063 0.620700478553772 -0.10205916315317154
0.4926210641860962 0.4543530344963074 -0.08185151219367981
0.4645282030105591 0.44434547424316406 -0.11129020899534225
0.4349656105041504 0.4408227801322937 -0.13321664929389954
0.40257030725479126 0.44135355949401855 -0.14575447142124176
0.37169525027275085 0.4483376741409302 -0.1484249085187912
0.32814791798591614 0.4822886288166046 -0.12532223761081696
0.18039129674434662 0.5313292741775513 -0.08920010924339294
0.35377979278564453 0.5188018083572388 -0.11698231846094131
0.3839874267578125 0.5275570750236511 -0.10925594717264175
0.4182494878768921 0.5270705819129944 -0.09575075656175613
0.4463666081428528 0.520548939704895 -0.07910673320293427
0.46735846996307373 0.5122081637382507 -0.06531696766614914
0.4832126796245575 0.5054320693016052 -0.05758949741721153
0.11542588472366333 0.5182799100875854 -0.03224567696452141
0.5032777190208435 0.6454867720603943 -0.06936635822057724
0.5490200519561768 0.5711125731468201 -0.08743797242641449
0.5684576034545898 0.637830913066864 -0.09438657760620117
0.5666491389274597 0.6476645469665527 -0.07672938704490662
0.5587945580482483 0.6412763595581055 -0.08632883429527283
0.5035655498504639 0.6519355773925781 -0.056240539997816086
0.5746307373046875 0.6490859985351562 -0.07850408554077148
0.5621037483215332 0.6525476574897766 -0.05606478825211525
0.48249298334121704 0.4843786656856537 -0.0571817010641098
0.49746495485305786 0.49377867579460144 -0.05400499701499939
0.5119858980178833 0.5012723803520203 -0.059623200446367264
0.37910544872283936 0.4745980501174927 -0.12165944278240204
0.36406129598617554 0.46408677101135254 -0.1305750608444214
0.6016027927398682 0.5603112578392029 -0.058003779500722885
0.6084455251693726 0.4742070436477661 0.11776206642389297
0.5883865356445312 0.6438968181610107 -0.03618992865085602
0.5914771556854248 0.3855159282684326 0.2347598820924759
0.5736177563667297 0.49671924114227295 0.06232606619596481
0.5859276652336121 0.49837052822113037 0.07933018356561661
0.5970770716667175 0.49745476245880127 0.09708785265684128
0.6028308868408203 0.48141205310821533 0.12797296047210693
0.5668269991874695 0.49158021807670593 0.04643923416733742
0.6060981750488281 0.4506875276565552 0.06600676476955414
0.5917253494262695 0.4522838592529297 0.045754652470350266
0.615459680557251 0.4515557885169983 0.08714465796947479
0.6169118881225586 0.45582038164138794 0.10384286940097809
0.6044586896896362 0.4978736340999603 0.1467924863100052
0.5377616882324219 0.8194090127944946 0.10251715779304504
0.6085665225982666 0.4687265157699585 0.1268584430217743
0.5757357478141785 0.4781748950481415 0.26844102144241333
0.6035311818122864 0.4814353287220001 0.17630182206630707
0.596207857131958 0.603439211845398 0.06727272272109985
0.5688408613204956 0.7110560536384583 -0.005590488202869892
0.5530976057052612 0.7355003356933594 0.004867870360612869
0.5732279419898987 0.714167058467865 0.02492768131196499
0.5705497860908508 0.7221415042877197 0.052731458097696304
0.5562108755111694 0.7340960502624512 0.027117226272821426
0.5566092729568481 0.7349216341972351 0.04982618987560272
0.5588683485984802 0.7509473562240601 0.10212361067533493
0.6162669658660889 0.6362335085868835 -0.06946885585784912
0.6230205297470093 0.615212082862854 -0.07619810104370117
0.6324272155761719 0.43945953249931335 0.12199915200471878
0.5775107145309448 0.5445961356163025 0.0257555041462183
0.6065640449523926 0.6214413046836853 0.005804563872516155
0.6018927097320557 0.6079161167144775 0.010463688522577286
0.6121312379837036 0.5948770642280579 0.13519400358200073
0.6140166521072388 0.5862930417060852 -0.06846869736909866
0.6337820291519165 0.4278011918067932 0.04505251720547676
0.6394387483596802 0.4302929639816284 0.08347433805465698
0.6136963367462158 0.3517870306968689 0.17515504360198975
0.5895230174064636 0.44818446040153503 -0.029994923621416092
0.5775622129440308 0.45699378848075867 0.037903811782598495
0.5692881345748901 0.7293471693992615 0.11657895147800446
0.49988579750061035 0.6795246601104736 0.34471428394317627
0.5934056639671326 0.6347577571868896 0.0025762361474335194
0.5813378691673279 0.64508455991745 -0.015095184557139874
0.5586053133010864 0.7358399033546448 0.10247275233268738
0.5527104139328003 0.7346271276473999 0.08875080198049545
0.6410062313079834 0.414814829826355 0.09658373147249222
0.5958056449890137 0.6309897303581238 0.015578296035528183
0.6181909441947937 0.43259871006011963 0.006545681972056627
0.6253013610839844 0.4144227206707001 0.0012518053408712149
0.6228797435760498 0.3070041537284851 0.03425009548664093
0.6289519667625427 0.3819907605648041 0.1305362433195114
0.6259666681289673 0.35765963792800903 0.015781782567501068
0.6299954652786255 0.42823243141174316 0.14356057345867157
0.612559974193573 0.40833866596221924 0.18514762818813324
0.5623799562454224 0.7253777980804443 -0.0018374641658738256
0.5658966302871704 0.7261269092559814 0.02553252875804901
0.5650795698165894 0.7290810346603394 0.04931442812085152
0.5860673785209656 0.6400054097175598 -0.00036341120721772313
0.5559741258621216 0.7358614206314087 0.09419430047273636
0.5575275421142578 0.7388607859611511 0.07502195984125137
0.5502251386642456 0.732634961605072 0.08626958727836609
0.6073940992355347 0.6289141774177551 -0.024964768439531326
0.548185408115387 0.7340689301490784 0.05107793211936951
0.5464360117912292 0.7359638214111328 0.032318465411663055
0.5434305667877197 0.7388252019882202 0.012851580046117306
0.5309469103813171 0.7942888736724854 0.04034418612718582
0.5489201545715332 0.7747872471809387 0.020741363987326622
0.5523508787155151 0.7615178823471069 0.01641739532351494
0.5504545569419861 0.7492821216583252 0.016968611627817154
0.5463366508483887 0.7407249212265015 0.017247147858142853
0.5513135194778442 0.7362518906593323 0.05349621921777725
0.5547691583633423 0.7390826940536499 0.05181190371513367
0.558165431022644 0.7444048523902893 0.053268179297447205
0.5590686798095703 0.751128077507019 0.0616430900990963
0.5827118158340454 0.6916065216064453 0.06292983144521713
0.5102241635322571 0.5660881400108337 0.36482784152030945
0.5503415465354919 0.7351071834564209 0.07237980514764786
0.5543872117996216 0.7364264130592346 0.07177609205245972
0.5737252831459045 0.6563679575920105 -0.013037269003689289
0.5820987820625305 0.6462180614471436 0.021282188594341278
0.5777460336685181 0.650995135307312 -0.015237589366734028
0.5826864242553711 0.5562094449996948 0.05107693374156952
0.5988242626190186 0.5715699195861816 0.08101271837949753
0.594696044921875 0.6172518134117126 0.02282780036330223
0.6248050928115845 0.3251408636569977 0.10552245378494263
0.6328809261322021 0.36403775215148926 0.0750325471162796
0.6386973261833191 0.40905576944351196 0.050550319254398346
0.5516316890716553 0.7660573720932007 0.08532910794019699
0.6024361848831177 0.4217180907726288 -0.03987235575914383
0.6064220070838928 0.3560503125190735 -0.03497230261564255
0.6037365198135376 0.2975647449493408 -0.029672808945178986
0.6021092534065247 0.49109119176864624 0.11537347733974457
0.6055664420127869 0.513748288154602 0.173883855342865
0.5641365051269531 0.4865584075450897 0.041021816432476044
0.6162011623382568 0.4590981602668762 0.13387905061244965
0.5762853622436523 0.5320660471916199 0.007368060760200024
0.6153130531311035 0.6152896881103516 -0.02054796926677227
0.6003537774085999 0.5265644192695618 0.21602439880371094
0.6114258766174316 0.5334454774856567 0.15416361391544342
0.6091799736022949 0.5462477803230286 0.11920297145843506
0.5918259024620056 0.5435898303985596 0.08316829800605774
0.5773637294769287 0.5333871841430664 0.056882280856370926
0.5705498456954956 0.5239896178245544 0.033240869641304016
0.579424262046814 0.5078617334365845 -0.040318604558706284
0.6016048789024353 0.5758324861526489 0.2210557758808136
0.6172430515289307 0.4567398428916931 0.1525387167930603
0.5995584726333618 0.6473872661590576 -0.06214543431997299
0.5826080441474915 0.5700223445892334 0.023351501673460007
0.5358083844184875 0.4696544408798218 0.33305823802948
0.5674867630004883 0.5143214464187622 0.016850126907229424
0.583993136882782 0.617154061794281 0.03955915570259094
0.6068999171257019 0.46901434659957886 0.1356462687253952
0.6081392765045166 0.5995175242424011 -0.016449926421046257
0.5046693682670593 0.6199873089790344 0.36127200722694397
0.5634986162185669 0.47822946310043335 0.04566925764083862
0.6136432886123657 0.5908570289611816 -0.04480886459350586
0.5422937870025635 0.751615047454834 0.22276917099952698
0.5111756324768066 0.7713115811347961 0.25988805294036865
0.5631991624832153 0.5720773339271545 0.2982732653617859
0.543889045715332 0.7150644063949585 0.26010918617248535
0.5931088924407959 0.43910807371139526 0.23205149173736572
0.5308386087417603 0.840846598148346 0.12232747673988342
0.5822023153305054 0.651161789894104 -0.04174266755580902
0.584258496761322 0.5854283571243286 0.04392506927251816
0.5969536304473877 0.48374128341674805 0.20897303521633148
0.6017484664916992 0.48302900791168213 0.09546132385730743
0.590287446975708 0.4855942130088806 0.07924027740955353
0.5585105419158936 0.7423375248908997 0.08307301253080368
0.5892407894134521 0.6205055117607117 0.2303278148174286
0.5032645463943481 0.8788467645645142 0.10752981901168823
0.5150516033172607 0.834688127040863 0.18060007691383362
0.5134315490722656 0.8081543445587158 0.2163284569978714
0.5787518620491028 0.48412641882896423 0.06445690989494324
0.5700306296348572 0.48021364212036133 0.05453361198306084
0.5654549598693848 0.47886380553245544 0.05011455714702606
0.6112244129180908 0.4512355327606201 0.1790008693933487
0.5730655789375305 0.46732592582702637 0.05085260048508644
0.5826060771942139 0.46360254287719727 0.05786516144871712
0.5958206057548523 0.46166688203811646 0.07162237912416458
0.6065043210983276 0.4624464511871338 0.08912418782711029
0.6098651885986328 0.4655516743659973 0.10275091230869293
0.5659272074699402 0.42211011052131653 0.2887377142906189
0.6068199872970581 0.4786299467086792 0.10864737629890442
0.5818402171134949 0.6794009804725647 0.0371696874499321
0.6000829935073853 0.6312154531478882 -0.007372395135462284
0.5719743967056274 0.676457941532135 -0.006161791272461414
0.537921667098999 0.7851877212524414 0.189163938164711
0.5330190062522888 0.8128588199615479 0.15626351535320282
0.5214294195175171 0.8641263842582703 0.08312559872865677
0.5033974647521973 0.7307884693145752 0.30765780806541443
0.5676203370094299 0.47360166907310486 0.047510165721178055
0.5898909568786621 0.5451862215995789 -0.026355063542723656
0.5141396522521973 0.859072208404541 0.1446104794740677
0.5532859563827515 0.6210770606994629 0.2989713251590729
0.550973117351532 0.7381139397621155 0.03594394400715828
0.554558515548706 0.7439402341842651 0.035461511462926865
0.5569881200790405 0.7526548504829407 0.036890558898448944
0.556547224521637 0.7643024921417236 0.04324653744697571
0.5427882075309753 0.7813185453414917 0.06436773389577866
0.554688572883606 0.7347966432571411 0.071757473051548
0.5605088472366333 0.7325909733772278 0.07643558830022812
0.5652569532394409 0.7283415794372559 0.08033104240894318
0.5792889595031738 0.7091145515441895 0.09268428385257721
0.5970327854156494 0.6394509077072144 0.1734500676393509
0.5775803327560425 0.5187596082687378 -0.016021419316530228
0.5644619464874268 0.46935176849365234 0.011101579293608665
0.5657005310058594 0.4686535596847534 0.03257953003048897
0.5489153861999512 0.7323260307312012 0.07125728577375412
0.5710887312889099 0.6898456811904907 0.2123156189918518
0.5692944526672363 0.47524306178092957 -0.025453349575400352
0.5370209217071533 0.798965573310852 0.0833110362291336
0.5911760330200195 0.5358809232711792 -0.053484197705984116
0.5947777032852173 0.5793119668960571 -0.009891374036669731
0.5276109576225281 0.8159770369529724 0.053550317883491516
0.5600901246070862 0.7538731694221497 0.12536753714084625
0.5879122018814087 0.6356127262115479 0.05849428102374077
0.5473477244377136 0.778850257396698 0.10640441626310349
0.6048207879066467 0.6284153461456299 0.10044066607952118
0.5926695466041565 0.6582169532775879 0.08103891462087631
0.5959208607673645 0.6623413562774658 0.1345909833908081
0.5292850136756897 0.8422588109970093 0.06688748300075531
0.588882327079773 0.589077353477478 0.014012910425662994
0.5549083948135376 0.764653205871582 0.1584157943725586
0.5429205894470215 0.7929676175117493 0.1320079118013382
0.5733331441879272 0.7259076833724976 0.13860906660556793
0.5750458240509033 0.6582226157188416 0.2378971129655838
0.5692861676216125 0.7208905220031738 0.17207472026348114
0.5454074144363403 0.6679850220680237 0.2931167185306549
0.5881330966949463 0.6879115700721741 0.10746371746063232
0.5856950879096985 0.557024359703064 0.00014437947538681328
0.6132546663284302 0.6251351833343506 -0.026524577289819717
0.604619562625885 0.6294501423835754 -0.002137768315151334
0.6218386888504028 0.6139805912971497 -0.047203607857227325
0.5791913866996765 0.4539542496204376 0.01615184359252453
0.6016520261764526 0.4448240399360657 0.03293260559439659
0.6188557744026184 0.4423191547393799 0.0551963709294796
0.6282452940940857 0.4437907934188843 0.08360464870929718
0.62666916847229 0.4485478401184082 0.10883941501379013
0.6053760647773743 0.4754315912723541 0.15094783902168274
0.5703637599945068 0.5245281457901001 0.28859028220176697
0.6055834293365479 0.5093880891799927 0.1327359825372696
0.6004136800765991 0.5188608765602112 0.10789898037910461
0.5873516201972961 0.5191834568977356 0.08250625431537628
0.5733948945999146 0.513386070728302 0.06057199463248253
0.5661100745201111 0.5067166686058044 0.04007938876748085
0.5624624490737915 0.5009909868240356 0.02783469296991825
0.5175934433937073 0.5167204141616821 0.3557959794998169
0.5954064130783081 0.6353003978729248 0.006008798256516457
0.6010665893554688 0.5680452585220337 -0.03287861496210098
0.6182549595832825 0.6295209527015686 -0.05106687545776367
0.5993154048919678 0.6408084630966187 -0.05161983147263527
0.6092445850372314 0.6316138505935669 -0.04225250706076622
0.5851707458496094 0.6432815790176392 0.006635721772909164
0.6011233329772949 0.6444932222366333 -0.057952918112277985
0.5855822563171387 0.6484060287475586 -0.03901355341076851
0.561977207660675 0.4809236526489258 0.03409905731678009
0.5598519444465637 0.4903835654258728 0.013158708810806274
0.5657448768615723 0.4983094036579132 -0.003405123483389616
0.6101042032241821 0.46769315004348755 0.11391612887382507
0.6143704652786255 0.45997369289398193 0.12133175879716873
