ply
format ascii 1.0
element vertex 468
property float x
property float y
property float z
end_header
0.44236186146736145 0.713348388671875 -0.07363684475421906
0.4086625277996063 0.6330420970916748 -0.11861617863178253
0.43922191858291626 0.6643796563148499 -0.06798554211854935
0.4101670980453491 0.5500640869140625 -0.06859967857599258
0.406331866979599 0.6050747632980347 -0.1235712394118309
0.4143097996711731 0.5713796019554138 -0.11141014844179153
0.4441184997558594 0.49303364753723145 -0.043553877621889114
0.3472508490085602 0.5020762085914612 0.13071219623088837
0.4507933259010315 0.4301634132862091 -0.020977990701794624
0.44778597354888916 0.3955635726451874 -0.020369289442896843
0.45893970131874084 0.28580448031425476 0.015805590897798538
0.4449799358844757 0.725538969039917 -0.07255292683839798
0.4499050974845886 0.7353994846343994 -0.06727351248264313
0.456104040145874 0.7398585081100464 -0.058616459369659424
0.45621591806411743 0.7727745771408081 -0.050717975944280624
0.45340198278427124 0.7836019396781921 -0.05517430976033211
0.4524155855178833 0.7977855801582336 -0.05976678431034088
0.45432645082473755 0.8139644265174866 -0.056467022746801376
0.46316468715667725 0.8433046936988831 -0.0369468629360199
0.4175637364387512 0.6495371460914612 -0.10895153880119324
0.4122577905654907 0.650206983089447 -0.0711480975151062
0.3291129767894745 0.43904751539230347 0.293334037065506
0.400238037109375 0.518964409828186 0.07459206879138947
0.3805615305900574 0.5225198864936829 0.0875156968832016
0.3629959523677826 0.5233003497123718 0.1041492372751236
0.3460361957550049 0.5131499767303467 0.13767871260643005
0.4152969717979431 0.5112926959991455 0.0645420178771019
0.3654290437698364 0.45515596866607666 0.08738566190004349
0.38730549812316895 0.45536482334136963 0.07212576270103455
0.3482277989387512 0.4616642892360687 0.10559272021055222
0.33948802947998047 0.47311973571777344 0.12030526995658875
0.33515337109565735 0.5342938899993896 0.15393981337547302
0.40208500623703003 0.8808533549308777 0.025626065209507942
0.3431444466114044 0.4974309504032135 0.14237885177135468
0.3282478451728821 0.5390893220901489 0.29099634289741516
0.3274436891078949 0.5221293568611145 0.19084323942661285
0.36367422342300415 0.6233550310134888 0.0417880080640316
0.41776803135871887 0.7103405594825745 -0.0542304664850235
0.43058347702026367 0.7357228994369507 -0.0486898198723793
0.39980822801589966 0.7183215022087097 -0.0247507207095623
0.3952248692512512 0.7296432852745056 0.004917813464999199
0.41850292682647705 0.7374285459518433 -0.024615690112113953
0.412591814994812 0.7417375445365906 0.0017369816778227687
0.3914618194103241 0.7809920310974121 0.05082273483276367
0.3938452899456024 0.6335594654083252 -0.10871302336454391
0.3892451524734497 0.6070257425308228 -0.11155100166797638
0.3191482722759247 0.45699864625930786 0.14768952131271362
0.40506407618522644 0.557060182094574 0.025841502472758293
0.3779764771461487 0.6314693093299866 -0.02790943719446659
0.38137269020080566 0.61822509765625 -0.019040148705244064
0.319770485162735 0.6264743208885193 0.10757878422737122
0.3986690044403076 0.5757583379745483 -0.09274215251207352
0.3407270908355713 0.4203088879585266 0.07993152737617493
0.3246805965900421 0.43385323882102966 0.11480001360177994
0.3290405571460724 0.39049193263053894 0.24218708276748657
0.41274797916412354 0.42876335978507996 0.009663390927016735
0.4074925482273102 0.4624289572238922 0.06682102382183075
0.3782159090042114 0.7535500526428223 0.06635541468858719
0.37539830803871155 0.7781398892402649 0.3038673400878906
0.3949202597141266 0.6457957625389099 -0.02958308719098568
0.40978342294692993 0.6541914939880371 -0.04723650962114334
0.39605793356895447 0.751700758934021 0.05702713504433632
0.4075337052345276 0.7513225078582764 0.044739048928022385
0.31958186626434326 0.4219614863395691 0.13384130597114563
0.38526278734207153 0.6432859301567078 -0.017959659919142723
0.36819472908973694 0.4162635803222656 0.04388575255870819
0.36222732067108154 0.39782288670539856 0.04359112307429314
0.3647107481956482 0.3179493546485901 0.11240004003047943
0.3221060037612915 0.4061761796474457 0.18111249804496765
0.36199772357940674 0.356688529253006 0.07654967904090881
0.31604817509651184 0.4507392942905426 0.17600791156291962
0.3205072581768036 0.4469030499458313 0.23077446222305298
0.42272523045539856 0.7247298359870911 -0.05318107083439827
0.40885257720947266 0.7296860218048096 -0.025726361200213432
0.40287989377975464 0.7358443140983582 0.0013258113758638501
0.4012570381164551 0.65050208568573 -0.030989110469818115
0.401176393032074 0.7516384124755859 0.049867693334817886
0.4043286144733429 0.7628376483917236 0.029544156044721603
0.4123230278491974 0.7507645487785339 0.04247542470693588
0.3911947011947632 0.636322021484375 -0.060988858342170715
0.421092689037323 0.7408558130264282 0.0026765980292111635
0.42745131254196167 0.7392697334289551 -0.019399918615818024
0.43900197744369507 0.7395527958869934 -0.040218837559223175
0.43559762835502625 0.8399046659469604 -0.020441360771656036
0.4291353225708008 0.8100242018699646 -0.03736421838402748
0.42875826358795166 0.7936845421791077 -0.03905407339334488
0.4319846034049988 0.7799206972122192 -0.03413384407758713
0.4370811879634857 0.7707726359367371 -0.03097442165017128
0.41847652196884155 0.7635344862937927 0.009674904868006706
0.4134727716445923 0.7668132185935974 0.006507263984531164
0.4076840579509735 0.7734462022781372 0.003906354773789644
0.40386393666267395 0.7823607921600342 0.010534542612731457
0.37814170122146606 0.7082001566886902 0.020624801516532898
0.36594143509864807 0.6552774906158447 0.36476659774780273
0.42799967527389526 0.6568315029144287 -0.08269985020160675
0.4160032570362091 0.760057806968689 0.03011414222419262
0.40958020091056824 0.7602551579475403 0.02808954380452633
0.41653674840927124 0.6655721664428711 -0.049209561198949814
0.39631253480911255 0.6585102081298828 -0.010874666273593903
0.41306281089782715 0.6602086424827576 -0.04900656268000603
0.38792240619659424 0.5733898878097534 0.04359472915530205
0.35688215494155884 0.592333197593689 0.06566231697797775
0.3844524621963501 0.6302217841148376 -0.0067357756197452545
0.33906301856040955 0.34941375255584717 0.17811645567417145
0.3354566991329193 0.3752637505531311 0.12967897951602936
0.3351156413555145 0.40341758728027344 0.09051232039928436
0.4003632664680481 0.8039905428886414 0.030054781585931778
0.40112870931625366 0.39760130643844604 0.008073381148278713
0.39971819519996643 0.3477373719215393 0.03252365440130234
0.4028574228286743 0.2985762357711792 0.05601578578352928
0.3509843349456787 0.5205956101417542 0.1230219230055809
0.32108286023139954 0.5552499890327454 0.17559462785720825
0.4243766665458679 0.503487765789032 0.06336703151464462
0.3312777280807495 0.4870302081108093 0.15166758000850677
0.4147995710372925 0.5389991998672485 0.01202126033604145
0.3786780536174774 0.6204612851142883 -0.05447636544704437
0.31146344542503357 0.5768045783042908 0.21249644458293915
0.32224956154823303 0.5686781406402588 0.14670860767364502
0.3361470103263855 0.5730689167976379 0.10996080935001373
0.36808693408966064 0.5651065707206726 0.07932765781879425
0.3943437933921814 0.5525066256523132 0.05900008976459503
0.41206955909729004 0.5389187335968018 0.04141455143690109
0.42882031202316284 0.5015230178833008 -0.02303442917764187
0.3045435845851898 0.6268115043640137 0.19957536458969116
0.32372137904167175 0.48728030920028687 0.17305365204811096
0.4081495404243469 0.6487265825271606 -0.10143212229013443
0.39967724680900574 0.581180989742279 0.012283693999052048
0.35296541452407837 0.5456079840660095 0.3695903420448303
0.4237302839756012 0.5239133238792419 0.031262628734111786
0.39034661650657654 0.6330174207687378 0.014353491365909576
0.3411718010902405 0.5003387331962585 0.15111476182937622
0.38425129652023315 0.6045008897781372 -0.04457031190395355
0.3686911165714264 0.7154359221458435 0.341083288192749
0.4257265627384186 0.494488388299942 0.07167216390371323
0.3896006941795349 0.5870846509933472 -0.07171262055635452
0.3614535927772522 0.8252778053283691 0.15723273158073425
0.38358554244041443 0.861655592918396 0.1914260983467102
0.32342398166656494 0.6435903906822205 0.2871747612953186
0.3498781621456146 0.7945178747177124 0.20174966752529144
0.3249048590660095 0.49018949270248413 0.26906266808509827
0.4021655321121216 0.9128563404083252 0.03614398464560509
0.42043328285217285 0.6561524868011475 -0.07702909409999847
0.38675346970558167 0.6015636920928955 0.026522483676671982
0.32290592789649963 0.5308984518051147 0.22409528493881226
0.362385094165802 0.5076941251754761 0.10592111945152283
0.37918803095817566 0.5084295272827148 0.09156190603971481
0.400337278842926 0.7668486833572388 0.03609815984964371
0.3108927011489868 0.6773600578308105 0.19521687924861908
0.4381740093231201 0.9579138159751892 0.01525530219078064
0.4022811949253082 0.9172862768173218 0.09970921277999878
0.3933013677597046 0.8933932185173035 0.14126111567020416
0.45074188709259033 0.3409833610057831 -0.004000624176114798
0.4816233217716217 0.967147946357727 -0.016970710828900337
0.39631569385528564 0.5058561563491821 0.08058379590511322
0.41194790601730347 0.5005074739456177 0.07526574283838272
0.42167210578918457 0.4969920814037323 0.07450755685567856
0.3211410939693451 0.4871656000614166 0.2049700766801834
0.40849244594573975 0.4787183403968811 0.07608524709939957
0.3910410404205322 0.4733509421348572 0.08187293261289597
0.3719463050365448 0.47280335426330566 0.09269289672374725
0.35556456446647644 0.4784585237503052 0.10691629350185394
0.34773361682891846 0.4864952564239502 0.11909079551696777
0.3371611535549164 0.4873095154762268 0.3398473262786865
0.3529963493347168 0.5051469206809998 0.11986817419528961
0.4424058198928833 0.679915189743042 -0.06392017006874084
0.3879263997077942 0.6930781006813049 -0.0035881928633898497
0.3904619812965393 0.6416473388671875 -0.038756247609853745
0.41555842757225037 0.6830417513847351 -0.045699503272771835
0.4531598389148712 0.4622708857059479 -0.02416248805820942
0.37669169902801514 0.8569595217704773 0.11767671257257462
0.38985031843185425 0.8842841982841492 0.07799939811229706
0.4267562925815582 0.9332700967788696 -0.007141778711229563
0.3800373673439026 0.8274021148681641 0.25055140256881714
0.4198525547981262 0.4879223704338074 0.07401914894580841
0.41120898723602295 0.5426967740058899 -0.02750321477651596
0.46935388445854187 0.9424042105674744 -0.03841381147503853
0.41444337368011475 0.9398858547210693 0.056101273745298386
0.33006373047828674 0.6986412405967712 0.2709347903728485
0.4249204397201538 0.7670873999595642 -0.010030456818640232
0.4194340705871582 0.7737038731575012 -0.012995745055377483
0.4147602617740631 0.784417986869812 -0.014760775491595268
0.41219788789749146 0.7989097833633423 -0.010943391360342503
0.41366690397262573 0.8247461318969727 0.006455291528254747
0.4096744656562805 0.7457728981971741 0.02667294815182686
0.4009286165237427 0.7432333827018738 0.03136975318193436
0.3944352865219116 0.7396048307418823 0.034324515610933304
0.3741040527820587 0.7283785343170166 0.04768558591604233
0.31729039549827576 0.6846264600753784 0.1329236775636673
0.42274999618530273 0.5189871788024902 -0.004060608800500631
0.4318140149116516 0.4739193916320801 0.043380606919527054
0.4255940914154053 0.4788300395011902 0.06323785334825516
0.41737687587738037 0.7431814074516296 0.02591833658516407
0.33497685194015503 0.7500666379928589 0.1600874364376068
0.4352668225765228 0.4696398973464966 0.005156957544386387
0.40970897674560547 0.8510768413543701 0.016681399196386337
0.4250124394893646 0.544625997543335 -0.08788366615772247
0.41836583614349365 0.5269815921783447 -0.04936734959483147
0.43430227041244507 0.5198684334754944 -0.06480874121189117
0.3980656564235687 0.5833404064178467 -0.025026222690939903
0.4637656807899475 0.9097785949707031 -0.045724768191576004
0.463590532541275 0.8729101419448853 -0.041263144463300705
0.43176496028900146 0.8680905103683472 -0.017725788056850433
0.37875235080718994 0.7953254580497742 0.06915287673473358
0.3784453868865967 0.6551144123077393 0.02897811122238636
0.3935604691505432 0.8263332843780518 0.044097352772951126
0.3376391530036926 0.65555340051651 0.06445291638374329
0.36359703540802 0.6810571551322937 0.04403424635529518
0.3335198163986206 0.6984683275222778 0.0894501730799675
0.42554834485054016 0.9023725986480713 -0.014900737442076206
0.39497876167297363 0.5995358228683472 -0.004919714760035276
0.37051481008529663 0.8212684988975525 0.09411680698394775
0.38811179995536804 0.8521267771720886 0.06062418222427368
0.3631487488746643 0.7616028189659119 0.0852893814444542
0.3234299123287201 0.7217210531234741 0.19334469735622406
0.3487214744091034 0.7734964489936829 0.1158299371600151
0.3397116959095001 0.7500238418579102 0.24860160052776337
0.3576212525367737 0.7136053442955017 0.06378941982984543
0.4065805971622467 0.5618067383766174 -0.006146055646240711
0.3834592401981354 0.6319440603256226 -0.06248513236641884
0.3826167583465576 0.6395854949951172 -0.036712948232889175
0.3817123770713806 0.6125838160514832 -0.08158236742019653
0.4135797619819641 0.45166486501693726 0.049881257116794586
0.380836546421051 0.44082772731781006 0.06443165987730026
0.3546594977378845 0.4420877695083618 0.0826946347951889
0.33664262294769287 0.45062538981437683 0.10633333772420883
0.32946112751960754 0.4653802514076233 0.12951302528381348
0.33538195490837097 0.5112833380699158 0.16602769494056702
0.32372918725013733 0.5909516215324402 0.29383227229118347
0.33933955430984497 0.5416848659515381 0.1356499195098877
0.35279351472854614 0.545703649520874 0.10971999168395996
0.375821590423584 0.5424051284790039 0.08622878044843674
0.3994026184082031 0.5344684720039368 0.06799290329217911
0.41671717166900635 0.524450957775116 0.054807908833026886
0.4269341230392456 0.5149502158164978 0.046115487813949585
0.3634566068649292 0.600135087966919 0.37644362449645996
0.3888341784477234 0.6465920209884644 -0.027034398168325424
0.4019742012023926 0.5641233921051025 -0.046458229422569275
0.38656413555145264 0.6312857866287231 -0.08903388679027557
0.4045093357563019 0.6453047394752502 -0.08904099464416504
0.3932727575302124 0.636605978012085 -0.07865290343761444
0.39743784070014954 0.6542923450469971 -0.025515932589769363
0.4045374393463135 0.6473664045333862 -0.09682852029800415
0.4153735041618347 0.654318630695343 -0.07420151680707932
0.4302627444267273 0.49477195739746094 0.060825176537036896
0.4351879358291626 0.49990686774253845 0.03803928941488266
0.43271657824516296 0.5028191208839417 0.018471654504537582
0.3443009853363037 0.4926207959651947 0.1299305111169815
0.33707743883132935 0.48542672395706177 0.13723124563694
0.4451802372932434 0.5477426052093506 -0.0933108702301979
0.646970272064209 0.4803096055984497 -0.048945311456918716
0.45254018902778625 0.6500104069709778 -0.08997201919555664
0.8097760081291199 0.3875172734260559 0.016237696632742882
0.5711733102798462 0.5058158040046692 -0.04058273881673813
0.5954548716545105 0.506464958190918 -0.05093279853463173
0.621644139289856 0.5048737525939941 -0.0563071109354496
0.6630803942680359 0.490110844373703 -0.052594371140003204
0.5514504313468933 0.5010483264923096 -0.02540018782019615
0.5975701808929443 0.42972415685653687 -0.05749575421214104
0.5715047121047974 0.43369168043136597 -0.041689518839120865
0.6257947683334351 0.43316853046417236 -0.062400542199611664
0.6477789878845215 0.4437568783760071 -0.06114625930786133
0.6893199682235718 0.5086686015129089 -0.049962352961301804
0.5728392601013184 0.8879528045654297 -0.06064612418413162
0.6601725220680237 0.47331756353378296 -0.04536006972193718
0.8240972757339478 0.5038245916366577 0.008928834460675716
0.7297002673149109 0.491841197013855 -0.038981448858976364
0.5818691849708557 0.6111592054367065 -0.07631874084472656
0.47598201036453247 0.7086265087127686 -0.08639177680015564
0.4806211292743683 0.7348860502243042 -0.07851380854845047
0.518658459186554 0.716722846031189 -0.09023381769657135
0.5499855279922485 0.7263131737709045 -0.08460176736116409
0.5121137499809265 0.7365731000900269 -0.08240145444869995
0.5388701558113098 0.7390948534011841 -0.07511893659830093
0.6003093123435974 0.7782670259475708 -0.06357771903276443
0.4295217990875244 0.6324957013130188 -0.12459693104028702
0.4297579526901245 0.6046995520591736 -0.13017450273036957
0.6886714696884155 0.41926202178001404 -0.06784556806087494
0.5309174656867981 0.548237681388855 -0.050117600709199905
0.5138784050941467 0.6243563294410706 -0.09981248527765274
0.5191996693611145 0.6100747585296631 -0.09331993013620377
0.6722080111503601 0.6078441739082336 -0.08716706186532974
0.4364921450614929 0.5734422206878662 -0.11702533811330795
0.6061967015266418 0.3867384195327759 -0.06862188130617142
0.6499581933021545 0.39706599712371826 -0.07164478302001953
0.7539318799972534 0.3377287685871124 -0.006010349374264479
0.4979107081890106 0.41680771112442017 -0.03787367418408394
0.5514513850212097 0.44548821449279785 -0.025252901017665863
0.620192289352417 0.7475414872169495 -0.07064323872327805
0.8529576659202576 0.7770206928253174 0.044121406972408295
0.4996805787086487 0.6416897773742676 -0.08414311707019806
0.47937631607055664 0.6514027714729309 -0.07412385195493698
0.5945203304290771 0.7461141347885132 -0.06251321732997894
0.5845350623130798 0.7459249496459961 -0.061103712767362595
0.6696656942367554 0.3810919523239136 -0.06613199412822723
0.5232105255126953 0.6360853910446167 -0.0886642187833786
0.5554156303405762 0.3911718726158142 -0.05770929530262947
0.5574911832809448 0.370295912027359 -0.061299946159124374
0.6026224493980408 0.2811686396598816 -0.028649482876062393
0.7086937427520752 0.35946086049079895 -0.040705785155296326
0.5746291279792786 0.3252170979976654 -0.04542778432369232
0.7146899104118347 0.4096657633781433 -0.05535268038511276
0.7599035501480103 0.4008863568305969 -0.02028992585837841
0.47785449028015137 0.7237244844436646 -0.08509446680545807
0.5134968757629395 0.7286400198936462 -0.08763973414897919
0.543173611164093 0.733008623123169 -0.08163218945264816
0.496038556098938 0.6466772556304932 -0.07499215751886368
0.5889099836349487 0.7460838556289673 -0.06111704185605049
0.571633517742157 0.7581275701522827 -0.06487026810646057
0.5837067365646362 0.745901346206665 -0.06020832434296608
0.47224992513656616 0.6347111463546753 -0.109702929854393
0.5396983623504639 0.7377375960350037 -0.0707595944404602
0.5130050778388977 0.7375696301460266 -0.07357797026634216
0.4846652150154114 0.7384755611419678 -0.07115441560745239
0.5006886720657349 0.8406674265861511 -0.05080032721161842
0.4896166920661926 0.8099303245544434 -0.07105668634176254
0.48612260818481445 0.7937620282173157 -0.07382304966449738
0.4851474463939667 0.779892086982727 -0.06863874197006226
0.48536840081214905 0.7710174322128296 -0.06333046406507492
0.5425336956977844 0.7611180543899536 -0.0635736882686615
0.5446263551712036 0.7641116380691528 -0.0675358697772026
0.5490360260009766 0.7703686952590942 -0.07187754660844803
0.5547133088111877 0.7794068455696106 -0.07069027423858643
0.5698665976524353 0.7016326189041138 -0.08124011754989624
0.8825712203979492 0.6346054673194885 0.07522851973772049
0.5627937912940979 0.7563378214836121 -0.06043936312198639
0.5661212801933289 0.7561547756195068 -0.06298845261335373
0.4714529514312744 0.663774847984314 -0.0755753368139267
0.5218061804771423 0.6529064178466797 -0.06724487990140915
0.4749522805213928 0.6581100821495056 -0.07510888576507568
0.5588794946670532 0.5619935393333435 -0.05790521204471588
0.6007842421531677 0.5772030353546143 -0.07242470979690552
0.5299801230430603 0.6219488978385925 -0.08377132564783096
0.6857386231422424 0.30064401030540466 -0.023229680955410004
0.6489895582199097 0.3326271176338196 -0.04808036610484123
0.6163550019264221 0.3665527105331421 -0.06718501448631287
0.5744717717170715 0.8038281202316284 -0.0645817443728447
0.499928742647171 0.3818431496620178 -0.04435230419039726
0.5116638541221619 0.3308892250061035 -0.03081151470541954
0.5302364230155945 0.2778654098510742 -0.014800713397562504
0.6471781134605408 0.4997716546058655 -0.05620231851935387
0.7248411178588867 0.5280957221984863 -0.05184294655919075
0.5384917855262756 0.4949876666069031 -0.017177918925881386
0.684357762336731 0.4565297067165375 -0.0559372715651989
0.5101319551467896 0.5320522785186768 -0.048282839357852936
0.4866359829902649 0.6153136491775513 -0.11247677356004715
0.7698790431022644 0.5486087203025818 -0.045665498822927475
0.6960595846176147 0.5440904498100281 -0.06710858643054962
0.6524190306663513 0.5522254705429077 -0.07162598520517349
0.5991380214691162 0.5494857430458069 -0.05904233455657959
0.5634630918502808 0.5406321287155151 -0.04546278342604637
0.5371663570404053 0.5298373699188232 -0.03675789758563042
0.4671362042427063 0.49823668599128723 -0.04872444272041321
0.7663239240646362 0.6042981743812561 -0.058467160910367966
0.7128143906593323 0.45322585105895996 -0.0548924021422863
0.42968040704727173 0.6482947468757629 -0.1138705387711525
0.5239489674568176 0.5727871060371399 -0.06165595352649689
0.8740102648735046 0.5080326795578003 0.07086025178432465
0.5162111520767212 0.5168290734291077 -0.029228052124381065
0.5410521030426025 0.6243762373924255 -0.06214148551225662
0.6731086373329163 0.4746600091457367 -0.04589146748185158
0.4935985505580902 0.597923755645752 -0.10329241305589676
0.8767369985580444 0.704013466835022 0.06353844702243805
0.5414897799491882 0.48628199100494385 -0.012501800432801247
0.4635336995124817 0.5826781988143921 -0.11447236686944962
0.7327777147293091 0.8332655429840088 -0.036185454577207565
0.7566124200820923 0.8754666447639465 -0.005524746607989073
0.835210919380188 0.62109375 0.005155149381607771
0.780794620513916 0.7970168590545654 -0.02633603848516941
0.7955036759376526 0.448230504989624 -0.0006599377957172692
0.5838437080383301 0.9229906797409058 -0.05642878636717796
0.43741708993911743 0.6557937860488892 -0.08492234349250793
0.5505154728889465 0.5912484526634216 -0.0651022419333458
0.7660829424858093 0.49873048067092896 -0.029716508463025093
0.6151383519172668 0.489121675491333 -0.05121224746108055
0.592606246471405 0.49178028106689453 -0.047253359109163284
0.5787732601165771 0.7622040510177612 -0.06496532261371613
0.7716214060783386 0.6617203950881958 -0.054526835680007935
0.5377364158630371 0.9651431441307068 -0.036378808319568634
0.6433718800544739 0.9321591854095459 -0.027740653604269028
0.6954636573791504 0.9093538522720337 -0.01890399493277073
0.5735834240913391 0.4915395975112915 -0.03757462278008461
0.5566590428352356 0.48931771516799927 -0.026029272004961967
0.5462683439254761 0.48811396956443787 -0.016346324235200882
0.7452207803726196 0.4498101770877838 -0.041001442819833755
0.560043454170227 0.4653439223766327 -0.028554806485772133
0.5795727372169495 0.4554246664047241 -0.03964017331600189
0.5993320345878601 0.4525156021118164 -0.049046970903873444
0.6223048567771912 0.45576468110084534 -0.05379199981689453
0.6386403441429138 0.4626953601837158 -0.0530603788793087
0.8484177589416504 0.440676748752594 0.04757276549935341
0.632601797580719 0.4849438965320587 -0.051072314381599426
0.53838050365448 0.687762975692749 -0.08076676726341248
0.49525460600852966 0.6375686526298523 -0.08947136998176575
0.47765469551086426 0.6810399889945984 -0.07800538092851639
0.6829459071159363 0.8681921362876892 -0.039440203458070755
0.6362686157226562 0.8968666791915894 -0.04648081585764885
0.5262005925178528 0.9394663572311401 -0.05793305113911629
0.8091451525688171 0.8350181579589844 0.017522552981972694
0.5466411709785461 0.4784860610961914 -0.01922079548239708
0.478259801864624 0.537842869758606 -0.0681847557425499
0.5902864336967468 0.9519237279891968 -0.03853343054652214
0.8344907760620117 0.6849230527877808 -0.0005674587446264923
0.5144772529602051 0.766630232334137 -0.06631806492805481
0.5168555378913879 0.7727678418159485 -0.07114513963460922
0.5193344354629517 0.7831295728683472 -0.07568971067667007
0.523433268070221 0.7976675629615784 -0.07405896484851837
0.5406414270401001 0.8255231976509094 -0.06352783739566803
0.566428542137146 0.7415872812271118 -0.06874720752239227
0.5711693167686462 0.7387756705284119 -0.07269085943698883
0.5775801539421082 0.7345706224441528 -0.07510626316070557
0.599583625793457 0.7211950421333313 -0.0786299854516983
0.7134082913398743 0.6710607409477234 -0.08012491464614868
0.4881938099861145 0.5135512351989746 -0.046585746109485626
0.5149184465408325 0.46560046076774597 -0.01094809826463461
0.5335423946380615 0.4686041474342346 -0.014094255864620209
0.5648168325424194 0.7391709089279175 -0.06503366678953171
0.7411965727806091 0.7454848289489746 -0.05581815913319588
0.4859083890914917 0.46402740478515625 -0.026513811200857162
0.559097170829773 0.855120062828064 -0.059446122497320175
0.45611000061035156 0.5242740511894226 -0.07099828124046326
0.4953554570674896 0.5771126747131348 -0.07927405834197998
0.5093914270401001 0.870791494846344 -0.05463000759482384
0.629156231880188 0.7957693338394165 -0.06262899935245514
0.5663095712661743 0.6454259753227234 -0.06836201250553131
0.5988033413887024 0.8299610018730164 -0.05980900675058365
0.6286125779151917 0.6423396468162537 -0.08793588727712631
0.5945332050323486 0.6715342998504639 -0.07768584042787552
0.6652640700340271 0.6880229115486145 -0.08540715277194977
0.5175288319587708 0.9064710736274719 -0.06305655092000961
0.518623948097229 0.591667115688324 -0.0732656717300415
0.6600759029388428 0.8264321088790894 -0.055452629923820496
0.6188530325889587 0.8599745631217957 -0.054297491908073425
0.6480456590652466 0.7578650116920471 -0.07350057363510132
0.7749351859092712 0.7125075459480286 -0.047218430787324905
0.6945023536682129 0.7723262310028076 -0.06631507724523544
0.8203226327896118 0.7444643378257751 -0.009402655996382236
0.6261358261108398 0.7046266198158264 -0.08161292970180511
0.5010251402854919 0.5551413893699646 -0.06410840898752213
0.4782278537750244 0.6291623711585999 -0.11533436924219131
0.5053924322128296 0.634135901927948 -0.09763365238904953
0.4579439163208008 0.6094263195991516 -0.12445048242807388
0.5289233922958374 0.4385792016983032 -0.025177164003252983
0.5640823245048523 0.4195282459259033 -0.04496404528617859
0.598621666431427 0.4139334261417389 -0.05993260443210602
0.6326216459274292 0.4187679588794708 -0.0674072727560997
0.6624032258987427 0.43265020847320557 -0.06542962044477463
0.6967942714691162 0.48351991176605225 -0.044347647577524185
0.8324060440063477 0.5612642765045166 0.004935686942189932
0.669264018535614 0.5183162093162537 -0.05622023344039917
0.6366401314735413 0.5255919098854065 -0.05725825950503349
0.5997642278671265 0.5263081192970276 -0.05139939486980438
0.5680021643638611 0.5219330787658691 -0.03999060019850731
0.5446534752845764 0.5149228572845459 -0.026073040440678596
0.5277372598648071 0.5074954628944397 -0.019404880702495575
0.8810697793960571 0.5713701248168945 0.07902813702821732
0.5110965371131897 0.6411423087120056 -0.08708243072032928
0.46931371092796326 0.5598903894424438 -0.08852981775999069
0.45160698890686035 0.6302772164344788 -0.12249252945184708
0.4468538165092468 0.6455192565917969 -0.10836959630250931
0.45832115411758423 0.636225163936615 -0.11325005441904068
0.5090801119804382 0.6495930552482605 -0.07560832053422928
0.4390581548213959 0.6470730900764465 -0.11258816719055176
0.44620001316070557 0.6541520357131958 -0.08750541508197784
0.530022382736206 0.4872329533100128 -0.008968044072389603
0.5139294862747192 0.4934666156768799 -0.013074821792542934
0.5001077055931091 0.49691951274871826 -0.02443375252187252
0.6496742367744446 0.4683414101600647 -0.05041757971048355
0.6663802266120911 0.45716357231140137 -0.055154263973236084
