ply
format ascii 1.0
element vertex 468
property float x
property float y
property float z
end_header
0.5449047088623047 0.7163745760917664 -0.0708923190832138
0.565986692905426 0.628321647644043 -0.12626487016677856
0.5433536171913147 0.6555616855621338 -0.0673544853925705
0.5290797352790833 0.5434604287147522 -0.1020922064781189
0.567702054977417 0.6015426516532898 -0.13354428112506866
0.5606886744499207 0.5673792362213135 -0.12320414185523987
0.5355571508407593 0.4864092171192169 -0.05927863344550133
0.3240163028240204 0.47905516624450684 -0.032778363674879074
0.527246356010437 0.43731990456581116 -0.04331590235233307
0.528109610080719 0.4068445563316345 -0.0471334308385849
0.5154019594192505 0.2842719852924347 -0.015820519998669624
0.5437842607498169 0.7290406823158264 -0.0678953230381012
0.540744960308075 0.7388168573379517 -0.06002059951424599
0.5360502004623413 0.7429409027099609 -0.04946289584040642
0.5391159057617188 0.7469837665557861 -0.04721273109316826
0.541172444820404 0.7573690414428711 -0.05140197277069092
0.5418892502784729 0.7709540128707886 -0.05665723234415054
0.5401179790496826 0.7862440943717957 -0.053698375821113586
0.5306694507598877 0.8160045146942139 -0.03124838136136532
0.5591901540756226 0.6426304578781128 -0.1144305169582367
0.5240878462791443 0.6422674059867859 -0.08984137326478958
0.17271146178245544 0.38791191577911377 0.04422544315457344
0.40304839611053467 0.5003948211669922 -0.03175344318151474
0.3773626685142517 0.5029479265213013 -0.039669930934906006
0.3501371145248413 0.5028204917907715 -0.04208487644791603
0.30922555923461914 0.4889174699783325 -0.033990293741226196
0.4238869845867157 0.49363771080970764 -0.020926235243678093
0.36935365200042725 0.44139522314071655 -0.0522310808300972
0.39650410413742065 0.4425773024559021 -0.04003533720970154
0.3421490490436554 0.4444948434829712 -0.05364469438791275
0.3219924569129944 0.45206591486930847 -0.04953723028302193
0.2837679386138916 0.5084662437438965 -0.028557024896144867
0.42076465487480164 0.8700808882713318 -0.03765380382537842
0.3114289343357086 0.47290945053100586 -0.028761932626366615
0.16455231606960297 0.4999513030052185 0.0488324910402298
0.24487820267677307 0.4937647581100464 -0.014508035965263844
0.3942829966545105 0.6112286448478699 -0.058106351643800735
0.5137890577316284 0.7136269807815552 -0.07876376807689667
0.513910710811615 0.7403146624565125 -0.06665226072072983
0.47641170024871826 0.7242797613143921 -0.07706121355295181
0.45017480850219727 0.7368256449699402 -0.06885907799005508
0.4863339066505432 0.7435372471809387 -0.06718944013118744
0.46397221088409424 0.7478782534599304 -0.05803809314966202
0.4036772549152374 0.779819130897522 -0.04344303905963898
0.5433565974235535 0.6280820965766907 -0.13033752143383026
0.5417402386665344 0.6024909615516663 -0.13817676901817322
0.27814173698425293 0.43295490741729736 -0.058508966118097305
0.44385287165641785 0.5433024764060974 -0.045220836997032166
0.4585880637168884 0.6230677366256714 -0.09252046048641205
0.4532085657119751 0.6090202927589417 -0.08564437180757523
0.3046494126319885 0.6110033988952637 -0.058746520429849625
0.5362629890441895 0.5705106854438782 -0.12511950731277466
0.35928091406822205 0.40920931100845337 -0.07528068870306015
0.3146391212940216 0.41640928387641907 -0.07190001010894775
0.2197466790676117 0.34338057041168213 0.008579066954553127
0.47684407234191895 0.4320392608642578 -0.05530533939599991
0.41924959421157837 0.4492190480232239 -0.024159621447324753
0.38275060057640076 0.756805956363678 -0.04630360007286072
0.15593770146369934 0.755060076713562 0.11255639046430588
0.4761614501476288 0.6375839710235596 -0.07592912018299103
0.4983806312084198 0.6454687118530273 -0.07020354270935059
0.4168556034564972 0.7560673952102661 -0.04156927391886711
0.42761316895484924 0.7535080313682556 -0.04238762706518173
0.29523587226867676 0.40029579401016235 -0.06378617882728577
0.45195284485816956 0.6349441409111023 -0.07905862480401993
0.4135361313819885 0.413604199886322 -0.06947364658117294
0.4094296097755432 0.39336657524108887 -0.07470101118087769
0.3617812991142273 0.2899240553379059 -0.040930233895778656
0.2600805163383484 0.3710385262966156 -0.03297792747616768
0.3902086317539215 0.3387364149093628 -0.05857275798916817
0.2539101243019104 0.42265212535858154 -0.04292581230401993
0.2150469720363617 0.4066482484340668 -0.0012152815470471978
0.5144226551055908 0.7294754385948181 -0.07593707740306854
0.483666330575943 0.736439049243927 -0.07352721691131592
0.4583967924118042 0.743057370185852 -0.06530869007110596
0.48130154609680176 0.642456591129303 -0.06880011409521103
0.42324739694595337 0.7551292181015015 -0.04177890717983246
0.43812257051467896 0.7572943568229675 -0.05044565722346306
0.42841243743896484 0.7519301176071167 -0.04241752624511719
0.5009636878967285 0.6291715502738953 -0.10799374431371689
0.46435803174972534 0.7461827993392944 -0.05299024656414986
0.48675504326820374 0.7444443106651306 -0.05656855180859566
0.5115998387336731 0.7434849143028259 -0.056722674518823624
0.4967668056488037 0.8169084787368774 -0.04014589637517929
0.5088924169540405 0.7858349084854126 -0.06283345818519592
0.5127008557319641 0.7697708606719971 -0.06558416783809662
0.514041543006897 0.756184995174408 -0.05962158367037773
0.5139249563217163 0.7477522492408752 -0.05485609173774719
0.46385031938552856 0.7502428889274597 -0.051340460777282715
0.461459755897522 0.7535955905914307 -0.0558607280254364
0.45689088106155396 0.7607440948486328 -0.05973057448863983
0.45087704062461853 0.7702009081840515 -0.0583723746240139
0.4228884279727936 0.707877516746521 -0.06601133942604065
0.12514835596084595 0.6193531155586243 0.14085067808628082
0.55109703540802 0.648430585861206 -0.08369351923465729
0.4466732144355774 0.7516920566558838 -0.04634905979037285
0.4436643123626709 0.7532888650894165 -0.0490679033100605
0.5086097717285156 0.6570989489555359 -0.07128016650676727
0.4576551616191864 0.6514419913291931 -0.056726954877376556
0.5038304328918457 0.6516546607017517 -0.07111959904432297
0.4153430163860321 0.5589996576309204 -0.047371964901685715
0.3731677830219269 0.5780134797096252 -0.0554484985768795
0.4444919526576996 0.6209518909454346 -0.07305292040109634
0.28162461519241333 0.3096666932106018 -0.022914724424481392
0.3168866038322449 0.3470720648765564 -0.050575681030750275
0.348425954580307 0.3892841935157776 -0.07272972911596298
0.42891138792037964 0.7955347895622253 -0.04775300994515419
0.4710620939731598 0.40064573287963867 -0.06571196764707565
0.45582664012908936 0.3388962149620056 -0.05251658707857132
0.4368900656700134 0.2827054560184479 -0.037450239062309265
0.3248195946216583 0.49853456020355225 -0.03909396752715111
0.25076544284820557 0.5287280082702637 -0.024252787232398987
0.4371508061885834 0.486880898475647 -0.013882552273571491
0.28561848402023315 0.4616457223892212 -0.040716782212257385
0.46493181586265564 0.5263791680335999 -0.04823419824242592
0.4838058352470398 0.6131526827812195 -0.11059019714593887
0.2105325162410736 0.5481802821159363 -0.010497422888875008
0.2777860760688782 0.54609215259552 -0.04074464738368988
0.32018619775772095 0.5548363327980042 -0.050093282014131546
0.37393030524253845 0.5489094853401184 -0.044769905507564545
0.4106362462043762 0.5368411540985107 -0.03652709349989891
0.43819305300712585 0.5242116451263428 -0.03296538442373276
0.5094345808029175 0.49305224418640137 -0.0597362294793129
0.21650072932243347 0.6041631102561951 -0.017694778740406036
0.2581590414047241 0.4602518677711487 -0.03690032660961151
0.5455272197723389 0.6418533325195312 -0.11816143244504929
0.4502715766429901 0.5689934492111206 -0.053910207003355026
0.1266912817955017 0.4988698363304138 0.12317109853029251
0.46014001965522766 0.5105273723602295 -0.029639659449458122
0.4361264109611511 0.6229198575019836 -0.04846953600645065
0.2994522452354431 0.47472915053367615 -0.02868998423218727
0.4773569703102112 0.596024215221405 -0.10125236213207245
0.13223397731781006 0.6854856610298157 0.13217248022556305
0.43394026160240173 0.4780988097190857 -0.008498755283653736
0.5076037645339966 0.5804477334022522 -0.11808684468269348
0.2633967399597168 0.8178105354309082 0.010382695123553276
0.24420785903930664 0.8517531752586365 0.050238531082868576
0.15933732688426971 0.6136022806167603 0.058511268347501755
0.21812498569488525 0.7807668447494507 0.028384262695908546
0.1871681958436966 0.44857722520828247 0.0299663282930851
0.4071841835975647 0.9026006460189819 -0.0282836202532053
0.5405527949333191 0.6472575068473816 -0.08535800874233246
0.42446401715278625 0.5891503095626831 -0.05192143842577934
0.21265970170497894 0.4995589852333069 0.000708183681126684
0.3551112115383148 0.48649585247039795 -0.0379323773086071
0.3788359761238098 0.48819267749786377 -0.036570969969034195
0.43057194352149963 0.7628523707389832 -0.048906270414590836
0.216789111495018 0.6587297320365906 -0.00787257682532072
0.4555431008338928 0.9407252669334412 -0.0078095244243741035
0.350058376789093 0.9102509021759033 0.011721552349627018
0.3011441230773926 0.8869479894638062 0.02748008631169796
0.5234087705612183 0.34216105937957764 -0.032476894557476044
0.5156029462814331 0.9412104487419128 0.0046312445774674416
0.39913564920425415 0.48625755310058594 -0.029766937717795372
0.4174850285053253 0.4821217656135559 -0.020218364894390106
0.4287368655204773 0.47976064682006836 -0.011647090315818787
0.22931750118732452 0.4561752378940582 -0.019071275368332863
0.4134478271007538 0.4642907977104187 -0.02388598397374153
0.39174389839172363 0.4591209888458252 -0.034796006977558136
0.37036722898483276 0.4580322504043579 -0.04161781817674637
0.347084105014801 0.4608752429485321 -0.04368015378713608
0.3312205672264099 0.4659334719181061 -0.04050580412149429
0.1436026692390442 0.43626126646995544 0.08781104534864426
0.33760541677474976 0.4831402897834778 -0.035999104380607605
0.5423752665519714 0.6750072240829468 -0.06247274950146675
0.4484519064426422 0.690384030342102 -0.0683915838599205
0.47910815477371216 0.6334465146064758 -0.08428541570901871
0.5069800615310669 0.6790919899940491 -0.072841577231884
0.5271661281585693 0.4609296917915344 -0.041274216026067734
0.3101526200771332 0.8523539304733276 -0.0003339843242429197
0.35587653517723083 0.8792055249214172 -0.012848930433392525
0.46521520614624023 0.916800856590271 -0.03606768324971199
0.19622702896595 0.8107732534408569 0.08179105818271637
0.42804405093193054 0.4721825122833252 -0.01515522412955761
0.4959109425544739 0.5330750346183777 -0.07285819202661514
0.5257908701896667 0.9174483418464661 -0.023224087432026863
0.4019894301891327 0.9290083050727844 -0.004525355529040098
0.16450519859790802 0.6737340688705444 0.05738462507724762
0.4884280264377594 0.7483539581298828 -0.05486464127898216
0.4860546886920929 0.7547855377197266 -0.060473568737506866
0.48299646377563477 0.7652744650840759 -0.06534381210803986
0.4786401689052582 0.7798935770988464 -0.06355096399784088
0.4601307511329651 0.8084647059440613 -0.04932165890932083
0.442502498626709 0.751306414604187 -0.05081206187605858
0.43651819229125977 0.74991375207901 -0.05413369834423065
0.428657203912735 0.7464399337768555 -0.05688217654824257
0.3992731273174286 0.7306749820709229 -0.05913574621081352
0.27176254987716675 0.6708211302757263 -0.04100325331091881
0.48779720067977905 0.5079718828201294 -0.0521259680390358
0.46158143877983093 0.4636995196342468 -0.013738246634602547
0.44109147787094116 0.46521997451782227 -0.01392870768904686
0.4448392689228058 0.7478266954421997 -0.04701580852270126
0.2522779703140259 0.7385772466659546 -0.009271078743040562
0.4916456341743469 0.4644208550453186 -0.03694484010338783
0.4385528266429901 0.8389275074005127 -0.04114785045385361
0.551744282245636 0.5391182899475098 -0.10067562013864517
0.5190821290016174 0.5189758539199829 -0.08198829740285873
0.5437541007995605 0.5130465030670166 -0.07882662862539291
0.477640837430954 0.57369065284729 -0.07757816463708878
0.5303905010223389 0.8848202228546143 -0.03615520894527435
0.5306233763694763 0.8472849726676941 -0.03387407585978508
0.4861731231212616 0.8487403392791748 -0.041853342205286026
0.367965966463089 0.7939981818199158 -0.0370936319231987
0.413630872964859 0.6455652713775635 -0.05150469020009041
0.39923712611198425 0.8210636377334595 -0.0385611355304718
0.3504536747932434 0.6441836357116699 -0.06252031773328781
0.3898208737373352 0.6738188862800598 -0.058268047869205475
0.3193396031856537 0.6897445917129517 -0.05292964726686478
0.47550448775291443 0.884787917137146 -0.04659878462553024
0.45496678352355957 0.5887830257415771 -0.06594633311033249
0.33295002579689026 0.8181564807891846 -0.02295723371207714
0.37550389766693115 0.8471372723579407 -0.026617825031280518
0.34693750739097595 0.7617467641830444 -0.043136123567819595
0.21817009150981903 0.7059634327888489 0.0034473242703825235
0.2983671724796295 0.7680903077125549 -0.02842755615711212
0.17966990172863007 0.7297652959823608 0.050156496465206146
0.3652210235595703 0.7113980054855347 -0.05669838935136795
0.4729158878326416 0.5505882501602173 -0.06259378045797348
0.49376195669174194 0.6249521970748901 -0.11395058035850525
0.4678874909877777 0.6317247748374939 -0.09134779125452042
0.5123279690742493 0.6067714095115662 -0.12734335660934448
0.4446234703063965 0.4457463026046753 -0.02913777343928814
0.4048360586166382 0.43304747343063354 -0.04852008819580078
0.36801373958587646 0.42942100763320923 -0.061281055212020874
0.3335324227809906 0.4325695037841797 -0.06386861205101013
0.3051140308380127 0.44281166791915894 -0.0570526085793972
0.2759034037590027 0.48465439677238464 -0.02436022460460663
0.1584516167640686 0.5557979345321655 0.052516475319862366
0.30354058742523193 0.5186529159545898 -0.0356120727956295
0.33535030484199524 0.5255528688430786 -0.04088398069143295
0.3732388913631439 0.5242108702659607 -0.03903992846608162
0.4064439535140991 0.5172770023345947 -0.030674977228045464
0.43137407302856445 0.5082874298095703 -0.022493643686175346
0.44949233531951904 0.5002182722091675 -0.017886295914649963
0.12420982122421265 0.5586110949516296 0.13906824588775635
0.4643505811691284 0.6387379765510559 -0.07906941324472427
0.503800094127655 0.5559964179992676 -0.09197549521923065
0.5196588635444641 0.6256576180458069 -0.12551505863666534
0.5279849171638489 0.6386943459510803 -0.11117568612098694
0.5147994160652161 0.6303861737251282 -0.11424919962882996
0.46901756525039673 0.6468694806098938 -0.06782560050487518
0.535749077796936 0.640539288520813 -0.1160687506198883
0.5309111475944519 0.6460838317871094 -0.08743522316217422
0.44574642181396484 0.47954967617988586 -0.006977984216064215
0.46398022770881653 0.4869232177734375 -0.014971937984228134
0.47721928358078003 0.49151483178138733 -0.02947286143898964
0.3209477663040161 0.4698254466056824 -0.03593848645687103
0.30419543385505676 0.4614141583442688 -0.04008614644408226
0.5691236853599548 0.5430523753166199 -0.08270880579948425
0.6559931039810181 0.47996148467063904 0.10756603628396988
0.5701924562454224 0.6413376331329346 -0.07482776790857315
0.6949129700660706 0.4022058844566345 0.25732365250587463
0.5956907868385315 0.5008131265640259 0.05868067219853401
0.6173816919326782 0.5031563639640808 0.06889279931783676
0.6376221776008606 0.5026912689208984 0.08342977613210678
0.6593742370605469 0.489520788192749 0.11418750137090683
0.578949511051178 0.49440181255340576 0.050629835575819016
0.6293265223503113 0.44546258449554443 0.06088664010167122
0.6061310768127441 0.4467184245586395 0.04951900616288185
0.6493360996246338 0.44844019412994385 0.07704418897628784
0.6605396270751953 0.45583754777908325 0.09208617359399796
0.6726961731910706 0.5084747076034546 0.13085544109344482
0.6044683456420898 0.8576368093490601 0.026832927018404007
0.6614794731140137 0.47471916675567627 0.1181274875998497
0.6996277570724487 0.5036715865135193 0.26696619391441345
0.6878639459609985 0.4944734275341034 0.1645008772611618
0.6283021569252014 0.6076791286468506 0.032506827265024185
0.5704817771911621 0.7114700675010681 -0.05601086840033531
0.5607007145881653 0.7382051348686218 -0.046065572649240494
0.5922015905380249 0.7192676663398743 -0.0300185214728117
0.6029200553894043 0.7311427593231201 -0.0040983096696436405
0.5757967829704285 0.7394969463348389 -0.027064064517617226
0.5863232612609863 0.7430626749992371 -0.003873989684507251
0.617840588092804 0.7711422443389893 0.0397537536919117
0.583612859249115 0.6277329921722412 -0.1177653893828392
0.5878039598464966 0.6019903421401978 -0.1230943500995636
0.6907519102096558 0.4365820288658142 0.11000904440879822
0.5837677121162415 0.542463481426239 0.0140286386013031
0.6110671162605286 0.6206035614013672 -0.03626062721014023
0.6077428460121155 0.6065142750740051 -0.027695009484887123
0.6784884333610535 0.6055410504341125 0.0906430184841156
0.5794481039047241 0.570017397403717 -0.10609789937734604
0.6550347805023193 0.41320914030075073 0.04206837713718414
0.6788487434387207 0.42049235105514526 0.07466541975736618
0.6882870197296143 0.3585953116416931 0.19986213743686676
0.568040132522583 0.4330172538757324 -0.015999969094991684
0.585422158241272 0.4527025520801544 0.048600226640701294
0.6339542865753174 0.7481366991996765 0.05538630113005638
0.6691259145736694 0.7414211630821228 0.3111259639263153
0.5936269760131836 0.6355055570602417 -0.034736234694719315
0.577012836933136 0.6440258622169495 -0.0495239719748497
0.6104837656021118 0.7497920393943787 0.0453861765563488
0.5996543169021606 0.7474470138549805 0.033812593668699265
0.6870729923248291 0.4054131507873535 0.09220695495605469
0.606514036655426 0.6319855451583862 -0.02411036565899849
0.6185023784637451 0.41638898849487305 0.01110950205475092
0.6243880987167358 0.3967478573322296 0.008337116800248623
0.6294500827789307 0.30090391635894775 0.0694458857178688
0.6886217594146729 0.38067826628685 0.1390765905380249
0.6271849274635315 0.3457171618938446 0.03732696548104286
0.6971530318260193 0.4276070296764374 0.13742484152317047
0.6972305774688721 0.41632258892059326 0.19377663731575012
0.5668854117393494 0.7270786762237549 -0.05361568555235863
0.5841858386993408 0.7318390607833862 -0.029552869498729706
0.5952329635620117 0.7376471757888794 -0.006478630471974611
0.5868401527404785 0.6402672529220581 -0.03458495810627937
0.6050043106079102 0.7490494251251221 0.03851815685629845
0.600287139415741 0.7513025999069214 0.016955452039837837
0.5962476134300232 0.7457103133201599 0.03162109851837158
0.5925415754318237 0.6272566914558411 -0.06935911625623703
0.5783656239509583 0.7417415976524353 -0.0015097804134711623
0.5674324035644531 0.7410449981689453 -0.01889653503894806
0.55356365442276 0.7417585849761963 -0.036077406257390976
0.5584539175033569 0.8131129741668701 -0.020303893834352493
0.5651757717132568 0.7829105257987976 -0.041358448565006256
0.5651305913925171 0.7670513987541199 -0.04359347000718117
0.5625015497207642 0.7540874481201172 -0.03776979446411133
0.5586045980453491 0.7459545135498047 -0.0338749885559082
0.5840702056884766 0.7456883192062378 -0.00023176184913609177
0.5881122350692749 0.7487339377403259 -0.004828412085771561
0.5934147834777832 0.7551229000091553 -0.007074745371937752
0.597624659538269 0.7641792297363281 -0.0006765807629562914
0.6209107041358948 0.7019018530845642 0.010087371803820133
0.6763136386871338 0.616271436214447 0.36265936493873596
0.5895667672157288 0.746428370475769 0.01833498291671276
0.5948330163955688 0.7477946281433105 0.015611346811056137
0.5700383186340332 0.6555398106575012 -0.050859786570072174
0.5954183340072632 0.6480331420898438 -0.013118674047291279
0.573470950126648 0.650204062461853 -0.050998713821172714
0.6025698781013489 0.5576366782188416 0.03155428171157837
0.6355948448181152 0.5754153728485107 0.05119932070374489
0.607040286064148 0.6179584264755249 -0.013626659289002419
0.6679095029830933 0.3242810368537903 0.1336124986410141
0.6663281917572021 0.3559681177139282 0.08807702362537384
0.6620559096336365 0.39407628774642944 0.051394984126091
0.6033467054367065 0.7868000864982605 0.02027711272239685
0.5778950452804565 0.4030250310897827 -0.02321126125752926
0.5811328887939453 0.3428650200366974 -0.002270152559503913
0.5806868076324463 0.28920668363571167 0.01807353086769581
0.6523030400276184 0.4983025789260864 0.10030142217874527
0.6905912756919861 0.5276483297348022 0.15289027988910675
0.5692622065544128 0.48769909143447876 0.05002514645457268
0.6770720481872559 0.4640289843082428 0.12177209556102753
0.5723052620887756 0.5261586904525757 -0.0004623572458513081
0.6057376265525818 0.6112611293792725 -0.06481026858091354
0.7049300670623779 0.5467697381973267 0.18985781073570251
0.6840347051620483 0.5440134406089783 0.12557464838027954
0.6637697219848633 0.552635133266449 0.09076778590679169
0.6267951726913452 0.5475993156433105 0.06297233700752258
0.5982254147529602 0.5360121726989746 0.045533474534749985
0.5783953666687012 0.5237973928451538 0.0287034809589386
0.5540951490402222 0.49328699707984924 -0.03955521062016487
0.7074052691459656 0.5987221002578735 0.18121707439422607
0.6894671320915222 0.46294018626213074 0.14058749377727509
0.5701749920845032 0.6415716409683228 -0.10797687619924545
0.5881772637367249 0.5675378441810608 0.0035161077976226807
0.6830195188522339 0.5052593946456909 0.35197439789772034
0.5649699568748474 0.5105059146881104 0.01879165507853031
0.6021974086761475 0.6197882890701294 0.010967842303216457
0.6654065847396851 0.4768943190574646 0.12560731172561646
0.6007912755012512 0.5942915081977844 -0.05496714636683464
0.6755948066711426 0.6773744821548462 0.3445233702659607
0.5685468912124634 0.47883909940719604 0.05820540338754654
0.5916337966918945 0.5793691873550415 -0.08440358936786652
0.6690449714660645 0.7995471358299255 0.15853209793567657
0.6537238359451294 0.8314167857170105 0.20042727887630463
0.703792929649353 0.6091835498809814 0.27576541900634766
0.683456301689148 0.7645726799964905 0.20270200073719025
0.6977874040603638 0.45627230405807495 0.23823490738868713
0.6080104112625122 0.8882348537445068 0.04225775599479675
0.5602168440818787 0.64735347032547 -0.079109326004982
0.6030153036117554 0.5867947936058044 0.018479064106941223
0.697211742401123 0.5008971691131592 0.1979384571313858
0.6375128030776978 0.4872473478317261 0.08541425317525864
0.6184373497962952 0.4891115725040436 0.07238781452178955
0.6048433184623718 0.7566089034080505 0.023781782016158104
0.7034955024719238 0.6501400470733643 0.18336209654808044
0.5661084651947021 0.9320809841156006 0.031061142683029175
0.618236780166626 0.8913991451263428 0.10925609618425369
0.636147141456604 0.8661721348762512 0.149987131357193
0.5996736884117126 0.4874783158302307 0.06316438317298889
0.5831173658370972 0.4832010567188263 0.05950818955898285
0.5732018947601318 0.48067915439605713 0.06004812940955162
0.696246325969696 0.460078626871109 0.17219704389572144
0.5857139825820923 0.4656940698623657 0.057949699461460114
0.6035283207893372 0.4612777829170227 0.05999824032187462
0.6231657862663269 0.4596489667892456 0.06876500695943832
0.6419111490249634 0.46241068840026855 0.08191724866628647
0.6525769829750061 0.46775633096694946 0.0943693146109581
0.6925777792930603 0.44781962037086487 0.31194621324539185
0.6489717960357666 0.48370280861854553 0.09775913506746292
0.6061815619468689 0.685617208480835 -0.01050992775708437
0.596966028213501 0.6315832138061523 -0.044672537595033646
0.5720820426940918 0.6768200397491455 -0.04903167858719826
0.6497174501419067 0.833473801612854 0.11951079964637756
0.6296094059944153 0.8610028028488159 0.08173888176679611
0.5753255486488342 0.9086369276046753 0.001989003038033843
0.6620312929153442 0.793220043182373 0.25917336344718933
0.5742714405059814 0.4729544520378113 0.057901062071323395
0.5718151330947876 0.5326243042945862 -0.0405651330947876
0.5976135730743408 0.9142718315124512 0.06736422330141068
0.6996513605117798 0.6648564338684082 0.26537805795669556
0.5736567974090576 0.7450467348098755 -0.016852576285600662
0.577920138835907 0.7510185241699219 -0.02135438658297062
0.5819599628448486 0.7609913349151611 -0.02437002770602703
0.5847297310829163 0.7747235298156738 -0.020307939499616623
0.5843906998634338 0.8016332387924194 -0.0010834070853888988
0.5942334532737732 0.7456792593002319 0.016724664717912674
0.602036714553833 0.7441588044166565 0.019929254427552223
0.6088587045669556 0.7406133413314819 0.02266557887196541
0.6315056085586548 0.7234147787094116 0.03512727469205856
0.6890993118286133 0.66205233335495 0.11965283751487732
0.562684178352356 0.5080665349960327 -0.018622051924467087
0.557244598865509 0.4644036889076233 0.028872231021523476
0.5668565034866333 0.4667443633079529 0.047480110079050064
0.5873146057128906 0.7425550818443298 0.017846034839749336
0.686143696308136 0.7255427837371826 0.1540527492761612
0.5494692325592041 0.46472853422164917 -0.01142359059303999
0.5929518938064575 0.828658938407898 0.014045433141291142
0.5624769926071167 0.5189453363418579 -0.06458117812871933
0.5867028832435608 0.5724624991416931 -0.03532616049051285
0.5649558305740356 0.8430188894271851 -0.015175075270235538
0.6362669467926025 0.7817984819412231 0.060085952281951904
0.6178068518638611 0.6414231061935425 0.022320512682199478
0.6156813502311707 0.8088072538375854 0.03836669400334358
0.6586847305297852 0.638206958770752 0.05310393497347832
0.6363657116889954 0.6680138111114502 0.03407127037644386
0.6719201803207397 0.6806852221488953 0.079037606716156
0.5743818283081055 0.8777332305908203 -0.010938405059278011
0.5934064388275146 0.5868961215019226 -0.012837706133723259
0.6498031616210938 0.8022023439407349 0.08988408744335175
0.6265011429786682 0.8315355181694031 0.06012152135372162
0.6528597474098206 0.7506247162818909 0.07439214736223221
0.6977390050888062 0.6946442127227783 0.18608006834983826
0.6708223819732666 0.754069447517395 0.10823768377304077
0.6935850381851196 0.716938853263855 0.24728809297084808
0.6497191786766052 0.7033823132514954 0.05179254710674286
0.5791170597076416 0.5496253967285156 -0.01708820089697838
0.6004273891448975 0.6228805780410767 -0.07234814018011093
0.6060188412666321 0.6293679475784302 -0.04370814934372902
0.5992039442062378 0.6052871346473694 -0.09419872611761093
0.5747190117835999 0.4467729330062866 0.029878785833716393
0.6098678112030029 0.4352184534072876 0.03751767426729202
0.6400513648986816 0.43312013149261475 0.051417332142591476
0.662908673286438 0.43709123134613037 0.07294950634241104
0.6750743389129639 0.44682061672210693 0.09606914967298508
0.6752016544342041 0.4854993224143982 0.13986369967460632
0.7040209770202637 0.555820643901825 0.27546048164367676
0.665442943572998 0.5181453824043274 0.11433519423007965
0.6481000185012817 0.5248230695724487 0.08964647352695465
0.6218748092651367 0.5236685872077942 0.0682714655995369
0.5954509973526001 0.517061710357666 0.054254546761512756
0.5763401985168457 0.5085123777389526 0.04201279953122139
0.5639408826828003 0.5004027485847473 0.03490782529115677
0.6760852932929993 0.5604615211486816 0.3670470416545868
0.6009132266044617 0.6361035704612732 -0.03262825682759285
0.5799155831336975 0.5550847053527832 -0.05878307297825813
0.5941473245620728 0.6240674257278442 -0.09876686334609985
0.5763216614723206 0.6373873949050903 -0.09569932520389557
0.5883725881576538 0.6286483407020569 -0.0870201513171196
0.5923824310302734 0.644127607345581 -0.02885083667933941
0.5754932761192322 0.639898955821991 -0.10338928550481796
0.5663784742355347 0.6453607082366943 -0.07698586583137512
0.5624716877937317 0.480392187833786 0.048724252730607986
0.5544967651367188 0.48723652958869934 0.026532184332609177
0.5548179149627686 0.4917408227920532 0.004744068253785372
0.6581325531005859 0.47177767753601074 0.10490184277296066
0.6673723459243774 0.46423274278640747 0.10990264266729355
