ply
format ascii 1.0
element vertex 468
property float x
property float y
property float z
end_header
0.4865131378173828 0.7378860712051392 -0.03848971053957939
0.4710787534713745 0.6775752305984497 -0.11795409768819809
0.4820537865161896 0.6900233030319214 -0.050600867718458176
0.4533825218677521 0.5828462243080139 -0.10127320885658264
0.46874624490737915 0.6525821685791016 -0.13083398342132568
0.469788521528244 0.6140304207801819 -0.12830820679664612
0.4771897494792938 0.5138638615608215 -0.08721080422401428
0.3230159282684326 0.48070764541625977 0.030575402081012726
0.47756993770599365 0.4429425597190857 -0.08561885356903076
0.47526130080223083 0.4076872766017914 -0.09931112825870514
0.4727626144886017 0.2628192603588104 -0.10710762441158295
0.4879453182220459 0.7481740117073059 -0.03304088115692139
0.4901812672615051 0.7545415759086609 -0.023593591526150703
0.49251073598861694 0.7554844617843628 -0.011984845623373985
0.49234846234321594 0.7610223293304443 -0.0066583529114723206
0.49222585558891296 0.7709786891937256 -0.008321563713252544
0.49286967515945435 0.7831940054893494 -0.010464834049344063
0.49453631043434143 0.7953341007232666 -0.004019340965896845
0.49970316886901855 0.8144481182098389 0.02278527058660984
0.47421300411224365 0.6872360110282898 -0.10337574034929276
0.4558691382408142 0.6797370314598083 -0.06752002984285355
0.25489088892936707 0.35988491773605347 0.1278725415468216
0.3955132067203522 0.5066452026367188 -7.209656905615702e-05
0.37223830819129944 0.5085012316703796 0.005700599402189255
0.3491407036781311 0.5070592761039734 0.015355879440903664
0.31841328740119934 0.48724231123924255 0.03779082000255585
0.4128653407096863 0.5014896988868713 -0.0021213700529187918
0.35135334730148315 0.44139063358306885 -0.013276107609272003
0.3784182071685791 0.444377064704895 -0.019360922276973724
0.32878798246383667 0.44397619366645813 -0.0011983976000919938
0.31527167558670044 0.45148706436157227 0.011283804662525654
0.3042067885398865 0.5034066438674927 0.05484102666378021
0.42488405108451843 0.8430701494216919 0.07366245985031128
0.3140532076358795 0.47168493270874023 0.038132622838020325
0.25506591796875 0.4714697003364563 0.16662564873695374
0.2816427946090698 0.48165223002433777 0.07797426730394363
0.3747623860836029 0.6207116842269897 0.003530775895342231
0.45817136764526367 0.7333569526672363 -0.03175543621182442
0.46703600883483887 0.7529692053794861 -0.0163789801299572
0.4330339729785919 0.734868049621582 -0.012567857280373573
0.4203154742717743 0.7375742793083191 0.00905698910355568
0.4485512673854828 0.7504561543464661 -0.0035787096712738276
0.43572673201560974 0.7486566305160522 0.014915186911821365
0.4019079804420471 0.7623993754386902 0.05890469625592232
0.45197850465774536 0.6758809089660645 -0.11375107616186142
0.44711214303970337 0.6514961123466492 -0.12511837482452393
0.2833034098148346 0.42698925733566284 0.015066112391650677
0.41789180040359497 0.5574978590011597 -0.020414743572473526
0.4090520441532135 0.6512778997421265 -0.048609409481287
0.40952324867248535 0.634824812412262 -0.043680738657712936
0.3114030361175537 0.6084054708480835 0.04289950430393219
0.44929400086402893 0.6154664158821106 -0.11704448610544205
0.3264463245868683 0.4108312427997589 -0.04149365425109863
0.2988828718662262 0.4140658378601074 -0.01552517618983984
0.26604557037353516 0.32270458340644836 0.06697750091552734
0.4262857735157013 0.43793392181396484 -0.07228412479162216
0.40196430683135986 0.45358508825302124 -0.0147525854408741
0.3822226822376251 0.7410835027694702 0.062066178768873215
0.30587297677993774 0.6882547736167908 0.2870352864265442
0.4262514114379883 0.665705144405365 -0.03964480385184288
0.4448148012161255 0.6757657527923584 -0.04285844415426254
0.4067295491695404 0.7427412271499634 0.056311801075935364
0.41723203659057617 0.7436470985412598 0.04742489010095596
0.2876700758934021 0.394834041595459 -0.0066191572695970535
0.41173678636550903 0.658037543296814 -0.03332948312163353
0.3672066032886505 0.417049765586853 -0.06093619763851166
0.36078763008117676 0.39591798186302185 -0.07047484815120697
0.33811241388320923 0.2759283185005188 -0.05197456479072571
0.2764092981815338 0.3589249849319458 0.024037349969148636
0.3513651490211487 0.33592045307159424 -0.06412836909294128
0.271624356508255 0.4112880825996399 0.03430379554629326
0.2626839280128479 0.3876258432865143 0.07681483030319214
0.46182334423065186 0.7455618381500244 -0.026579268276691437
0.4413369297981262 0.745103120803833 -0.008807133883237839
0.4278150498867035 0.7439622282981873 0.010112257674336433
0.4325770139694214 0.6696815490722656 -0.035533927381038666
0.4121896028518677 0.7434442043304443 0.05135573819279671
0.4208452105522156 0.7506654858589172 0.03690597414970398
0.41984352469444275 0.7425415515899658 0.04614264518022537
0.43213778734207153 0.6663407683372498 -0.0754217803478241
0.44153839349746704 0.7464303970336914 0.0186882596462965
0.4551371932029724 0.7497655153274536 0.0056983791291713715
0.47238218784332275 0.7536783218383789 -0.005471959710121155
0.4715486764907837 0.8118497729301453 0.027748482301831245
0.46831440925598145 0.7920637130737305 0.0013376701390370727
0.46767422556877136 0.7793613076210022 -0.004272510297596455
0.46859538555145264 0.76783287525177 -0.0018854438094422221
0.47080251574516296 0.7595347166061401 -0.0001637717359699309
0.4392073154449463 0.7513118386268616 0.02208957076072693
0.43568214774131775 0.7541214823722839 0.01967267319560051
0.43138182163238525 0.7596253156661987 0.01899905689060688
0.4279722273349762 0.7665951251983643 0.025461480021476746
0.39712971448898315 0.7120515704154968 0.01267196610569954
0.2767590582370758 0.5634596943855286 0.2928609549999237
0.47779977321624756 0.6881335377693176 -0.06971052289009094
0.430752694606781 0.7478930950164795 0.0360247828066349
0.42593762278556824 0.7488147020339966 0.03493113070726395
0.4533671736717224 0.6872891783714294 -0.040517862886190414
0.4208962917327881 0.6709451079368591 -0.015082472935318947
0.44920068979263306 0.6821044087409973 -0.04265456274151802
0.39750295877456665 0.5690902471542358 -0.005072518717497587
0.36112576723098755 0.5842249989509583 0.010117743164300919
0.40893638134002686 0.6422335505485535 -0.02787197008728981
0.2908715009689331 0.2942182421684265 0.0046487594954669476
0.3039681315422058 0.34034135937690735 -0.02188962884247303
0.31738805770874023 0.38876447081565857 -0.04150727018713951
0.4201660752296448 0.7815983295440674 0.04787587374448776
0.4151502549648285 0.4050368666648865 -0.08875703066587448
0.40619686245918274 0.33620697259902954 -0.09150576591491699
0.396592378616333 0.2663249671459198 -0.0892496332526207
0.32935187220573425 0.49996453523635864 0.027825864031910896
0.2834446430206299 0.5196585059165955 0.07508892565965652
0.4230744540691376 0.4965183734893799 -0.0017740566981956363
0.2969854772090912 0.456664502620697 0.0344364158809185
0.43098217248916626 0.5444188117980957 -0.03429539501667023
0.41783806681632996 0.6494120955467224 -0.07589703798294067
0.2649149000644684 0.5312053561210632 0.11035852134227753
0.2966005206108093 0.5417477488517761 0.0559658519923687
0.3240203261375427 0.5555984377861023 0.031210385262966156
0.3672558665275574 0.553636908531189 0.013641418889164925
0.3980076313018799 0.5440813899040222 0.0014508396852761507
0.41847583651542664 0.5345985293388367 -0.011553742922842503
0.4561712443828583 0.5189272165298462 -0.07303261011838913
0.2690425515174866 0.585102379322052 0.11575943231582642
0.28098034858703613 0.45073360204696655 0.04672674834728241
0.4625314474105835 0.6856640577316284 -0.10021636635065079
0.41909486055374146 0.5873498320579529 -0.024086104705929756
0.2599748969078064 0.45510199666023254 0.24598287045955658
0.43326666951179504 0.5245051383972168 -0.021071258932352066
0.4096384644508362 0.6392557621002197 -0.0048338607884943485
0.30948692560195923 0.47184666991233826 0.044312283396720886
0.418975293636322 0.6288525462150574 -0.0701713040471077
0.2877472937107086 0.6238353848457336 0.29656511545181274
0.4215690493583679 0.48676934838294983 0.001965200062841177
0.43270596861839294 0.620040237903595 -0.09830734878778458
0.3381957411766052 0.7710202932357788 0.163642019033432
0.3494434952735901 0.7891260385513306 0.2145058959722519
0.2616565525531769 0.5764745473861694 0.2055814564228058
0.31197935342788696 0.7323802709579468 0.19060134887695312
0.25768062472343445 0.42517566680908203 0.12736770510673523
0.42384204268455505 0.865256130695343 0.09552264958620071
0.46823859214782715 0.6869725584983826 -0.06713984906673431
0.40215498208999634 0.6023039221763611 -0.008734646253287792
0.2670939266681671 0.482074111700058 0.10518859326839447
0.34817516803741455 0.4928193986415863 0.014388516545295715
0.37014418840408325 0.49524345993995667 0.006199983414262533
0.4159786105155945 0.7534536719322205 0.04311748221516609
0.27772045135498047 0.6332210302352905 0.1347958743572235
0.466251403093338 0.8994972705841064 0.10411449521780014
0.40594592690467834 0.8555035591125488 0.15345260500907898
0.38045889139175415 0.8278028964996338 0.18013155460357666
0.4733445644378662 0.3356413245201111 -0.10644408315420151
0.5122804045677185 0.9071455001831055 0.09093604236841202
0.3902108669281006 0.4932402968406677 0.0015574712306261063
0.407978355884552 0.4892805516719818 0.0014046720461919904
0.4180642068386078 0.48775559663772583 0.0034009634982794523
0.26805785298347473 0.4407705068588257 0.07174258679151535
0.4002847671508789 0.46530818939208984 -0.005878819152712822
0.37900957465171814 0.45542654395103455 -0.007528088986873627
0.3562092185020447 0.45290568470954895 -0.0030539222061634064
0.33489203453063965 0.45671600103378296 0.006264915689826012
0.3232066035270691 0.46354490518569946 0.01649678871035576
0.2526759207248688 0.40158581733703613 0.19132167100906372
0.33331233263015747 0.4874891936779022 0.02357226237654686
0.4843370020389557 0.7039462327957153 -0.041169557720422745
0.4131624102592468 0.7032526135444641 -0.006030918098986149
0.42388951778411865 0.6643502712249756 -0.05078154429793358
0.45300424098968506 0.7041712403297424 -0.03406895324587822
0.4793306291103363 0.47481921315193176 -0.07782556861639023
0.36846333742141724 0.8063703775405884 0.1436581164598465
0.3956296443939209 0.8352860808372498 0.12162793427705765
0.4604562520980835 0.8876060247421265 0.07052550464868546
0.3266885280609131 0.744476854801178 0.2552649676799774
0.41455838084220886 0.4789050817489624 -0.0014413682511076331
0.44116857647895813 0.5622208714485168 -0.06794760376214981
0.507569432258606 0.8954139351844788 0.05850695073604584
0.4328044056892395 0.8810137510299683 0.12545648217201233
0.2729107737541199 0.6302087903022766 0.21436277031898499
0.4529648423194885 0.7557388544082642 0.010266304016113281
0.4496798515319824 0.7614840865135193 0.008077847771346569
0.4470217227935791 0.7701302766799927 0.006899924948811531
0.44570067524909973 0.781868040561676 0.012753640301525593
0.44299912452697754 0.7992591261863708 0.03601215407252312
0.42473191022872925 0.7460390329360962 0.032116565853357315
0.4175175428390503 0.7435729503631592 0.03287594020366669
0.4107213318347931 0.7392377257347107 0.03284734487533569
0.38557296991348267 0.7249305844306946 0.03623560443520546
0.30142050981521606 0.6557894349098206 0.0835920050740242
0.44372686743736267 0.5304206609725952 -0.05218725651502609
0.435261070728302 0.473248690366745 -0.023038549348711967
0.4230060577392578 0.47346943616867065 -0.010049112141132355
0.4302777945995331 0.7432224750518799 0.034117892384529114
0.3101131021976471 0.7071515321731567 0.13419853150844574
0.45089852809906006 0.47716087102890015 -0.056483205407857895
0.43356961011886597 0.820098876953125 0.05594584345817566
0.47242870926856995 0.5801215171813965 -0.11342454701662064
0.454302042722702 0.5527012944221497 -0.09074145555496216
0.47476521134376526 0.5485027432441711 -0.10015828162431717
0.4274362325668335 0.6017453670501709 -0.05612873286008835
0.5042847394943237 0.8721984624862671 0.03936060145497322
0.5020567774772644 0.8413891792297363 0.0320822149515152
0.4666268527507782 0.8370544910430908 0.041440077126026154
0.3825937509536743 0.7702869772911072 0.07786009460687637
0.3924218416213989 0.656025230884552 0.007324833422899246
0.40667617321014404 0.797203540802002 0.0685332864522934
0.3410590887069702 0.6469182372093201 0.02427023835480213
0.3734210431575775 0.6781834363937378 0.020421262830495834
0.32831987738609314 0.6811187863349915 0.0552583783864975
0.4611261487007141 0.8655956387519836 0.05150582268834114
0.4185144305229187 0.6108996868133545 -0.033697690814733505
0.3679816424846649 0.7850580215454102 0.1081376001238823
0.3969281315803528 0.8146920800209045 0.09502076357603073
0.3608781099319458 0.7415436506271362 0.07653476297855377
0.2894548177719116 0.6730093955993652 0.1522836834192276
0.3364081382751465 0.7398523688316345 0.10412666201591492
0.2886272370815277 0.6813788414001465 0.2160130739212036
0.3608354926109314 0.7047969102859497 0.04166189581155777
0.4302355647087097 0.5742468237876892 -0.04444416984915733
0.42450204491615295 0.6624031066894531 -0.08042369782924652
0.4151672422885895 0.661140501499176 -0.05123249068856239
0.4304019510746002 0.6503521800041199 -0.10092607885599136
0.414182186126709 0.45179855823516846 -0.03190902993083
0.37450021505355835 0.43672502040863037 -0.03339391574263573
0.3413754105567932 0.4324687719345093 -0.025730162858963013
0.31614950299263 0.4340054988861084 -0.009696630761027336
0.30132752656936646 0.4416695833206177 0.009257192723453045
0.2982633113861084 0.47721409797668457 0.05656556040048599
0.2556818723678589 0.523789644241333 0.1886831372976303
0.3157985508441925 0.516897439956665 0.043103981763124466
0.3391568064689636 0.5275821685791016 0.026261163875460625
0.3698154091835022 0.5285641551017761 0.012401731684803963
0.3978084921836853 0.5231514573097229 0.002482159063220024
0.41725924611091614 0.5165759921073914 -0.004294947255402803
0.4303225576877594 0.5107516646385193 -0.009594817645847797
0.2698630690574646 0.5078136920928955 0.2771030068397522
0.41849038004875183 0.6645019054412842 -0.03858104720711708
0.4383912682533264 0.5905311107635498 -0.07977671176195145
0.4372183680534363 0.6694692969322205 -0.10088303685188293
0.452420175075531 0.6789343953132629 -0.09040656685829163
0.4393801689147949 0.670491635799408 -0.08865291625261307
0.4259325861930847 0.6704652905464172 -0.030300579965114594
0.45578983426094055 0.6829677820205688 -0.09667801856994629
0.46103259921073914 0.6842520833015442 -0.06717010587453842
0.42894405126571655 0.4901477098464966 -0.0028348765335977077
0.44016116857528687 0.4989705979824066 -0.018438560888171196
0.4447254538536072 0.5070254802703857 -0.03440818190574646
0.3175237774848938 0.46841350197792053 0.026214759796857834
0.30765700340270996 0.4594019949436188 0.027573328465223312
0.49447283148765564 0.5823159217834473 -0.10872694104909897
0.6743701696395874 0.47560828924179077 -0.024053793400526047
0.5018015503883362 0.6800543069839478 -0.07318519055843353
0.7822389006614685 0.3456827700138092 0.04208306595683098
0.5944007635116577 0.5035759806632996 -0.03487468883395195
0.6202278733253479 0.5046723484992981 -0.036081209778785706
0.6465752720832825 0.5027607679367065 -0.033338163048028946
0.6847633123397827 0.48209115862846375 -0.020087843760848045
0.5737592577934265 0.4991702437400818 -0.029611317440867424
0.6334593296051025 0.43403488397598267 -0.057932887226343155
0.6043797135353088 0.4379628896713257 -0.05439918115735054
0.6601393222808838 0.4361758232116699 -0.052844565361738205
0.6785439848899841 0.44391730427742004 -0.044613827019929886
0.7059758901596069 0.497712105512619 -0.007349031511694193
0.5953921675682068 0.846660852432251 0.048908405005931854
0.6864551901817322 0.46585389971733093 -0.018942298367619514
0.7966772317886353 0.4621877372264862 0.08021751046180725
0.7380809783935547 0.47452494502067566 0.007484779693186283
0.615378201007843 0.6184732913970947 -0.030866475775837898
0.5176538228988647 0.7333155870437622 -0.04094718024134636
0.5172774791717529 0.7530257105827332 -0.024561671540141106
0.5519641637802124 0.7357442378997803 -0.03108757920563221
0.5742762088775635 0.7380873560905457 -0.016220172867178917
0.5419082641601562 0.7508349418640137 -0.019812051206827164
0.5612365007400513 0.7485421299934387 -0.0063056922517716885
0.6114516258239746 0.7627571225166321 0.026604706421494484
0.49179989099502563 0.6758727431297302 -0.11857452243566513
0.49332574009895325 0.6510162949562073 -0.13090237975120544
0.7143591046333313 0.4165906310081482 -0.05142762511968613
0.5623993277549744 0.5554486513137817 -0.043347328901290894
0.5589359402656555 0.6508315205574036 -0.07001501321792603
0.5615079402923584 0.633873462677002 -0.06582080572843552
0.6972081661224365 0.6054133176803589 -0.01466621644794941
0.49314212799072266 0.6149471998214722 -0.12433022260665894
0.6470503211021423 0.40010321140289307 -0.08665059506893158
0.6857423782348633 0.40315699577331543 -0.07275155931711197
0.748767077922821 0.30770421028137207 -0.010056878440082073
0.5330474972724915 0.4340342879295349 -0.08665400743484497
0.5801845788955688 0.44889944791793823 -0.04309134557843208
0.6302387118339539 0.7411350011825562 0.02304796874523163
0.7859953045845032 0.6907318234443665 0.2084859311580658
0.5420422554016113 0.665937602519989 -0.05585354566574097
0.5218320488929749 0.6753225326538086 -0.05108075216412544
0.601701557636261 0.7418493628501892 0.02236226759850979
0.5907522439956665 0.7425926923751831 0.01768331602215767
0.7002425193786621 0.3827590346336365 -0.06812247633934021
0.5623100996017456 0.6573231816291809 -0.054207783192396164
0.596967339515686 0.4087980091571808 -0.09200610965490341
0.6001699566841125 0.3868827819824219 -0.10271760076284409
0.6284754276275635 0.26529574394226074 -0.09600962698459625
0.723388671875 0.34574902057647705 -0.04461775720119476
0.610225260257721 0.3264022767543793 -0.10194908082485199
0.7323380708694458 0.3999961018562317 -0.03712538629770279
0.7568815350532532 0.37535712122917175 -0.001001253491267562
0.5176414251327515 0.7456701397895813 -0.035473719239234924
0.5460706353187561 0.7458229660987854 -0.02616194263100624
0.5672163367271423 0.7440854907035828 -0.013057813979685307
0.5369025468826294 0.6696579456329346 -0.048264484852552414
0.5956518054008484 0.7423549890518188 0.01988362893462181
0.5833983421325684 0.749820351600647 0.010635639540851116
0.5888718962669373 0.7417177557945251 0.01735265739262104
0.524604082107544 0.6669697165489197 -0.08999479562044144
0.5580234527587891 0.7456109523773193 -0.0013598112855106592
0.5388241410255432 0.7496801614761353 -0.009054277092218399
0.5166861414909363 0.753566563129425 -0.01361076906323433
0.53130042552948 0.8122425675392151 0.02002248354256153
0.5240059494972229 0.7923243045806885 -0.0071721505373716354
0.5211114883422852 0.7795827984809875 -0.013052472844719887
0.5187551975250244 0.7678733468055725 -0.010701268911361694
0.517212450504303 0.7597084045410156 -0.008722429163753986
0.5604442954063416 0.7507357597351074 0.0019466201774775982
0.5635434985160828 0.7536979913711548 -0.0003653806052170694
0.5684266090393066 0.7591484785079956 -0.0016571132000535727
0.5737481713294983 0.7661877870559692 0.0034768106415867805
0.5960297584533691 0.7115780115127563 -0.016308210790157318
0.8121626377105713 0.5588456988334656 0.20471304655075073
0.5738304257392883 0.7470333576202393 0.010816705413162708
0.5777933597564697 0.7479376792907715 0.009769843891263008
0.5137229561805725 0.6868197321891785 -0.04823238402605057
0.5568920969963074 0.6699177026748657 -0.03154962137341499
0.517539381980896 0.6815942525863647 -0.0505111925303936
0.5888024568557739 0.5665038228034973 -0.03533553332090378
0.6319666504859924 0.5813014507293701 -0.030656887218356133
0.5675641298294067 0.6410642862319946 -0.0505136102437973
0.6996166110038757 0.28011807799339294 -0.05819636210799217
0.6765750646591187 0.3277271091938019 -0.07719419151544571
0.6555529236793518 0.3770419955253601 -0.08960605412721634
0.5902590751647949 0.7826817035675049 0.02168034203350544
0.5384571552276611 0.39960944652557373 -0.10465935617685318
0.5448983907699585 0.3312876522541046 -0.11100827157497406
0.5554137229919434 0.26054906845092773 -0.11134383827447891
0.6708555817604065 0.4952157437801361 -0.02686074562370777
0.7360319495201111 0.5137511491775513 0.0056862421333789825
0.5611411333084106 0.494753360748291 -0.0262703076004982
0.7062090635299683 0.44888144731521606 -0.02932848036289215
0.5432877540588379 0.5429366230964661 -0.05265260860323906
0.540367841720581 0.6493019461631775 -0.09326072782278061
0.7683026790618896 0.5251935124397278 0.031507451087236404
0.7151154279708862 0.5366834402084351 -0.008880876004695892
0.6781446933746338 0.5512306690216064 -0.02353593334555626
0.6264952421188354 0.5501433610916138 -0.027656080201268196
0.5903877019882202 0.5413194298744202 -0.029934808611869812
0.5649839043617249 0.5325272679328918 -0.03524118289351463
0.5028981566429138 0.5181244015693665 -0.0808754563331604
0.7653651237487793 0.5812127590179443 0.037882957607507706
0.7285336256027222 0.4419129192829132 -0.02366095408797264
0.4870319068431854 0.6858094334602356 -0.10409262776374817
0.5585620999336243 0.5856126546859741 -0.046129416674375534
0.8133386969566345 0.4443598985671997 0.1547079235315323
0.5445995926856995 0.5228186249732971 -0.03924642130732536
0.5724488496780396 0.6377940773963928 -0.026702718809247017
0.6943237781524658 0.46566763520240784 -0.015868309885263443
0.5429083704948425 0.6281169652938843 -0.08788350224494934
0.8048943281173706 0.6227598190307617 0.21180400252342224
0.5635227560997009 0.4851457476615906 -0.02353525720536709
0.5183472037315369 0.6193838119506836 -0.1111752837896347
0.7153072357177734 0.7764887809753418 0.10587407648563385
0.721396267414093 0.7954190373420715 0.15490877628326416
0.8008890151977539 0.57258540391922 0.11961023509502411
0.7513088583946228 0.7363660931587219 0.12229441851377487
0.7785006165504456 0.41391658782958984 0.04466816037893295
0.6036493182182312 0.8697671890258789 0.06836339086294174
0.48765188455581665 0.6867645382881165 -0.06946028023958206
0.5824519991874695 0.600239634513855 -0.0357360802590847
0.7637293934822083 0.47416675090789795 0.027333036065101624
0.6435502171516418 0.4884060323238373 -0.033106088638305664
0.6196895241737366 0.49115100502967834 -0.03579281270503998
0.5900354385375977 0.7525652050971985 0.014562026597559452
0.763554573059082 0.6318501234054565 0.06011776998639107
0.5621061325073242 0.90218585729599 0.08933554589748383
0.6407431960105896 0.8616899251937866 0.11513792723417282
0.6774119138717651 0.8348709344863892 0.13197368383407593
0.5984125733375549 0.48970407247543335 -0.03432425856590271
0.5787937641143799 0.4865453243255615 -0.029625551775097847
0.5676437616348267 0.48582923412323 -0.024325652047991753
0.7505364418029785 0.4309301972389221 -0.003856303635984659
0.5867448449134827 0.4621625542640686 -0.03785642609000206
0.6100295186042786 0.45084208250045776 -0.04463663324713707
0.6335594654083252 0.4478338360786438 -0.0464574471116066
0.6572186946868896 0.45107972621917725 -0.04302443936467171
0.6715664267539978 0.4578033685684204 -0.036205220967531204
0.8025015592575073 0.3886876702308655 0.1016833484172821
0.6611168384552002 0.48272332549095154 -0.028167838230729103
0.5711804032325745 0.7027379870414734 -0.02814757078886032
0.5412986278533936 0.664657711982727 -0.06595964729785919
0.5189325213432312 0.704043447971344 -0.04347941279411316
0.6771301031112671 0.8125548958778381 0.09682632237672806
0.6418368220329285 0.8413041830062866 0.08469904959201813
0.558806836605072 0.8902358412742615 0.055955588817596436
0.7565957307815552 0.7494081258773804 0.18439196050167084
0.5706687569618225 0.47713035345077515 -0.029998525977134705
0.5199188590049744 0.5611333847045898 -0.08048852533102036
0.6029797792434692 0.885685920715332 0.09746093302965164
0.7948916554450989 0.6294807195663452 0.13225805759429932
0.540252149105072 0.7555775046348572 -0.004740491975098848
0.5434609055519104 0.761213481426239 -0.007392461411654949
0.5469557046890259 0.7700254917144775 -0.00933237373828888
0.5507921576499939 0.781798779964447 -0.003920088056474924
0.563672661781311 0.8001563549041748 0.017266858369112015
0.5789721012115479 0.7451682090759277 0.005492545664310455
0.585405707359314 0.7428863048553467 0.003723730333149433
0.5924714803695679 0.7386631369590759 0.0018899569986388087
0.6173338294029236 0.7245579361915588 0.00015683757374063134
0.7239181399345398 0.6547737717628479 0.021135687828063965
0.5227481126785278 0.5292603373527527 -0.06525019556283951
0.5403702855110168 0.4711671769618988 -0.04001046344637871
0.5584303736686707 0.4711597263813019 -0.03391910716891289
0.5745430588722229 0.7422528266906738 0.008952709846198559
0.7326615452766418 0.7090876698493958 0.07060886174440384
0.5143525004386902 0.4755644202232361 -0.06625920534133911
0.5813488960266113 0.822400689125061 0.034829769283533096
0.4989641308784485 0.5521203279495239 -0.09737864136695862
0.5386900901794434 0.6005025506019592 -0.07241923362016678
0.5416322946548462 0.8383462429046631 0.03131288290023804
0.6388412714004517 0.7728656530380249 0.04060851410031319
0.596196711063385 0.6542952656745911 -0.020601946860551834
0.6130031943321228 0.8001594543457031 0.03928438946604729
0.6597176790237427 0.645255446434021 -0.019960954785346985
0.622771143913269 0.6769914031028748 -0.014674208126962185
0.6860353946685791 0.680648684501648 0.004597891122102737
0.5517966151237488 0.867382287979126 0.038001369684934616
0.5562593936920166 0.609406590461731 -0.05386335775256157
0.6645362377166748 0.7895337343215942 0.06459842622280121
0.6306460499763489 0.8193718194961548 0.06150985136628151
0.6588166356086731 0.7428910732269287 0.031354524195194244
0.7589476108551025 0.6736626625061035 0.08112122863531113
0.6964439749717712 0.7427563667297363 0.05099877715110779
0.7808647155761719 0.683265209197998 0.13801860809326172
0.6459831595420837 0.7042428255081177 0.00010317971464246511
0.5393450856208801 0.572948694229126 -0.062047507613897324
0.5318518877029419 0.6630005240440369 -0.09638569504022598
0.5514972805976868 0.6612401604652405 -0.06931024044752121
0.5177212953567505 0.6502403616905212 -0.11423359811306
0.5593438148498535 0.44811153411865234 -0.05520586669445038
0.6002113223075867 0.4303589463233948 -0.06677723675966263
0.6371876001358032 0.42417240142822266 -0.06928837299346924
0.6689137816429138 0.42507848143577576 -0.06294748187065125
0.6925152540206909 0.43268194794654846 -0.05033257603645325
0.712561845779419 0.47054144740104675 -0.007779722101986408
0.8023498058319092 0.5170621275901794 0.10034987330436707
0.6898427605628967 0.5117082595825195 -0.015280636958777905
0.6603178381919861 0.5231385827064514 -0.024504583328962326
0.6241495013237 0.5248912572860718 -0.02892153523862362
0.5919290781021118 0.5202983617782593 -0.030068181455135345
0.5685977935791016 0.5144511461257935 -0.02874819003045559
0.5518967509269714 0.5090596079826355 -0.02946425974369049
0.8137328624725342 0.49990612268447876 0.18629828095436096
0.5524088144302368 0.6643015742301941 -0.05631686747074127
0.5170705318450928 0.589647114276886 -0.0924977958202362
0.5111557841300964 0.6698694229125977 -0.11092179268598557
0.5010150074958801 0.6793406009674072 -0.09630397707223892
0.513495683670044 0.6711008548736572 -0.09901870787143707
0.5475047826766968 0.6699713468551636 -0.04510730877518654
0.49539145827293396 0.6831549406051636 -0.10144194960594177
0.4960726499557495 0.6844631433486938 -0.07128927856683731
0.5534142851829529 0.488594651222229 -0.024329300969839096
0.5381677150726318 0.49746885895729065 -0.03414497524499893
0.5282120108604431 0.5055178999900818 -0.04752310365438461
0.6799212098121643 0.4625612199306488 -0.0286687221378088
0.6918582916259766 0.45206645131111145 -0.03125318884849548
