ply
format ascii 1.0
element vertex 468
property float x
property float y
property float z
end_header
0.49053820967674255 0.7188543081283569 -0.0500318817794323
0.47960031032562256 0.6429306864738464 -0.12297409772872925
0.4864842891693115 0.6638935208320618 -0.06105439364910126
0.46224936842918396 0.5567816495895386 -0.09825395047664642
0.47849252820014954 0.6177864670753479 -0.13360701501369476
0.4796580970287323 0.5827309489250183 -0.12796373665332794
0.4855223298072815 0.49658089876174927 -0.0744488462805748
0.333697110414505 0.48140424489974976 0.03657935932278633
0.4865800142288208 0.43174171447753906 -0.06311731040477753
0.4859165847301483 0.39823389053344727 -0.07110487669706345
0.48886457085609436 0.2799103260040283 -0.06283603608608246
0.4914914071559906 0.7305363416671753 -0.0445515401661396
0.4929034113883972 0.7374939322471619 -0.036066945642232895
0.49441003799438477 0.7382023334503174 -0.02551661990582943
0.494848370552063 0.7348232269287109 -0.028317226096987724
0.49469536542892456 0.7437101006507874 -0.03182009235024452
0.4949207305908203 0.7550349235534668 -0.037659723311662674
0.4954323470592499 0.7681279182434082 -0.03712955117225647
0.49725666642189026 0.7917856574058533 -0.019109290093183517
0.48139873147010803 0.6547716856002808 -0.10987760871648788
0.46048611402511597 0.6502594351768494 -0.07551654428243637
0.27387842535972595 0.3861985504627228 0.14125660061836243
0.4003061056137085 0.5015137195587158 0.008850359357893467
0.37861841917037964 0.5032426714897156 0.013354958966374397
0.35709667205810547 0.5029469728469849 0.021938765421509743
0.3267093300819397 0.4891720414161682 0.04271022602915764
0.4173717498779297 0.49654459953308105 0.008144594728946686
0.36493226885795593 0.44512251019477844 -0.00181834795512259
0.38888198137283325 0.4471622109413147 -0.004635155200958252
0.34297335147857666 0.4478110671043396 0.008631251752376556
0.32907021045684814 0.45542141795158386 0.019847646355628967
0.3117317855358124 0.5044560432434082 0.057846490293741226
0.4124982953071594 0.8283665776252747 0.03272910416126251
0.32508087158203125 0.4756309390068054 0.044176097959280014
0.26260441541671753 0.4891393184661865 0.1656091809272766
0.2902675271034241 0.4875026345252991 0.08117521554231644
0.3733580708503723 0.6059780120849609 -0.0019470604602247477
0.45733094215393066 0.7133601307868958 -0.04455161094665527
0.4630778729915619 0.7352381944656372 -0.028811562806367874
0.42478257417678833 0.7150073647499084 -0.024316983297467232
0.40538209676742554 0.7175123691558838 -5.882944606128149e-05
0.4386824369430542 0.7320731282234192 -0.014456151984632015
0.42055603861808777 0.7294100522994995 0.006881610956043005
0.3833693563938141 0.7442343235015869 0.043757036328315735
0.45990103483200073 0.6416141390800476 -0.11948786675930023
0.45575883984565735 0.6173839569091797 -0.12892651557922363
0.2980457544326782 0.4272412359714508 0.025788500905036926
0.4216785430908203 0.5462867021560669 -0.015867890790104866
0.40752747654914856 0.6265271306037903 -0.056253816932439804
0.4072502553462982 0.6121863722801208 -0.05007123574614525
0.31060990691185 0.5970702767372131 0.03803594037890434
0.45825254917144775 0.5848903059959412 -0.11806628853082657
0.34274691343307495 0.40394327044487 -0.02207183837890625
0.3153528571128845 0.41091734170913696 0.0003473446413408965
0.2883349657058716 0.3461099863052368 0.08809131383895874
0.4375512897968292 0.4256718158721924 -0.05136008933186531
0.40982306003570557 0.45481204986572266 0.0001806873333407566
0.36242008209228516 0.7208250761032104 0.05019746720790863
0.29316163063049316 0.7050703167915344 0.2560788094997406
0.42486825585365295 0.6403759717941284 -0.04864717647433281
0.4448116421699524 0.6501017808914185 -0.05214289575815201
0.38281309604644775 0.7208084464073181 0.048685550689697266
0.3935583829879761 0.721603274345398 0.04096854478120804
0.30509692430496216 0.3939131498336792 0.010024016723036766
0.4071481227874756 0.6350690722465515 -0.04243174567818642
0.3817172646522522 0.40662097930908203 -0.040178488940000534
0.3770309090614319 0.38647225499153137 -0.047354619950056076
0.36246365308761597 0.29315346479415894 -0.016583187505602837
0.2964666485786438 0.3699186444282532 0.043603427708148956
0.37186694145202637 0.33914247155189514 -0.033161710947752
0.2874601483345032 0.41532033681869507 0.044637084007263184
0.28043878078460693 0.40262019634246826 0.09014301747083664
0.4595501124858856 0.7269700169563293 -0.03871535509824753
0.43251901865005493 0.7259028553962708 -0.01966187357902527
0.4130100607872009 0.7239396572113037 0.001753249205648899
0.4306934177875519 0.6449775099754333 -0.044152386486530304
0.3880727291107178 0.7210845351219177 0.044600505381822586
0.40109574794769287 0.7282121181488037 0.027045393362641335
0.3971852660179138 0.7214982509613037 0.039885833859443665
0.436493843793869 0.6364547610282898 -0.08244407176971436
0.4259662926197052 0.7272076606750488 0.010246848687529564
0.4445960223674774 0.731721043586731 -0.005176551174372435
0.4672817587852478 0.7358980178833008 -0.018393907696008682
0.46410655975341797 0.7909492254257202 -0.01237317081540823
0.4638863205909729 0.7659105062484741 -0.02995930425822735
0.46421879529953003 0.7519240379333496 -0.030688608065247536
0.46539148688316345 0.7409251928329468 -0.024365706369280815
0.4674052298069 0.7334908843040466 -0.020943500101566315
0.4240572154521942 0.7277613878250122 0.008500280790030956
0.42070382833480835 0.7301847338676453 0.004752852022647858
0.41622185707092285 0.735902726650238 0.0022288188338279724
0.41276952624320984 0.7438377737998962 0.007799707353115082
0.38576820492744446 0.6911401748657227 0.004209595266729593
0.2727721035480499 0.5882177948951721 0.2754153907299042
0.4835990071296692 0.658261239528656 -0.0779377892613411
0.41200631856918335 0.7256379127502441 0.027163323014974594
0.4065629839897156 0.7259366512298584 0.02528815157711506
0.45380085706710815 0.661941647529602 -0.05217559263110161
0.41544950008392334 0.6490207314491272 -0.02593127079308033
0.4493160545825958 0.6564016342163086 -0.0528869554400444
0.3990674614906311 0.5583438873291016 -0.002831569407135248
0.3624110817909241 0.5726525783538818 0.009730609133839607
0.40429216623306274 0.6211933493614197 -0.0353093221783638
0.3153687119483948 0.3143961727619171 0.03311651945114136
0.32480424642562866 0.3474840223789215 0.003506507258862257
0.33503687381744385 0.38391292095184326 -0.01994607038795948
0.4052254557609558 0.7627545595169067 0.026360981166362762
0.42915457487106323 0.3932858109474182 -0.063556008040905
0.42437928915023804 0.3387680947780609 -0.05652673915028572
0.4185916781425476 0.2830280661582947 -0.04911535233259201
0.33788126707077026 0.4982193112373352 0.033258628100156784
0.29000627994537354 0.520691990852356 0.07506618648767471
0.427402138710022 0.49113500118255615 0.009368645958602428
0.3088456392288208 0.46025049686431885 0.04202870652079582
0.4366883337497711 0.5321803689002991 -0.02803674340248108
0.4208793044090271 0.6207761764526367 -0.08212463557720184
0.2700982689857483 0.5354828238487244 0.10639836639165878
0.30261164903640747 0.5377525687217712 0.055300742387771606
0.32869887351989746 0.5477052927017212 0.03211916610598564
0.3703189492225647 0.5453017950057983 0.016489122062921524
0.40130457282066345 0.5365314483642578 0.006552071776241064
0.4230974018573761 0.5265941619873047 -0.004157935734838247
0.46431034803390503 0.5024911165237427 -0.06157216057181358
0.26957449316978455 0.5843275189399719 0.10712101310491562
0.29321399331092834 0.45531100034713745 0.05397490784525871
0.469554603099823 0.653289258480072 -0.10723351687192917
0.4203302264213562 0.5719835758209229 -0.02373959869146347
0.266325980424881 0.4831007719039917 0.24211327731609344
0.43907487392425537 0.5150493383407593 -0.011477023363113403
0.40370309352874756 0.6206393241882324 -0.01148675475269556
0.31949543952941895 0.47618651390075684 0.049863122403621674
0.42102792859077454 0.603387713432312 -0.07471200078725815
0.27976664900779724 0.6453322768211365 0.2719452381134033
0.42621049284935 0.48263680934906006 0.0141838314011693
0.4391627311706543 0.5918369293212891 -0.10085131227970123
0.3252277970314026 0.7667198181152344 0.1328694224357605
0.3361119329929352 0.7911199331283569 0.17701706290245056
0.26074716448783875 0.5882172584533691 0.19222110509872437
0.2985224723815918 0.7339150309562683 0.161815345287323
0.27144983410835266 0.4424704313278198 0.13386526703834534
0.4116341471672058 0.8507487773895264 0.049585118889808655
0.47372978925704956 0.6570463180541992 -0.07553079724311829
0.4006824493408203 0.5880014896392822 -0.011272711679339409
0.2751694619655609 0.49117088317871094 0.1067609116435051
0.35757434368133545 0.488125741481781 0.021808236837387085
0.3776940107345581 0.4895181357860565 0.014717585407197475
0.3958406448364258 0.7321551442146301 0.03250300884246826
0.2725977897644043 0.6319324374198914 0.12119261920452118
0.4550097584724426 0.8819884657859802 0.05281432718038559
0.3936971426010132 0.847120463848114 0.10884244740009308
0.36784279346466064 0.8239965438842773 0.13987354934215546
0.487177312374115 0.3395061790943146 -0.06861880421638489
0.5007655620574951 0.8878223896026611 0.0400799885392189
0.3959963321685791 0.48817649483680725 0.011240030638873577
0.4124263525009155 0.4850710928440094 0.011987143196165562
0.4221750795841217 0.48354572057724 0.01501239649951458
0.2809537649154663 0.44894012808799744 0.07799749076366425
0.40718936920166016 0.4696323573589325 0.006369269452989101
0.38814443349838257 0.46455979347229004 0.0039499495178461075
0.3684406876564026 0.4633074104785919 0.007121487520635128
0.3487510085105896 0.4658143222332001 0.015009925700724125
0.33637523651123047 0.47047537565231323 0.023880524560809135
0.26660436391830444 0.42919522523880005 0.19633357226848602
0.34363171458244324 0.48513221740722656 0.02996741235256195
0.4883876442909241 0.6812330484390259 -0.053167831152677536
0.4057137966156006 0.6816002726554871 -0.01714794896543026
0.424167662858963 0.6377413272857666 -0.05822449550032616
0.45317506790161133 0.6813814640045166 -0.047290194779634476
0.4873368740081787 0.46312230825424194 -0.06033704802393913
0.35555940866470337 0.798977255821228 0.10900352150201797
0.3830391764640808 0.824835479259491 0.08115438371896744
0.4497533440589905 0.8694193959236145 0.02115946263074875
0.3122662901878357 0.7540826797485352 0.22036553919315338
0.4199625253677368 0.4773366451263428 0.011036401614546776
0.4479866623878479 0.5427794456481934 -0.062554731965065
0.4983972907066345 0.873944878578186 0.00959643442183733
0.4209989607334137 0.8675749897956848 0.07645983248949051
0.267241895198822 0.6404511332511902 0.19485662877559662
0.4435984492301941 0.7305448055267334 -0.007278210949152708
0.44027554988861084 0.7357957363128662 -0.011268509551882744
0.437716007232666 0.7445441484451294 -0.014858928509056568
0.4358857572078705 0.7569481134414673 -0.011427802965044975
0.4313041567802429 0.7792115807533264 0.006061077117919922
0.403768390417099 0.7251449823379517 0.02562042698264122
0.39659303426742554 0.7224709391593933 0.026568152010440826
0.38980334997177124 0.7182689309120178 0.026173850521445274
0.3686022162437439 0.703964114189148 0.0287636686116457
0.29408514499664307 0.6472427248954773 0.0716341957449913
0.4509564936161041 0.5161124467849731 -0.04324924573302269
0.4418617784976959 0.46680933237075806 -0.006980993319302797
0.4291764199733734 0.4705587923526764 0.004676747135818005
0.4102206528186798 0.7227491736412048 0.02752087078988552
0.29767781496047974 0.702165424823761 0.11353098601102829
0.45894041657447815 0.4666801691055298 -0.04009990394115448
0.42147043347358704 0.8034954071044922 0.01932659186422825
0.4817037582397461 0.5535525679588318 -0.10945136845111847
0.46269047260284424 0.5313063859939575 -0.08278325945138931
0.4835941195487976 0.5264831185340881 -0.09125442802906036
0.4308216869831085 0.5806899070739746 -0.05668255686759949
0.49704399704933167 0.8508821725845337 -0.00775885907933116
0.497061550617218 0.8197140097618103 -0.013421737588942051
0.457347571849823 0.8181564807891846 -0.0031925321090966463
0.3683575689792633 0.755067765712738 0.05767650529742241
0.38624030351638794 0.6385303735733032 -0.0010175383649766445
0.39341026544570923 0.7825188040733337 0.040603797882795334
0.3371441960334778 0.6315209269523621 0.015205365605652332
0.3660561442375183 0.660148024559021 0.011910277418792248
0.3195570111274719 0.6667852401733398 0.04300818219780922
0.45043352246284485 0.8476825952529907 0.004608597606420517
0.41795819997787476 0.592006504535675 -0.03653353080153465
0.3556995987892151 0.7732309103012085 0.08100305497646332
0.38451462984085083 0.8018437623977661 0.060305606573820114
0.3463481664657593 0.725019633769989 0.060524921864271164
0.28005483746528625 0.6722793579101562 0.1334579735994339
0.32390880584716797 0.7284606099128723 0.08405493944883347
0.27845484018325806 0.6890080571174622 0.19074510037899017
0.34857797622680664 0.6859266757965088 0.0317886620759964
0.4346751570701599 0.5572562217712402 -0.041711438447237015
0.42860743403434753 0.6324566602706909 -0.08722486346960068
0.41437143087387085 0.6351872682571411 -0.059524185955524445
0.436941921710968 0.6183160543441772 -0.10617322474718094
0.4229258894920349 0.4460987448692322 -0.013684085570275784
0.3868117034435272 0.43290358781814575 -0.014872725121676922
0.35603415966033936 0.4299018383026123 -0.009511877782642841
0.33108264207839966 0.4329913854598999 0.003622962860390544
0.31529176235198975 0.442499577999115 0.020586276426911354
0.30745595693588257 0.48166215419769287 0.06116296350955963
0.2590050995349884 0.5382751226425171 0.18087248504161835
0.3228783905506134 0.5149693489074707 0.04603658616542816
0.34548085927963257 0.5226194262504578 0.030336612835526466
0.3745768070220947 0.5226340293884277 0.01799008995294571
0.40172845125198364 0.5175644159317017 0.009714690037071705
0.4218478798866272 0.5106202363967896 0.00502981198951602
0.435411661863327 0.5038167238235474 0.0008515701629221439
0.27015814185142517 0.5347445011138916 0.26654401421546936
0.4153933823108673 0.6400670409202576 -0.04745063558220863
0.445492684841156 0.5666291117668152 -0.07844872027635574
0.4439558982849121 0.6364812850952148 -0.10690496861934662
0.458512544631958 0.6477838158607483 -0.0973755270242691
0.4452689588069916 0.6390663981437683 -0.09513898938894272
0.42205753922462463 0.6469202041625977 -0.039976008236408234
0.4623733162879944 0.650938093662262 -0.10357058048248291
0.46593502163887024 0.6546876430511475 -0.07543278485536575
0.4337153434753418 0.4847244620323181 0.009366766549646854
0.44581905007362366 0.4914507269859314 -0.005599007476121187
0.4512404501438141 0.4969674050807953 -0.02245222218334675
0.32945728302001953 0.47375035285949707 0.03291229158639908
0.3195434808731079 0.46344274282455444 0.034636497497558594
0.5031033754348755 0.5567721128463745 -0.10375071316957474
0.6622205972671509 0.4818751811981201 -0.00332560739479959
0.5088005065917969 0.650630533695221 -0.07968926429748535
0.7568737268447876 0.38212084770202637 0.08034087717533112
0.5919793248176575 0.5013390779495239 -0.01719231717288494
0.6150790452957153 0.5030568838119507 -0.01756001077592373
0.638696014881134 0.5026060938835144 -0.013868768699467182
0.6728144884109497 0.48960474133491516 0.0005713053978979588
0.5729970335960388 0.4965541958808899 -0.012232232838869095
0.6256421208381653 0.44495001435279846 -0.0346243679523468
0.6008678674697876 0.4466383755207062 -0.030671129003167152
0.6491897106170654 0.4482610821723938 -0.029142728075385094
0.6653501391410828 0.4560568928718567 -0.020778225734829903
0.6927764415740967 0.5041176676750183 0.01210489496588707
0.5888667702674866 0.8322246670722961 0.013960468582808971
0.6725298762321472 0.4765363335609436 0.002583170309662819
0.769545316696167 0.4874644875526428 0.10398693382740021
0.7208737730979919 0.48693108558654785 0.03028627298772335
0.6179074645042419 0.6057661771774292 -0.028513846918940544
0.5255832076072693 0.7132778167724609 -0.05160575360059738
0.5256489515304565 0.7353139519691467 -0.035454802215099335
0.5639280676841736 0.7148683667182922 -0.0389312319457531
0.5900974869728088 0.71697998046875 -0.020051293075084686
0.5542095303535461 0.7319834232330322 -0.027402665466070175
0.5771075487136841 0.7286943197250366 -0.010534923523664474
0.6219702959060669 0.744685709476471 0.01819504238665104
0.500636637210846 0.6417728662490845 -0.12295393645763397
0.5028529167175293 0.6172859072685242 -0.13286526501178741
0.7015405297279358 0.4277670383453369 -0.02219807170331478
0.5646116733551025 0.5460702776908875 -0.03309435024857521
0.5688381791114807 0.6267210245132446 -0.07206059992313385
0.5711281895637512 0.6123957633972168 -0.06634750217199326
0.6921250820159912 0.5969980359077454 -0.005558958742767572
0.5027692914009094 0.584771990776062 -0.12341246008872986
0.6423020362854004 0.40332311391830444 -0.05544314906001091
0.6764805912971497 0.41116786003112793 -0.04138144850730896
0.7301249504089355 0.3412913382053375 0.033488836139440536
0.5382484793663025 0.4251209497451782 -0.06235235929489136
0.5795801281929016 0.45422857999801636 -0.020816011354327202
0.6429989337921143 0.7209532260894775 0.019363529980182648
0.7554464340209961 0.710515558719635 0.20035578310489655
0.5521385073661804 0.6408854126930237 -0.0599987730383873
0.5307202935218811 0.6502220630645752 -0.05785776302218437
0.622319221496582 0.7197712063789368 0.021663831546902657
0.6117536425590515 0.7201969623565674 0.016962384805083275
0.6903958916664124 0.39368027448654175 -0.034386906772851944
0.5729224681854248 0.6354283690452576 -0.05790168419480324
0.59715735912323 0.40564441680908203 -0.06294788420200348
0.6009748578071594 0.3851042091846466 -0.07083974778652191
0.6271956562995911 0.2888454794883728 -0.047948312014341354
0.7096015214920044 0.36719265580177307 -0.005402515176683664
0.6109071373939514 0.33637166023254395 -0.060019172728061676
0.7174959182739258 0.41496098041534424 -0.006627007387578487
0.7371492385864258 0.4004850685596466 0.034374166280031204
0.5258711576461792 0.7269805669784546 -0.04572128504514694
0.5580863952636719 0.7259034514427185 -0.03365181386470795
0.5831509828567505 0.7233765721321106 -0.016680048778653145
0.5468465089797974 0.6452708840370178 -0.05341658368706703
0.6169936060905457 0.7197759747505188 0.01941082999110222
0.601810872554779 0.7274105548858643 0.005663112737238407
0.6086916923522949 0.7203203439712524 0.016396788880228996
0.532914400100708 0.6370385885238647 -0.09306415915489197
0.5737709403038025 0.726154088973999 -0.0061446623876690865
0.5508002638816833 0.7314146757125854 -0.01724165491759777
0.5243557691574097 0.7356910705566406 -0.02512109838426113
0.5319843292236328 0.79152911901474 -0.019053297117352486
0.5289704203605652 0.7662515640258789 -0.0373087078332901
0.527466356754303 0.7522388696670532 -0.03823171555995941
0.5260783433914185 0.7411429286003113 -0.03187689185142517
0.5245064496994019 0.7336485385894775 -0.028080550953745842
0.5757579803466797 0.7272558212280273 -0.007973464205861092
0.5788821578025818 0.729764461517334 -0.011633018963038921
0.5832801461219788 0.7356815934181213 -0.014850791543722153
0.5872097015380859 0.7439573407173157 -0.010326109826564789
0.6073023676872253 0.6909820437431335 -0.018256403505802155
0.778174877166748 0.5896967053413391 0.2133711874485016
0.5911581516265869 0.72482830286026 0.006749942433089018
0.5961843729019165 0.725048840045929 0.004673497285693884
0.5216765403747559 0.662047266960144 -0.05795711651444435
0.5669614672660828 0.6491718888282776 -0.03819211572408676
0.5259247422218323 0.6564476490020752 -0.05851667374372482
0.5908202528953552 0.5579959750175476 -0.026124099269509315
0.6314939260482788 0.5720716714859009 -0.02174774929881096
0.577441930770874 0.6214550733566284 -0.05228269472718239
0.6886985301971436 0.30912572145462036 -0.01177871786057949
0.6696146726608276 0.3445594012737274 -0.03595057502388954
0.6509503126144409 0.38276007771492004 -0.05533860996365547
0.5972080230712891 0.7639755010604858 0.005313947796821594
0.544243335723877 0.39236506819725037 -0.07518518716096878
0.5522325038909912 0.3370930254459381 -0.07039717584848404
0.5628199577331543 0.2805054187774658 -0.06481975317001343
0.6600804328918457 0.49817943572998047 -0.0065031773410737514
0.7199430465698242 0.5199422836303711 0.02465604618191719
0.5614138841629028 0.4913228154182434 -0.008633304387331009
0.6922074556350708 0.46079379320144653 -0.0041498057544231415
0.5461782217025757 0.5319430232048035 -0.041817691177129745
0.5490290522575378 0.6210777759552002 -0.09474410861730576
0.7478639483451843 0.5350749492645264 0.04950294271111488
0.702523946762085 0.5367964506149292 0.007832297123968601
0.6709705591201782 0.5467386245727539 -0.008910084143280983
0.6242684125900269 0.5446809530258179 -0.0149569446220994
0.5900994539260864 0.5360698699951172 -0.01753079704940319
0.5654597282409668 0.5263837575912476 -0.022122768685221672
0.5097112655639648 0.5023034811019897 -0.0674000158905983
0.7479970455169678 0.5847429633140564 0.05048685893416405
0.7130032777786255 0.45498624444007874 0.003426118055358529
0.4941515028476715 0.6533935070037842 -0.10996980965137482
0.5637022852897644 0.5718721747398376 -0.04032951593399048
0.7804651260375977 0.48101016879081726 0.1771671175956726
0.5464546084403992 0.5148776769638062 -0.025370756164193153
0.5821228623390198 0.620750904083252 -0.02871023304760456
0.680438220500946 0.4769992232322693 0.006076810881495476
0.5516670942306519 0.6034945249557495 -0.08773592114448547
0.77118980884552 0.6491962671279907 0.21254664659500122
0.56341552734375 0.4830690026283264 -0.0047478643245995045
0.5268696546554565 0.5918534398078918 -0.11030414700508118
0.6989105343818665 0.7727311253547668 0.09068799018859863
0.6967716217041016 0.7984830737113953 0.13423767685890198
0.7733917236328125 0.5897080302238464 0.13106952607631683
0.7322872877120972 0.7393898367881775 0.11247771978378296
0.7540836334228516 0.440138041973114 0.07480176538228989
0.5922829508781433 0.8555896878242493 0.02970036305487156
0.4939492344856262 0.6570351123809814 -0.07731620222330093
0.5874762535095215 0.587782084941864 -0.03177722916007042
0.742958664894104 0.49025386571884155 0.05080482363700867
0.6353899240493774 0.4880084991455078 -0.013029894791543484
0.6142896413803101 0.489322304725647 -0.016407841816544533
0.6076281666755676 0.7315629124641418 0.009746803902089596
0.7483131885528564 0.6338487267494202 0.06650333851575851
0.548216700553894 0.8850228786468506 0.04155992716550827
0.6216153502464294 0.853741466999054 0.08115001767873764
0.6556457281112671 0.831504762172699 0.10512474179267883
0.5953847169876099 0.487914502620697 -0.015411293134093285
0.5779295563697815 0.48498350381851196 -0.010701369494199753
0.5676724910736084 0.4838752746582031 -0.00537496292963624
0.7319153547286987 0.44797006249427795 0.023534759879112244
0.5834341049194336 0.4698643088340759 -0.01698516681790352
0.6037691831588745 0.46483826637268066 -0.02357102744281292
0.6234525442123413 0.46394312381744385 -0.024814262986183167
0.6440094709396362 0.46676164865493774 -0.021041646599769592
0.6578400135040283 0.4714602530002594 -0.014790824614465237
0.7725114226341248 0.4258427917957306 0.13269519805908203
0.6507464647293091 0.4853072762489319 -0.00808913353830576
0.5810523629188538 0.6815307140350342 -0.034368596971035004
0.5508311986923218 0.6381468772888184 -0.06919435411691666
0.5261171460151672 0.6812169551849365 -0.054307661950588226
0.6617727279663086 0.8054132461547852 0.0746053010225296
0.6279218196868896 0.8308706283569336 0.05423084646463394
0.5487333536148071 0.8722147941589355 0.010141916573047638
0.7294648289680481 0.7604755759239197 0.17021586000919342
0.5695636868476868 0.47787782549858093 -0.009822641499340534
0.5261583924293518 0.5427607297897339 -0.07172373682260513
0.5869126915931702 0.8726649284362793 0.056033357977867126
0.7685325741767883 0.6437322497367859 0.13645783066749573
0.5518454909324646 0.7305132746696472 -0.019683076068758965
0.5549253821372986 0.7358188629150391 -0.023968825116753578
0.5576850175857544 0.744745135307312 -0.028303254395723343
0.559960126876831 0.7573142647743225 -0.025332430377602577
0.5678326487541199 0.7803186178207397 -0.00926024466753006
0.598899781703949 0.7239589691162109 0.004343550186604261
0.6052287220954895 0.7213886976242065 0.0033486245665699244
0.6116899251937866 0.7172999382019043 0.0017857779748737812
0.6310819983482361 0.7036868333816528 0.0002303301153006032
0.7171938419342041 0.6486469507217407 0.024755185469985008
0.5274062752723694 0.5159822702407837 -0.05302342772483826
0.5430299639701843 0.4666610360145569 -0.019094975665211678
0.5588173270225525 0.4704335927963257 -0.013028832152485847
0.5935919284820557 0.7214399576187134 0.006785637699067593
0.7225521206855774 0.7056179046630859 0.06671586632728577
0.5199528336524963 0.4664525091648102 -0.04755236953496933
0.5791071653366089 0.8060364723205566 0.0028434335254132748
0.5066666007041931 0.5312299728393555 -0.08776925504207611
0.5454644560813904 0.5805947780609131 -0.06881511956453323
0.5387908816337585 0.8195827603340149 -0.011026750318706036
0.638870894908905 0.7574489116668701 0.028431236743927002
0.6037864685058594 0.6384886503219604 -0.022624894976615906
0.6111703515052795 0.7852843403816223 0.017550786957144737
0.6606670022010803 0.6319363117218018 -0.01924719475209713
0.6288700699806213 0.6603859663009644 -0.015413498505949974
0.6855980753898621 0.6682790517807007 0.0036196948494762182
0.5456240773200989 0.8498386740684509 -0.00547407940030098
0.5637854337692261 0.5920011401176453 -0.051660507917404175
0.6560033559799194 0.7777843475341797 0.04792750999331474
0.6225491762161255 0.8065253496170044 0.03500639274716377
0.6611958742141724 0.726473331451416 0.025075817480683327
0.7442813515663147 0.6754164695739746 0.08122867345809937
0.6901119351387024 0.7319101095199585 0.04372845217585564
0.7572962045669556 0.6935138702392578 0.1347639560699463
0.6531016826629639 0.6863168478012085 -0.0009163450449705124
0.544642448425293 0.5571761131286621 -0.05486354976892471
0.5404353737831116 0.6329375505447388 -0.09869879484176636
0.5611502528190613 0.6356378197669983 -0.07277140021324158
0.5266441702842712 0.6186196208000183 -0.11505195498466492
0.5612063407897949 0.44575780630111694 -0.030398676171898842
0.5985132455825806 0.43250903487205505 -0.03923187032341957
0.63128662109375 0.4296855330467224 -0.04180987924337387
0.6595631837844849 0.4333859384059906 -0.03522177413105965
0.6801735162734985 0.4431849420070648 -0.022808577865362167
0.6975445747375488 0.481866717338562 0.014525792561471462
0.7743192315101624 0.5382410883903503 0.1181405782699585
0.6785147190093994 0.5145459175109863 0.002995797200128436
0.6528472900390625 0.521895170211792 -0.007309721317142248
0.6203166842460632 0.5221900343894958 -0.013054789043962955
0.5903887748718262 0.5172405242919922 -0.014925147406756878
0.5682605504989624 0.5105553865432739 -0.013402010314166546
0.552725076675415 0.503769040107727 -0.014251597225666046
0.7799860239028931 0.5342245697975159 0.20225533843040466
0.5627017617225647 0.6404721736907959 -0.06051277741789818
0.5244898796081543 0.5666363835334778 -0.08789408951997757
0.5197528600692749 0.6369275450706482 -0.11423912644386292
0.507986307144165 0.6482018828392029 -0.10163160413503647
0.5214629173278809 0.6396850347518921 -0.10265455394983292
0.5575646758079529 0.6472817659378052 -0.050932686775922775
0.5024173259735107 0.6511833071708679 -0.1070929616689682
0.502602219581604 0.6549509167671204 -0.07840170711278915
0.5544906854629517 0.48492661118507385 -0.006348542403429747
0.5402764678001404 0.4913647770881653 -0.01752297952771187
0.5316435098648071 0.49676093459129333 -0.032135073095560074
0.6661351919174194 0.4747450649738312 -0.007474287413060665
0.6782366037368774 0.46417516469955444 -0.00799087155610323
