ply
format ascii 1.0
element vertex 468
property float x
property float y
property float z
end_header
0.5169848203659058 0.7113714218139648 -0.06541714072227478
0.5258467793464661 0.6416661739349365 -0.1382516622543335
0.5190669894218445 0.663679838180542 -0.07299429178237915
0.500857412815094 0.5528076887130737 -0.10924186557531357
0.5263564586639404 0.6143097281455994 -0.14733543992042542
0.5244922637939453 0.5780738592147827 -0.1381930708885193
0.5172895789146423 0.4929577112197876 -0.07394051551818848
0.3300914764404297 0.4830062985420227 0.009241383522748947
0.5159497261047363 0.4351327419281006 -0.058052416890859604
0.5166909098625183 0.4010092616081238 -0.06383851170539856
0.5146138072013855 0.26313677430152893 -0.041462551802396774
0.5161955952644348 0.7227728962898254 -0.062226615846157074
0.514946699142456 0.7302292585372925 -0.055294930934906006
0.5135282278060913 0.7316421866416931 -0.045102450996637344
0.5148645639419556 0.7709551453590393 -0.032483864575624466
0.5152489542961121 0.781360387802124 -0.03693440183997154
0.5151288509368896 0.7942795157432556 -0.04222746938467026
0.5145073533058167 0.8093825578689575 -0.0377323143184185
0.512382984161377 0.8357950448989868 -0.01466761901974678
0.5238631963729858 0.655156135559082 -0.12522977590560913
0.49725741147994995 0.6511722207069397 -0.09279605746269226
0.22892168164253235 0.38554757833480835 0.11111292988061905
0.40454038977622986 0.5048997402191162 -0.009124788455665112
0.3794640898704529 0.5066127777099609 -0.009941188618540764
0.3547595143318176 0.5053369998931885 -0.005883996840566397
0.31884780526161194 0.49205586314201355 0.012002941220998764
0.4251065254211426 0.49917665123939514 -0.004253592807799578
0.3714955151081085 0.4432693421840668 -0.022223632782697678
0.3983907103538513 0.44493767619132996 -0.018701598048210144
0.3455997705459595 0.44704383611679077 -0.016668396070599556
0.3274439573287964 0.45558372139930725 -0.0075966897420585155
0.2985731363296509 0.5081063508987427 0.023263361304998398
0.4169082045555115 0.8715635538101196 0.009326580911874771
0.3198896050453186 0.477222740650177 0.016290143132209778
0.21591311693191528 0.4997434616088867 0.1253870725631714
0.2694048285484314 0.49385055899620056 0.0449325367808342
0.38292813301086426 0.6080226302146912 -0.03155701234936714
0.48017579317092896 0.7070484757423401 -0.06598225235939026
0.48085451126098633 0.7292228937149048 -0.054228268563747406
0.44083741307258606 0.7109547257423401 -0.053617529571056366
0.4146525263786316 0.7166162729263306 -0.032426536083221436
0.4523308277130127 0.7283639311790466 -0.04477155581116676
0.4299028515815735 0.7284424304962158 -0.025315649807453156
0.38532382249832153 0.7621603012084961 0.011960214003920555
0.5047135353088379 0.6407499313354492 -0.13770338892936707
0.502678394317627 0.6137614250183105 -0.1464042216539383
0.2899136543273926 0.43206214904785156 -0.006694692187011242
0.437752902507782 0.5469619631767273 -0.0326194204390049
0.43798092007637024 0.6253126263618469 -0.08203151077032089
0.43543705344200134 0.6107052564620972 -0.07472756505012512
0.301497220993042 0.6025993824005127 -0.007612238638103008
0.5022317171096802 0.580459713935852 -0.13272163271903992
0.3562803566455841 0.40650421380996704 -0.043775446712970734
0.31775808334350586 0.41429781913757324 -0.028436994180083275
0.25923416018486023 0.3381573259830475 0.06404676288366318
0.46614545583724976 0.42965227365493774 -0.05482079088687897
0.4211727976799011 0.45295077562332153 -0.008893107064068317
0.36406388878822327 0.7305716276168823 0.011675921268761158
0.23403924703598022 0.7490018606185913 0.20010565221309662
0.4553525447845459 0.6403685212135315 -0.0698205903172493
0.4769718647003174 0.6494975686073303 -0.06961765885353088
0.3841805160045624 0.7293821573257446 0.013781062327325344
0.3968479037284851 0.7304362058639526 0.00928182527422905
0.3031153678894043 0.396650105714798 -0.01804976910352707
0.43413782119750977 0.6340236663818359 -0.06756061315536499
0.4056066572666168 0.41000881791114807 -0.05312858149409294
0.4016278088092804 0.3877776265144348 -0.05976378917694092
0.3694489896297455 0.27501752972602844 -0.022633416578173637
0.28260281682014465 0.3662077486515045 0.017699407413601875
0.38886937499046326 0.32815197110176086 -0.042262859642505646
0.273037850856781 0.4201117157936096 0.01277888286858797
0.2515062093734741 0.40390291810035706 0.05981257185339928
0.48010990023612976 0.7206507325172424 -0.06259522587060928
0.44751596450805664 0.7217177152633667 -0.04959212616086006
0.4225843846797943 0.7227499485015869 -0.030655566602945328
0.46083176136016846 0.644346296787262 -0.0639144629240036
0.39014706015586853 0.7297208309173584 0.011350641027092934
0.40544992685317993 0.746878445148468 0.0004550892044790089
0.40071040391921997 0.730941116809845 0.008914891630411148
0.47291770577430725 0.6375569105148315 -0.10499320924282074
0.43352365493774414 0.7262139320373535 -0.021370427682995796
0.4558635354042053 0.7279141545295715 -0.03498149663209915
0.4822097420692444 0.730292558670044 -0.04432734102010727
0.4742487072944641 0.8328156471252441 -0.015549822710454464
0.47805652022361755 0.8052240610122681 -0.0379643552005291
0.4801950454711914 0.7899966239929199 -0.04143792390823364
0.48208844661712646 0.7773295044898987 -0.035685185343027115
0.48401838541030884 0.7687779664993286 -0.031501322984695435
0.43390804529190063 0.7542219758033752 -0.011013037525117397
0.4296543598175049 0.756903350353241 -0.014685099944472313
0.423854261636734 0.7627195119857788 -0.017649425193667412
0.4191339313983917 0.7708773612976074 -0.01293704379349947
0.3971279561519623 0.6940890550613403 -0.027827665209770203
0.2061302363872528 0.6175645589828491 0.22833094000816345
0.5216208100318909 0.6593373417854309 -0.0917786955833435
0.4185947775840759 0.7460927963256836 0.0023135722149163485
0.41204535961151123 0.7453047633171082 5.252996561466716e-05
0.4856092929840088 0.6609201431274414 -0.06915294378995895
0.4401873052120209 0.647951602935791 -0.04666559025645256
0.48155832290649414 0.6555963158607483 -0.07043308019638062
0.40970224142074585 0.5596722960472107 -0.0264699999243021
0.36616283655166626 0.5743227005004883 -0.02319316193461418
0.4288173019886017 0.6203099489212036 -0.06026032939553261
0.30416083335876465 0.3003453016281128 0.01708466187119484
0.3264954686164856 0.3396974205970764 -0.015101592056453228
0.34768497943878174 0.3847474753856659 -0.040946245193481445
0.4081609547138214 0.7902098298072815 0.002201317809522152
0.45930662751197815 0.39470410346984863 -0.06613834947347641
0.4492870569229126 0.3262553811073303 -0.054841622710227966
0.43722012639045715 0.26387128233909607 -0.041881151497364044
0.3322814106941223 0.5008583664894104 0.0029714363627135754
0.2704651355743408 0.5257514119148254 0.03526853024959564
0.4380967915058136 0.4930174946784973 -0.0001235660311067477
0.29894524812698364 0.46408307552337646 0.010980075225234032
0.4569121301174164 0.5317691564559937 -0.040814004838466644
0.457101970911026 0.6197521090507507 -0.10568195581436157
0.24068038165569305 0.5445897579193115 0.06015262007713318
0.28934210538864136 0.541010856628418 0.014959226362407207
0.3235514760017395 0.5490577220916748 -0.0039990246295928955
0.3727503716945648 0.5472637414932251 -0.01179109513759613
0.40916863083839417 0.5387886166572571 -0.013959089294075966
0.43590229749679565 0.5282115936279297 -0.018886776641011238
0.49334001541137695 0.4994552731513977 -0.0662735179066658
0.24033112823963165 0.5967817306518555 0.05471664294600487
0.27798992395401 0.46088340878486633 0.019819187000393867
0.5109558701515198 0.6538476943969727 -0.12505483627319336
0.44027116894721985 0.5719941854476929 -0.0427534319460392
0.20230719447135925 0.4986806809902191 0.2044312059879303
0.45576727390289307 0.5153275728225708 -0.021487468853592873
0.4237430989742279 0.6206356883049011 -0.03395920246839523
0.3108380138874054 0.4794166088104248 0.020175745710730553
0.4548143148422241 0.6015081405639648 -0.0966089740395546
0.21408739686012268 0.6817841529846191 0.22003291547298431
0.4368133246898651 0.4838138818740845 0.00570196146145463
0.4787081480026245 0.5887128114700317 -0.11964254081249237
0.29933419823646545 0.8070852756500244 0.08558094501495361
0.2991828918457031 0.8419877886772156 0.12636493146419525
0.21140310168266296 0.6101668477058411 0.14105738699436188
0.26262253522872925 0.7726149559020996 0.10768306255340576
0.23264208436012268 0.44785401225090027 0.09902329742908478
0.4127212166786194 0.9014841318130493 0.021789994090795517
0.511578381061554 0.6580737829208374 -0.09080672264099121
0.4153538644313812 0.5885067582130432 -0.03475510701537132
0.24567793309688568 0.499305784702301 0.06748609989881516
0.3572547733783722 0.49012279510498047 -0.0033772282768040895
0.3795255422592163 0.49200060963630676 -0.00751535315066576
0.399177610874176 0.7500402331352234 0.0035389643162488937
0.24044537544250488 0.651107132434845 0.06542231887578964
0.45736512541770935 0.939933180809021 0.030493054538965225
0.3785967230796814 0.9029942750930786 0.07213807106018066
0.34250155091285706 0.8776191473007202 0.09652124345302582
0.5159143209457397 0.32878783345222473 -0.05433309078216553
0.5079867839813232 0.9445626735687256 0.028601307421922684
0.40022531151771545 0.4907635450363159 -0.006388527806848288
0.41956478357315063 0.4874074161052704 -0.001256822724826634
0.43124401569366455 0.4857465624809265 0.004691218491643667
0.2576037049293518 0.45533257722854614 0.04282115772366524
0.4149779677391052 0.46568048000335693 -0.005223477724939585
0.3937765955924988 0.45814546942710876 -0.011610521003603935
0.3727562427520752 0.4563925266265869 -0.012647189199924469
0.35052335262298584 0.46056485176086426 -0.008561572059988976
0.33585256338119507 0.46767890453338623 -0.0011750487610697746
0.21107780933380127 0.4357297420501709 0.16270847618579865
0.3414199948310852 0.4867655634880066 0.0032334644347429276
0.5179429650306702 0.6791000366210938 -0.06409598141908646
0.42470863461494446 0.6819340586662292 -0.044069379568099976
0.4561820924282074 0.6379891633987427 -0.0796414315700531
0.479923814535141 0.6788616180419922 -0.06471294164657593
0.5153892636299133 0.4625730514526367 -0.05635424703359604
0.339091956615448 0.8428140878677368 0.0685940682888031
0.3750031292438507 0.8722419738769531 0.04707916080951691
0.4585547149181366 0.9205567240715027 0.001696513849310577
0.2644479274749756 0.8025484085083008 0.16388416290283203
0.4300609230995178 0.47663652896881104 0.0011113662039861083
0.47786128520965576 0.540399432182312 -0.07357650995254517
0.5106357932090759 0.9253201484680176 0.0012254944304004312
0.4155869483947754 0.9250122308731079 0.04624910280108452
0.2177637219429016 0.6694146990776062 0.14012394845485687
0.4570487439632416 0.762518048286438 -0.022884881123900414
0.4530949592590332 0.7685120105743408 -0.026750195771455765
0.4491957724094391 0.7782111763954163 -0.030224282294511795
0.44591063261032104 0.7919200658798218 -0.026172230020165443
0.4367429316043854 0.8154667615890503 -0.009370073676109314
0.4089024066925049 0.7279722690582275 -0.007228219415992498
0.4014319181442261 0.7251473665237427 -0.007773763965815306
0.3942539095878601 0.7210700511932373 -0.00897165760397911
0.3739975392818451 0.709233283996582 -0.0081581249833107
0.2756670117378235 0.6619963049888611 0.02007654681801796
0.4758172333240509 0.5141307711601257 -0.05151626095175743
0.4590871036052704 0.46691685914993286 -0.009887215681374073
0.44198477268218994 0.47020190954208374 -0.0022675266955047846
0.4148067831993103 0.7253144383430481 -0.004974642768502235
0.2721816301345825 0.7288693785667419 0.06149543449282646
0.48298197984695435 0.46631869673728943 -0.041341930627822876
0.42611274123191833 0.8414280414581299 0.0015345538267865777
0.5218675136566162 0.5490509867668152 -0.11512699723243713
0.4971621036529541 0.5276004076004028 -0.08978559821844101
0.5196038484573364 0.522273600101471 -0.09346326440572739
0.4594436287879944 0.5793089866638184 -0.0738578587770462
0.5119512677192688 0.8970942497253418 -0.011920956894755363
0.5120412707328796 0.8635458946228027 -0.012772361747920513
0.46830740571022034 0.8603805899620056 -0.010711407288908958
0.3672024607658386 0.7776573896408081 0.02303149551153183
0.4018287658691406 0.6401706337928772 -0.027860352769494057
0.3942722976207733 0.8132730722427368 0.014323746785521507
0.3379301428794861 0.6379586458206177 -0.022831644862890244
0.37470152974128723 0.6652123332023621 -0.02099248766899109
0.31342941522598267 0.6789941191673279 -0.0006594077567569911
0.4618596136569977 0.8928419351577759 -0.010193835943937302
0.44167083501815796 0.5915771126747131 -0.0567852258682251
0.34735915064811707 0.8059749603271484 0.04230813309550285
0.3823239505290985 0.840232253074646 0.029968589544296265
0.34403082728385925 0.7406488060951233 0.01856156624853611
0.24615110456943512 0.6979707479476929 0.07785946130752563
0.3103114366531372 0.7538353204727173 0.037872470915317535
0.23292703926563263 0.7241127490997314 0.133379265666008
0.3504430055618286 0.6933678984642029 -0.007608326617628336
0.4595889151096344 0.5561831593513489 -0.056853752583265305
0.46530088782310486 0.6328022480010986 -0.11056071519851685
0.44567129015922546 0.6348680853843689 -0.08366280049085617
0.47944989800453186 0.6164611577987671 -0.12789401412010193
0.4413379728794098 0.4474339485168457 -0.019422467797994614
0.4021948575973511 0.4337727129459381 -0.028378283604979515
0.3662300109863281 0.4304018020629883 -0.030280549079179764
0.33501359820365906 0.4342096745967865 -0.022948652505874634
0.3116430640220642 0.4449842870235443 -0.009463595226407051
0.29340657591819763 0.486542284488678 0.028952019289135933
0.21071100234985352 0.5543248653411865 0.1340998262166977
0.313617467880249 0.517824649810791 0.012250899337232113
0.3415641784667969 0.5248004794120789 8.280356269096956e-05
0.37577560544013977 0.5254742503166199 -0.007171077653765678
0.4074147939682007 0.520791232585907 -0.00860865879803896
0.4316692650318146 0.5130663514137268 -0.007817964069545269
0.4483560621738434 0.5051342248916626 -0.00805333349853754
0.20331400632858276 0.5577377080917358 0.2245664894580841
0.4446392059326172 0.6393861770629883 -0.07087203115224838
0.48000580072402954 0.563817024230957 -0.09295486658811569
0.4858328700065613 0.6364427208900452 -0.12782813608646393
0.4971645772457123 0.6487367153167725 -0.1158260777592659
0.4839932322502136 0.6401334404945374 -0.11576783657073975
0.44975632429122925 0.6459047794342041 -0.060802750289440155
0.5025471448898315 0.651660680770874 -0.12190194427967072
0.5031192302703857 0.6557401418685913 -0.09186074882745743
0.4465351104736328 0.48570913076400757 0.0033011040650308132
0.4614923596382141 0.49161842465400696 -0.010507618077099323
0.4708709120750427 0.49612271785736084 -0.027947720140218735
0.32711875438690186 0.47307929396629333 0.006366646848618984
0.31346601247787476 0.4656257629394531 0.005968403071165085
0.541001558303833 0.5531675815582275 -0.1039213016629219
0.6755374670028687 0.486590176820755 0.046450573951005936
0.5437593460083008 0.6512861251831055 -0.0888013243675232
0.746966540813446 0.3907203674316406 0.16853545606136322
0.6074362397193909 0.5081111192703247 0.014966425485908985
0.6311259269714355 0.5097029209136963 0.018869735300540924
0.6537766456604004 0.5082393288612366 0.027593189850449562
0.6835935711860657 0.49551141262054443 0.05149814113974571
0.5880612730979919 0.5021955370903015 0.01438538171350956
0.6417808532714844 0.4480880796909332 0.008408166468143463
0.6162189245223999 0.4492851793766022 0.005135144107043743
0.6650234460830688 0.4521263837814331 0.018656419590115547
0.6799798607826233 0.4606945514678955 0.030283356085419655
0.7010000944137573 0.5111419558525085 0.06567122042179108
0.5980932712554932 0.8693938255310059 0.027037492021918297
0.683740496635437 0.4813361167907715 0.055566150695085526
0.7570501565933228 0.5024932026863098 0.18366001546382904
0.7237759828567505 0.4972665309906006 0.09279431402683258
0.6352880001068115 0.6086239218711853 -0.0073044635355472565
0.5519792437553406 0.706560492515564 -0.05927097052335739
0.546681821346283 0.7288433909416199 -0.048132747411727905
0.5857136249542236 0.7098058462142944 -0.039704494178295135
0.6057971715927124 0.7152285575866699 -0.013788949698209763
0.5711411237716675 0.7273185849189758 -0.03296247869729996
0.5892103314399719 0.727378249168396 -0.009527078829705715
0.6262561082839966 0.7607031464576721 0.035884253680706024
0.5454166531562805 0.640774667263031 -0.13442561030387878
0.5478281378746033 0.6138898730278015 -0.1422077715396881
0.7137405872344971 0.4377012252807617 0.03872585669159889
0.5832237601280212 0.5482671856880188 -0.016765978187322617
0.5953714847564697 0.6255011558532715 -0.06688307225704193
0.5952617526054382 0.6110588312149048 -0.059160780161619186
0.7045585513114929 0.6030950546264648 0.032555241137742996
0.5448341965675354 0.580763578414917 -0.12757769227027893
0.6618751883506775 0.413144588470459 -0.01269449107348919
0.6935486793518066 0.4206872880458832 0.010587609373033047
0.7293331027030945 0.34454143047332764 0.11552826315164566
0.5625823736190796 0.4326222538948059 -0.04449595510959625
0.5939251780509949 0.45661255717277527 0.010557797737419605
0.6459683179855347 0.729326605796814 0.04039216786623001
0.7269315123558044 0.7459995150566101 0.25395259261131287
0.57843017578125 0.6402610540390015 -0.05875946208834648
0.5584108233451843 0.6495386958122253 -0.06390930712223053
0.6277022957801819 0.7280624508857727 0.03873549401760101
0.615168035030365 0.7293180227279663 0.031128499656915665
0.7050111889839172 0.4035809636116028 0.02402583137154579
0.5959540605545044 0.633961021900177 -0.05283668264746666
0.618836522102356 0.41559821367263794 -0.03171154111623764
0.6240284442901611 0.39350640773773193 -0.03737941011786461
0.646562933921814 0.2804110646247864 0.006788135971873999
0.716598391532898 0.3724677860736847 0.06375846266746521
0.6331214904785156 0.3336124122142792 -0.016826199367642403
0.7258738875389099 0.42573875188827515 0.06119171530008316
0.7366332411766052 0.4091823101043701 0.11195418238639832
0.5501289963722229 0.7201793789863586 -0.05582249537110329
0.5780428051948547 0.7205814719200134 -0.03682055324316025
0.5977846384048462 0.7213980555534363 -0.013565910048782825
0.5723696947097778 0.6443589329719543 -0.054797060787677765
0.621921181678772 0.7283787727355957 0.0346212275326252
0.61004638671875 0.7457931637763977 0.020011860877275467
0.6105136871337891 0.7298335433006287 0.030263511463999748
0.5679277181625366 0.6376434564590454 -0.09462866187095642
0.5835373997688293 0.7250528931617737 -0.00655314652249217
0.5652968287467957 0.727047324180603 -0.02406156249344349
0.5425347089767456 0.7298664450645447 -0.03818732127547264
0.5485636591911316 0.8321539163589478 -0.009630282409489155
0.548906147480011 0.804883599281311 -0.031613320112228394
0.5481690168380737 0.7897500991821289 -0.034829121083021164
0.546318769454956 0.7770233750343323 -0.028977366164326668
0.5435311794281006 0.7684348821640015 -0.0251584704965353
0.585390031337738 0.7531371116638184 0.004054502584040165
0.5900002717971802 0.7557598948478699 0.00038700824370607734
0.5957428216934204 0.7617084980010986 -0.002021124353632331
0.6000296473503113 0.7698292136192322 0.0036521521396934986
0.6230366230010986 0.6930502653121948 -0.006502404343336821
0.7493516802787781 0.6176074147224426 0.28778189420700073
0.5967451930046082 0.7450076937675476 0.020983798429369926
0.6037959456443787 0.7442092299461365 0.01896142028272152
0.5504832863807678 0.6609609127044678 -0.06344296783208847
0.5880289077758789 0.6477130651473999 -0.03499944135546684
0.5542964935302734 0.6557062268257141 -0.06475730985403061
0.6084234714508057 0.5610014796257019 -0.005249530542641878
0.6485130786895752 0.5754676461219788 0.005331791006028652
0.5990703105926514 0.6204721331596375 -0.0441536046564579
0.6980627179145813 0.3068702220916748 0.05874785780906677
0.6838759779930115 0.34637194871902466 0.021765144541859627
0.6698957681655884 0.39170148968696594 -0.0077495453879237175
0.6072379946708679 0.7886803150177002 0.02157295122742653
0.5717876553535461 0.3982558846473694 -0.05510732904076576
0.5795043706893921 0.3292873501777649 -0.041496794670820236
0.5878828763961792 0.2670406699180603 -0.02714889869093895
0.6728789806365967 0.5039797425270081 0.04033887758851051
0.7245041728019714 0.5282303690910339 0.08265682309865952
0.5760315656661987 0.4958568811416626 0.01652791164815426
0.702704668045044 0.4685889482498169 0.054434094578027725
0.5668624639511108 0.5330141186714172 -0.02814985066652298
0.5821382403373718 0.6202066540718079 -0.09351301938295364
0.7467894554138184 0.5466159582138062 0.11365288496017456
0.7112109661102295 0.5431810021400452 0.059507664293050766
0.6838598847389221 0.5509881377220154 0.03378688171505928
0.6400545239448547 0.5490059852600098 0.016934670507907867
0.6062532663345337 0.5406208038330078 0.007727174088358879
0.5818163752555847 0.5299471616744995 -0.002570060081779957
0.5386282205581665 0.5001726746559143 -0.06089125946164131
0.7486467957496643 0.5973681211471558 0.10815638303756714
0.7198386192321777 0.46536290645599365 0.06744629889726639
0.535983145236969 0.6538286805152893 -0.122373566031456
0.5839059948921204 0.5730379819869995 -0.027271008118987083
0.756115198135376 0.5011283159255981 0.26611459255218506
0.5644803643226624 0.516937255859375 -0.008757734671235085
0.6002516746520996 0.6206523776054382 -0.017961828038096428
0.6905709505081177 0.4834764897823334 0.061376817524433136
0.5810663104057312 0.6021355390548706 -0.08402984589338303
0.7428075075149536 0.6803810596466064 0.2773157060146332
0.5763491988182068 0.4866534471511841 0.02346772886812687
0.5631803274154663 0.5891559720039368 -0.11063310503959656
0.6907498240470886 0.803510308265686 0.1257137507200241
0.6816598773002625 0.8376113176345825 0.16736502945423126
0.7606282234191895 0.6103401184082031 0.19917933642864227
0.7189031839370728 0.7692917585372925 0.155098557472229
0.7473382949829102 0.4517802298069 0.15511910617351532
0.5999501347541809 0.89872807264328 0.04115188494324684
0.5314000844955444 0.6580854654312134 -0.08917735517024994
0.6055881381034851 0.5892519354820251 -0.01581798866391182
0.7408023476600647 0.5023096799850464 0.12018406391143799
0.6523211002349854 0.49376416206359863 0.029632428660988808
0.631714403629303 0.49567174911499023 0.021663840860128403
0.6155447959899902 0.7487770318984985 0.024679744616150856
0.7470597624778748 0.6502675414085388 0.1169896125793457
0.5563775300979614 0.9382725954055786 0.041277576237916946
0.6219465732574463 0.899214506149292 0.09901793301105499
0.6493167281150818 0.8732939958572388 0.13019292056560516
0.6116950511932373 0.49446165561676025 0.01824144646525383
0.5929657816886902 0.49075672030448914 0.019806087017059326
0.5816222429275513 0.4887288212776184 0.023521723225712776
0.7341054081916809 0.45958995819091797 0.09398799389600754
0.5972534418106079 0.4690352976322174 0.016256650909781456
0.6173523664474487 0.46205809712409973 0.013437078334391117
0.6378026604652405 0.46040570735931396 0.016678377985954285
0.6584222316741943 0.4646937847137451 0.024939479306340218
0.6709516048431396 0.47181469202041626 0.034699417650699615
0.7553310394287109 0.4397311806678772 0.22330717742443085
0.6661734580993652 0.490375280380249 0.03878922760486603
0.6007173657417297 0.6811589598655701 -0.0278614554554224
0.5795485377311707 0.6380402445793152 -0.06885414570569992
0.5535922646522522 0.6786050200462341 -0.0578891895711422
0.6585990190505981 0.8390578031539917 0.1013031080365181
0.6298068165779114 0.8688935041427612 0.07299100607633591
0.5598188042640686 0.9190364480018616 0.011962972581386566
0.7055376172065735 0.7987575531005859 0.2123621106147766
0.5830255746841431 0.47946226596832275 0.020267536863684654
0.5549978017807007 0.5410750508308411 -0.06487368792295456
0.5927537679672241 0.9220374822616577 0.06585761904716492
0.7542645931243896 0.6681684851646423 0.19610410928726196
0.5669577121734619 0.7616961002349854 -0.011660290881991386
0.571300208568573 0.76774662733078 -0.015288393944501877
0.5752044916152954 0.777583658695221 -0.018188614398241043
0.5778465270996094 0.7911750078201294 -0.01351216621696949
0.5825449228286743 0.814241886138916 0.0047240229323506355
0.6056265234947205 0.7267551422119141 0.012232750654220581
0.6136695742607117 0.7237288951873779 0.013538862578570843
0.620880126953125 0.7198373079299927 0.01386732142418623
0.6405359506607056 0.7081049084663391 0.01836007833480835
0.7228294610977173 0.6611334085464478 0.06337518990039825
0.5520604252815247 0.5153263807296753 -0.04265085607767105
0.5603076815605164 0.4693213105201721 0.00156551250256598
0.5733928680419922 0.47295743227005005 0.014150124043226242
0.5986655354499817 0.7242108583450317 0.01395637821406126
0.7193808555603027 0.7265366911888123 0.10587312281131744
0.5434245467185974 0.4678660035133362 -0.034611549228429794
0.5902745127677917 0.8396353125572205 0.017166275531053543
0.5400785803794861 0.5280542373657227 -0.08497366309165955
0.5721322298049927 0.57993084192276 -0.062385670840740204
0.5532042384147644 0.859412431716919 -0.0034171990118920803
0.6407331228256226 0.7759991884231567 0.050215329974889755
0.6188531517982483 0.6402175426483154 -0.007622592616826296
0.617297351360321 0.811377227306366 0.035985399037599564
0.6747937798500061 0.6378241181373596 0.008255839347839355
0.642238974571228 0.6648760437965393 0.004209341015666723
0.6930371522903442 0.677948534488678 0.035165343433618546
0.5588744878768921 0.8916047811508179 -0.00037716072984039783
0.5854009389877319 0.5923172235488892 -0.04253971204161644
0.655773937702179 0.8032305240631104 0.073306605219841
0.6265689134597778 0.8376995325088501 0.05374247953295708
0.6626206636428833 0.7391059994697571 0.05097780004143715
0.7394523024559021 0.696115255355835 0.1272154599428177
0.6891801953315735 0.7514891624450684 0.07540834695100784
0.7410638332366943 0.7216382026672363 0.1867458075284958
0.6609389185905457 0.6925071477890015 0.0224889125674963
0.5685357451438904 0.5571057200431824 -0.0446184016764164
0.5756474733352661 0.6329426169395447 -0.0993000790476799
0.5891754031181335 0.634912371635437 -0.07071465998888016
0.5663124322891235 0.6167210936546326 -0.11912410706281662
0.5787978768348694 0.4506378173828125 -0.0040870592929422855
0.6166360974311829 0.43831902742385864 -0.005383801646530628
0.6498741507530212 0.43598490953445435 -0.0002976440591737628
0.6771947741508484 0.4398689866065979 0.013331197202205658
0.6951553821563721 0.4503016471862793 0.031434912234544754
0.7046311497688293 0.4903404116630554 0.07255508750677109
0.7612718939781189 0.5560030341148376 0.1938854604959488
0.6892577409744263 0.5206584334373474 0.052275724709033966
0.6659860610961914 0.5270781517028809 0.03480095416307449
0.635325014591217 0.5280275940895081 0.02141452394425869
0.6057475209236145 0.5232698917388916 0.014035811647772789
0.5832738876342773 0.5154291987419128 0.009271292015910149
0.5683295726776123 0.5072380900382996 0.005831082817167044
0.7519944906234741 0.559084951877594 0.28588810563087463
0.5876449346542358 0.6392720937728882 -0.058338288217782974
0.5575581789016724 0.5644479990005493 -0.08420432358980179
0.5606976747512817 0.6363717913627625 -0.12076583504676819
0.5465081334114075 0.6486243605613708 -0.11169814318418503
0.5596137046813965 0.6400814056396484 -0.10842401534318924
0.5811905860900879 0.6457891464233398 -0.05020376294851303
0.5429754257202148 0.6516032218933105 -0.11865681409835815
0.5388202667236328 0.6557110548019409 -0.08904321491718292
0.568390429019928 0.48830685019493103 0.017710812389850616
0.5568183660507202 0.4938163757324219 0.0003539722238201648
0.5517562627792358 0.4978155195713043 -0.018976686522364616
0.6782552003860474 0.47715502977371216 0.04391760379076004
0.6903680562973022 0.4702303111553192 0.045789338648319244
