ply
format ascii 1.0
element vertex 468
property float x
property float y
property float z
end_header
0.5133007168769836 0.7073497772216797 -0.03890804573893547
0.5205724239349365 0.6523163318634033 -0.12250146269798279
0.5146982073783875 0.6640763878822327 -0.05171741545200348
0.4990568161010742 0.5715770125389099 -0.11310531198978424
0.5219926238059998 0.6308116912841797 -0.1360914409160614
0.5214029550552368 0.5980327129364014 -0.13400296866893768
0.5175560116767883 0.5121454000473022 -0.09269172698259354
0.33496323227882385 0.48384687304496765 -0.02029423788189888
0.51811683177948 0.452850878238678 -0.09280010312795639
0.5198290348052979 0.4220163822174072 -0.10756135731935501
0.5209047198295593 0.2927057147026062 -0.11712527275085449
0.5125665068626404 0.7160844206809998 -0.03311970457434654
0.5111470222473145 0.720874547958374 -0.023331938311457634
0.5095122456550598 0.7211654782295227 -0.011073585599660873
0.5100553631782532 0.7266654372215271 -0.004242841154336929
0.5102220773696899 0.7352906465530396 -0.005565975792706013
0.5097522139549255 0.7455607652664185 -0.00673901429399848
0.5084834098815918 0.7558433413505554 0.0015699565410614014
0.5045170187950134 0.7706561088562012 0.032177407294511795
0.5188248157501221 0.6604529619216919 -0.1071876659989357
0.4949948191642761 0.6541850566864014 -0.0750841349363327
0.22392618656158447 0.37470918893814087 0.05233621597290039
0.408352255821228 0.5057897567749023 -0.03340393304824829
0.38369855284690857 0.506865382194519 -0.033991411328315735
0.35905134677886963 0.5056024789810181 -0.03012397326529026
0.32471728324890137 0.4910430908203125 -0.015589895658195019
0.4287666082382202 0.5016812682151794 -0.029288090765476227
0.3735809326171875 0.453193724155426 -0.05792344734072685
0.400441437959671 0.454490602016449 -0.05511189252138138
0.3491707742214203 0.4562320411205292 -0.051585741341114044
0.3322470784187317 0.46249890327453613 -0.0420638844370842
0.3016349673271179 0.5044000148773193 -0.0016276423120871186
0.4132559299468994 0.7980118989944458 0.06166526675224304
0.3244168162345886 0.4775758683681488 -0.015142910182476044
0.21460998058319092 0.4756794571876526 0.09322932362556458
0.2698889970779419 0.48597288131713867 0.014734398573637009
0.3884488344192505 0.6065895557403564 -0.02718472108244896
0.484378457069397 0.7039932012557983 -0.03986739739775658
0.48602479696273804 0.7197383642196655 -0.023055974394083023
0.4535839259624481 0.7061794996261597 -0.02815992757678032
0.4334681034088135 0.709029495716095 -0.01140138041228056
0.46394380927085876 0.718522846698761 -0.016864333301782608
0.4464799165725708 0.7168973088264465 -0.0017693981062620878
0.39887338876724243 0.7308534383773804 0.036226432770490646
0.5008594989776611 0.6509068012237549 -0.12220849096775055
0.49897459149360657 0.6297104358673096 -0.13527227938175201
0.2924805283546448 0.4408266544342041 -0.047666653990745544
0.4385133981704712 0.5511758327484131 -0.04329374432563782
0.44165489077568054 0.6313871145248413 -0.06991379708051682
0.4395821988582611 0.6172836422920227 -0.06569623202085495
0.30986452102661133 0.5973021388053894 -0.007558649405837059
0.4992940127849579 0.5991612672805786 -0.12899909913539886
0.3572787940502167 0.4247894287109375 -0.08723964542150497
0.32023298740386963 0.4292633831501007 -0.07147984951734543
0.25413602590560913 0.34059691429138184 -0.004122722893953323
0.46657365560531616 0.44614851474761963 -0.09187941253185272
0.4235905408859253 0.4613039493560791 -0.04402966424822807
0.38078662753105164 0.7123957872390747 0.032442789524793625
0.2358582615852356 0.6710938215255737 0.23041445016860962
0.45818030834198 0.643839955329895 -0.055407069623470306
0.47775840759277344 0.6514937877655029 -0.05151773989200592
0.40836769342422485 0.7130026817321777 0.03090262971818447
0.41891443729400635 0.7128386497497559 0.02552454173564911
0.304519385099411 0.4118190407752991 -0.06607601791620255
0.4398077428340912 0.637455403804779 -0.05335172265768051
0.4054431915283203 0.4285236597061157 -0.09465667605400085
0.4011737108230591 0.40906691551208496 -0.10575949400663376
0.3680223822593689 0.2985524535179138 -0.0987294390797615
0.2803364396095276 0.37585705518722534 -0.041000138968229294
0.38818979263305664 0.3532381057739258 -0.10497703403234482
0.27384477853775024 0.4266029894351959 -0.03235762566328049
0.24904659390449524 0.4018915295600891 0.00631032045930624
0.48493626713752747 0.7141628861427307 -0.03420235961675644
0.45995575189590454 0.7144017815589905 -0.02335214428603649
0.44034379720687866 0.7135876417160034 -0.00840279646217823
0.4636554419994354 0.6469627022743225 -0.04831662401556969
0.41407930850982666 0.7132461667060852 0.028133157640695572
0.42493048310279846 0.7191522717475891 0.018345151096582413
0.420856237411499 0.7116500735282898 0.024946002289652824
0.472482830286026 0.6434946060180664 -0.09154457598924637
0.4497238099575043 0.7141969203948975 0.003057018155232072
0.4671381711959839 0.7172324061393738 -0.005823283921927214
0.48729971051216125 0.7198930382728577 -0.011651100590825081
0.4739612936973572 0.769822359085083 0.02990105375647545
0.4800412654876709 0.7538844347000122 -0.0008702250197529793
0.48241370916366577 0.7431139945983887 -0.00819228496402502
0.4844256043434143 0.7332741022109985 -0.006658836733549833
0.4863261282444 0.7258457541465759 -0.004874402191489935
0.4463469684123993 0.7191740274429321 0.008429540321230888
0.44308972358703613 0.7216501235961914 0.006014300975948572
0.4382195770740509 0.7264819145202637 0.0054506040178239346
0.43345901370048523 0.7326500415802002 0.011096122674643993
0.4111851155757904 0.6855085492134094 -0.011024333536624908
0.20681115984916687 0.5597922801971436 0.2258644700050354
0.5167521834373474 0.6613415479660034 -0.07221243530511856
0.4343239963054657 0.7162063121795654 0.018414879217743874
0.4302988052368164 0.7173110246658325 0.017086507752537727
0.48561257123947144 0.6616592407226562 -0.04787566512823105
0.44623589515686035 0.6484911441802979 -0.029637737199664116
0.4818764328956604 0.6569544076919556 -0.050736162811517715
0.41285240650177 0.5615826845169067 -0.033721160143613815
0.3712095618247986 0.575250506401062 -0.02719399519264698
0.4347572922706604 0.6239795684814453 -0.04942655563354492
0.3002089262008667 0.3144826591014862 -0.05685317516326904
0.32497382164001465 0.35845887660980225 -0.07678688317537308
0.34773242473602295 0.4046342372894287 -0.09017430990934372
0.4183601140975952 0.7462009191513062 0.0317000187933445
0.46021974086761475 0.4159717261791229 -0.11049895733594894
0.451084166765213 0.3542487621307373 -0.11721377819776535
0.439089298248291 0.292115718126297 -0.11803260445594788
0.3372294306755066 0.5003042817115784 -0.02266993559896946
0.2716808617115021 0.518693745136261 0.013182944618165493
0.4417322278022766 0.497508704662323 -0.02648647129535675
0.3026791214942932 0.4657401144504547 -0.02466677315533161
0.45646932721138 0.5392654538154602 -0.05399412289261818
0.4575040340423584 0.6289490461349487 -0.09471376240253448
0.24206553399562836 0.5290352702140808 0.04175446182489395
0.29121172428131104 0.5382524728775024 -0.0020064637064933777
0.32614290714263916 0.5500045418739319 -0.018174368888139725
0.3761867880821228 0.548088550567627 -0.024585409089922905
0.41149672865867615 0.5397258996963501 -0.028215091675519943
0.43645986914634705 0.5313034057617188 -0.03505809232592583
0.4933295249938965 0.5160462856292725 -0.08501612395048141
0.2465631663799286 0.5774182677268982 0.04932727292180061
0.2788633704185486 0.4602857828140259 -0.017807690426707268
0.5070232152938843 0.6593005061149597 -0.1073431447148323
0.4424632787704468 0.5767444968223572 -0.04588451236486435
0.19974273443222046 0.4610667824745178 0.17244018614292145
0.45600470900535583 0.5218267440795898 -0.04040848836302757
0.4306345582008362 0.6218138933181763 -0.024504980072379112
0.31651926040649414 0.4786738157272339 -0.011173040606081486
0.45558494329452515 0.6114072799682617 -0.08939490467309952
0.2166336476802826 0.614112138748169 0.23393742740154266
0.440433144569397 0.48857808113098145 -0.024054672569036484
0.4769078195095062 0.6033365726470947 -0.11443254351615906
0.30199265480041504 0.7403914332389832 0.1229722872376442
0.2988983988761902 0.755822479724884 0.17491814494132996
0.2161780297756195 0.5704625248908997 0.1363748162984848
0.2668851613998413 0.7081723809242249 0.1403706669807434
0.23006412386894226 0.4344525933265686 0.05482656881213188
0.40703585743904114 0.8156595230102539 0.08265131711959839
0.5076344013214111 0.6603661179542542 -0.07139156758785248
0.41981881856918335 0.5902435779571533 -0.033834684640169144
0.24493898451328278 0.48592817783355713 0.03679342567920685
0.36241400241851807 0.49207526445388794 -0.03064020350575447
0.3842748999595642 0.4942987561225891 -0.034271690994501114
0.41881608963012695 0.7220374345779419 0.02274545468389988
0.25062552094459534 0.6205536723136902 0.07317504286766052
0.4478377103805542 0.8404272794723511 0.10352911800146103
0.37504544854164124 0.808215856552124 0.13230270147323608
0.3406408727169037 0.7869480848312378 0.15025316178798676
0.520879864692688 0.3573894500732422 -0.11535123735666275
0.4949256479740143 0.844173789024353 0.10349028557538986
0.40452998876571655 0.49319949746131897 -0.03350434824824333
0.42397019267082214 0.49038857221603394 -0.029208460822701454
0.4356941878795624 0.48955708742141724 -0.024510910734534264
0.25681158900260925 0.450894296169281 0.0031990576535463333
0.41816794872283936 0.46953773498535156 -0.03806082904338837
0.39587217569351196 0.461290568113327 -0.04511653631925583
0.373494029045105 0.46004849672317505 -0.04631743207573891
0.3515127897262573 0.4641372561454773 -0.04165186360478401
0.3381844758987427 0.4703688323497772 -0.03390195965766907
0.20694616436958313 0.4124337136745453 0.11577331274747849
0.3467339873313904 0.4881856441497803 -0.025251301005482674
0.5138594508171082 0.6768662333488464 -0.04120674729347229
0.43424057960510254 0.6771143674850464 -0.024194028228521347
0.4581138491630554 0.6424239873886108 -0.06664500385522842
0.4817360043525696 0.6771032810211182 -0.04203832149505615
0.5166021585464478 0.4791470170021057 -0.08358454704284668
0.33848243951797485 0.7697094082832336 0.11312698572874069
0.3718039393424988 0.7926748991012573 0.10011720657348633
0.448971688747406 0.8322022557258606 0.06863359361886978
0.26433372497558594 0.719265341758728 0.2059779167175293
0.43365922570228577 0.4816305935382843 -0.030367957428097725
0.4768102169036865 0.5539563298225403 -0.08330125361680984
0.4983825385570526 0.8357577323913574 0.06948056071996689
0.40995103120803833 0.827350378036499 0.11324402689933777
0.22410884499549866 0.618954062461853 0.14995026588439941
0.46472254395484924 0.7229089736938477 0.0003216892946511507
0.46136364340782166 0.7279108762741089 -0.002193705877289176
0.45791614055633545 0.7355109453201294 -0.0031527820974588394
0.454624742269516 0.7454029321670532 0.0032404083758592606
0.4433445334434509 0.7599905729293823 0.027160417288541794
0.43008244037628174 0.7145407795906067 0.011953207664191723
0.42364799976348877 0.7131906151771545 0.010476422496140003
0.41690242290496826 0.7102116942405701 0.008670218288898468
0.3916957378387451 0.6976413130760193 0.007467874325811863
0.2877931594848633 0.6396764516830444 0.031439974904060364
0.47512757778167725 0.5263484120368958 -0.06791669875383377
0.46083787083625793 0.47649964690208435 -0.04194449633359909
0.4446195363998413 0.47758370637893677 -0.03524378687143326
0.434400737285614 0.711652934551239 0.015172688290476799
0.2826639413833618 0.6852685809135437 0.08490241318941116
0.48390012979507446 0.4798130989074707 -0.07004081457853317
0.42649537324905396 0.778609573841095 0.046598587185144424
0.5200389623641968 0.5693466663360596 -0.11924833059310913
0.49584683775901794 0.5455825328826904 -0.10194432735443115
0.5187958478927612 0.5423270463943481 -0.10572054982185364
0.45971837639808655 0.5883922576904297 -0.07395155727863312
0.501022219657898 0.8182182312011719 0.04903574660420418
0.5028146505355835 0.793101966381073 0.041525766253471375
0.4639164209365845 0.7914599180221558 0.04193510115146637
0.37256065011024475 0.7381907105445862 0.05161169543862343
0.40861281752586365 0.636673092842102 -0.01638825610280037
0.3970572352409363 0.7606910467147827 0.05098070949316025
0.34717077016830444 0.6300860047340393 -0.013458812609314919
0.3837786316871643 0.6563735008239746 -0.008302341215312481
0.32476556301116943 0.660559892654419 0.013921729288995266
0.45433348417282104 0.8151799440383911 0.0494997501373291
0.4446350336074829 0.5968587398529053 -0.05397985875606537
0.3489207625389099 0.7512499094009399 0.07809393852949142
0.3807350695133209 0.7755839824676514 0.07504496723413467
0.3534070551395416 0.7133967280387878 0.042039792984724045
0.25663530826568604 0.6557261943817139 0.09551568329334259
0.3183317184448242 0.7127564549446106 0.06357761472463608
0.23793348670005798 0.6641411185264587 0.1565847098827362
0.3632845878601074 0.6803040504455566 0.00831390731036663
0.4595182240009308 0.5648137331008911 -0.06342116743326187
0.4653118848800659 0.6402443647384644 -0.09796303510665894
0.4487367272377014 0.6398544907569885 -0.06947844475507736
0.4772339165210724 0.6291362047195435 -0.11702281981706619
0.4428896903991699 0.45910125970840454 -0.05691816285252571
0.4036496579647064 0.44809311628341675 -0.06801556050777435
0.3687349557876587 0.4455912709236145 -0.06950074434280396
0.3388076722621918 0.44726574420928955 -0.06155706197023392
0.3163459599018097 0.45332881808280945 -0.047422491014003754
0.2964707612991333 0.48261919617652893 -0.002179195638746023
0.2120978832244873 0.5227375626564026 0.11553142964839935
0.3170413374900818 0.5158793926239014 -0.00988413579761982
0.3443428575992584 0.5245078206062317 -0.02009589597582817
0.3790014386177063 0.5253772139549255 -0.02615438587963581
0.4104013442993164 0.520930826663971 -0.028112277388572693
0.4335549473762512 0.5152369737625122 -0.028616605326533318
0.44983330368995667 0.5098644495010376 -0.03018571063876152
0.20224636793136597 0.5091507434844971 0.20645645260810852
0.44873157143592834 0.6428296566009521 -0.05597011372447014
0.4784647524356842 0.5782368779182434 -0.09544914960861206
0.48357880115509033 0.6456239819526672 -0.11380930989980698
0.49463698267936707 0.653450608253479 -0.0990799143910408
0.48235559463500977 0.6466121673583984 -0.10124066472053528
0.4543287754058838 0.6478258371353149 -0.04425762593746185
0.4993795156478882 0.6568661332130432 -0.10443095117807388
0.50004643201828 0.6580937504768372 -0.07324620336294174
0.4494563341140747 0.49169445037841797 -0.025202760472893715
0.46313005685806274 0.4991551637649536 -0.03605230897665024
0.47148397564888 0.5060446262359619 -0.049974389374256134
0.3304612636566162 0.47464436292648315 -0.025860659778118134
0.3188864290714264 0.4684694707393646 -0.027571439743041992
0.5391287803649902 0.5716320276260376 -0.1074143722653389
0.6756901741027832 0.48502665758132935 0.0205503161996603
0.536858856678009 0.6534157991409302 -0.07064083963632584
0.7615807056427002 0.38150954246520996 0.11463810503482819
0.6049380302429199 0.5060567259788513 -0.007011256646364927
0.6284042596817017 0.5071741342544556 -0.0022246544249355793
0.6515490412712097 0.5061277151107788 0.0063630566000938416
0.6824086904525757 0.49228474497795105 0.02769765444099903
0.5865117907524109 0.5018182992935181 -0.008699297904968262
0.6446505188941956 0.4569219946861267 -0.024969525635242462
0.6183678507804871 0.45759865641593933 -0.029102260246872902
0.667211651802063 0.46018683910369873 -0.013274164870381355
0.6812422871589661 0.4662695527076721 -0.0005600255099125206
0.7007879614830017 0.5051677823066711 0.0449058972299099
0.5810449123382568 0.793817400932312 0.07974790036678314
0.6847988367080688 0.47938060760498047 0.027819151058793068
0.762901246547699 0.47852885723114014 0.15718522667884827
0.7275528907775879 0.48790115118026733 0.06692764908075333
0.6246549487113953 0.605124831199646 -0.0007885150844231248
0.5406408309936523 0.7025018930435181 -0.033130817115306854
0.5341029763221741 0.7183661460876465 -0.01679009385406971
0.5660685896873474 0.7030430436134338 -0.013879182748496532
0.5807170867919922 0.7048635482788086 0.007783586159348488
0.5523419976234436 0.7158004641532898 -0.0046562813222408295
0.566150426864624 0.7135740518569946 0.014284323900938034
0.6024369597434998 0.7259880900382996 0.06024760752916336
0.5391835570335388 0.6504519581794739 -0.11865126341581345
0.543519139289856 0.6295773386955261 -0.13104574382305145
0.7194457054138184 0.4463045597076416 0.0011788163101300597
0.5799310803413391 0.5510085821151733 -0.02583935670554638
0.583745539188385 0.6299217343330383 -0.05332837253808975
0.5839757323265076 0.6160993576049805 -0.048506028950214386
0.6926795840263367 0.5952584743499756 0.03570716455578804
0.5418095588684082 0.5992239117622375 -0.1234595850110054
0.6694878935813904 0.43150073289871216 -0.054106973111629486
0.6998153924942017 0.43568259477615356 -0.029661178588867188
0.7459396123886108 0.3480944037437439 0.05192806199193001
0.5674274563789368 0.4486050605773926 -0.08100719004869461
0.5953382253646851 0.463745653629303 -0.02267300710082054
0.6209642887115479 0.7071266174316406 0.06149842217564583
0.7116210460662842 0.6666691303253174 0.28848516941070557
0.5669997930526733 0.6422634124755859 -0.04301519691944122
0.5487924814224243 0.6505482792854309 -0.045390207320451736
0.5970507860183716 0.7082568407058716 0.05618304759263992
0.5866294503211975 0.7084183096885681 0.0477011539041996
0.7136075496673584 0.41903242468833923 -0.021242141723632812
0.5820927023887634 0.6356889009475708 -0.037295229732990265
0.6265544891357422 0.4336676001548767 -0.07179512083530426
0.6332409977912903 0.41455477476119995 -0.08223962038755417
0.662060022354126 0.30409544706344604 -0.06690115481615067
0.7298977375030518 0.38275790214538574 0.008972885087132454
0.6456601619720459 0.3584967851638794 -0.07744825631380081
0.7338569164276123 0.4323732852935791 0.0201767235994339
0.7483996152877808 0.40803948044776917 0.06346360594034195
0.5381630063056946 0.7126712203025818 -0.02746088244020939
0.5586973428726196 0.7113863229751587 -0.009970218874514103
0.5735874772071838 0.709879994392395 0.009220787324011326
0.5609782934188843 0.6455628871917725 -0.03842100873589516
0.591696560382843 0.7085655331611633 0.051338281482458115
0.5830439329147339 0.7151561975479126 0.03827693685889244
0.5839902758598328 0.7074961066246033 0.04671815410256386
0.5594823360443115 0.6421076059341431 -0.08016963303089142
0.5607626438140869 0.7111936807632446 0.018353192135691643
0.5467025637626648 0.7150486707687378 0.0054513984359800816
0.5296453833580017 0.7187799215316772 -0.005379338748753071
0.5332691669464111 0.768402099609375 0.035855647176504135
0.5351961255073547 0.7526423931121826 0.005900540389120579
0.5355330109596252 0.7418538331985474 -0.0013102719094604254
0.5341761112213135 0.7321033477783203 0.00037158894701860845
0.5320302248001099 0.7247897386550903 0.001789785805158317
0.5646523833274841 0.7160690426826477 0.023795941844582558
0.5681306719779968 0.7185018658638 0.021547231823205948
0.5725967288017273 0.7232083082199097 0.021395990625023842
0.5760732889175415 0.7291502952575684 0.028200699016451836
0.6019102334976196 0.6820770502090454 0.011320997960865498
0.7446334362030029 0.5599813461303711 0.2909682095050812
0.5733808875083923 0.712679922580719 0.03740943223237991
0.5781407356262207 0.7135704159736633 0.03649929165840149
0.5413215160369873 0.6608703136444092 -0.042002227157354355
0.573694109916687 0.6468511819839478 -0.017037902027368546
0.5448641180992126 0.6560558080673218 -0.04476802423596382
0.6019834280014038 0.561149537563324 -0.010487054474651814
0.6403043866157532 0.574364423751831 0.0037925653159618378
0.5857080221176147 0.6225445866584778 -0.03179892525076866
0.7153483629226685 0.321604460477829 -0.01114457007497549
0.6974868774414062 0.3654061555862427 -0.036581482738256454
0.6795992851257324 0.41169601678848267 -0.05464918911457062
0.5844006538391113 0.742156445980072 0.05143718048930168
0.5781052112579346 0.4193134307861328 -0.09867341071367264
0.588584840297699 0.3569142818450928 -0.10280059278011322
0.5993961095809937 0.2950659394264221 -0.10180758684873581
0.6712911128997803 0.5010561943054199 0.018341679126024246
0.7253422141075134 0.519140899181366 0.0649426281452179
0.575333833694458 0.49764764308929443 -0.008114434778690338
0.7052450180053711 0.4690677225589752 0.022650357335805893
0.5659074783325195 0.5393471717834473 -0.03998098522424698
0.573881983757019 0.6279805302619934 -0.08135055750608444
0.746467113494873 0.5291951298713684 0.10040280222892761
0.709811270236969 0.5379244685173035 0.046614862978458405
0.6801179647445679 0.5494576692581177 0.022979456931352615
0.634793758392334 0.5477750897407532 0.006828377954661846
0.6022306680679321 0.5395199656486511 -0.004304502625018358
0.5801535844802856 0.5312851071357727 -0.01704980805516243
0.5391805768013 0.5162618160247803 -0.07918614894151688
0.7400716543197632 0.5758390426635742 0.1073346734046936
0.7251970171928406 0.4639635682106018 0.03428911790251732
0.5300226807594299 0.6588788032531738 -0.1044444888830185
0.5774184465408325 0.5764518976211548 -0.02878759056329727
0.7627837657928467 0.465023398399353 0.23920539021492004
0.5641870498657227 0.5219945311546326 -0.026482880115509033
0.5858758687973022 0.6202555894851685 -0.0071183135733008385
0.6908723711967468 0.4807746112346649 0.03368867561221123
0.5734586119651794 0.6109215021133423 -0.07573253661394119
0.731580376625061 0.611877977848053 0.2962740659713745
0.5762031078338623 0.4888952076435089 -0.004490825813263655
0.5590378046035767 0.603082001209259 -0.10457045584917068
0.6700369715690613 0.7334393858909607 0.16545841097831726
0.6611768007278442 0.7485240697860718 0.21858642995357513
0.7528734803199768 0.5695178508758545 0.20008490979671478
0.6994478702545166 0.7021243572235107 0.19081787765026093
0.7570861577987671 0.43905770778656006 0.11612433195114136
0.5816369652748108 0.8107534050941467 0.1025867685675621
0.5256664156913757 0.6600242257118225 -0.06957944482564926
0.5957744121551514 0.5893256068229675 -0.013110024854540825
0.7458423376083374 0.4881175756454468 0.0946059301495552
0.650728166103363 0.4928639233112335 0.0052200122736394405
0.6297767758369446 0.4949226975440979 -0.0024543378967791796
0.5880301594734192 0.7177069187164307 0.044142838567495346
0.7308547496795654 0.6175580024719238 0.1290488988161087
0.539521336555481 0.8377251625061035 0.11457551270723343
0.6000746488571167 0.8018179535865784 0.1602107137441635
0.6272898316383362 0.7793419361114502 0.18561743199825287
0.6098613739013672 0.49365273118019104 -0.006452448666095734
0.5914944410324097 0.49073663353919983 -0.005998388864099979
0.5805292129516602 0.48980480432510376 -0.0035600848495960236
0.7414189577102661 0.4550345242023468 0.0591476634144783
0.5974403619766235 0.4710094928741455 -0.014361475594341755
0.6184076070785522 0.4633449912071228 -0.017350437119603157
0.6406707763671875 0.462253212928772 -0.013913612812757492
0.6619021892547607 0.46633943915367126 -0.004961586091667414
0.6739040613174438 0.47243204712867737 0.005334232468158007
0.7667586803436279 0.4181526005268097 0.18127593398094177
0.6652475595474243 0.4891246557235718 0.013830815441906452
0.5833932161331177 0.6744101643562317 -0.007054068148136139
0.5688722729682922 0.6408623456954956 -0.054788172245025635
0.5437326431274414 0.6759151816368103 -0.03505268692970276
0.6385825276374817 0.7625369429588318 0.14741753041744232
0.610410749912262 0.7859811186790466 0.12702523171901703
0.5451335310935974 0.8297697305679321 0.0792190283536911
0.6878089308738708 0.71315997838974 0.2577686011791229
0.5830708742141724 0.4821287989616394 -0.009079182520508766
0.5537277460098267 0.5539853572845459 -0.07377136498689651
0.5725064277648926 0.8224387168884277 0.13350804150104523
0.7407546043395996 0.6160805821418762 0.21095028519630432
0.5504047870635986 0.7206848859786987 0.011973369866609573
0.5537929534912109 0.7256180644035339 0.009848546236753464
0.5565688610076904 0.7331156730651855 0.009461658075451851
0.5581241846084595 0.7429289221763611 0.01627720333635807
0.5616168975830078 0.757142186164856 0.04140932485461235
0.5783786773681641 0.7105419039726257 0.031779639422893524
0.585395097732544 0.7088800072669983 0.03221701458096504
0.5920870304107666 0.7056392431259155 0.03179410472512245
0.616071343421936 0.6931194067001343 0.034806787967681885
0.7042139768600464 0.636303186416626 0.07812677323818207
0.5523055791854858 0.5266714692115784 -0.05815432593226433
0.561729371547699 0.47751033306121826 -0.029045796021819115
0.5744090676307678 0.47873714566230774 -0.017086440697312355
0.5729473233222961 0.7080494165420532 0.03414544090628624
0.6973833441734314 0.6802383661270142 0.1320742815732956
0.5451191663742065 0.4807254672050476 -0.06263503432273865
0.5722163915634155 0.7748363614082336 0.06227681413292885
0.5395882725715637 0.5457507371902466 -0.09689942002296448
0.5668196082115173 0.588156521320343 -0.06138422712683678
0.5390947461128235 0.7895168662071228 0.049233101308345795
0.6221714615821838 0.7327848672866821 0.07924560457468033
0.6049468517303467 0.6346480250358582 0.0052331602200865746
0.5986608862876892 0.7557377219200134 0.07288230210542679
0.6603960990905762 0.6276251673698425 0.019815562292933464
0.6262037754058838 0.6537356972694397 0.018421601504087448
0.6745310425758362 0.6569154262542725 0.051669035106897354
0.5450350642204285 0.8128960132598877 0.05925982818007469
0.5764760375022888 0.5962977409362793 -0.038056131452322006
0.6374602317810059 0.7448523044586182 0.11020461469888687
0.608799397945404 0.7697930932044983 0.0997060015797615
0.6426811814308167 0.708114743232727 0.07558353245258331
0.7196237444877625 0.6516175866127014 0.14874686300754547
0.6682723164558411 0.7069141268730164 0.10299991816282272
0.7247393131256104 0.6597890853881836 0.2141469269990921
0.6410138607025146 0.6764215230941772 0.03966017812490463
0.5652303695678711 0.564797043800354 -0.04968938231468201
0.5669282674789429 0.6388636827468872 -0.08574026077985764
0.5775864124298096 0.6383219361305237 -0.05551173537969589
0.5603999495506287 0.6285834312438965 -0.1072169691324234
0.5816850662231445 0.4611007571220398 -0.03944928199052811
0.6207342147827148 0.4516146779060364 -0.04305478185415268
0.6541694402694702 0.4501988887786865 -0.03712253272533417
0.6806573271751404 0.45224428176879883 -0.022253841161727905
0.6978791356086731 0.45792073011398315 -0.00319083989597857
0.7065427899360657 0.4845822751522064 0.045665107667446136
0.7609196901321411 0.5236499309539795 0.18078060448169708
0.6875602006912231 0.5162456035614014 0.03397226706147194
0.663635790348053 0.5246435403823853 0.01799583062529564
0.6317647695541382 0.5254687666893005 0.005280122626572847
0.6026611924171448 0.5209410190582275 -0.0034113090950995684
0.5818975567817688 0.5153325796127319 -0.009859886020421982
0.5679430365562439 0.5099992752075195 -0.01500779390335083
0.7531574964523315 0.5113827586174011 0.2729061245918274
0.5750330090522766 0.6412040591239929 -0.04223782569169998
0.5547979474067688 0.5782472491264343 -0.08569372445344925
0.5537577867507935 0.6446959972381592 -0.10612113773822784
0.5399175882339478 0.6525965929031372 -0.09447915107011795
0.5520502328872681 0.6453343629837036 -0.09338192641735077
0.5681974291801453 0.6462604999542236 -0.03281187638640404
0.536607027053833 0.6562618613243103 -0.10066618770360947
0.5323110222816467 0.6574879288673401 -0.0701790302991867
0.568771481513977 0.4921351969242096 -0.008999699726700783
0.557283341884613 0.49954092502593994 -0.023886773735284805
0.5522335171699524 0.506443977355957 -0.04023991897702217
0.6803591251373291 0.47652480006217957 0.015247383154928684
0.6911981105804443 0.47159841656684875 0.01623767614364624
