ply
format ascii 1.0
element vertex 468
property float x
property float y
property float z
end_header
0.484084814786911 0.6774604320526123 -0.07398950308561325
0.4714546203613281 0.60357266664505 -0.13264226913452148
0.48207759857177734 0.6277626752853394 -0.07210487872362137
0.4595883786678314 0.5269656777381897 -0.09326688945293427
0.4706038236618042 0.5789005756378174 -0.14020246267318726
0.47407156229019165 0.5479989647865295 -0.12957783043384552
0.48721715807914734 0.47567784786224365 -0.06304283440113068
0.34166139364242554 0.4742955267429352 0.06901632249355316
0.49237117171287537 0.4346257746219635 -0.04665902256965637
0.49243587255477905 0.4056640863418579 -0.0501319020986557
0.4990968704223633 0.27400267124176025 -0.016580931842327118
0.4849470257759094 0.6895475387573242 -0.07111332565546036
0.4871668219566345 0.6992375254631042 -0.06342607736587524
0.48998183012008667 0.7032628655433655 -0.052836377173662186
0.49155718088150024 0.7170130014419556 -0.04847816005349159
0.49072757363319397 0.7272924184799194 -0.052723079919815063
0.49069952964782715 0.7407033443450928 -0.0584699772298336
0.49177971482276917 0.7561020255088806 -0.05500034615397453
0.4962182343006134 0.7825121879577637 -0.03182123601436615
0.4746409058570862 0.6166226863861084 -0.12072999030351639
0.45708614587783813 0.615562379360199 -0.08429465442895889
0.27920228242874146 0.39301371574401855 0.20243550837039948
0.4053395390510559 0.4902166426181793 0.034256722778081894
0.3834119439125061 0.49232134222984314 0.03917156904935837
0.36192789673805237 0.49234873056411743 0.048824578523635864
0.3331835865974426 0.4830492436885834 0.0737186074256897
0.42307427525520325 0.48448553681373596 0.0312834195792675
0.3735806941986084 0.44562968611717224 0.028376979753375053
0.3967317044734955 0.44597217440605164 0.024313203990459442
0.3519790768623352 0.44815725088119507 0.03967323526740074
0.3381541073322296 0.4540788531303406 0.05241473764181137
0.3161274194717407 0.4979979395866394 0.08745501935482025
0.4129139184951782 0.8198609352111816 0.010229798965156078
0.334155797958374 0.4714794456958771 0.07806450873613358
0.2705989480018616 0.4929749667644501 0.2098357081413269
0.29498448967933655 0.4867098331451416 0.11631202697753906
0.37742748856544495 0.5853323340415955 0.006806194316595793
0.4538980722427368 0.6733381152153015 -0.0651082992553711
0.4617478549480438 0.6988910436630249 -0.05453190952539444
0.42604687809944153 0.6813156604766846 -0.04462439939379692
0.41085460782051086 0.6928274631500244 -0.02072886750102043
0.44166821241378784 0.7003709673881531 -0.03891908749938011
0.4279453754425049 0.7043567299842834 -0.017400428652763367
0.3933398723602295 0.7356693744659424 0.021806517615914345
0.4521660804748535 0.6033036708831787 -0.12789951264858246
0.44872382283210754 0.5795395970344543 -0.134102463722229
0.3035971224308014 0.43587440252304077 0.06290940195322037
0.42485588788986206 0.5276351571083069 -0.003435683436691761
0.40667104721069336 0.5959124565124512 -0.05684097111225128
0.407470703125 0.5835093259811401 -0.048202842473983765
0.3160727024078369 0.5838210582733154 0.05019155889749527
0.45340800285339355 0.5507890582084656 -0.1176181435585022
0.354087233543396 0.4152923822402954 0.007402927614748478
0.32324713468551636 0.4217126965522766 0.03272822126746178
0.294255793094635 0.3506619930267334 0.15039081871509552
0.44965583086013794 0.43249425292015076 -0.030164184048771858
0.4173506200313568 0.44983530044555664 0.028457051143050194
0.37511882185935974 0.7115678787231445 0.03130458667874336
0.30369138717651367 0.7161500453948975 0.26106753945350647
0.42497754096984863 0.6094886064529419 -0.05081804841756821
0.4445619583129883 0.6170346140861511 -0.06008916720747948
0.39871013164520264 0.7118021249771118 0.02702346444129944
0.4109358787536621 0.7104784846305847 0.018458979204297066
0.31253910064697266 0.4063769578933716 0.04874451458454132
0.40851539373397827 0.60553377866745 -0.04402609542012215
0.39619410037994385 0.4179999828338623 -0.013784284703433514
0.39101868867874146 0.39796727895736694 -0.01731729507446289
0.37126487493515015 0.29106125235557556 0.03940286859869957
0.3038848340511322 0.37614697217941284 0.09342362731695175
0.3826442062854767 0.3398475646972656 0.010314436629414558
0.293340802192688 0.4258880019187927 0.08796611428260803
0.28595489263534546 0.4097421169281006 0.14271113276481628
0.4568401277065277 0.6880537271499634 -0.06225740909576416
0.43418121337890625 0.6930159330368042 -0.0429210439324379
0.41909658908843994 0.6990717053413391 -0.021165210753679276
0.4316380023956299 0.6134514808654785 -0.04883696883916855
0.4047935903072357 0.7114205360412598 0.022257015109062195
0.41344618797302246 0.7172446250915527 0.004419964738190174
0.4145517349243164 0.7095811367034912 0.016950296238064766
0.4329816699028015 0.6031496524810791 -0.08601224422454834
0.4346137046813965 0.7033324241638184 -0.014271232299506664
0.4486044645309448 0.7020347118377686 -0.030167682096362114
0.46731036901474 0.7026911973953247 -0.04436327889561653
0.4640503227710724 0.7808243036270142 -0.025348465889692307
0.46207430958747864 0.753636360168457 -0.047137659043073654
0.4626751244068146 0.7378186583518982 -0.04967415705323219
0.46477970480918884 0.7242169976234436 -0.04354060813784599
0.46783342957496643 0.7158218622207642 -0.039231155067682266
0.4340723752975464 0.7134936451911926 -0.010247099213302135
0.42977648973464966 0.7166363000869751 -0.014605918899178505
0.42399317026138306 0.7234433889389038 -0.017301661893725395
0.41944801807403564 0.7322770357131958 -0.012118631042540073
0.3917490839958191 0.6679937839508057 -0.010118954814970493
0.2838907837867737 0.6009999513626099 0.3073941767215729
0.4784068465232849 0.6217228174209595 -0.08919880539178848
0.42543262243270874 0.7129561901092529 0.006435602903366089
0.41957420110702515 0.7137882709503174 0.0037528725806623697
0.4522552490234375 0.6272489428520203 -0.06119879335165024
0.4186685383319855 0.6193872690200806 -0.028938276693224907
0.44840967655181885 0.6225133538246155 -0.06158864125609398
0.40208643674850464 0.5406311750411987 0.009306389838457108
0.3660440444946289 0.556123673915863 0.021580146625638008
0.40568190813064575 0.5936216115951538 -0.03392694145441055
0.3231164515018463 0.3160022497177124 0.09263898432254791
0.33499613404273987 0.3520093560218811 0.05047101527452469
0.3466542363166809 0.39579933881759644 0.015867380425333977
0.4112873375415802 0.7523100972175598 0.005991119425743818
0.44112420082092285 0.4023461639881134 -0.0384611040353775
0.4337095618247986 0.3348909616470337 -0.017510898411273956
0.4275875687599182 0.2780589759349823 0.002556206425651908
0.3435673713684082 0.4895350933074951 0.062302205711603165
0.2942153513431549 0.5144810676574707 0.1053386926651001
0.43378782272338867 0.4785388112068176 0.03282967954874039
0.31423133611679077 0.46034520864486694 0.07752205431461334
0.439950168132782 0.5127938985824585 -0.015511595644056797
0.41798365116119385 0.5883402824401855 -0.0832488164305687
0.2751995623111725 0.5319923758506775 0.1365983635187149
0.30587372183799744 0.5284313559532166 0.08073685318231583
0.33147674798965454 0.5355190634727478 0.05312098562717438
0.37319234013557434 0.5315650105476379 0.03331592679023743
0.4047090411186218 0.521977424621582 0.02263658680021763
0.4276909828186035 0.5111256837844849 0.01121129747480154
0.46595460176467896 0.4821232557296753 -0.048743896186351776
0.27544426918029785 0.5793561339378357 0.1283191740512848
0.298197478055954 0.459206223487854 0.09228769689798355
0.4629591107368469 0.6158175468444824 -0.11717108637094498
0.42256778478622437 0.5497494339942932 -0.01432156190276146
0.27669399976730347 0.4946926236152649 0.29415133595466614
0.4438740611076355 0.4987495541572571 0.004399496130645275
0.40699902176856995 0.5952442288398743 -0.007984363473951817
0.3265804648399353 0.47261878848075867 0.08378726243972778
0.4196087718009949 0.5730136632919312 -0.07287599891424179
0.29066187143325806 0.6573477983474731 0.2914060354232788
0.43357914686203003 0.4709014594554901 0.04030490294098854
0.4357829689979553 0.5596213340759277 -0.09974990785121918
0.33095258474349976 0.7643342018127441 0.1217372715473175
0.34169596433639526 0.794980525970459 0.16273340582847595
0.26897484064102173 0.5913044810295105 0.21916644275188446
0.3070119619369507 0.7338854074478149 0.158371239900589
0.2780372202396393 0.44751155376434326 0.18379271030426025
0.4109114408493042 0.8460448384284973 0.02350183017551899
0.4688125252723694 0.6207956671714783 -0.08613520860671997
0.40377289056777954 0.5666378736495972 -0.00240608723834157
0.28087714314460754 0.49181225895881653 0.14512652158737183
0.36372220516204834 0.4777907133102417 0.05135254189372063
0.3832693099975586 0.4786403477191925 0.042258236557245255
0.4077966809272766 0.7220988273620605 0.00942197348922491
0.2804126441478729 0.6273950934410095 0.13299345970153809
0.45481646060943604 0.8829888105392456 0.020988518372178078
0.3935434818267822 0.8481408953666687 0.0841728076338768
0.3695719242095947 0.8259012699127197 0.11920259892940521
0.49515607953071594 0.3345975875854492 -0.03380119428038597
0.5046164393424988 0.8902243375778198 0.004961089696735144
0.40162932872772217 0.47705796360969543 0.03748522698879242
0.41839468479156494 0.4738231301307678 0.03768943250179291
0.4285297393798828 0.4719794690608978 0.040671803057193756
0.28675785660743713 0.4550318717956543 0.12045969814062119
0.4163002669811249 0.464024156332016 0.03504979610443115
0.39831480383872986 0.4628973603248596 0.03248804062604904
0.37993887066841125 0.4625858664512634 0.03718789294362068
0.36076217889785767 0.4646880626678467 0.046425268054008484
0.3480027914047241 0.4679320454597473 0.056737691164016724
0.2743840515613556 0.437833309173584 0.254880428314209
0.3506534695625305 0.4761030077934265 0.0609171986579895
0.48373332619667053 0.6439419984817505 -0.06662129610776901
0.40938299894332886 0.6527562141418457 -0.028299015015363693
0.4230172336101532 0.6062027812004089 -0.060641251504421234
0.45090222358703613 0.6452254056930542 -0.05918367579579353
0.49183520674705505 0.45402592420578003 -0.04450491443276405
0.3576117157936096 0.795906126499176 0.08987822383642197
0.3836260437965393 0.8207429647445679 0.05792967975139618
0.44846078753471375 0.8641347885131836 -0.008494400419294834
0.3212308883666992 0.762012779712677 0.21419484913349152
0.4280439019203186 0.46726515889167786 0.038067031651735306
0.4486565589904785 0.5180851817131042 -0.05290690064430237
0.49985674023628235 0.870686948299408 -0.02315392903983593
0.4200916290283203 0.867967426776886 0.0482814684510231
0.2762013077735901 0.6434022784233093 0.21162284910678864
0.4485568404197693 0.7143945097923279 -0.02516447938978672
0.44426220655441284 0.720596432685852 -0.029764311388134956
0.4401574730873108 0.7310816049575806 -0.03298487514257431
0.4374924898147583 0.7448476552963257 -0.02930344268679619
0.4338122010231018 0.7684427499771118 -0.011109516955912113
0.4171507954597473 0.7076566219329834 0.0017820330103859305
0.408829927444458 0.7057083249092102 0.0032097529619932175
0.4013722836971283 0.7020872831344604 0.00433770939707756
0.3786589503288269 0.6876683235168457 0.012356019578874111
0.3027069568634033 0.6369460225105286 0.0771535113453865
0.45367079973220825 0.495978981256485 -0.030391568318009377
0.4498690962791443 0.45784974098205566 0.016903473064303398
0.43695876002311707 0.4606308043003082 0.030822305008769035
0.42392563819885254 0.7047736644744873 0.003847436746582389
0.3072078824043274 0.6964752674102783 0.11229722201824188
0.4649462401866913 0.4580657482147217 -0.02059939131140709
0.42332279682159424 0.7934590578079224 0.001049836864694953
0.4787512421607971 0.5231653451919556 -0.10616331547498703
0.46233388781547546 0.5053151249885559 -0.0734889805316925
0.4829633831977844 0.4998771846294403 -0.08327213674783707
0.43074125051498413 0.5539495944976807 -0.05077941343188286
0.4971438944339752 0.8433769941329956 -0.035800375044345856
0.49644914269447327 0.8108081817626953 -0.03408408537507057
0.4570103585720062 0.8078345060348511 -0.02249031700193882
0.37445712089538574 0.7466315627098083 0.03750790283083916
0.39099541306495667 0.6147239208221436 0.0008106810855679214
0.397289514541626 0.7733967304229736 0.02065383456647396
0.3434838652610779 0.6135520935058594 0.021618325263261795
0.3719216585159302 0.6394050121307373 0.00933805201202631
0.3281571567058563 0.6529244184494019 0.044406771659851074
0.4491759240627289 0.8385263681411743 -0.020643316209316254
0.4192379415035248 0.5668153166770935 -0.03086009807884693
0.3590359687805176 0.7666223049163818 0.06226778030395508
0.38653796911239624 0.7947086095809937 0.03876243159174919
0.35523635149002075 0.7159064412117004 0.04558619484305382
0.2888158857822418 0.6687830686569214 0.13855767250061035
0.3319186568260193 0.7208653688430786 0.074012890458107
0.2876664102077484 0.6913537979125977 0.19655011594295502
0.35712364315986633 0.6711409091949463 0.02366800606250763
0.43623417615890503 0.5337903499603271 -0.03214947134256363
0.4247828722000122 0.5990790724754333 -0.08991966396570206
0.41326048970222473 0.6038910150527954 -0.06225903704762459
0.4317527115345001 0.5829882621765137 -0.10987960547208786
0.43330836296081543 0.44400399923324585 0.013492452912032604
0.3973393440246582 0.4352213740348816 0.0132001843303442
0.3654528558254242 0.4331168830394745 0.019212324172258377
0.33901119232177734 0.43636882305145264 0.034343160688877106
0.3217043876647949 0.4450364410877228 0.053898949176073074
0.3126336336135864 0.47933733463287354 0.09518229961395264
0.2666189670562744 0.5415648818016052 0.21708840131759644
0.3269307017326355 0.5063960552215576 0.0736144483089447
0.3485989570617676 0.511607825756073 0.0541495755314827
0.3778376579284668 0.5107269883155823 0.03914289548993111
0.40600329637527466 0.5052648782730103 0.031243210658431053
0.4273151755332947 0.49741193652153015 0.024098558351397514
0.4413831830024719 0.4898207187652588 0.02046719379723072
0.2815020680427551 0.5478633046150208 0.3100728690624237
0.4160873293876648 0.609534740447998 -0.0503767654299736
0.4439806342124939 0.5383644700050354 -0.07249177247285843
0.4379314184188843 0.6001240015029907 -0.11271235346794128
0.4536299705505371 0.6122106909751892 -0.10598811507225037
0.44052889943122864 0.6043826341629028 -0.10057862102985382
0.4240122139453888 0.6161656975746155 -0.04402167722582817
0.45642778277397156 0.6141993999481201 -0.11320223659276962
0.4617175757884979 0.6191565990447998 -0.0851624459028244
0.4409303069114685 0.4721100926399231 0.0335635170340538
0.45224082469940186 0.4778129458427429 0.014678220264613628
0.45622390508651733 0.48156172037124634 -0.006258057430386543
0.3401203155517578 0.4701850712299347 0.06595243513584137
0.3270188868045807 0.46133631467819214 0.06887836754322052
0.5006289482116699 0.5272331833839417 -0.10164446383714676
0.6789765954017639 0.4763542413711548 0.007797309197485447
0.5038430094718933 0.6158660054206848 -0.09069554507732391
0.7971510887145996 0.3892461359500885 0.1082708016037941
0.6059514880180359 0.4903241693973541 -0.00549732381477952
0.630011796951294 0.49294719099998474 -0.00830559991300106
0.6547797322273254 0.4934747815132141 -0.006024458445608616
0.6918680667877197 0.4850900173187256 0.008522395975887775
0.586295485496521 0.4845183491706848 -5.5345266446238384e-05
0.6383134126663208 0.4459685683250427 -0.02108101360499859
0.6137166023254395 0.44578155875205994 -0.014671054668724537
0.662520706653595 0.4492974877357483 -0.01761472411453724
0.6799517869949341 0.4555044174194336 -0.009487290866672993
0.7138628959655762 0.4994995594024658 0.017159825190901756
0.5978100895881653 0.8278664350509644 -0.018624048680067062
0.6895855665206909 0.47357815504074097 0.013768650591373444
0.8049997687339783 0.494113028049469 0.11334622651338577
0.7463580965995789 0.4880072772502899 0.03738417103886604
0.6211981177330017 0.5870507955551147 -0.03321744501590729
0.5180686116218567 0.673717737197876 -0.07597533613443375
0.517666220664978 0.6993401646614075 -0.06462405622005463
0.5566118955612183 0.683064877986908 -0.06673271209001541
0.5828241109848022 0.6948021650314331 -0.05117020383477211
0.5455271601676941 0.7017384171485901 -0.058782413601875305
0.5678882598876953 0.7058088779449463 -0.04359308257699013
0.620123028755188 0.7399126291275024 -0.01711423136293888
0.49334800243377686 0.6032525300979614 -0.13325105607509613
0.49573439359664917 0.5796395540237427 -0.14052096009254456
0.7216533422470093 0.437154620885849 -0.010579299181699753
0.570561408996582 0.5280781984329224 -0.029525861144065857
0.5663711428642273 0.5967003703117371 -0.08116608113050461
0.5695067644119263 0.5842617750167847 -0.07336219400167465
0.7019929885864258 0.5865494608879089 -0.016254203394055367
0.49756526947021484 0.5509744882583618 -0.12579816579818726
0.6510301828384399 0.4157543182373047 -0.04295629635453224
0.6909577250480652 0.42285865545272827 -0.03085610270500183
0.7639772891998291 0.3456401824951172 0.065948486328125
0.5407707095146179 0.4323328733444214 -0.046810779720544815
0.5924233198165894 0.44955694675445557 -0.003293776884675026
0.6401066184043884 0.7154902815818787 -0.014866123907268047
0.7961706519126892 0.7277439832687378 0.17330209910869598
0.5481518507003784 0.6102023124694824 -0.06865232437849045
0.5261130332946777 0.6176813244819641 -0.06899198889732361
0.6129265427589417 0.7142332792282104 -0.013600971549749374
0.6014460921287537 0.7123112082481384 -0.017544090747833252
0.7074459791183472 0.40686658024787903 -0.019148746505379677
0.5705941915512085 0.6066620349884033 -0.06786051392555237
0.6007775068283081 0.41802406311035156 -0.04809379205107689
0.6052473783493042 0.3973768651485443 -0.05274008587002754
0.6458671689033508 0.2863847315311432 -0.00833709817379713
0.7336866855621338 0.3739474415779114 0.018305625766515732
0.6217660903930664 0.3371454179286957 -0.03071022219955921
0.7408354878425598 0.42623817920684814 0.008870944380760193
0.7680959701538086 0.408260703086853 0.05688190460205078
0.5179768800735474 0.6885272860527039 -0.07309423387050629
0.5499420762062073 0.6944394707679749 -0.06399300694465637
0.5748171210289001 0.700802206993103 -0.0494297556579113
0.5426557660102844 0.6142649054527283 -0.06336963921785355
0.6068484783172607 0.7135276794433594 -0.015672592446208
0.5936847925186157 0.7192433476448059 -0.02816244773566723
0.5992249250411987 0.7114884257316589 -0.0181846022605896
0.5287434458732605 0.6033838987350464 -0.10251571983098984
0.5648770332336426 0.704447329044342 -0.039174407720565796
0.5425294041633606 0.7029823660850525 -0.04861831292510033
0.5171636939048767 0.7028784155845642 -0.05460105463862419
0.531376302242279 0.78260338306427 -0.03536992892622948
0.5252280235290527 0.7547892332077026 -0.05867275968194008
0.5224032402038574 0.7389107942581177 -0.06126657873392105
0.5204194784164429 0.725131630897522 -0.055190276354551315
0.5190003514289856 0.7167150974273682 -0.05045728757977486
0.5674534440040588 0.7151541709899902 -0.03548479825258255
0.5709807872772217 0.718346357345581 -0.03983284905552864
0.5766664743423462 0.7254847884178162 -0.04372707009315491
0.5820738077163696 0.7348093390464783 -0.03998560830950737
0.6039230227470398 0.6701998710632324 -0.04451275244355202
0.8233295679092407 0.6064575910568237 0.2086595594882965
0.5825005769729614 0.7147597670555115 -0.024752924218773842
0.5873236060142517 0.7157163023948669 -0.02758960612118244
0.5170788764953613 0.6279764771461487 -0.07002690434455872
0.5639939904212952 0.6208682656288147 -0.04798690229654312
0.5213674902915955 0.6231561899185181 -0.07025010138750076
0.5977252125740051 0.5413747429847717 -0.02568819373846054
0.6391112804412842 0.5573928952217102 -0.02586510218679905
0.5764769315719604 0.5945751667022705 -0.059956420212984085
0.7146929502487183 0.310432106256485 0.023893505334854126
0.686013400554657 0.34932440519332886 -0.009394238702952862
0.6606117486953735 0.39558660984039307 -0.037507154047489166
0.597026526927948 0.756783127784729 -0.026403164491057396
0.5477375984191895 0.4016117453575134 -0.05609946697950363
0.561094343662262 0.3332419991493225 -0.038516826927661896
0.5767831802368164 0.2752964198589325 -0.021696705371141434
0.6778069138526917 0.49122077226638794 0.0007555062766186893
0.7425705194473267 0.5160261392593384 0.02692236378788948
0.574184775352478 0.4787047505378723 0.0049806819297373295
0.7129271030426025 0.4619321823120117 0.00661645969375968
0.551405131816864 0.5130412578582764 -0.036432135850191116
0.5455056428909302 0.5887465476989746 -0.10275533050298691
0.7741148471832275 0.5345153212547302 0.04802049323916435
0.7212034463882446 0.5299121141433716 0.007149483542889357
0.6853755712509155 0.536665141582489 -0.009425456635653973
0.6359055042266846 0.5323083996772766 -0.014505583792924881
0.600287139415741 0.5222980380058289 -0.013601159676909447
0.5739330053329468 0.5114248394966125 -0.01585681177675724
0.5128653049468994 0.4821127951145172 -0.05754167586565018
0.7702364921569824 0.5836077332496643 0.04019208997488022
0.7365193963050842 0.4602561295032501 0.014462499879300594
0.48793017864227295 0.6158613562583923 -0.12147887796163559
0.5665876269340515 0.5504257082939148 -0.03924168646335602
0.8253487348556519 0.4950380325317383 0.1924653798341751
0.5539436936378479 0.49883773922920227 -0.016621343791484833
0.5818895697593689 0.5963207483291626 -0.033928751945495605
0.7001903057098389 0.4746769964694977 0.016030672937631607
0.5491008758544922 0.5735173225402832 -0.09290529042482376
0.8151936531066895 0.6658565402030945 0.1972021609544754
0.5765962600708008 0.4713924527168274 0.011295495554804802
0.5231185555458069 0.5600905418395996 -0.11416342854499817
0.7227041721343994 0.7783771753311157 0.05678693950176239
0.729112446308136 0.8115185499191284 0.09645526856184006
0.8068634271621704 0.5968616008758545 0.1230684146285057
0.7592881917953491 0.7468268871307373 0.08195103704929352
0.787928581237793 0.4467424154281616 0.09170352667570114
0.6055039167404175 0.8559057712554932 -0.007436154875904322
0.4886230230331421 0.6207267045974731 -0.0888110101222992
0.5905673503875732 0.5675989985466003 -0.033427026122808456
0.7716399431228638 0.4932892918586731 0.05818551778793335
0.6511249542236328 0.47897613048553467 -0.0025552683509886265
0.6291314959526062 0.47917914390563965 -0.005347143858671188
0.6005648970603943 0.724629819393158 -0.025258978828787804
0.7692557573318481 0.6338592171669006 0.048227839171886444
0.5588589310646057 0.8890453577041626 0.0035088963340967894
0.645042896270752 0.8622307777404785 0.041421078145504
0.6840108633041382 0.8419963717460632 0.06561150401830673
0.6098909974098206 0.47719573974609375 -0.0033097246196120977
0.5923951864242554 0.4737209379673004 0.002706050407141447
0.5817888975143433 0.4723472595214844 0.009287316352128983
0.7588359117507935 0.4554100036621094 0.036202989518642426
0.5963175892829895 0.46466293931007385 -0.0006056185811758041
0.6164546012878418 0.46375611424446106 -0.009027082473039627
0.6352140307426453 0.46426066756248474 -0.011333565227687359
0.6559244394302368 0.4667081832885742 -0.008727974258363247
0.6708884239196777 0.47002261877059937 -0.0024464838206768036
0.8157804012298584 0.43573397397994995 0.155299112200737
0.6669557094573975 0.47783130407333374 0.002581909764558077
0.5770565271377563 0.6546165347099304 -0.054350364953279495
0.5470147132873535 0.6066607236862183 -0.07761199027299881
0.5212334990501404 0.6459601521492004 -0.07000405341386795
0.6838823556900024 0.8096828460693359 0.037262074649333954
0.6469799280166626 0.834131121635437 0.016213567927479744
0.5558841228485107 0.8694074153900146 -0.025355245918035507
0.7655825018882751 0.7765558958053589 0.13563673198223114
0.5826432108879089 0.4680387079715729 0.006307844538241625
0.5272743105888367 0.5184853076934814 -0.06680703908205032
0.603834867477417 0.8785510063171387 0.016593104228377342
0.8012979626655579 0.6516959071159363 0.12003150582313538
0.5446211099624634 0.7157211899757385 -0.044519562274217606
0.5482103228569031 0.7219482660293579 -0.04958294704556465
0.5521264672279358 0.7325989007949829 -0.05393010750412941
0.5561987161636353 0.7467877864837646 -0.05107627436518669
0.5679283142089844 0.7718945145606995 -0.0349380187690258
0.5883635878562927 0.7094258069992065 -0.030366646125912666
0.5953779816627502 0.707848846912384 -0.03180411830544472
0.6028934121131897 0.7043395638465881 -0.032835617661476135
0.6272299289703369 0.6905546188354492 -0.030658628791570663
0.7286127805709839 0.6425166726112366 0.005263352766633034
0.5317429304122925 0.4961574375629425 -0.045218370854854584
0.5523541569709778 0.4579054117202759 -0.0015512625686824322
0.5705893635749817 0.46071457862854004 0.0038343758787959814
0.5840485095977783 0.7062442302703857 -0.02730913646519184
0.7395431995391846 0.7056455612182617 0.03990691900253296
0.5258238315582275 0.45786845684051514 -0.031584423035383224
0.584125816822052 0.799528956413269 -0.024346549063920975
0.506806492805481 0.5054779052734375 -0.08104754984378815
0.5453553199768066 0.5545681715011597 -0.06893116980791092
0.5406935214996338 0.8112013339996338 -0.03451456502079964
0.6456266641616821 0.7536531686782837 -0.006758788600564003
0.6037195324897766 0.6165823340415955 -0.03195634111762047
0.618000864982605 0.7806326150894165 -0.014502988196909428
0.664029598236084 0.6166672706604004 -0.029912762343883514
0.6292762756347656 0.6420953869819641 -0.03165809065103531
0.69048672914505 0.657992959022522 -0.014582552015781403
0.5498366951942444 0.8426612615585327 -0.03661239147186279
0.5643759369850159 0.5674973130226135 -0.053909193724393845
0.6706140041351318 0.7770835161209106 0.012222843244671822
0.6354236602783203 0.8049865961074829 0.0002853967307601124
0.6658338308334351 0.7219059467315674 -0.007545758504420519
0.7662339210510254 0.6774726510047913 0.057587072253227234
0.7022789716720581 0.7301843762397766 0.012947446666657925
0.7887582182884216 0.702159583568573 0.10978786647319794
0.6538233757019043 0.6746705770492554 -0.025202693417668343
0.5467301607131958 0.5342604517936707 -0.052002597600221634
0.5363211035728455 0.5993955731391907 -0.10763567686080933
0.5579941272735596 0.6045358180999756 -0.0827195942401886
0.5211865901947021 0.5834827423095703 -0.12408848851919174
0.5694608092308044 0.44441086053848267 -0.011669707484543324
0.6074233055114746 0.4354565441608429 -0.023549223318696022
0.6419737339019775 0.43384912610054016 -0.02950315736234188
0.6732316017150879 0.4373684823513031 -0.024795718491077423
0.6977834701538086 0.4463531970977783 -0.012484020553529263
0.7203370928764343 0.4810539782047272 0.02296779304742813
0.809064507484436 0.5449243187904358 0.11854949593544006
0.6974716186523438 0.5079077482223511 0.007560038473457098
0.669062077999115 0.5125669240951538 -0.003556361887603998
0.6345802545547485 0.5113913416862488 -0.00837402418255806
0.6031799912452698 0.5054548382759094 -0.006096689961850643
0.579368531703949 0.4975482225418091 -0.003971169237047434
0.5627573728561401 0.4899248778820038 -0.0024885472375899553
0.8253910541534424 0.550499677658081 0.20850932598114014
0.5596005320549011 0.6104120016098022 -0.07040590792894363
0.5229493379592896 0.5386359691619873 -0.08677815645933151
0.5139720439910889 0.6004214882850647 -0.12401986867189407
0.5027896761894226 0.612494945526123 -0.11261118948459625
0.5165108442306519 0.6046430468559265 -0.11224305629730225
0.5540925860404968 0.6174736618995667 -0.060947250574827194
0.4968424439430237 0.6143619418144226 -0.11862124502658844
0.49760738015174866 0.6195122003555298 -0.08959993720054626
0.5661908984184265 0.4723226726055145 0.009416447952389717
0.5496794581413269 0.4777609705924988 -0.003428384196013212
0.5388930439949036 0.48159387707710266 -0.0209644865244627
0.6808006763458252 0.47233638167381287 0.00422848341986537
0.6960824728012085 0.46310657262802124 0.0033543130848556757
