ply
format ascii 1.0
element vertex 468
property float x
property float y
property float z
end_header
0.5343375205993652 0.7401278614997864 -0.03954603150486946
0.5748634338378906 0.6597275733947754 -0.11339519917964935
0.5418010950088501 0.6795706152915955 -0.04978382587432861
0.5425875186920166 0.5730606913566589 -0.11177781224250793
0.5797653198242188 0.6355074644088745 -0.1254887580871582
0.5739771127700806 0.6001848578453064 -0.12279470264911652
0.5489447116851807 0.5085809230804443 -0.0819832906126976
0.3365766108036041 0.4881276488304138 -0.08333046734333038
0.544097900390625 0.43851369619369507 -0.07996323704719543
0.5480620861053467 0.4058374762535095 -0.09198261797428131
0.5410504937171936 0.29351669549942017 -0.09813131392002106
0.5310768485069275 0.7520496845245361 -0.03379989042878151
0.5260573625564575 0.7599864602088928 -0.024534741416573524
0.5200441479682922 0.7624411582946777 -0.013343442231416702
0.5208926796913147 0.7714372277259827 -0.006778135895729065
0.522384524345398 0.7836488485336304 -0.008308900520205498
0.521757185459137 0.7980397343635559 -0.009746698662638664
0.5184204578399658 0.8119447827339172 -0.0026641765143722296
0.5069494247436523 0.8322739601135254 0.024224622175097466
0.565122127532959 0.6707216501235962 -0.09968340396881104
0.5283252000808716 0.6678969264030457 -0.07711269706487656
0.17532891035079956 0.37536460161209106 -0.05026761442422867
0.41583362221717834 0.5072432160377502 -0.07047615945339203
0.3896758258342743 0.5103843212127686 -0.07965975999832153
0.36196768283843994 0.5109744071960449 -0.08434362709522247
0.320219486951828 0.49581751227378845 -0.08253956586122513
0.4374072253704071 0.5004891157150269 -0.05773906782269478
0.3811643421649933 0.44564175605773926 -0.10330510884523392
0.40940359234809875 0.44589826464653015 -0.08905912935733795
0.3537542223930359 0.44999459385871887 -0.10577493906021118
0.33330854773521423 0.45894473791122437 -0.10243948549032211
0.2911083698272705 0.5131827592849731 -0.07571955025196075
0.3966730237007141 0.8711763620376587 0.023131847381591797
0.3222218155860901 0.48100244998931885 -0.08128330856561661
0.15734773874282837 0.48748496174812317 -0.01640240289270878
0.24929922819137573 0.49312686920166016 -0.06970188766717911
0.3957173228263855 0.6238057613372803 -0.0675043910741806
0.5035221576690674 0.7370443940162659 -0.050428494811058044
0.49882203340530396 0.7606582641601562 -0.03347841277718544
0.4636237621307373 0.742514431476593 -0.04978719353675842
0.4340880811214447 0.7478655576705933 -0.041771721094846725
0.47022774815559387 0.7602578401565552 -0.03624401241540909
0.44577157497406006 0.7593963146209717 -0.02777828648686409
0.37846639752388 0.7815611362457275 -0.006427425425499678
0.5529778599739075 0.659778892993927 -0.11885061115026474
0.5539319515228271 0.6362470388412476 -0.13151277601718903
0.29324448108673096 0.4349243938922882 -0.12074720859527588
0.4507405757904053 0.5565493702888489 -0.06563089787960052
0.46495020389556885 0.6458855271339417 -0.09057876467704773
0.45890966057777405 0.6303379535675049 -0.0872369334101677
0.3042460083961487 0.6183302998542786 -0.077916219830513
0.5495288968086243 0.6028820872306824 -0.12701691687107086
0.3748617470264435 0.41111859679222107 -0.13140875101089478
0.331489622592926 0.41878747940063477 -0.13138000667095184
0.23018735647201538 0.3379671275615692 -0.09031705558300018
0.4901166260242462 0.4314834475517273 -0.0983189195394516
0.43287932872772217 0.4530923366546631 -0.07107874751091003
0.36146894097328186 0.7577213644981384 -0.01823139376938343
0.12917986512184143 0.722811758518219 0.11367321759462357
0.48017704486846924 0.6594696044921875 -0.07118668407201767
0.5010979175567627 0.668363094329834 -0.05810536444187164
0.39123818278312683 0.7576587200164795 -0.012708121910691261
0.4031389355659485 0.7569217681884766 -0.012489048764109612
0.31283754110336304 0.40158599615097046 -0.13168226182460785
0.4561854302883148 0.654514729976654 -0.07496307790279388
0.42699259519577026 0.4130973219871521 -0.12090203166007996
0.42514169216156006 0.39420679211616516 -0.13178470730781555
0.38397547602653503 0.29686644673347473 -0.13528218865394592
0.27373769879341125 0.3708797097206116 -0.11541137099266052
0.41025781631469727 0.3473736047744751 -0.1346857249736786
0.2671540379524231 0.4212552607059479 -0.11255229264497757
0.22315427660942078 0.40125787258148193 -0.0835549607872963
0.5018532872200012 0.75145423412323 -0.04496413469314575
0.46876949071884155 0.7538221478462219 -0.0438070185482502
0.4411540925502777 0.7543662786483765 -0.03598650172352791
0.4846391975879669 0.6640137434005737 -0.060940466821193695
0.39810168743133545 0.757779598236084 -0.012389489449560642
0.4130192697048187 0.7660283446311951 -0.015086671337485313
0.40440788865089417 0.7551370859146118 -0.011915511451661587
0.5083905458450317 0.6557401418685913 -0.10214746743440628
0.4462054967880249 0.7566813826560974 -0.022062642499804497
0.4700247645378113 0.7599628567695618 -0.024828080087900162
0.4954332113265991 0.7618863582611084 -0.023237742483615875
0.4718843698501587 0.8316154479980469 0.013065258972346783
0.4852074682712555 0.8104190826416016 -0.014502638950943947
0.4902704954147339 0.7961042523384094 -0.020892571657896042
0.4932955801486969 0.7817869186401367 -0.019487619400024414
0.4939585030078888 0.771649956703186 -0.016959313303232193
0.4414561688899994 0.7649073600769043 -0.017369741573929787
0.4383573830127716 0.7690345644950867 -0.019336026161909103
0.43250367045402527 0.7762009501457214 -0.020697161555290222
0.42540180683135986 0.7845629453659058 -0.017482442781329155
0.4139648377895355 0.7186732292175293 -0.04593741148710251
0.10279104113578796 0.5873268246650696 0.10033150762319565
0.5538231134414673 0.6739843487739563 -0.06795316934585571
0.42346683144569397 0.7612485289573669 -0.013853768818080425
0.4195191562175751 0.763043999671936 -0.014969113282859325
0.5091363191604614 0.6804338693618774 -0.05557020381093025
0.4587004780769348 0.6691030859947205 -0.04887757822871208
0.505425214767456 0.6747009754180908 -0.05736364796757698
0.4211265444755554 0.570115864276886 -0.06663544476032257
0.37724149227142334 0.5885104537010193 -0.07459015399217606
0.4487411379814148 0.6395925879478455 -0.07333068549633026
0.29788678884506226 0.3108987510204315 -0.12021994590759277
0.3338497281074524 0.3519338369369507 -0.1310497224330902
0.3648305833339691 0.3916342556476593 -0.13748466968536377
0.4039904475212097 0.8027753233909607 -0.003953547682613134
0.48851829767227173 0.40115267038345337 -0.11580156534910202
0.4785965383052826 0.3503011167049408 -0.12284824997186661
0.4621067941188812 0.29219111800193787 -0.12594103813171387
0.33589062094688416 0.506102979183197 -0.08474095165729523
0.25318145751953125 0.5312671065330505 -0.07028347253799438
0.4516604244709015 0.494417279958725 -0.051606833934783936
0.2976192235946655 0.46628573536872864 -0.0974336639046669
0.47366786003112793 0.542341947555542 -0.06970067322254181
0.4924668073654175 0.6401339769363403 -0.10826682299375534
0.20786987245082855 0.5454083681106567 -0.05583600327372551
0.28142204880714417 0.5515738129615784 -0.07978419214487076
0.32473790645599365 0.5627508759498596 -0.08233383297920227
0.38070955872535706 0.5572800040245056 -0.07207774370908737
0.4185711443424225 0.5451464653015137 -0.06260069459676743
0.4462112784385681 0.534257709980011 -0.0587989017367363
0.5228039026260376 0.5140662789344788 -0.0845068171620369
0.2111598700284958 0.6006130576133728 -0.0491747222840786
0.26723015308380127 0.46039506793022156 -0.09813785552978516
0.5521420240402222 0.6707094311714172 -0.10426774621009827
0.4560210108757019 0.5849463939666748 -0.06782393157482147
0.1125974953174591 0.47296464443206787 0.049410589039325714
0.4695025682449341 0.5230076909065247 -0.05738444998860359
0.4380398392677307 0.6381548047065735 -0.050408173352479935
0.31044507026672363 0.4810307025909424 -0.08142796158790588
0.4854063391685486 0.6209284663200378 -0.10338892787694931
0.10747495293617249 0.652359664440155 0.11121127009391785
0.4483875632286072 0.48611384630203247 -0.05075860396027565
0.5185271501541138 0.609793484210968 -0.12037970870733261
0.24288441240787506 0.8059765100479126 0.03963206708431244
0.21914811432361603 0.8296929001808167 0.08452160656452179
0.1455671340227127 0.5973349213600159 0.02165207453072071
0.1980607509613037 0.7648763656616211 0.04317592456936836
0.18685707449913025 0.43952029943466187 -0.046056874096393585
0.38270530104637146 0.8996336460113525 0.03923807665705681
0.5440159440040588 0.6732386946678162 -0.0699567198753357
0.42817550897598267 0.602491021156311 -0.06345898658037186
0.2126966118812561 0.4951057434082031 -0.05799337476491928
0.36979052424430847 0.4961441457271576 -0.08343549072742462
0.3933970630168915 0.4970628619194031 -0.07971453666687012
0.4042684733867645 0.7694386839866638 -0.013457486405968666
0.20727378129959106 0.6516997218132019 -0.024136776104569435
0.4267284870147705 0.9336825609207153 0.07162577658891678
0.32497239112854004 0.8962286114692688 0.07125058770179749
0.276183158159256 0.8694162368774414 0.07586980611085892
0.5468229055404663 0.3526530861854553 -0.0971260815858841
0.4837923049926758 0.9331591129302979 0.08926817029714584
0.41363707184791565 0.49419647455215454 -0.07160742580890656
0.4328141510486603 0.4891311824321747 -0.06145355477929115
0.443987101316452 0.4869488775730133 -0.053552642464637756
0.23518463969230652 0.45216429233551025 -0.0853312686085701
0.42550191283226013 0.4706752300262451 -0.07059028744697571
0.40163227915763855 0.4652673602104187 -0.08306905627250671
0.37916699051856995 0.46583664417266846 -0.09152266383171082
0.3560711443424225 0.47008612751960754 -0.09455779939889908
0.3408498466014862 0.47550949454307556 -0.09236063808202744
0.1375739425420761 0.4175131320953369 0.0011593896197155118
0.3515510559082031 0.4928285479545593 -0.08396776020526886
0.5373833775520325 0.6980816125869751 -0.04109284281730652
0.4432927072048187 0.7061670422554016 -0.050886254757642746
0.4846436381340027 0.6568469405174255 -0.08004540205001831
0.5029628276824951 0.7016609907150269 -0.05229790136218071
0.5412229895591736 0.4712506830692291 -0.07294630259275436
0.2886388897895813 0.8426576852798462 0.04430475831031799
0.33279192447662354 0.8722728490829468 0.04418199881911278
0.43845444917678833 0.9168760776519775 0.04056743159890175
0.17018470168113708 0.7829622030258179 0.10015898942947388
0.4417165219783783 0.4803948700428009 -0.05930175632238388
0.5067804455757141 0.5565968751907349 -0.08972980082035065
0.4958721697330475 0.9178398847579956 0.058968961238861084
0.37535130977630615 0.9194666147232056 0.0652494728565216
0.14676183462142944 0.6550939679145813 0.03746287152171135
0.46710440516471863 0.7688021659851074 -0.019268887117505074
0.46407583355903625 0.7762016654014587 -0.022071627900004387
0.45957648754119873 0.787096381187439 -0.0240316279232502
0.45393645763397217 0.8006794452667236 -0.0191100612282753
0.4351828992366791 0.8202670812606812 -0.0005318737239576876
0.420956015586853 0.7569243907928467 -0.02106456086039543
0.41475895047187805 0.7549716234207153 -0.025586429983377457
0.407416433095932 0.7508565783500671 -0.02963886596262455
0.384604275226593 0.7361564636230469 -0.037327565252780914
0.26484861969947815 0.6709541082382202 -0.0482906810939312
0.49864447116851807 0.5270131826400757 -0.07558837532997131
0.47457563877105713 0.47068679332733154 -0.055217206478118896
0.4548732042312622 0.4716413617134094 -0.05774407833814621
0.42415952682495117 0.7536853551864624 -0.016771329566836357
0.23794712126255035 0.7308369874954224 -0.0016447979724034667
0.5046834945678711 0.47347235679626465 -0.07276495546102524
0.4138755202293396 0.8437716960906982 0.01367780938744545
0.5652397871017456 0.5693368911743164 -0.10844917595386505
0.5323237180709839 0.5455877184867859 -0.09938699007034302
0.557353138923645 0.5403910875320435 -0.09493681788444519
0.485159307718277 0.5958512425422668 -0.08694596588611603
0.5026174187660217 0.8908280730247498 0.04001979902386665
0.5043802261352539 0.8582592010498047 0.03282393887639046
0.46081870794296265 0.8575658798217773 0.021403318271040916
0.3467020094394684 0.7934790849685669 0.0010028635151684284
0.4122881293296814 0.6585215330123901 -0.0501885861158371
0.3749591112136841 0.8220887780189514 0.009082713164389133
0.3488900065422058 0.6547160148620605 -0.06819368153810501
0.3854808509349823 0.6842653751373291 -0.051621437072753906
0.3128872513771057 0.694321870803833 -0.051150791347026825
0.4496697187423706 0.889346718788147 0.024043820798397064
0.4599716067314148 0.6070016622543335 -0.07351682335138321
0.3127843141555786 0.8146349191665649 0.01687169075012207
0.3521807789802551 0.8452772498130798 0.025678040459752083
0.32973259687423706 0.7610162496566772 -0.017865421250462532
0.20496706664562225 0.6953287124633789 -0.0006552141276188195
0.28230535984039307 0.7649797201156616 -0.0078119090758264065
0.16004879772663116 0.7104570865631104 0.04777120426297188
0.3558984100818634 0.7160449624061584 -0.043952152132987976
0.4809817969799042 0.570378839969635 -0.0779208317399025
0.5020228028297424 0.6523328423500061 -0.10935939103364944
0.47392114996910095 0.6548924446105957 -0.08631955832242966
0.5232577919960022 0.6379021406173706 -0.1227061003446579
0.45755618810653687 0.4485843777656555 -0.07612410187721252
0.4179378151893616 0.4361724853515625 -0.09896514564752579
0.3818782567977905 0.43414372205734253 -0.11309775710105896
0.3482719957828522 0.43801796436309814 -0.11734699457883835
0.31960535049438477 0.4485875070095062 -0.1125786155462265
0.28464066982269287 0.48763683438301086 -0.07795637845993042
0.14845003187656403 0.5417889952659607 0.0009032585076056421
0.31125542521476746 0.5248285531997681 -0.07841815054416656
0.3436608910560608 0.533042311668396 -0.07859489321708679
0.3825482130050659 0.531341016292572 -0.07248418033123016
0.4165531098842621 0.5240853428840637 -0.06362581998109818
0.4418512284755707 0.5157709121704102 -0.05375327914953232
0.46016716957092285 0.5093026757240295 -0.0497468076646328
0.10510194301605225 0.5286600589752197 0.08035512268543243
0.4686988592147827 0.6597568988800049 -0.07355094701051712
0.5148568749427795 0.5824694633483887 -0.10219679772853851
0.5292549133300781 0.6562238335609436 -0.11703326553106308
0.5341693758964539 0.666398286819458 -0.09895909577608109
0.5226576924324036 0.6586259603500366 -0.10600423067808151
0.47156184911727905 0.6666679978370667 -0.059777237474918365
0.5421845316886902 0.6689882874488831 -0.10280835628509521
0.5346222519874573 0.6720626354217529 -0.0737476646900177
0.459818959236145 0.487831175327301 -0.046401262283325195
0.4756103456020355 0.49682173132896423 -0.04955354332923889
0.48850661516189575 0.504550576210022 -0.05907190963625908
0.3311508595943451 0.47912701964378357 -0.08828992396593094
0.3160925805568695 0.4680508077144623 -0.0938539206981659
0.5813139081001282 0.5712891221046448 -0.08888893574476242
0.6529130935668945 0.4704305827617645 0.0857585221529007
0.5726785063743591 0.6642212271690369 -0.059687476605176926
0.6738277673721313 0.37558045983314514 0.21038341522216797
0.592336893081665 0.49746060371398926 0.03725214675068855
0.6131260395050049 0.4985281825065613 0.05040131136775017
0.6326868534088135 0.49747398495674133 0.0662621408700943
0.6529606580734253 0.4778560996055603 0.09616398811340332
0.5775189399719238 0.4927998483181 0.027160700410604477
0.6343023180961609 0.43534719944000244 0.0336114875972271
0.6104772090911865 0.439389705657959 0.018565360456705093
0.6532843708992004 0.43663766980171204 0.05236110836267471
0.6623350381851196 0.44347766041755676 0.06842801719903946
0.6629153490066528 0.4966641068458557 0.11631198972463608
0.5709612369537354 0.8487562537193298 0.10027233511209488
0.6580531597137451 0.46203166246414185 0.09547936171293259
0.6716712713241577 0.4720357656478882 0.24764160811901093
0.6734503507614136 0.47520971298217773 0.14631298184394836
0.6222455501556396 0.6137354373931885 0.040759775787591934
0.5584233999252319 0.7335390448570251 -0.023296937346458435
0.5440227389335632 0.7575114965438843 -0.008694404736161232
0.5755857825279236 0.7348234057426453 0.005484773311764002
0.5807448625564575 0.7398916482925415 0.03512199595570564
0.5560853481292725 0.7547289133071899 0.012239184230566025
0.5631452202796936 0.7537727952003479 0.036986127495765686
0.5887030959129333 0.7679686546325684 0.09328977763652802
0.5910013914108276 0.6567710638046265 -0.1040276437997818
0.5984776020050049 0.6339924335479736 -0.11396842449903488
0.686759352684021 0.41779693961143494 0.08329560607671738
0.5851758122444153 0.5510924458503723 0.004804049618542194
0.6090871095657349 0.6380575895309448 -0.024728814139962196
0.6062695384025574 0.6233599185943604 -0.019557511433959007
0.666101336479187 0.6009792685508728 0.10230371356010437
0.5913739204406738 0.6008347868919373 -0.10469704121351242
0.6675122380256653 0.4002828001976013 0.010430573485791683
0.683347225189209 0.40401288866996765 0.04646727070212364
0.6784934997558594 0.3411577641963959 0.14393781125545502
0.5882009267807007 0.4279710650444031 -0.05144508183002472
0.5888547301292419 0.4486289918422699 0.01564255729317665
0.6049087643623352 0.7436882853507996 0.10316811501979828
0.6165946125984192 0.6821097731590271 0.3537156283855438
0.5917637944221497 0.6524014472961426 -0.02237989380955696
0.5757582187652588 0.6643285155296326 -0.033563826233148575
0.5826027989387512 0.7508652806282043 0.09175422042608261
0.5724031329154968 0.7509751319885254 0.07872536778450012
0.6891789436340332 0.38749462366104126 0.0582587905228138
0.6016222238540649 0.6477087140083313 -0.011019488796591759
0.6385147571563721 0.40586909651756287 -0.023357804864645004
0.6458604335784912 0.3875092566013336 -0.03129764273762703
0.6461896300315857 0.30173709988594055 -0.0009765471331775188
0.6861294507980347 0.36547279357910156 0.09421118348836899
0.6468075513839722 0.3462955951690674 -0.01879747584462166
0.6905604600906372 0.40585142374038696 0.10628626495599747
0.6838409900665283 0.39378297328948975 0.15328052639961243
0.5525487661361694 0.7477729320526123 -0.018039096146821976
0.5660984516143799 0.7472178339958191 0.008455883711576462
0.5728541016578674 0.7472827434539795 0.034160397946834564
0.5846337676048279 0.6581920385360718 -0.021106312051415443
0.5775305032730103 0.7516037225723267 0.08437596261501312
0.5739219188690186 0.7590945959091187 0.06561978161334991
0.5687768459320068 0.7489644289016724 0.0769529715180397
0.5956248641014099 0.6479292511940002 -0.05764622613787651
0.5545445680618286 0.752477765083313 0.03939155861735344
0.5466399788856506 0.7560421228408813 0.020254800096154213
0.5354371070861816 0.7598063945770264 0.0021088263019919395
0.534447968006134 0.8254215717315674 0.03819846361875534
0.5442049503326416 0.8052902221679688 0.011996369808912277
0.5453246235847473 0.7913805842399597 0.00614633085206151
0.5434026122093201 0.777866542339325 0.0076220338232815266
0.5395480394363403 0.7685041427612305 0.008647720329463482
0.5597212314605713 0.7590926289558411 0.043846577405929565
0.5642598271369934 0.7624996304512024 0.041647303849458694
0.5693513751029968 0.7683687806129456 0.04229908064007759
0.5725287795066833 0.7752623558044434 0.05084952339529991
0.6029619574546814 0.7086235880851746 0.04321800917387009
0.6306089162826538 0.561346709728241 0.3698514997959137
0.5631648898124695 0.7554737329483032 0.06323821097612381
0.5689261555671692 0.7569341659545898 0.06239048019051552
0.5666417479515076 0.6772054433822632 -0.031674474477767944
0.589338481426239 0.6638579964637756 0.002005216432735324
0.5714673399925232 0.6712707281112671 -0.033741485327482224
0.6000639796257019 0.5629570484161377 0.027834555134177208
0.6301685571670532 0.5781094431877136 0.05388757213950157
0.6024291515350342 0.6327670812606812 -0.0034682576078921556
0.672363817691803 0.3157987594604492 0.07043079286813736
0.6759330034255981 0.3482932150363922 0.03755967319011688
0.6754649877548218 0.381328284740448 0.013143123127520084
0.5756469368934631 0.788593053817749 0.07748185843229294
0.6010737419128418 0.3989880084991455 -0.0647248774766922
0.6043291091918945 0.35028165578842163 -0.06262678653001785
0.6039234399795532 0.2955913245677948 -0.058403946459293365
0.6465230584144592 0.48993080854415894 0.08364539593458176
0.6764546036720276 0.5134015083312988 0.14280591905117035
0.5696601271629333 0.4878702163696289 0.02385605126619339
0.6708595752716064 0.4480289816856384 0.09856680780649185
0.5770623087882996 0.5381476283073425 -0.01324491947889328
0.6091723442077637 0.6327776312828064 -0.055245984345674515
0.6848474740982056 0.525216817855835 0.18566419184207916
0.673164963722229 0.5350613594055176 0.12019849568605423
0.6561879515647888 0.5494394898414612 0.08679308742284775
0.6219065189361572 0.5473294854164124 0.057215068489313126
0.5955306887626648 0.5377182364463806 0.03505045175552368
0.5793770551681519 0.5285056829452515 0.01451304741203785
0.5651206970214844 0.5124044418334961 -0.0604386143386364
0.685972273349762 0.5771415829658508 0.1907413750886917
0.6798193454742432 0.4428333044052124 0.11667878180742264
0.5753552317619324 0.6686996817588806 -0.09246663749217987
0.5886886119842529 0.5795578956604004 8.956519741332158e-05
0.6461554765701294 0.46186795830726624 0.32821857929229736
0.5690486431121826 0.5184072852134705 -0.00013254447549115866
0.5961614847183228 0.6318056583404541 0.01883109286427498
0.6596735119819641 0.46204566955566406 0.10416402667760849
0.6043978929519653 0.615062415599823 -0.04951230436563492
0.6262418031692505 0.6184542775154114 0.36874717473983765
0.5695417523384094 0.47827863693237305 0.028882483020424843
0.6004553437232971 0.6055660247802734 -0.08102015405893326
0.6232994794845581 0.7654966115951538 0.2175179421901703
0.6030064821243286 0.7851299047470093 0.2655259668827057
0.6696979403495789 0.570004403591156 0.28412196040153503
0.6370984315872192 0.7244954705238342 0.2532656788825989
0.6771970987319946 0.42974358797073364 0.20691104233264923
0.5704870223999023 0.873029351234436 0.12318771332502365
0.5625253915786743 0.67232745885849 -0.06277333945035934
0.5997389554977417 0.5954933762550354 0.020191585645079613
0.677696943283081 0.47713226079940796 0.17994092404842377
0.6348857879638672 0.4818633496761322 0.06416558474302292
0.6161057949066162 0.485043466091156 0.0509486049413681
0.5778744220733643 0.7616192698478699 0.07339410483837128
0.6763043403625488 0.6233669519424438 0.20641127228736877
0.5308248400688171 0.918128252029419 0.11813033372163773
0.5747113227844238 0.8608474731445312 0.18773667514324188
0.5877571702003479 0.82793790102005 0.2225639671087265
0.5976060628890991 0.4840879440307617 0.03958267346024513
0.5817312002182007 0.4805719554424286 0.033917319029569626
0.5728293657302856 0.47916463017463684 0.03250518813729286
0.682836651802063 0.43633177876472473 0.14588987827301025
0.5870106220245361 0.46220433712005615 0.027562109753489494
0.605354368686676 0.45501768589019775 0.03124086745083332
0.6263937950134277 0.45192277431488037 0.04164508357644081
0.644993782043457 0.4532807171344757 0.05676921457052231
0.6536208391189575 0.4578245282173157 0.0699736624956131
0.6636466979980469 0.41355758905410767 0.2744755744934082
0.6462112665176392 0.4765051603317261 0.07676073163747787
0.5940046310424805 0.6985308527946472 0.017245685681700706
0.5963629484176636 0.6490196585655212 -0.03370247781276703
0.5648407936096191 0.6980933547019958 -0.024313868954777718
0.6051520705223083 0.8038558959960938 0.18798813223838806
0.5878318548202515 0.8377182483673096 0.15720129013061523
0.5423941016197205 0.9018245935440063 0.08632951974868774
0.6095736026763916 0.739112377166748 0.3149934709072113
0.5758920311927795 0.47209811210632324 0.02815791592001915
0.5805970430374146 0.5533166527748108 -0.05176979675889015
0.5584587454795837 0.8921608924865723 0.15117283165454865
0.6612526178359985 0.6217449307441711 0.28851598501205444
0.5521345138549805 0.7635996341705322 0.026251401752233505
0.5565636157989502 0.7701796889305115 0.024885928258299828
0.5604611039161682 0.7799425721168518 0.025278443470597267
0.5618117451667786 0.7923393249511719 0.03256404772400856
0.5582926869392395 0.8089951872825623 0.058210402727127075
0.568016767501831 0.7515228986740112 0.060119692236185074
0.5761348009109497 0.7487057447433472 0.06339749693870544
0.583065390586853 0.7438341379165649 0.06540022045373917
0.6070560812950134 0.7242022156715393 0.07449086755514145
0.6655325293540955 0.6467017531394958 0.14673998951911926
0.5708594918251038 0.5240684151649475 -0.03571683168411255
0.5644317269325256 0.4665108919143677 -0.004442757926881313
0.5704136490821838 0.4664986729621887 0.014965773560106754
0.5607426166534424 0.7490035891532898 0.060899000614881516
0.649415135383606 0.6986122727394104 0.19570912420749664
0.5608481764793396 0.4712175726890564 -0.042637135833501816
0.5629393458366394 0.8263716697692871 0.07978098094463348
0.5743260383605957 0.5436378717422485 -0.07897228747606277
0.5913987755775452 0.5910083055496216 -0.037194568663835526
0.5372866988182068 0.8481352925300598 0.05348237603902817
0.6037103533744812 0.7703001499176025 0.1174289882183075
0.6085759401321411 0.6499006748199463 0.03725496307015419
0.5841572284698486 0.8001570701599121 0.10114342719316483
0.6459589600563049 0.6388553977012634 0.07163073867559433
0.6215330958366394 0.6720004081726074 0.05841050297021866
0.6491794586181641 0.672753095626831 0.10848471522331238
0.5441535115242004 0.8767324686050415 0.06710819900035858
0.5933845043182373 0.6014178991317749 -0.011329252272844315
0.611832320690155 0.7822871804237366 0.1522238403558731
0.5898872017860413 0.8163187503814697 0.1293063461780548
0.6216223835945129 0.7390322089195251 0.12372405081987381
0.663078248500824 0.6629820466041565 0.22028228640556335
0.6348717212677002 0.7337673902511597 0.15731269121170044
0.6499965190887451 0.6721394062042236 0.28553447127342224
0.6260842084884644 0.7002962827682495 0.08601972460746765
0.5840408205986023 0.5658693313598633 -0.02416536584496498
0.6036593914031982 0.6438907384872437 -0.06099815294146538
0.6041585803031921 0.6468648314476013 -0.030939266085624695
0.6063705086708069 0.6321950554847717 -0.0839369148015976
0.5857345461845398 0.44290411472320557 -0.005636258516460657
0.6210488080978394 0.42730629444122314 0.00477602519094944
0.6489596366882324 0.4232228398323059 0.02275809831917286
0.6676658391952515 0.42515477538108826 0.047875337302684784
0.6741435527801514 0.43269509077072144 0.07200340181589127
0.6653196811676025 0.4691542983055115 0.12007004022598267
0.6726021766662598 0.5204280018806458 0.2702624797821045
0.6574305295944214 0.5092526078224182 0.10167723149061203
0.6415629386901855 0.5202455520629883 0.07808053493499756
0.6162794828414917 0.5207367539405823 0.05612481012940407
0.5920248627662659 0.5155091285705566 0.03731587529182434
0.5759276151657104 0.5091288685798645 0.022504404187202454
0.5662394165992737 0.503917396068573 0.012075573205947876
0.6340413093566895 0.5101379156112671 0.3573457598686218
0.5975373983383179 0.6526642441749573 -0.01943749003112316
0.589180588722229 0.5790120363235474 -0.06319128721952438
0.6002317070960999 0.6496747136116028 -0.0863223671913147
0.5804488062858582 0.6614592671394348 -0.08094355463981628
0.5928494930267334 0.6514968872070312 -0.07431124895811081
0.5881887674331665 0.6612882614135742 -0.014487686567008495
0.5797454714775085 0.6656347513198853 -0.08792225271463394
0.5686904788017273 0.6692082285881042 -0.061339665204286575
0.564917802810669 0.48157206177711487 0.019189875572919846
0.5589788556098938 0.4924755096435547 -0.0010357294231653214
0.5612566471099854 0.5011932849884033 -0.018624931573867798
0.657189130783081 0.4607173204421997 0.08159344643354416
0.6645073890686035 0.45013535022735596 0.08715787529945374
