ply
format ascii 1.0
element vertex 468
property float x
property float y
property float z
end_header
0.4949256181716919 0.6948971748352051 -0.045938894152641296
0.49143725633621216 0.6362629532814026 -0.11558443307876587
0.49525561928749084 0.6501103043556213 -0.05240185186266899
0.4740677773952484 0.5547525882720947 -0.09796984493732452
0.49074381589889526 0.6142300367355347 -0.12695172429084778
0.49188604950904846 0.5814259648323059 -0.1232495903968811
0.4968683421611786 0.4957812428474426 -0.07949386537075043
0.336931973695755 0.4721587300300598 0.019725127145648003
0.4986327886581421 0.4305928349494934 -0.07690304517745972
0.49857717752456665 0.39761173725128174 -0.08892253041267395
0.5015206336975098 0.27359554171562195 -0.09028835594654083
0.49503207206726074 0.7054190635681152 -0.04095364362001419
0.49571987986564636 0.7132964730262756 -0.03134503588080406
0.49671509861946106 0.716313898563385 -0.019841529428958893
0.49742159247398376 0.7235070466995239 -0.00913858599960804
0.4971906542778015 0.7343538999557495 -0.0104521494358778
0.4972156882286072 0.7472697496414185 -0.01184467040002346
0.49777793884277344 0.7590034008026123 -0.00417109252884984
0.49958980083465576 0.769864559173584 0.023662306368350983
0.492459237575531 0.6452963948249817 -0.10221170634031296
0.4737290143966675 0.6396204233169556 -0.06939414888620377
0.2647283673286438 0.3586379885673523 0.11356831341981888
0.4048941135406494 0.4947873055934906 -0.005766102112829685
0.3825008273124695 0.49610060453414917 -0.0017931925831362605
0.3603648543357849 0.49416035413742065 0.006302344147115946
0.33052611351013184 0.47768357396125793 0.026250086724758148
0.4225389361381531 0.48976266384124756 -0.005531409755349159
0.369185209274292 0.43752193450927734 -0.02157127670943737
0.3939060866832733 0.44012537598609924 -0.024317007511854172
0.3465697467327118 0.4390050172805786 -0.010924482718110085
0.3322269916534424 0.4448804259300232 0.00077753298683092
0.31512027978897095 0.48956647515296936 0.0411178320646286
0.424375057220459 0.7863786220550537 0.06096930429339409
0.3288504481315613 0.4652586877346039 0.027099793776869774
0.2618490159511566 0.45838993787765503 0.14543715119361877
0.2914111018180847 0.4678749144077301 0.06276776641607285
0.3892030417919159 0.5927414298057556 -0.004583242814987898
0.46901312470436096 0.6904227137565613 -0.041217681020498276
0.4749281704425812 0.7119026184082031 -0.02688053995370865
0.4441894590854645 0.6961318254470825 -0.025378050282597542
0.43119609355926514 0.7035333514213562 -0.007670226506888866
0.45773881673812866 0.7122584581375122 -0.01746724732220173
0.44564977288246155 0.7136369943618774 -0.0015735694905743003
0.40815263986587524 0.7297559976577759 0.03833115100860596
0.4731019139289856 0.6345133185386658 -0.11271962523460388
0.46916696429252625 0.61322021484375 -0.12301917374134064
0.2962939143180847 0.4140344262123108 0.00594461290165782
0.43146994709968567 0.5373526811599731 -0.02335132099688053
0.42557141184806824 0.6179910898208618 -0.05420130491256714
0.42480355501174927 0.6039810180664062 -0.049241505563259125
0.32710129022598267 0.5824181437492371 0.028284315019845963
0.4711190462112427 0.5825949907302856 -0.11449626833200455
0.34377914667129517 0.39793089032173157 -0.043118301779031754
0.3145081400871277 0.40177810192108154 -0.020417388528585434
0.27872589230537415 0.32363617420196533 0.057819023728370667
0.4453625977039337 0.42350733280181885 -0.06753724068403244
0.4157795310020447 0.4479137361049652 -0.018275581300258636
0.39239323139190674 0.7105041146278381 0.04011114314198494
0.30920934677124023 0.6484242081642151 0.25642135739326477
0.44266700744628906 0.6307284832000732 -0.045034315437078476
0.4609147310256958 0.6384027004241943 -0.04622845724225044
0.418290913105011 0.7150473594665527 0.0342167504131794
0.4286876618862152 0.7139937877655029 0.02637861855328083
0.3021092712879181 0.3828255832195282 -0.012131065130233765
0.42681440711021423 0.6254158616065979 -0.03992011398077011
0.38560259342193604 0.40323102474212646 -0.05969908460974693
0.3806356191635132 0.38283517956733704 -0.06807580590248108
0.36177220940589905 0.2808266282081604 -0.04846996068954468
0.2901741862297058 0.3531375527381897 0.016986249014735222
0.37338700890541077 0.3319878578186035 -0.060538019984960556
0.2839737832546234 0.3993637263774872 0.02392209880053997
0.2738901674747467 0.38050776720046997 0.06460775434970856
0.47119399905204773 0.7029051780700684 -0.03689168021082878
0.45131510496139526 0.7063850164413452 -0.02248777262866497
0.43802618980407715 0.7092633843421936 -0.006559524219483137
0.44872134923934937 0.6343205571174622 -0.03973808512091637
0.4238518178462982 0.7152736186981201 0.02995637245476246
0.43024495244026184 0.7198255062103271 0.01839199848473072
0.43054988980293274 0.7119067311286926 0.02567744255065918
0.4514836072921753 0.6279939413070679 -0.07831449061632156
0.4512641429901123 0.7119629383087158 0.0022386861965060234
0.46357062458992004 0.7129185795783997 -0.007998673245310783
0.47910812497138977 0.7147045135498047 -0.016121547669172287
0.47262459993362427 0.7678661942481995 0.02508259378373623
0.4717564582824707 0.7557792663574219 -0.0025245442520827055
0.4725600481033325 0.7435021996498108 -0.009027245454490185
0.4747980833053589 0.7308765649795532 -0.007445455063134432
0.4772269129753113 0.7217975854873657 -0.005814829841256142
0.4478742778301239 0.7168994545936584 0.008892050944268703
0.4440135359764099 0.7202455401420593 0.006671761628240347
0.43849796056747437 0.7264080047607422 0.005352047737687826
0.4338490664958954 0.7330821752548218 0.010871370323002338
0.4106699824333191 0.6768797636032104 -0.003280465956777334
0.2796800434589386 0.5412999987602234 0.26589906215667725
0.49382802844047546 0.6465535163879395 -0.07040134817361832
0.44027179479599 0.7150688171386719 0.01855597272515297
0.43566611409187317 0.717037558555603 0.017325835302472115
0.46808263659477234 0.6482062339782715 -0.044484615325927734
0.4354464113712311 0.6375086307525635 -0.021285638213157654
0.46461349725723267 0.6435979008674622 -0.04613235965371132
0.4098542332649231 0.5482504367828369 -0.010421696119010448
0.37465694546699524 0.5615368485450745 0.002247277647256851
0.422817200422287 0.6115697026252747 -0.0343247726559639
0.30873823165893555 0.2971530556678772 0.0012030554935336113
0.32111647725105286 0.33556684851646423 -0.023903150111436844
0.3348771929740906 0.3767273426055908 -0.04299481213092804
0.42465710639953613 0.7432976961135864 0.03162185475230217
0.43704310059547424 0.3919031620025635 -0.08263781666755676
0.43119537830352783 0.3345335125923157 -0.08288121223449707
0.4242205321788788 0.27398499846458435 -0.07893729209899902
0.3413359820842743 0.487858384847641 0.01711152493953705
0.2940451204776764 0.5026476979255676 0.05845852568745613
0.4333396553993225 0.4847905933856964 -0.004485010635107756
0.30977490544319153 0.44574081897735596 0.023273635655641556
0.44583481550216675 0.5247750878334045 -0.035193946212530136
0.4367011487483978 0.6136537194252014 -0.07908811420202255
0.27549272775650024 0.5121914148330688 0.09000876545906067
0.30798953771591187 0.5235209465026855 0.04031139239668846
0.33562391996383667 0.5365204215049744 0.01845974661409855
0.3780277967453003 0.5353531241416931 0.004972623195499182
0.4087081551551819 0.5270310640335083 -0.0043049464002251625
0.430633008480072 0.5180404782295227 -0.01435465831309557
0.4747505486011505 0.49995920062065125 -0.06809049844741821
0.2828434109687805 0.5608534812927246 0.09383492916822433
0.2923608720302582 0.4381040930747986 0.03412522003054619
0.48148295283317566 0.6437301635742188 -0.10017845779657364
0.43355533480644226 0.5628312826156616 -0.027982573956251144
0.2637135088443756 0.445330947637558 0.22346527874469757
0.44687360525131226 0.5079320669174194 -0.021808840334415436
0.4227186441421509 0.610051691532135 -0.011608324013650417
0.3221972584724426 0.4634898006916046 0.03261706233024597
0.4365328848361969 0.5965033173561096 -0.07306661456823349
0.29127800464630127 0.5930277109146118 0.2677946984767914
0.43256551027297974 0.4764023721218109 -0.0011318635661154985
0.45277854800224304 0.5874012112617493 -0.0982193574309349
0.3452226519584656 0.7212708592414856 0.13895300030708313
0.35176360607147217 0.7339788675308228 0.18796445429325104
0.2715975046157837 0.5516839027404785 0.17970027029514313
0.32110118865966797 0.687271773815155 0.1640138179063797
0.2670428156852722 0.4159865081310272 0.11074047535657883
0.42190831899642944 0.8015573024749756 0.08174535632133484
0.4851800501346588 0.6454145908355713 -0.06847411394119263
0.4153895080089569 0.5768905878067017 -0.01485903188586235
0.2758406698703766 0.46739253401756287 0.08781669288873672
0.36057260632514954 0.4816954433917999 0.005266455467790365
0.3811792731285095 0.4841720759868622 -0.0016872783889994025
0.42452526092529297 0.7232439517974854 0.02321956492960453
0.2930537760257721 0.6028385162353516 0.11125437915325165
0.4599469304084778 0.8289244174957275 0.09433615207672119
0.403277724981308 0.7908055782318115 0.13360480964183807
0.3798202574253082 0.76732337474823 0.15652967989444733
0.49966466426849365 0.33704841136932373 -0.09253326058387756
0.5031018257141113 0.8359873294830322 0.08599228411912918
0.400230348110199 0.48281675577163696 -0.004573207348585129
0.4174460768699646 0.47926515340805054 -0.003495612880215049
0.4278361201286316 0.477508008480072 -0.0003733537159860134
0.2786710858345032 0.4284474849700928 0.057491544634103775
0.41372692584991455 0.4634488523006439 -0.011462908238172531
0.39425307512283325 0.4584496021270752 -0.01483810693025589
0.37390509247779846 0.4571128189563751 -0.011651420034468174
0.3536157011985779 0.458771288394928 -0.0036512576043605804
0.34103626012802124 0.4619658291339874 0.005873488262295723
0.2600318193435669 0.3969597816467285 0.1727559119462967
0.34664496779441833 0.47712039947509766 0.013286366127431393
0.495499849319458 0.6629720330238342 -0.04463876038789749
0.4268181025981903 0.6667348146438599 -0.017299752682447433
0.4412294030189514 0.628516435623169 -0.05492420122027397
0.46574750542640686 0.6638243198394775 -0.04015627130866051
0.4987090229988098 0.46110063791275024 -0.06988592445850372
0.37062087655067444 0.7523900866508484 0.12104684859514236
0.39546602964401245 0.7763769626617432 0.10295910388231277
0.4561413824558258 0.8218100666999817 0.061955567449331284
0.3295125663280487 0.6965051293373108 0.2258266657590866
0.4266037344932556 0.47127366065979004 -0.00556981610134244
0.45887771248817444 0.5379787087440491 -0.0663275346159935
0.5012511014938354 0.8283994793891907 0.05479465797543526
0.4288102984428406 0.8125945925712585 0.1102689653635025
0.28383344411849976 0.598607063293457 0.18729129433631897
0.4606354534626007 0.7192249298095703 0.0010128539288416505
0.45679718255996704 0.7255385518074036 -0.0014664920745417476
0.45262885093688965 0.7351596355438232 -0.002916790544986725
0.4499106705188751 0.7460412383079529 0.002555284183472395
0.4458225965499878 0.7569900751113892 0.025391774252057076
0.4359584450721741 0.7143775224685669 0.012705952860414982
0.42873507738113403 0.7128350734710693 0.012759454548358917
0.4220568537712097 0.7090935707092285 0.012510182335972786
0.39851173758506775 0.6925750970840454 0.0164017453789711
0.318427711725235 0.6234511137008667 0.06416559964418411
0.460277259349823 0.5109783411026001 -0.05032605677843094
0.44901296496391296 0.46132761240005493 -0.022952405735850334
0.43580055236816406 0.46420326828956604 -0.012067959643900394
0.4409700036048889 0.7110830545425415 0.015150419436395168
0.32378092408180237 0.6679837107658386 0.1108628585934639
0.46823352575302124 0.4628121852874756 -0.052425071597099304
0.4342796802520752 0.7708407640457153 0.04463999718427658
0.49352648854255676 0.5526648759841919 -0.10784895718097687
0.47375211119651794 0.5289808511734009 -0.08604220300912857
0.4950910210609436 0.5255252122879028 -0.0934099406003952
0.4438611567020416 0.5734677910804749 -0.05800693854689598
0.5001819133758545 0.81221604347229 0.03730667382478714
0.4998367428779602 0.7898199558258057 0.030996054410934448
0.4656723737716675 0.7858249545097351 0.03629003092646599
0.38736024498939514 0.7313972115516663 0.056895747780799866
0.40544426441192627 0.6249161958694458 -0.001867314800620079
0.4087872803211212 0.7529447078704834 0.05199291184544563
0.35784873366355896 0.6155950427055359 0.012540667317807674
0.3873436450958252 0.6448516845703125 0.007072967942804098
0.344887912273407 0.6467592716217041 0.038292646408081055
0.45829933881759644 0.806448221206665 0.04442209377884865
0.433057963848114 0.5829801559448242 -0.03806539624929428
0.37203317880630493 0.7385762333869934 0.08657430857419968
0.3981134295463562 0.7630630135536194 0.07755763083696365
0.3704138994216919 0.706135094165802 0.05470691993832588
0.3037460446357727 0.6373428106307983 0.12753140926361084
0.3474653363227844 0.699079692363739 0.08163701742887497
0.298625648021698 0.6428096294403076 0.18771103024482727
0.374916136264801 0.6717461943626404 0.02389155887067318
0.44624364376068115 0.5498987436294556 -0.045959170907735825
0.4440310299396515 0.6246127486228943 -0.08328583836555481
0.4322543442249298 0.6261377930641174 -0.05625268071889877
0.4514663815498352 0.6126641631126404 -0.10178622603416443
0.4289693236351013 0.4409025013446808 -0.03247296065092087
0.39087194204330444 0.42728573083877563 -0.035113200545310974
0.35879939794540405 0.42353469133377075 -0.03008246421813965
0.33299392461776733 0.4245379567146301 -0.0165077056735754
0.3163180351257324 0.43126481771469116 0.0011407537385821342
0.3090600371360779 0.4655911326408386 0.04335853084921837
0.2635556161403656 0.5050720572471619 0.16404499113559723
0.32671618461608887 0.5023599863052368 0.030318694189190865
0.3495829701423645 0.511884331703186 0.01576194167137146
0.3795677423477173 0.5135674476623535 0.004599961917847395
0.4073295593261719 0.5090929865837097 -0.003113927086815238
0.42793774604797363 0.5027069449424744 -0.0070944312028586864
0.44197118282318115 0.4965879023075104 -0.011199325323104858
0.27199670672416687 0.4924914240837097 0.25180721282958984
0.43433600664138794 0.6303123235702515 -0.04412798583507538
0.4574160575866699 0.5621312260627747 -0.07908715307712555
0.4581836760044098 0.6292703747749329 -0.10141940414905548
0.47144123911857605 0.63814777135849 -0.09103155881166458
0.4593311548233032 0.6308459043502808 -0.08998473733663559
0.4412553608417511 0.6359931230545044 -0.0354490652680397
0.47489631175994873 0.6414269208908081 -0.09683816879987717
0.47836652398109436 0.6434651613235474 -0.06889950484037399
0.4405061602592468 0.4784071445465088 -0.004931493196636438
0.4530702233314514 0.485190212726593 -0.01835952140390873
0.4595668613910675 0.4913148283958435 -0.03296096622943878
0.33388203382492065 0.464086651802063 0.015225979499518871
0.3219337463378906 0.4510602653026581 0.01661445014178753
0.5140321850776672 0.5555686950683594 -0.10145823657512665
0.6740701198577881 0.47675707936286926 -0.0056634219363331795
0.5150977373123169 0.640809953212738 -0.0717134103178978
0.7727965116500854 0.36345767974853516 0.07371024042367935
0.6026003956794739 0.49725210666656494 -0.021988671272993088
0.625861406326294 0.49936485290527344 -0.021110689267516136
0.6493686437606812 0.49829500913619995 -0.016335798427462578
0.6825932264328003 0.48285946249961853 -0.0007447920506820083
0.5835418701171875 0.4915023446083069 -0.018383165821433067
0.640082061290741 0.4407426714897156 -0.04280883073806763
0.6142871975898743 0.44224441051483154 -0.04106080159544945
0.6638357043266296 0.4433240592479706 -0.03532489016652107
0.6792433261871338 0.44989243149757385 -0.025452230125665665
0.7009098529815674 0.49572935700416565 0.012071683071553707
0.580946147441864 0.7922980189323425 0.050200462341308594
0.6838696599006653 0.47015199065208435 0.00026763719506561756
0.7740052342414856 0.46564623713493347 0.1049695611000061
0.7299260497093201 0.4747030735015869 0.029896069318056107
0.6137621998786926 0.597409188747406 -0.019844036549329758
0.5218097567558289 0.6919306516647339 -0.04497703164815903
0.5176302194595337 0.7133553624153137 -0.02989487163722515
0.5496749877929688 0.6992478370666504 -0.032948512583971024
0.566316545009613 0.7073450088500977 -0.017893653362989426
0.5372042059898376 0.7146562337875366 -0.023804355412721634
0.5520003437995911 0.716620922088623 -0.010132181458175182
0.5963568091392517 0.7353966236114502 0.024929670616984367
0.5105085372924805 0.6354590058326721 -0.11482055485248566
0.5135154724121094 0.6140815019607544 -0.12565694749355316
0.7190759778022766 0.4204118251800537 -0.025442950427532196
0.5709539651870728 0.5396382808685303 -0.03364649787545204
0.5678032636642456 0.621232271194458 -0.06352704018354416
0.570416271686554 0.6071691513061523 -0.058902326971292496
0.6837179064750671 0.5900352597236633 0.002083278726786375
0.5137124061584473 0.5832818150520325 -0.11765412986278534
0.6624351143836975 0.4018672704696655 -0.0648338571190834
0.6961162686347961 0.40726423263549805 -0.04762725904583931
0.7511757612228394 0.3277049660682678 0.021722329780459404
0.5535494685173035 0.42482662200927734 -0.07486592233181
0.5915672183036804 0.44934841990470886 -0.03154454007744789
0.6121211647987366 0.7167608141899109 0.02385750785470009
0.7309795618057251 0.6594057679176331 0.2204664647579193
0.5503864288330078 0.6335704922676086 -0.05166250467300415
0.5310620665550232 0.6401333808898926 -0.049559980630874634
0.5847424864768982 0.7198143005371094 0.020183034241199493
0.5740771889686584 0.7180668115615845 0.014298618771135807
0.711400032043457 0.3885442018508911 -0.04103703051805496
0.5683738589286804 0.6287215948104858 -0.048782773315906525
0.6162589192390442 0.40595492720603943 -0.07458508759737015
0.6209352612495422 0.3855474591255188 -0.08340787142515182
0.6493626236915588 0.2827271819114685 -0.06932611018419266
0.7308694124221802 0.3580707907676697 -0.015145260840654373
0.631897509098053 0.334357887506485 -0.07838452607393265
0.7352597713470459 0.4057890772819519 -0.009535963647067547
0.7541099190711975 0.3863334059715271 0.028133144602179527
0.5200276970863342 0.7043818235397339 -0.04039834812283516
0.5426950454711914 0.7090603113174438 -0.029587622731924057
0.5590766668319702 0.7126959562301636 -0.016011882573366165
0.5443601608276367 0.636720597743988 -0.04526073858141899
0.5787754654884338 0.7196488976478577 0.01699095591902733
0.571104109287262 0.7238473296165466 0.007409223821014166
0.5724701881408691 0.7159445881843567 0.013930954970419407
0.5378432273864746 0.6305262446403503 -0.08471957594156265
0.5476551651954651 0.7146009206771851 -0.005871929228305817
0.5329158306121826 0.7149627804756165 -0.013660840690135956
0.515403151512146 0.7158753871917725 -0.019367335364222527
0.5274995565414429 0.7696939706802368 0.0221662949770689
0.524590015411377 0.7575236558914185 -0.0059155672788619995
0.5226669311523438 0.7452042102813721 -0.012422706931829453
0.5203518271446228 0.7323262691497803 -0.01082781795412302
0.5182178616523743 0.7231029868125916 -0.00900192093104124
0.5520486235618591 0.7199335098266602 0.0008919191313907504
0.55555659532547 0.7235909700393677 -0.001579343806952238
0.561033308506012 0.7301344871520996 -0.0030730466824024916
0.5660867691040039 0.7370951771736145 0.0018161935731768608
0.5877587795257568 0.681463360786438 -0.015325643122196198
0.7662062048912048 0.5502216219902039 0.22523128986358643
0.5613428354263306 0.7185431122779846 0.00832865945994854
0.5655779242515564 0.7208069562911987 0.006939565297216177
0.5233709812164307 0.6494455337524414 -0.04773837327957153
0.5603283643722534 0.6403056383132935 -0.02828865870833397
0.5269767642021179 0.6451005935668945 -0.049293894320726395
0.5944905877113342 0.5515537858009338 -0.024187635630369186
0.6315386891365051 0.5665161609649658 -0.016342846676707268
0.5740239024162292 0.6149938106536865 -0.04430714622139931
0.7120206952095032 0.29989364743232727 -0.02843756601214409
0.6922889947891235 0.3393014073371887 -0.049899302423000336
0.6724103689193726 0.38075798749923706 -0.06591576337814331
0.5782790184020996 0.7483079433441162 0.020711533725261688
0.5612210631370544 0.3932892680168152 -0.09023112803697586
0.5696446299552917 0.3357056975364685 -0.09225114434957504
0.5812962055206299 0.274908185005188 -0.0895032286643982
0.6702483296394348 0.4927856922149658 -0.00810051616281271
0.7253071069717407 0.5098993182182312 0.026228442788124084
0.5717980861663818 0.48613372445106506 -0.015863269567489624
0.7056280374526978 0.4516720771789551 -0.006833667401224375
0.5546286106109619 0.5264632701873779 -0.04367167502641678
0.553398072719574 0.616446316242218 -0.08662023395299911
0.7491906881332397 0.5204504728317261 0.05347369611263275
0.7070726156234741 0.5304092764854431 0.010444877669215202
0.6751723885536194 0.5425455570220947 -0.0069253104738891125
0.629541277885437 0.5397459864616394 -0.014154084026813507
0.5972481369972229 0.5299816727638245 -0.018893813714385033
0.5737529993057251 0.5201034545898438 -0.025278538465499878
0.5207200050354004 0.500626266002655 -0.07186152040958405
0.7393618822097778 0.5700206160545349 0.05774679034948349
0.7264662384986877 0.44458749890327454 0.0013680362608283758
0.5040456056594849 0.6443969011306763 -0.10174433141946793
0.5665667653083801 0.5652366876602173 -0.0378265343606472
0.7823936939239502 0.45172321796417236 0.18097326159477234
0.5556941032409668 0.5093262195587158 -0.030386323109269142
0.5765441060066223 0.613285481929779 -0.02142908424139023
0.6917978525161743 0.4687102437019348 0.0042664650827646255
0.555674135684967 0.5990545749664307 -0.08091378211975098
0.7525702714920044 0.6032108068466187 0.22913385927677155
0.5733685493469238 0.4777914881706238 -0.013062435202300549
0.5353612303733826 0.5889718532562256 -0.10380072891712189
0.675135612487793 0.7318938970565796 0.11250859498977661
0.6751586198806763 0.7446905970573425 0.16069641709327698
0.762398362159729 0.5614420771598816 0.14015783369541168
0.7045117616653442 0.6982823014259338 0.13296450674533844
0.7654134035110474 0.42216724157333374 0.07194533199071884
0.5857804417610168 0.8078515529632568 0.06958360224962234
0.5027703642845154 0.6457938551902771 -0.06945103406906128
0.5866780281066895 0.5802586674690247 -0.026775702834129333
0.7504065632820129 0.47473791241645813 0.05147936940193176
0.6478400230407715 0.48552176356315613 -0.016949253156781197
0.6266014575958252 0.4872611165046692 -0.021181318908929825
0.5775104761123657 0.7276765704154968 0.011457888409495354
0.7292681932449341 0.6128575801849365 0.0771656334400177
0.5476765036582947 0.8323612213134766 0.08762151747941971
0.6124840974807739 0.7989407777786255 0.11640296876430511
0.640968382358551 0.776936411857605 0.13471916317939758
0.6070330739021301 0.4851114749908447 -0.021374929696321487
0.5891134738922119 0.4808599352836609 -0.017782751470804214
0.5782636404037476 0.47893381118774414 -0.01329884398728609
0.7447718381881714 0.4350837469100952 0.02199106104671955
0.5945273637771606 0.4655507802963257 -0.026197444647550583
0.6157768964767456 0.46101105213165283 -0.03219641000032425
0.6365013718605042 0.4608350992202759 -0.03195318579673767
0.6569900512695312 0.4633277654647827 -0.026706254109740257
0.6699864864349365 0.4668577313423157 -0.01901731640100479
0.782250702381134 0.40233826637268066 0.13106369972229004
0.6629047989845276 0.4814617931842804 -0.011040733195841312
0.5691664218902588 0.6702626347541809 -0.026359258219599724
0.5508623719215393 0.6314680576324463 -0.06136045232415199
0.5260064005851746 0.6652545928955078 -0.043918319046497345
0.6454461812973022 0.7621752023696899 0.10008041560649872
0.6166303753852844 0.7848255038261414 0.08656053990125656
0.5478503704071045 0.8252489566802979 0.05568215250968933
0.7042629718780518 0.7073931097984314 0.19340315461158752
0.5799652934074402 0.4729008972644806 -0.018823640421032906
0.5354728698730469 0.5393202304840088 -0.07216817140579224
0.5821512341499329 0.8187516927719116 0.09765122830867767
0.7490044236183167 0.6092787981033325 0.14960582554340363
0.5368165969848633 0.7215675115585327 -0.005162335932254791
0.5403997898101807 0.7280886173248291 -0.007543489802628756
0.544541597366333 0.738066554069519 -0.009366326965391636
0.5479831695556641 0.7492072582244873 -0.004292367957532406
0.5556378960609436 0.7607077360153198 0.01776798628270626
0.5647352933883667 0.7177761197090149 0.0020609672646969557
0.5716707706451416 0.7168625593185425 0.0009322109399363399
0.5787631273269653 0.7134427428245544 -0.00010618959640851244
0.6029661297798157 0.6981542110443115 0.001257030526176095
0.6961568593978882 0.6325077414512634 0.03628784045577049
0.5376655459403992 0.5122296810150146 -0.05645610764622688
0.5545384287834167 0.462379515171051 -0.0305058304220438
0.5696704983711243 0.46530434489250183 -0.02342342399060726
0.5601351857185364 0.7143286466598511 0.0048072063364088535
0.6949217915534973 0.6782026290893555 0.08253088593482971
0.5315660834312439 0.4635830521583557 -0.05711418762803078
0.5694097876548767 0.7756902575492859 0.03592471778392792
0.517602801322937 0.5298069715499878 -0.08910977840423584
0.5510630011558533 0.5755422711372375 -0.06528625637292862
0.535506010055542 0.7884942293167114 0.03212963417172432
0.6197530031204224 0.7388175129890442 0.0411854088306427
0.5952326655387878 0.6290422081947327 -0.0139755355194211
0.5971737504005432 0.7594704031944275 0.039639852941036224
0.6476938128471375 0.6224121451377869 -0.00704360194504261
0.6144415736198425 0.6503728032112122 -0.007882128469645977
0.6641972064971924 0.6550227999687195 0.015910828486084938
0.5437027812004089 0.8095554709434509 0.0386909544467926
0.5650206208229065 0.5856970548629761 -0.04692291468381882
0.6394214034080505 0.7475296258926392 0.06736555695533752
0.6104384064674377 0.7707214951515198 0.06301525235176086
0.6371034979820251 0.7138640880584717 0.03555888310074806
0.7191857099533081 0.6479478478431702 0.09520028531551361
0.6655939221382141 0.7085102200508118 0.0582626648247242
0.73236083984375 0.6538603901863098 0.15220323204994202
0.6294002532958984 0.6784411668777466 0.006441021803766489
0.5511020421981812 0.5518757104873657 -0.053879182785749435
0.5450920462608337 0.6274310350418091 -0.09028539806604385
0.5602886080741882 0.6294443607330322 -0.0641390010714531
0.5346805453300476 0.6147058010101318 -0.10726585239171982
0.574605405330658 0.44242382049560547 -0.043119173496961594
0.6141125559806824 0.4299509525299072 -0.05096564441919327
0.6481947898864746 0.4271855652332306 -0.05102315917611122
0.6764342784881592 0.42944538593292236 -0.041971251368522644
0.6960002779960632 0.4368913769721985 -0.027274569496512413
0.7082615494728088 0.4715598523616791 0.013212996535003185
0.7719504833221436 0.5136550664901733 0.12305552512407303
0.686638355255127 0.5080353021621704 0.00313586019910872
0.661218523979187 0.5168470144271851 -0.007773164194077253
0.6289951801300049 0.5173358917236328 -0.014690719544887543
0.5997036695480347 0.5117512941360474 -0.01822846755385399
0.5777726769447327 0.5045877695083618 -0.018603669479489326
0.5624340772628784 0.497958779335022 -0.02068428322672844
0.7749666571617126 0.4999704957008362 0.20988520979881287
0.5594959855079651 0.6334899067878723 -0.051734983921051025
0.5336401462554932 0.5636720061302185 -0.08489176630973816
0.5277113318443298 0.6311607956886292 -0.1059260368347168
0.5159514546394348 0.6394087672233582 -0.09358549118041992
0.5282663702964783 0.632843554019928 -0.09452857822179794
0.5530163645744324 0.6387912034988403 -0.041930507868528366
0.5113621950149536 0.6424384713172913 -0.098965585231781
0.5101038217544556 0.6441951990127563 -0.07060467451810837
0.5644395351409912 0.47949546575546265 -0.015015714801847935
0.5503759384155273 0.48611944913864136 -0.02603052370250225
0.5418107509613037 0.49225860834121704 -0.0390431247651577
0.677777111530304 0.4690532088279724 -0.010567912831902504
0.6910377740859985 0.4564591944217682 -0.011044919490814209
