ply
format ascii 1.0
element vertex 468
property float x
property float y
property float z
end_header
0.49484783411026 0.724836528301239 -0.03169192373752594
0.49385887384414673 0.6607968807220459 -0.11226262897253036
0.49449804425239563 0.6738550662994385 -0.04573262855410576
0.47676992416381836 0.5726397633552551 -0.10435036569833755
0.4941290616989136 0.6376512050628662 -0.1258280873298645
0.4950734078884125 0.6020516753196716 -0.12554623186588287
0.49867671728134155 0.5075086355209351 -0.09175518900156021
0.3375358283519745 0.47575750946998596 -0.0026817002799361944
0.5004716515541077 0.4413180947303772 -0.09585016220808029
0.5009377598762512 0.4074368476867676 -0.11164546012878418
0.5031269788742065 0.2666695713996887 -0.12767687439918518
0.4949733018875122 0.735610842704773 -0.025494009256362915
0.4953501522541046 0.7423022985458374 -0.015301046893000603
0.49589911103248596 0.7434189319610596 -0.003561518620699644
0.4967668354511261 0.7476298809051514 0.003299860516563058
0.49660786986351013 0.757951021194458 0.0026203293818980455
0.49645915627479553 0.7703478336334229 0.0020716688595712185
0.49656006693840027 0.7820882797241211 0.009788023307919502
0.49713853001594543 0.796088695526123 0.03838758170604706
0.4937025308609009 0.6695505380630493 -0.09773475676774979
0.47328856587409973 0.6622517108917236 -0.06515198200941086
0.2520737946033478 0.3524573743343353 0.07023731619119644
0.4073728322982788 0.49926573038101196 -0.021478399634361267
0.3846088647842407 0.5008536577224731 -0.018834779039025307
0.3614627718925476 0.499321848154068 -0.012360578402876854
0.3292437493801117 0.48179736733436584 0.003970726393163204
0.4248782992362976 0.4941641688346863 -0.0211536455899477
0.3698490858078003 0.44307029247283936 -0.043978188186883926
0.39460110664367676 0.44491302967071533 -0.04529283940792084
0.34782856702804565 0.44501960277557373 -0.03471485525369644
0.33334627747535706 0.4506661295890808 -0.023692229762673378
0.3106914758682251 0.49530771374702454 0.01910429820418358
0.41656503081321716 0.8199156522750854 0.07963864505290985
0.3279246687889099 0.4685747027397156 0.0029341403860598803
0.24458730220794678 0.4613601863384247 0.11562168598175049
0.28383684158325195 0.47403138875961304 0.0363142304122448
0.3849240839481354 0.6087615489959717 -0.0090201860293746
0.4673106372356415 0.7196406126022339 -0.02873724140226841
0.47206342220306396 0.7401466965675354 -0.011479724198579788
0.44009074568748474 0.7218427658081055 -0.012802702374756336
0.4242019057273865 0.7254974842071533 0.006161240395158529
0.45252877473831177 0.7380393743515015 -0.001976531930267811
0.43792998790740967 0.7363700866699219 0.014532244764268398
0.3977121114730835 0.7499027252197266 0.055580053478479385
0.47516775131225586 0.6588066816329956 -0.11023657768964767
0.47213253378868103 0.6365333199501038 -0.12291604280471802
0.29716581106185913 0.4237438440322876 -0.027228333055973053
0.43062373995780945 0.5484422445297241 -0.03247630596160889
0.42453286051750183 0.6367566585540771 -0.05453886464238167
0.4238414168357849 0.6213634610176086 -0.050565071403980255
0.3183519244194031 0.5966036915779114 0.018285980448126793
0.4741207957267761 0.603117823600769 -0.11784391105175018
0.34946611523628235 0.4097196161746979 -0.07447943836450577
0.3185045123100281 0.41266804933547974 -0.05421406775712967
0.27199503779411316 0.3170957863330841 0.011695640161633492
0.4500463008880615 0.43545427918434143 -0.09032154083251953
0.41639092564582825 0.45218247175216675 -0.03717634454369545
0.38032299280166626 0.7290282249450684 0.05420226231217384
0.2813294231891632 0.670316219329834 0.2559070289134979
0.4406616985797882 0.6501762270927429 -0.04287702962756157
0.4589904844760895 0.6594688892364502 -0.04220623895525932
0.405626118183136 0.7313521504402161 0.05047950521111488
0.4157392978668213 0.7316818833351135 0.0434977263212204
0.305517315864563 0.3930831253528595 -0.048802170902490616
0.4245036840438843 0.6433550119400024 -0.038876015692949295
0.3919517993927002 0.41535401344299316 -0.08695601671934128
0.3871588110923767 0.39439815282821655 -0.09782736003398895
0.36235857009887695 0.27435898780822754 -0.09252079576253891
0.28877609968185425 0.3546319305896759 -0.023897236213088036
0.37720513343811035 0.33398211002349854 -0.09748280793428421
0.2826216220855713 0.40759414434432983 -0.012085882015526295
0.2669107913970947 0.3815763294696808 0.025326060131192207
0.46925023198127747 0.7323033213615417 -0.022730158641934395
0.44695109128952026 0.7325171232223511 -0.008220858871936798
0.43110018968582153 0.7317565679550171 0.008782775141298771
0.4462970495223999 0.6540558338165283 -0.037400469183921814
0.4110158085823059 0.73192298412323 0.04665197804570198
0.42035841941833496 0.7384771108627319 0.035747967660427094
0.4178313612937927 0.730276346206665 0.04265834391117096
0.45134052634239197 0.6494373679161072 -0.07748369872570038
0.4426867961883545 0.734039306640625 0.01877589151263237
0.4576278328895569 0.7375737428665161 0.008046265691518784
0.4756931662559509 0.7413278818130493 -0.0003184872039128095
0.46846434473991394 0.7945641279220581 0.0398222841322422
0.469417542219162 0.7790781259536743 0.011464037001132965
0.4703722596168518 0.7665767669677734 0.004461958073079586
0.47230204939842224 0.7545070648193359 0.005248232278972864
0.47449976205825806 0.7457880973815918 0.006400232668966055
0.4398234486579895 0.7379846572875977 0.02328626625239849
0.4364960193634033 0.7410163879394531 0.021632671356201172
0.4316188097000122 0.7468511462211609 0.021528933197259903
0.4272077679634094 0.7537514567375183 0.02764672227203846
0.40384167432785034 0.6980581283569336 0.006850171834230423
0.2527039051055908 0.5503906011581421 0.24795088171958923
0.4940129518508911 0.6703949570655823 -0.06475376337766647
0.4300428628921509 0.7350140810012817 0.03471677377820015
0.42562028765678406 0.7363681197166443 0.03398999944329262
0.46639442443847656 0.6707586050033569 -0.03889637812972069
0.43189990520477295 0.65604168176651 -0.018353385850787163
0.46277207136154175 0.665534257888794 -0.041454292833805084
0.408434122800827 0.5593171119689941 -0.019273854792118073
0.3710658550262451 0.5738493800163269 -0.007999450899660587
0.4209706783294678 0.6286740899085999 -0.034792281687259674
0.30648061633110046 0.29048505425453186 -0.044525012373924255
0.3237079381942749 0.33757567405700684 -0.06360787898302078
0.340608149766922 0.3875541687011719 -0.0768657848238945
0.4165123403072357 0.7669408321380615 0.04917742311954498
0.4422628879547119 0.40316906571388245 -0.1088540181517601
0.434496134519577 0.33544304966926575 -0.11622060835361481
0.4256718158721924 0.2672097384929657 -0.11965262144804001
0.3410547375679016 0.4928113520145416 -0.0033815414644777775
0.28565388917922974 0.5097911953926086 0.036938898265361786
0.4354318380355835 0.4893605709075928 -0.02017989195883274
0.3086513876914978 0.45228293538093567 -0.004542652051895857
0.44580787420272827 0.5360850095748901 -0.04521403834223747
0.43710342049598694 0.6340862512588501 -0.0797247365117073
0.26263123750686646 0.5203145742416382 0.06842441856861115
0.3017672598361969 0.5317018032073975 0.022345492616295815
0.33164000511169434 0.545823335647583 0.003978407010436058
0.37658900022506714 0.5444973707199097 -0.007583542261272669
0.4085844159126282 0.5355144143104553 -0.015639986842870712
0.4305444657802582 0.5264939069747925 -0.025714725255966187
0.4763607680797577 0.511819064617157 -0.08117729425430298
0.2680431604385376 0.5728738307952881 0.07862557470798492
0.2886725068092346 0.4453859329223633 0.004156728740781546
0.48255735635757446 0.6679754853248596 -0.09624923765659332
0.4319326877593994 0.5766497254371643 -0.03357723355293274
0.24087870121002197 0.444313645362854 0.1907978057861328
0.44704896211624146 0.5167915225028992 -0.03408030793070793
0.4196396470069885 0.6259960532188416 -0.011845807544887066
0.321113646030426 0.4677192270755768 0.007598990574479103
0.436836838722229 0.6152378916740417 -0.07520986348390579
0.2634829580783844 0.6085093021392822 0.2577761709690094
0.43374866247177124 0.4806528091430664 -0.018246173858642578
0.4547150731086731 0.6072683930397034 -0.10131222009658813
0.3265179395675659 0.7505523562431335 0.1491745561361313
0.33105021715164185 0.765390157699585 0.19992481172084808
0.2500729560852051 0.5635409355163574 0.1628965139389038
0.2984282970428467 0.7134603261947632 0.168723925948143
0.2544451057910919 0.4167170524597168 0.07549096643924713
0.413642555475235 0.8375858068466187 0.1022476851940155
0.4851234555244446 0.6690057516098022 -0.06309021264314651
0.4127851128578186 0.5910778045654297 -0.0194796584546566
0.26456335186958313 0.47322940826416016 0.060216356068849564
0.3635348677635193 0.4854826033115387 -0.01441003568470478
0.3846251964569092 0.48769789934158325 -0.02003660798072815
0.41467201709747314 0.7415769100189209 0.04095814749598503
0.27503305673599243 0.6193429231643677 0.10339903831481934
0.45369312167167664 0.8659570217132568 0.11929263174533844
0.39187127351760864 0.8264715075492859 0.1531844437122345
0.3645702004432678 0.8014892339706421 0.17310044169425964
0.501891016960144 0.3371717929840088 -0.12221146374940872
0.4978417754173279 0.8719396591186523 0.11331414431333542
0.4033994972705841 0.48602044582366943 -0.022203046828508377
0.4203883409500122 0.4823540449142456 -0.020647477358579636
0.43014633655548096 0.4810959994792938 -0.017721867188811302
0.27176958322525024 0.4344560503959656 0.025165878236293793
0.41422149538993835 0.46583446860313416 -0.02978365868330002
0.3940789997577667 0.4598950147628784 -0.034549593925476074
0.37353354692459106 0.45881107449531555 -0.03270133212208748
0.3530828356742859 0.4611552655696869 -0.02580251358449459
0.34044525027275085 0.4651222229003906 -0.017018264159560204
0.24194687604904175 0.3922966420650482 0.13362522423267365
0.34852924942970276 0.48091739416122437 -0.00797281414270401
0.4949781000614166 0.6889790892601013 -0.03578966483473778
0.42244037985801697 0.6884201169013977 -0.009503453969955444
0.4398418962955475 0.6484053134918213 -0.053857024759054184
0.4644153416156769 0.6889816522598267 -0.032285332679748535
0.5000038146972656 0.47103506326675415 -0.08547122776508331
0.35647234320640564 0.784209132194519 0.13660301268100739
0.3841586112976074 0.8105981349945068 0.12150595337152481
0.45065608620643616 0.858401358127594 0.08481574058532715
0.30432581901550293 0.7238515615463257 0.2322540134191513
0.4274785816669464 0.4749676585197449 -0.02345205470919609
0.46008533239364624 0.5528653860092163 -0.07483183592557907
0.49724018573760986 0.8639533519744873 0.07999929040670395
0.4203239381313324 0.8495303988456726 0.13223013281822205
0.2600143253803253 0.6155784130096436 0.17801854014396667
0.45542269945144653 0.7420346140861511 0.014021790586411953
0.4518948793411255 0.7480747103691101 0.012109466828405857
0.4484344720840454 0.75725257396698 0.011823023669421673
0.44580546021461487 0.7685462236404419 0.018346931785345078
0.4396500885486603 0.7827507257461548 0.041973356157541275
0.42492106556892395 0.7339010238647461 0.029408281669020653
0.418301522731781 0.7316277623176575 0.02900603599846363
0.4117702841758728 0.7275472283363342 0.027805252000689507
0.3884598910808563 0.7121558785438538 0.02813876047730446
0.3034816086292267 0.6420146822929382 0.05998556315898895
0.46119242906570435 0.522746741771698 -0.061814699321985245
0.4505419135093689 0.4680323004722595 -0.03934207186102867
0.4367561340332031 0.46891990303993225 -0.030172303318977356
0.429801344871521 0.7308999300003052 0.03211512416601181
0.3049350380897522 0.6910003423690796 0.11328833550214767
0.4697876274585724 0.4723644256591797 -0.06859441846609116
0.4269331097602844 0.8007665276527405 0.06226737052202225
0.4963685870170593 0.570321261882782 -0.11342112720012665
0.4759659767150879 0.5440126061439514 -0.09580457955598831
0.4974520802497864 0.54031902551651 -0.102432481944561
0.44404080510139465 0.5902495384216309 -0.06247821822762489
0.4969891309738159 0.8456370830535889 0.05906805023550987
0.4969557523727417 0.8194798827171326 0.04931176081299782
0.46075955033302307 0.8164353966712952 0.05390084162354469
0.3767516016960144 0.7557045817375183 0.07261486351490021
0.40089666843414307 0.6424617171287537 -0.000833836558740586
0.39976930618286133 0.7803717851638794 0.06952160596847534
0.349435418844223 0.6339106559753418 0.00917281024158001
0.38063764572143555 0.6644272208213806 0.010874233208596706
0.3325444459915161 0.6672645211219788 0.03913590684533119
0.4532851278781891 0.8410372734069824 0.06430051475763321
0.4318409562110901 0.5988041162490845 -0.04126856103539467
0.3600107431411743 0.7668836712837219 0.10134999454021454
0.3880203366279602 0.7941130995750427 0.0951365977525711
0.35840854048728943 0.7279942631721497 0.06607399135828018
0.28365835547447205 0.6575680375099182 0.12520605325698853
0.3321853280067444 0.7236415147781372 0.09000721573829651
0.27405494451522827 0.6645833253860474 0.1857225000858307
0.36449092626571655 0.6916704773902893 0.03054226189851761
0.4460338354110718 0.5643112063407898 -0.052996523678302765
0.44411203265190125 0.645984947681427 -0.08316762000322342
0.4308553636074066 0.6456877589225769 -0.05526933819055557
0.4532569646835327 0.6348456740379333 -0.10237151384353638
0.43176159262657166 0.44869086146354675 -0.052115269005298615
0.3941538631916046 0.43569284677505493 -0.0589289553463459
0.3621121644973755 0.4318903684616089 -0.05640203505754471
0.3358050286769867 0.432748019695282 -0.04456896707415581
0.31800776720046997 0.43906170129776 -0.028040315955877304
0.30538883805274963 0.4709533452987671 0.017874090000987053
0.24412530660629272 0.5121485590934753 0.14073072373867035
0.3240062892436981 0.5086897611618042 0.01089164987206459
0.34825849533081055 0.5189564824104309 -0.0014090444892644882
0.37992382049560547 0.5203257203102112 -0.01042318344116211
0.408486008644104 0.5153698921203613 -0.016346534714102745
0.42894241213798523 0.5089684724807739 -0.020404722541570663
0.4428587853908539 0.5032769441604614 -0.024252351373434067
0.246789813041687 0.49602964520454407 0.22613635659217834
0.4321731626987457 0.6492347121238708 -0.04251487925648689
0.45911529660224915 0.5796294212341309 -0.08488278090953827
0.459420770406723 0.6523038744926453 -0.10014966130256653
0.47186848521232605 0.6612365245819092 -0.08764118701219559
0.45972007513046265 0.6531579494476318 -0.08836233615875244
0.43833601474761963 0.6551772356033325 -0.032752376049757004
0.4757326543331146 0.6651962399482727 -0.09311561286449432
0.4780879020690918 0.6666879653930664 -0.0640077143907547
0.44158244132995605 0.4834849238395691 -0.020871002227067947
0.45380276441574097 0.49207156896591187 -0.032566823065280914
0.46016088128089905 0.5002787709236145 -0.046325620263814926
0.3329983353614807 0.4676196575164795 -0.008216953836381435
0.32211780548095703 0.4564276337623596 -0.008458615280687809
0.5164375901222229 0.5729362368583679 -0.10546716302633286
0.6696698069572449 0.475745290517807 -0.009931059554219246
0.5151580572128296 0.6630048751831055 -0.06599245220422745
0.7678670883178711 0.3537299633026123 0.058546703308820724
0.5967755913734436 0.4994545578956604 -0.02612856589257717
0.6201071739196777 0.5013713836669922 -0.024382706731557846
0.6439500451087952 0.500190794467926 -0.01909210905432701
0.6782578229904175 0.4820210337638855 -0.003737613558769226
0.5783963203430176 0.49411314725875854 -0.024607989937067032
0.6367907524108887 0.44116392731666565 -0.050170958042144775
0.6108317971229553 0.4432980716228485 -0.05020221695303917
0.6601355671882629 0.44327253103256226 -0.04179888591170311
0.6752126216888428 0.44941478967666626 -0.031440846621990204
0.6968488693237305 0.4964529275894165 0.011044556275010109
0.5789870619773865 0.8215383291244507 0.0766817033290863
0.6800740361213684 0.4679614007472992 -0.004750865511596203
0.7695188522338867 0.46261119842529297 0.10442786663770676
0.726033091545105 0.4746095538139343 0.02719217911362648
0.6130063533782959 0.6110477447509766 -0.013640095479786396
0.5229893326759338 0.7205675840377808 -0.030333712697029114
0.5195655226707458 0.7410115003585815 -0.012874998152256012
0.5517162084579468 0.7240094542503357 -0.015993265435099602
0.5697622299194336 0.7281322479248047 0.0022721814457327127
0.5400933027267456 0.739634096622467 -0.004868773743510246
0.556373655796051 0.7383009791374207 0.0111073087900877
0.5988287329673767 0.7526072859764099 0.05118366330862045
0.5127968192100525 0.6592249274253845 -0.11086809635162354
0.5166327357292175 0.6369150876998901 -0.12375763058662415
0.7152995467185974 0.42113596200942993 -0.0362887904047966
0.5689287781715393 0.5495275855064392 -0.03570082038640976
0.5669302344322205 0.6390378475189209 -0.05772335082292557
0.5691167116165161 0.6236468553543091 -0.054048966616392136
0.683171272277832 0.5996540188789368 0.011102885007858276
0.5165194272994995 0.6034207940101624 -0.11876358836889267
0.6592437624931335 0.4053802490234375 -0.07974133640527725
0.692572832107544 0.4089391231536865 -0.0614607073366642
0.7468529939651489 0.31780317425727844 0.0011648016516119242
0.5522302389144897 0.43396151065826416 -0.09164603799581528
0.5882834196090698 0.45117101073265076 -0.04118653014302254
0.6162312626838684 0.7319208383560181 0.04927439242601395
0.7256519794464111 0.6718512177467346 0.24584993720054626
0.5497183799743652 0.652437686920166 -0.04552927240729332
0.5309281945228577 0.6609897017478943 -0.04342477023601532
0.5907112956047058 0.7343789339065552 0.045905936509370804
0.580974280834198 0.734194278717041 0.039407022297382355
0.7079077959060669 0.3890044689178467 -0.056797709316015244
0.5671483278274536 0.6460369825363159 -0.04199869558215141
0.6132110953330994 0.4121210277080536 -0.09064372628927231
0.6186321377754211 0.3907052278518677 -0.10185607522726059
0.6479999423027039 0.27447497844696045 -0.09836693108081818
0.7269822955131531 0.353439599275589 -0.03309979289770126
0.6304764151573181 0.332351416349411 -0.10246533900499344
0.7314459085464478 0.40521639585494995 -0.021879276260733604
0.7499158382415771 0.3814685046672821 0.014791732653975487
0.5216938853263855 0.7332273125648499 -0.0242364052683115
0.5453019738197327 0.7343878149986267 -0.011190577410161495
0.5630403161048889 0.7341113090515137 0.004878610838204622
0.5440330505371094 0.6561615467071533 -0.03925497084856033
0.5853196382522583 0.7346498370170593 0.04220148175954819
0.5757904648780823 0.7408319115638733 0.03178844228386879
0.5791277885437012 0.732795000076294 0.03867266699671745
0.5377742052078247 0.6508726477622986 -0.07968157529830933
0.5522462129592896 0.7356451153755188 0.015527375042438507
0.5359593629837036 0.7389733195304871 0.005534193944185972
0.5170424580574036 0.7419946193695068 -0.0017664838815107942
0.526465654373169 0.7952383160591125 0.038913995027542114
0.5246415138244629 0.7797980904579163 0.009971413761377335
0.5233967900276184 0.7673937082290649 0.0028333556838333607
0.5215211510658264 0.7553029656410217 0.0036580099258571863
0.5197063088417053 0.7466452121734619 0.004711410962045193
0.5562212467193604 0.7398526072502136 0.01998951844871044
0.5594167709350586 0.7429158091545105 0.018155794590711594
0.5639387369155884 0.7488433122634888 0.018266065046191216
0.5681702494621277 0.7557312846183777 0.02458285540342331
0.5904641151428223 0.7006150484085083 0.0025336320977658033
0.7599119544029236 0.5520346164703369 0.23682060837745667
0.5666226744651794 0.7371551394462585 0.030994892120361328
0.5707506537437439 0.7386519312858582 0.03018413670361042
0.522966742515564 0.6719523668289185 -0.04006092622876167
0.5594947338104248 0.6585510969161987 -0.020711472257971764
0.5266662836074829 0.6667790412902832 -0.04276077076792717
0.5914797782897949 0.5609238147735596 -0.023412354290485382
0.6294464468955994 0.5761207938194275 -0.012989874929189682
0.5722235441207886 0.6311790943145752 -0.03837328404188156
0.7087580561637878 0.29053550958633423 -0.053483471274375916
0.6892191171646118 0.33536607027053833 -0.07091344892978668
0.6692343354225159 0.3830047845840454 -0.08306756615638733
0.5794922113418579 0.7689161896705627 0.04565409570932388
0.5607307553291321 0.4011586904525757 -0.1102328822016716
0.5701783299446106 0.3350610136985779 -0.11878762394189835
0.5815462470054626 0.2674175798892975 -0.12250053882598877
0.6654430627822876 0.4935254156589508 -0.010893849655985832
0.7218285799026489 0.5117512941360474 0.02774147503077984
0.567644476890564 0.48919403553009033 -0.02324676141142845
0.7014692425727844 0.4511995017528534 -0.013162636198103428
0.553553581237793 0.5367334485054016 -0.047959037125110626
0.5535162687301636 0.6358332633972168 -0.08241146802902222
0.7456151247024536 0.5225600004196167 0.05829585716128349
0.7036402225494385 0.5340892672538757 0.014000791124999523
0.6717732548713684 0.5481646656990051 -0.003201889805495739
0.6256022453308105 0.5462929010391235 -0.012929690070450306
0.5930727124214172 0.5366648435592651 -0.019829019904136658
0.5706896185874939 0.5272706151008606 -0.02901650033891201
0.5219044089317322 0.5118149518966675 -0.08217987418174744
0.7371751070022583 0.5756534337997437 0.06883656978607178
0.7225737571716309 0.4445199966430664 -0.005566098261624575
0.5052512288093567 0.6683765053749084 -0.09663543105125427
0.5653273463249207 0.578009307384491 -0.03688335046172142
0.7764949798583984 0.44576770067214966 0.17901059985160828
0.553715169429779 0.5171716809272766 -0.03646958991885185
0.5744715332984924 0.6283892393112183 -0.014871571213006973
0.687339186668396 0.46696537733078003 -0.00028505499358288944
0.5554929375648499 0.6168866157531738 -0.07803384214639664
0.7464631795883179 0.6102808713912964 0.24722495675086975
0.5697767734527588 0.48012274503707886 -0.021419638767838478
0.5370246171951294 0.6081447601318359 -0.10319538414478302
0.6732706427574158 0.752243161201477 0.14171557128429413
0.6705095171928406 0.766421914100647 0.19214151799678802
0.758484423160553 0.5654446482658386 0.15203437209129333
0.7031008005142212 0.7151939272880554 0.15999576449394226
0.7609937191009521 0.41749322414398193 0.06440988183021545
0.5824136734008789 0.8387811183929443 0.09888855367898941
0.5029153227806091 0.6693342924118042 -0.06346466392278671
0.5846536755561829 0.592944860458374 -0.023213179782032967
0.7464615106582642 0.4741901755332947 0.04978020116686821
0.6424365043640137 0.4858912527561188 -0.020664891228079796
0.6207135915756226 0.4879780411720276 -0.02542082965373993
0.5815881490707397 0.7440860271453857 0.036795973777770996
0.7283129692077637 0.6221427917480469 0.09371808171272278
0.5428081750869751 0.8665586709976196 0.11737752705812454
0.6066627502441406 0.8277009725570679 0.14804328978061676
0.6352495551109314 0.8025548458099365 0.16688886284828186
0.6012993454933167 0.4859503507614136 -0.026801450178027153
0.5836284756660461 0.4819832444190979 -0.024484330788254738
0.5735853910446167 0.48067501187324524 -0.021090980619192123
0.7408627867698669 0.433984637260437 0.01486024260520935
0.5910027027130127 0.4651159644126892 -0.034286633133888245
0.6123802661895752 0.45883888006210327 -0.0397816076874733
0.6334720849990845 0.45777156949043274 -0.03876953944563866
0.6543349623680115 0.46028268337249756 -0.0327061302959919
0.6671138405799866 0.4643612504005432 -0.02433895319700241
0.7769104242324829 0.3939850926399231 0.12175337225198746
0.6580843925476074 0.48132091760635376 -0.014809075742959976
0.5699948668479919 0.6907926201820374 -0.012788237072527409
0.550334095954895 0.6506115198135376 -0.05616394802927971
0.5261075496673584 0.6900473833084106 -0.03377644717693329
0.6421517133712769 0.7860296964645386 0.13063576817512512
0.6128464937210083 0.8120331168174744 0.11689687520265579
0.5446596145629883 0.8593013286590576 0.08332560956478119
0.6996421217918396 0.7249897122383118 0.22267913818359375
0.5765752792358398 0.47448819875717163 -0.027197057381272316
0.5363169312477112 0.5534425973892212 -0.07685142010450363
0.5768738389015198 0.8504599332809448 0.12846340239048004
0.7459431290626526 0.6175501942634583 0.16746202111244202
0.5396905541419983 0.7435222864151001 0.01114240288734436
0.542915403842926 0.7494774460792542 0.009261123836040497
0.5462185740470886 0.7586082220077515 0.009083230048418045
0.5488326549530029 0.7699139714241028 0.01579609140753746
0.555711030960083 0.7840787172317505 0.03945324942469597
0.5708134174346924 0.7361886501312256 0.025440985336899757
0.5772919058799744 0.7343581318855286 0.02457670122385025
0.5838027000427246 0.7304055690765381 0.023307958617806435
0.6073474287986755 0.7149171829223633 0.023343238979578018
0.6971542239189148 0.6448516845703125 0.05236480385065079
0.5376527309417725 0.523076593875885 -0.0639101192355156
0.5520992875099182 0.4674188494682312 -0.04191216826438904
0.5667730569839478 0.46828290820121765 -0.033330585807561874
0.566202700138092 0.7330065965652466 0.028404660522937775
0.6954250931739807 0.6934390664100647 0.1052456647157669
0.5312361717224121 0.4719986617565155 -0.07011590152978897
0.568315863609314 0.8020958304405212 0.05964110046625137
0.5195422768592834 0.5442318320274353 -0.09680117666721344
0.5508495569229126 0.5913470983505249 -0.06504151970148087
0.5340692400932312 0.8173400163650513 0.05263584107160568
0.6201868653297424 0.7581614255905151 0.0680648535490036
0.5941203832626343 0.6451475620269775 -0.00499182753264904
0.5964495539665222 0.7823987603187561 0.06597641855478287
0.6490351557731628 0.6367171406745911 0.003639634232968092
0.6157885789871216 0.6672130823135376 0.006086507346481085
0.6662760376930237 0.670141875743866 0.03289123997092247
0.5417277812957764 0.8418970108032227 0.06294743716716766
0.5634891390800476 0.6004793047904968 -0.044372111558914185
0.6378787755966187 0.7691053152084351 0.09579625725746155
0.6082301139831543 0.7958719730377197 0.09108726680278778
0.6390816569328308 0.7305808067321777 0.06060498580336571
0.7186099290847778 0.6602484583854675 0.11615385860204697
0.6661663055419922 0.7260909080505371 0.08330083638429642
0.729967474937439 0.6664330959320068 0.17551787197589874
0.6327041983604431 0.69455885887146 0.025067243725061417
0.550834059715271 0.5652428269386292 -0.05560799688100815
0.5452747941017151 0.6476455926895142 -0.08562765270471573
0.5597161650657654 0.6481562256813049 -0.058072902262210846
0.5363828539848328 0.6359555125236511 -0.10476097464561462
0.5715810656547546 0.44737377762794495 -0.055503033101558685
0.6105963587760925 0.43345892429351807 -0.0631558746099472
0.6445435285568237 0.4294734597206116 -0.06183783337473869
0.6727162599563599 0.4307916462421417 -0.051406096667051315
0.6918426156044006 0.43733716011047363 -0.035841457545757294
0.7040072679519653 0.4708695709705353 0.009340615943074226
0.76750648021698 0.5139989256858826 0.1295417696237564
0.6822912096977234 0.509960949420929 0.003075691871345043
0.6563328504562378 0.5205691456794739 -0.008092941716313362
0.6236861348152161 0.5215189456939697 -0.01591097190976143
0.5944139957427979 0.5159816741943359 -0.020722610875964165
0.5735558867454529 0.5093168616294861 -0.02376972697675228
0.5592281222343445 0.503343939781189 -0.02706916816532612
0.7687566876411438 0.4974324405193329 0.21470239758491516
0.5587067008018494 0.6517828106880188 -0.04522576555609703
0.534889817237854 0.5803006291389465 -0.08696744590997696
0.5290359258651733 0.6533191204071045 -0.10173279792070389
0.5164301991462708 0.6619519591331482 -0.08860841393470764
0.5288795232772827 0.6542911529541016 -0.08992964029312134
0.5524100065231323 0.6576069593429565 -0.035237133502960205
0.5122877359390259 0.6657094955444336 -0.09379386156797409
0.5101773738861084 0.6671345829963684 -0.0646214485168457
0.561383843421936 0.4830842614173889 -0.023826897144317627
0.5480309128761292 0.49189993739128113 -0.03479622304439545
0.5406454205513 0.500206470489502 -0.04812931641936302
0.6745519042015076 0.46697109937667847 -0.015634505078196526
0.6867684125900269 0.45538291335105896 -0.01643141359090805
