ply
format ascii 1.0
element vertex 468
property float x
property float y
property float z
end_header
0.5052871108055115 0.7141148447990417 -0.044144485145807266
0.5168288946151733 0.6452013254165649 -0.11937956511974335
0.5091022849082947 0.6647189259529114 -0.05628206208348274
0.4952510893344879 0.5623045563697815 -0.10436610877513885
0.5181241631507874 0.6205959916114807 -0.13059931993484497
0.5171454548835754 0.5869075655937195 -0.12657558917999268
0.5116178393363953 0.5046965479850769 -0.07960038632154465
0.33285731077194214 0.4869921803474426 -0.00971578061580658
0.5104203224182129 0.4420391917228699 -0.07298864424228668
0.5114691257476807 0.4088830351829529 -0.08373209089040756
0.5105499029159546 0.279641717672348 -0.08409082889556885
0.5043131113052368 0.7248717546463013 -0.0390910767018795
0.503006637096405 0.7311958074569702 -0.030797934159636497
0.5017006397247314 0.7316674590110779 -0.020292213186621666
0.5021851062774658 0.7320331931114197 -0.0204172246158123
0.502453625202179 0.7404868006706238 -0.023175405338406563
0.5022441744804382 0.7515242695808411 -0.02688673511147499
0.501587986946106 0.7643582820892334 -0.02366199716925621
0.49935382604599 0.7891908884048462 -0.0014154496602714062
0.5145888924598694 0.6566655039787292 -0.10585859417915344
0.4911361038684845 0.6526284217834473 -0.07618007808923721
0.2422305941581726 0.3805404305458069 0.06609140336513519
0.4044787287712097 0.5102918744087219 -0.023671425879001617
0.38058537244796753 0.5116404891014099 -0.023783758282661438
0.3570998013019562 0.5096561908721924 -0.019834043458104134
0.3228234052658081 0.4938996732234955 -0.0053157201036810875
0.42428866028785706 0.5051337480545044 -0.018638888373970985
0.3725111484527588 0.4487731456756592 -0.04219744727015495
0.39796242117881775 0.4519139528274536 -0.03938886895775795
0.3479466438293457 0.45096999406814575 -0.03609227016568184
0.3308872580528259 0.4583829939365387 -0.02748293988406658
0.304156631231308 0.507643461227417 0.007561380974948406
0.4112006425857544 0.8286533355712891 0.028826093301177025
0.3228219151496887 0.4798673391342163 -0.0038949945010244846
0.2307102531194687 0.4885566532611847 0.09718985110521317
0.2777545154094696 0.4898304343223572 0.024490440264344215
0.38304170966148376 0.6084095239639282 -0.028072064742445946
0.47330591082572937 0.7088437080383301 -0.045821819454431534
0.47230085730552673 0.728606104850769 -0.030629156157374382
0.43803560733795166 0.709037721157074 -0.03377745300531387
0.41198787093162537 0.7096667289733887 -0.015461739152669907
0.4460492730140686 0.724953830242157 -0.02301141433417797
0.4238317012786865 0.7209380865097046 -0.0064009870402514935
0.38090723752975464 0.7374158501625061 0.026006700471043587
0.49772724509239197 0.6440570950508118 -0.11924786120653152
0.4962042570114136 0.619965136051178 -0.13009591400623322
0.29552921652793884 0.4290291666984558 -0.03052949346601963
0.4353596568107605 0.5517479777336121 -0.036220576614141464
0.4381926953792572 0.6285046935081482 -0.07031252235174179
0.43566426634788513 0.6143914461135864 -0.06533344089984894
0.3056316375732422 0.6001678705215454 -0.005797289777547121
0.4960950016975403 0.5886552333831787 -0.12198428064584732
0.35644733905792236 0.4083440601825714 -0.06575314700603485
0.3210999071598053 0.41341346502304077 -0.050966355949640274
0.26948148012161255 0.3393481373786926 0.01694144494831562
0.46030327677726746 0.4361646771430969 -0.07245266437530518
0.4194352626800537 0.4609000086784363 -0.02961534447968006
0.3601182997226715 0.7129631638526917 0.02440115250647068
0.2453283667564392 0.7103157043457031 0.20516687631607056
0.4536843001842499 0.6424100995063782 -0.05785728618502617
0.47312816977500916 0.6512138843536377 -0.054321520030498505
0.3802259564399719 0.70933598279953 0.026432756334543228
0.39042797684669495 0.7106298804283142 0.021952709183096886
0.3077002763748169 0.3949406147003174 -0.04555617645382881
0.4349338710308075 0.6360019445419312 -0.0557631254196167
0.4020746648311615 0.4145420789718628 -0.07369395345449448
0.39908838272094727 0.3934379518032074 -0.08298582583665848
0.37263405323028564 0.2876589000225067 -0.06826318055391312
0.28972887992858887 0.36681389808654785 -0.019220197573304176
0.38941025733947754 0.3390764594078064 -0.07702196389436722
0.28006047010421753 0.415829062461853 -0.015866706147789955
0.26155710220336914 0.39979177713394165 0.02224152162671089
0.47246456146240234 0.7212121486663818 -0.04046977683901787
0.44286444783210754 0.7190392017364502 -0.028617013245821
0.4184381663799286 0.7156047821044922 -0.012415786273777485
0.45893925428390503 0.6462778449058533 -0.050895366817712784
0.3853415548801422 0.7095335721969604 0.024229012429714203
0.40042632818222046 0.7188634276390076 0.012619715183973312
0.39333346486091614 0.7112365961074829 0.021635985001921654
0.46913084387779236 0.639971911907196 -0.09059248864650726
0.42660292983055115 0.718652606010437 -0.002162964316084981
0.44893163442611694 0.7243955731391907 -0.012995082885026932
0.4734596014022827 0.7290357947349548 -0.020484499633312225
0.4659554064273834 0.7878909111022949 -0.0021671289578080177
0.47004133462905884 0.7617316246032715 -0.024338237941265106
0.471448689699173 0.7480358481407166 -0.027708308771252632
0.47268128395080566 0.7374604344367981 -0.02335396222770214
0.47411149740219116 0.7303286194801331 -0.02048395574092865
0.4252151548862457 0.7214763164520264 -0.0009704263065941632
0.42239925265312195 0.723536491394043 -0.004110324662178755
0.4183961749076843 0.7289369106292725 -0.006201944779604673
0.4148676097393036 0.7370933890342712 -0.0010118725476786494
0.3955978751182556 0.6870265603065491 -0.013832035474479198
0.22173577547073364 0.5901626944541931 0.21094626188278198
0.5121093392372131 0.6601401567459106 -0.07387854158878326
0.41025054454803467 0.7177048921585083 0.013086136430501938
0.4057501256465912 0.71723872423172 0.01148149836808443
0.4802948534488678 0.6619390845298767 -0.053283851593732834
0.44011592864990234 0.6485355496406555 -0.03512498736381531
0.4770410358905792 0.6569048166275024 -0.05442696809768677
0.4092535972595215 0.5630744099617004 -0.028355082497000694
0.3672827482223511 0.5762416124343872 -0.022870754823088646
0.42981037497520447 0.6226730942726135 -0.05096321552991867
0.311151921749115 0.3076785206794739 -0.02972608618438244
0.3305705189704895 0.34517011046409607 -0.05152551457285881
0.3487577736377716 0.38704198598861694 -0.06763184070587158
0.40399694442749023 0.7588769793510437 0.0160775575786829
0.4544162452220917 0.4029582738876343 -0.08761562407016754
0.44743311405181885 0.3403259813785553 -0.0880945548415184
0.43703195452690125 0.27953052520751953 -0.08585721254348755
0.3353756368160248 0.5040271282196045 -0.012274310924112797
0.2783600091934204 0.5229846239089966 0.020627059042453766
0.4366159737110138 0.4994416832923889 -0.01568850688636303
0.3044666349887848 0.46306759119033813 -0.010752351954579353
0.4532938301563263 0.5384368300437927 -0.045209333300590515
0.45490777492523193 0.6239286661148071 -0.09288600832223892
0.2512196898460388 0.5376045107841492 0.04630177840590477
0.2950683832168579 0.5403240919113159 0.004908198490738869
0.32682833075523376 0.5508853197097778 -0.011334809474647045
0.37354737520217896 0.5500826239585876 -0.01751510426402092
0.40827298164367676 0.5425110459327698 -0.02104053646326065
0.4333325922489166 0.533153772354126 -0.026487458497285843
0.488550066947937 0.510230302810669 -0.07257317751646042
0.25036996603012085 0.5873632431030273 0.0496186800301075
0.28513193130493164 0.45754075050354004 -0.003744641551747918
0.5031579732894897 0.6554815769195557 -0.10602820664644241
0.4385724663734436 0.5764204263687134 -0.04191580042243004
0.2189461886882782 0.48108893632888794 0.16896355152130127
0.4521172344684601 0.5219998955726624 -0.03047889843583107
0.42467573285102844 0.6219801902770996 -0.02777688577771187
0.3154045343399048 0.48047006130218506 -9.386986494064331e-05
0.4524962902069092 0.606727659702301 -0.08667255938053131
0.2292822003364563 0.6495525240898132 0.21374444663524628
0.4352158308029175 0.49095162749290466 -0.012533723376691341
0.4741610884666443 0.595535397529602 -0.10906898230314255
0.3027040660381317 0.7717589139938354 0.09911943972110748
0.30490440130233765 0.7964902520179749 0.14479677379131317
0.22600889205932617 0.5913436412811279 0.1293794959783554
0.26817935705184937 0.7394108772277832 0.11870235949754715
0.245247945189476 0.44065552949905396 0.06473381072282791
0.4092802405357361 0.850851833820343 0.04538488760590553
0.5033047199249268 0.6588612794876099 -0.07312057912349701
0.41524991393089294 0.5910599827766418 -0.03260934725403786
0.25649282336235046 0.4926251769065857 0.044694818556308746
0.35941076278686523 0.4960169196128845 -0.019942527636885643
0.38089659810066223 0.49839553236961365 -0.0233615692704916
0.3948836922645569 0.7227342128753662 0.016781233251094818
0.2499266415834427 0.6360618472099304 0.06728971004486084
0.45110633969306946 0.8781414031982422 0.059734079986810684
0.38103556632995605 0.8486734628677368 0.09554167091846466
0.34714245796203613 0.8280394077301025 0.11736741662025452
0.5115429162979126 0.3429533541202545 -0.08636904507875443
0.49432480335235596 0.88163161277771 0.058692995458841324
0.4008209705352783 0.49732881784439087 -0.02244211733341217
0.41934049129486084 0.49400773644447327 -0.017924755811691284
0.4303876757621765 0.4923739731311798 -0.012871621176600456
0.2665891647338867 0.4499306082725525 0.015639321878552437
0.41453731060028076 0.4733808636665344 -0.02511904574930668
0.39382246136665344 0.4657219648361206 -0.03091985546052456
0.37315690517425537 0.463575541973114 -0.032148152589797974
0.35173946619033813 0.4664633274078369 -0.028027545660734177
0.33781498670578003 0.47229093313217163 -0.021243952214717865
0.22673983871936798 0.4252042770385742 0.12116624414920807
0.34403008222579956 0.49179214239120483 -0.014533855020999908
0.507420539855957 0.6805210113525391 -0.04711897298693657
0.42371654510498047 0.6787933707237244 -0.029148129746317863
0.45439037680625916 0.6404107809066772 -0.06711135059595108
0.4742867052555084 0.6798062920570374 -0.0484810471534729
0.5098173022270203 0.47157061100006104 -0.06817329674959183
0.34115079045295715 0.8028255701065063 0.08563210070133209
0.37455815076828003 0.8270912170410156 0.06746423989534378
0.4502876102924347 0.8669857382774353 0.027954664081335068
0.2718254029750824 0.7594930529594421 0.1780521124601364
0.42891594767570496 0.4840957522392273 -0.01797286793589592
0.47333940863609314 0.5488223433494568 -0.07424351572990417
0.496833473443985 0.8698278665542603 0.0281327236443758
0.4148238003253937 0.8663212060928345 0.07238300889730453
0.2310093343257904 0.6450054049491882 0.13721050322055817
0.44820505380630493 0.7262477278709412 -0.012444905005395412
0.44529905915260315 0.7310925722122192 -0.015952592715620995
0.4429318904876709 0.7394197583198547 -0.018775882199406624
0.4408179521560669 0.7520251274108887 -0.014194659888744354
0.4320606291294098 0.7763100266456604 0.00452883867546916
0.40268436074256897 0.7150294780731201 0.0087496442720294
0.3967105746269226 0.7120991349220276 0.007806417532265186
0.3906821608543396 0.7081919312477112 0.005879406817257404
0.3711888790130615 0.6975110173225403 0.004210277460515499
0.2803657650947571 0.6508898735046387 0.026350192725658417
0.4713215231895447 0.5230634212493896 -0.05729261040687561
0.4550096392631531 0.47500473260879517 -0.028052065521478653
0.43954187631607056 0.4781785309314728 -0.02144893817603588
0.40749120712280273 0.7132126092910767 0.011104753240942955
0.27636122703552246 0.7065162658691406 0.0706474632024765
0.47798678278923035 0.4749167859554291 -0.05564231052994728
0.41993147134780884 0.8028877377510071 0.017691247165203094
0.5151872634887695 0.5591825842857361 -0.1098950058221817
0.4917900860309601 0.5380358099937439 -0.09086818248033524
0.5134177207946777 0.5334701538085938 -0.0942721962928772
0.4562273621559143 0.5850464701652527 -0.06938086450099945
0.4981898367404938 0.8484559059143066 0.01024994719773531
0.49873149394989014 0.8178750872612 0.003996772225946188
0.4586254358291626 0.8167429566383362 0.005826645065099001
0.3642241954803467 0.7529482245445251 0.03670888394117355
0.40156978368759155 0.6388651132583618 -0.020612962543964386
0.3902292549610138 0.7814841866493225 0.029606806114315987
0.33840495347976685 0.6340587139129639 -0.017441486939787865
0.3730868697166443 0.6600485444068909 -0.012273394502699375
0.3133416771888733 0.6692080497741699 0.006343064364045858
0.4522514045238495 0.8462963104248047 0.011441869661211967
0.44047510623931885 0.5955463647842407 -0.05204454064369202
0.34688687324523926 0.7751194834709167 0.0572969987988472
0.3793962299823761 0.8032468557357788 0.04739230498671532
0.34129178524017334 0.7222813963890076 0.03056884929537773
0.25423091650009155 0.6769576072692871 0.08375615626573563
0.31093287467956543 0.7308439612388611 0.049225784838199615
0.24274010956287384 0.6943314075469971 0.13858936727046967
0.3478841781616211 0.6838440299034119 0.0026511421892791986
0.45610910654067993 0.5624851584434509 -0.056759461760520935
0.4622826874256134 0.6359262466430664 -0.09620721638202667
0.4450833201408386 0.6374999284744263 -0.07061900198459625
0.4748016595840454 0.6215673685073853 -0.1126149520277977
0.4371872842311859 0.4547552764415741 -0.04051937162876129
0.4002246856689453 0.4396909177303314 -0.04947134479880333
0.3666965365409851 0.4345991313457489 -0.05064268782734871
0.33763253688812256 0.4363578259944916 -0.04330471530556679
0.31611067056655884 0.4451115131378174 -0.03039003722369671
0.2994762659072876 0.48484522104263306 0.008993039838969707
0.22547897696495056 0.5397478342056274 0.1138981282711029
0.31785428524017334 0.5187827348709106 -0.0013511466095224023
0.3441464304924011 0.5274299383163452 -0.0111869927495718
0.376617968082428 0.5290937423706055 -0.017154518514871597
0.40682289004325867 0.5250227451324463 -0.020093312487006187
0.42981237173080444 0.5182433128356934 -0.018785640597343445
0.4454234838485718 0.5113491415977478 -0.020328249782323837
0.21944180130958557 0.5346192121505737 0.19684219360351562
0.4442060887813568 0.6413757801055908 -0.058209773153066635
0.4751509726047516 0.5716300010681152 -0.08857157826423645
0.4807167947292328 0.6396724581718445 -0.11113337427377701
0.490962415933609 0.6504499912261963 -0.0979042649269104
0.4788777530193329 0.6425191164016724 -0.09971347451210022
0.4489913582801819 0.6473113298416138 -0.048086997121572495
0.495833158493042 0.653316080570221 -0.10316358506679535
0.4962174892425537 0.6567652225494385 -0.07452937215566635
0.443936288356781 0.49304306507110596 -0.013873518444597721
0.4578372836112976 0.49920275807380676 -0.024626078084111214
0.4666195809841156 0.5044068098068237 -0.03838297352194786
0.3293355107307434 0.47669607400894165 -0.013710271567106247
0.31773990392684937 0.46697795391082764 -0.014605836011469364
0.5334578156471252 0.5626757740974426 -0.09885624051094055
0.6653614044189453 0.48906534910202026 0.030094709247350693
0.5315160751342773 0.6528252363204956 -0.0718999058008194
0.7256143093109131 0.3890675902366638 0.12709230184555054
0.5981205105781555 0.511773407459259 0.0017593468073755503
0.6207069158554077 0.5134458541870117 0.006727272644639015
0.64229816198349 0.5119022130966187 0.015505504794418812
0.671743631362915 0.49629124999046326 0.036598995327949524
0.5800524353981018 0.5063435435295105 0.0010338027495890856
0.6315891742706299 0.4515140652656555 -0.009187149815261364
0.6073082089424133 0.4545556902885437 -0.013600916601717472
0.6540234684944153 0.4537651538848877 0.0018667784752324224
0.6683266162872314 0.4613727927207947 0.013161982409656048
0.6860901713371277 0.5112916827201843 0.052326008677482605
0.5766894221305847 0.8277942538261414 0.047952551394701004
0.6733123064041138 0.4819689989089966 0.037849027663469315
0.732905387878418 0.4947431683540344 0.15850524604320526
0.7058122158050537 0.4943194091320038 0.07493866980075836
0.6206032037734985 0.6112796664237976 -0.0016681365668773651
0.5355132818222046 0.7093760967254639 -0.03856399655342102
0.5310713052749634 0.7293170094490051 -0.023841869086027145
0.5650869607925415 0.7104441523551941 -0.019178317859768867
0.5842413902282715 0.7120715379714966 0.004647647496312857
0.5532234907150269 0.7263616919517517 -0.009920500218868256
0.5707568526268005 0.723422110080719 0.010915796272456646
0.6046697497367859 0.7401123642921448 0.0520319938659668
0.5346783399581909 0.64410799741745 -0.1157541498541832
0.5382135510444641 0.6203440427780151 -0.12592880427837372
0.6996436715126038 0.43331459164619446 0.0176959577947855
0.5732146501541138 0.5533624291419983 -0.019259929656982422
0.5788020491600037 0.6299739480018616 -0.054167862981557846
0.5795769691467285 0.6161714792251587 -0.04895626753568649
0.6873151063919067 0.6041253209114075 0.03718411177396774
0.5364198684692383 0.5891214609146118 -0.11657876521348953
0.6528043746948242 0.412013977766037 -0.03198232129216194
0.6817196607589722 0.4174486994743347 -0.008718745782971382
0.7112725377082825 0.34807583689689636 0.07180925458669662
0.5579826831817627 0.43751436471939087 -0.061072222888469696
0.5864612460136414 0.46324557065963745 -0.008824475109577179
0.6253443360328674 0.7165899276733398 0.05559973418712616
0.6975529193878174 0.7115833163261414 0.26165834069252014
0.5624458193778992 0.6434836387634277 -0.04603101685643196
0.5441261529922485 0.6522068381309509 -0.048212774097919464
0.6059805750846863 0.7135527729988098 0.05364859476685524
0.5959920883178711 0.7146686911582947 0.04601653292775154
0.6920496225357056 0.3998352587223053 -0.00033439448452554643
0.5783183574676514 0.6378640532493591 -0.040071021765470505
0.6127991080284119 0.417373925447464 -0.05037732049822807
0.6173166036605835 0.3966602087020874 -0.059035882353782654
0.6360281705856323 0.29398825764656067 -0.036782365292310715
0.7018013596534729 0.3734442889690399 0.02978767827153206
0.6246626377105713 0.3437654674053192 -0.04969833046197891
0.7104334831237793 0.42103683948516846 0.035504668951034546
0.7185053825378418 0.4065333604812622 0.07770618051290512
0.5338382124900818 0.7218691110610962 -0.03323161602020264
0.5584984421730042 0.7204622030258179 -0.014782042242586613
0.5775626301765442 0.7178573608398438 0.006377269979566336
0.5567207932472229 0.6474558115005493 -0.04103826731443405
0.6011284589767456 0.7137662172317505 0.04953450337052345
0.5888035893440247 0.722365140914917 0.03393862396478653
0.592380166053772 0.7150933742523193 0.04508440941572189
0.5542506575584412 0.6401606798171997 -0.07964438199996948
0.5661182999610901 0.7210957407951355 0.014383487403392792
0.5482504963874817 0.7260739803314209 -0.0007829212117940187
0.5272998213768005 0.7298610806465149 -0.013487258926033974
0.5304060578346252 0.7882972359657288 0.004742962773889303
0.5306861996650696 0.7621802687644958 -0.016836684197187424
0.5307497978210449 0.7485044598579407 -0.019803809002041817
0.5296838283538818 0.7380189299583435 -0.015658514574170113
0.5275346636772156 0.7309325933456421 -0.013108925893902779
0.5677837133407593 0.723799467086792 0.015535174869000912
0.5709905624389648 0.7259804010391235 0.012457376345992088
0.5748793482780457 0.73134845495224 0.010926968418061733
0.5777556896209717 0.7392675876617432 0.017204783856868744
0.60338294506073 0.6898127794265747 0.00896493997424841
0.7199727296829224 0.5945724248886108 0.27348846197128296
0.578956127166748 0.7208198308944702 0.033576447516679764
0.5839800238609314 0.7205427885055542 0.03216599300503731
0.5365119576454163 0.6627489328384399 -0.04725769907236099
0.5707538723945618 0.650637149810791 -0.02260228432714939
0.540139377117157 0.65786212682724 -0.048593875020742416
0.5963250398635864 0.5652151107788086 -0.0057181729935109615
0.6347484588623047 0.5793544054031372 0.007745306007564068
0.5820794701576233 0.6247169375419617 -0.0338423028588295
0.6834009885787964 0.3158921003341675 0.014834636822342873
0.6721506714820862 0.35127338767051697 -0.011823117733001709
0.6599835157394409 0.39137718081474304 -0.03179391473531723
0.5850093960762024 0.7603464722633362 0.037461090832948685
0.5667111277580261 0.40490496158599854 -0.0754438191652298
0.5731155276298523 0.34299272298812866 -0.07382715493440628
0.580403208732605 0.28321948647499084 -0.06995486468076706
0.6612241864204407 0.5064235329627991 0.027347194030880928
0.7067093849182129 0.5275716781616211 0.07043404132127762
0.5692885518074036 0.5006752610206604 0.0020409338176250458
0.6887498497962952 0.46650540828704834 0.035098180174827576
0.5586756467819214 0.5395611524581909 -0.03164190053939819
0.5683073401451111 0.6248622536659241 -0.08002109825611115
0.7256077527999878 0.5425548553466797 0.10254213213920593
0.6950545310974121 0.5446284413337708 0.051793914288282394
0.6693052053451538 0.5545831322669983 0.028596874326467514
0.6274538040161133 0.5527858138084412 0.012982088141143322
0.5954903364181519 0.5444565415382385 0.002167608356103301
0.5730952024459839 0.5346550941467285 -0.008972949348390102
0.5321885943412781 0.5107244849205017 -0.06677845865488052
0.7269450426101685 0.5917555093765259 0.105771005153656
0.7035877704620361 0.46190696954727173 0.046562813222408295
0.5253190398216248 0.6554454565048218 -0.10312560200691223
0.572160005569458 0.5782083868980408 -0.025423748418688774
0.7294246554374695 0.4881771504878998 0.2342594712972641
0.5573020577430725 0.5230054259300232 -0.016906939446926117
0.5832820534706116 0.6242282390594482 -0.01071261614561081
0.678264319896698 0.4829658269882202 0.04361852630972862
0.568289041519165 0.6079165935516357 -0.07346899062395096
0.7119101285934448 0.6523297429084778 0.2736266255378723
0.5698656439781189 0.49185818433761597 0.006120092235505581
0.5531828999519348 0.5962375402450562 -0.09960569441318512
0.6639723181724548 0.7716429233551025 0.1416676789522171
0.6525787115097046 0.7953084111213684 0.18751733005046844
0.7337608337402344 0.5956798195838928 0.19060209393501282
0.6928467154502869 0.7402993440628052 0.16869927942752838
0.7260690331459045 0.44721513986587524 0.12405113875865936
0.5761480331420898 0.8492010235786438 0.06597007066011429
0.5206416845321655 0.6590363383293152 -0.07153680175542831
0.5914895534515381 0.5933797359466553 -0.01215972937643528
0.7203142642974854 0.4977332353591919 0.10027317702770233
0.642332911491394 0.49802953004837036 0.014892959967255592
0.6220427751541138 0.500096321105957 0.007396324072033167
0.5934152603149414 0.7260603904724121 0.039490021765232086
0.7235016226768494 0.6396197080612183 0.1219853088259697
0.5351884365081787 0.8769652247428894 0.07129206508398056
0.5928261280059814 0.8464176654815674 0.1237259954214096
0.6189811825752258 0.825827956199646 0.15249891579151154
0.6026244759559631 0.4988459050655365 0.003716970793902874
0.5850339531898499 0.4953237473964691 0.004275344777852297
0.5744485855102539 0.4933922290802002 0.007001705467700958
0.7160631418228149 0.4552420973777771 0.0699213296175003
0.5895786881446838 0.47499287128448486 -0.001808021916076541
0.6088900566101074 0.4676247835159302 -0.0038380406331270933
0.6291221976280212 0.465276300907135 -0.00023161695571616292
0.6495243310928345 0.4681452214717865 0.008229675702750683
0.6618270874023438 0.4740877151489258 0.017266424372792244
0.7312045693397522 0.43335190415382385 0.18523874878883362
0.6560747623443604 0.4939894378185272 0.023335549980401993
0.5819118618965149 0.6808597445487976 -0.011678410694003105
0.5639290809631348 0.6411490440368652 -0.05591634288430214
0.5386439561843872 0.6804888248443604 -0.04111683368682861
0.6310157179832458 0.8014643788337708 0.12030133605003357
0.603717565536499 0.8254141807556152 0.09499576687812805
0.5406304597854614 0.8660703301429749 0.03911086916923523
0.6774256229400635 0.7596101760864258 0.22881397604942322
0.5761800408363342 0.4851702153682709 0.00264297635294497
0.5470960736274719 0.549684464931488 -0.06515152752399445
0.5665720701217651 0.8643181324005127 0.0931653082370758
0.7264832258224487 0.6479548811912537 0.19607727229595184
0.5495805144309998 0.7276549935340881 9.660342038841918e-05
0.5528083443641663 0.7324709892272949 -0.0030544192995876074
0.5551645159721375 0.7408277988433838 -0.005062805488705635
0.5563187599182129 0.7532129883766174 -9.658090129960328e-05
0.5608193874359131 0.7771790027618408 0.020246563479304314
0.586686909198761 0.7184991836547852 0.03024396300315857
0.5932387709617615 0.7155823707580566 0.031049178913235664
0.5993801355361938 0.7118915915489197 0.030559781938791275
0.6204031705856323 0.7010303735733032 0.032751504331827164
0.7026002407073975 0.6544768810272217 0.07319917529821396
0.5451287627220154 0.5239166021347046 -0.047660812735557556
0.5546033382415771 0.4760710299015045 -0.015868226066231728
0.5671076774597168 0.4795254170894623 -0.004060710780322552
0.5808675289154053 0.7166882753372192 0.03210461884737015
0.6954607963562012 0.7086666822433472 0.11811555922031403
0.53754723072052 0.4757712483406067 -0.048207420855760574
0.5695891976356506 0.8028698563575745 0.03466879203915596
0.5331127047538757 0.5384516716003418 -0.0858546793460846
0.5614360570907593 0.5861701965332031 -0.05733465030789375
0.5358989238739014 0.8165384531021118 0.013951546512544155
0.6187236905097961 0.7543932199478149 0.06630265712738037
0.6020568013191223 0.6415439248085022 0.0011815670877695084
0.5949414372444153 0.7819548845291138 0.05313209816813469
0.6586657762527466 0.6374037265777588 0.01678648591041565
0.6252309083938599 0.6630703210830688 0.015266640111804008
0.6751699447631836 0.6722680330276489 0.04552006721496582
0.5409834384918213 0.8457000255584717 0.022156458348035812
0.5721270442008972 0.5971850752830505 -0.03691795468330383
0.6311363577842712 0.7749278545379639 0.09061205387115479
0.6030198335647583 0.8025719523429871 0.07295966148376465
0.6420342922210693 0.7247675657272339 0.06620389223098755
0.7145195603370667 0.6798252463340759 0.13637672364711761
0.6662545800209045 0.7322811484336853 0.08980684727430344
0.7141776084899902 0.6962666511535645 0.1947244107723236
0.6428781747817993 0.6872413158416748 0.03542666882276535
0.5590977668762207 0.5637799501419067 -0.04385357350111008
0.5614959001541138 0.6362596750259399 -0.0844358429312706
0.5727173686027527 0.6386418342590332 -0.0569152869284153
0.5547335743904114 0.6220776438713074 -0.10324522107839584
0.5732907056808472 0.45634180307388306 -0.02371980808675289
0.6090853214263916 0.44198325276374817 -0.024597052484750748
0.6404075622558594 0.43752169609069824 -0.018390987068414688
0.6658414602279663 0.4396437406539917 -0.00432718638330698
0.6824570894241333 0.44865864515304565 0.012893496081233025
0.6898266077041626 0.4883781969547272 0.05514423921704292
0.7357527017593384 0.5452203154563904 0.17675146460533142
0.6755751967430115 0.5221418142318726 0.04085986316204071
0.6529919505119324 0.530390739440918 0.02565523236989975
0.6237261295318604 0.5314390659332275 0.013147718273103237
0.595705509185791 0.5267490148544312 0.0038519816007465124
0.5750858187675476 0.5195357203483582 -0.0009170292760245502
0.5614351630210876 0.5124040842056274 -0.005586138926446438
0.7240020036697388 0.5405529737472534 0.2615501582622528
0.5707154870033264 0.6428690552711487 -0.04489258676767349
0.5489293932914734 0.5723091959953308 -0.07915309816598892
0.548423707485199 0.6396806836128235 -0.10362928360700607
0.5345275402069092 0.6503154635429382 -0.09362630546092987
0.5468782782554626 0.6423702239990234 -0.09199915826320648
0.5645607709884644 0.6490422487258911 -0.03681793436408043
0.5316242575645447 0.6533402800559998 -0.09967464953660965
0.5271238684654236 0.6568505167961121 -0.07156624644994736
0.562716007232666 0.4940319359302521 0.0014767630491405725
0.5509021878242493 0.5000579953193665 -0.013050160370767117
0.545433521270752 0.5053551197052002 -0.028595086187124252
0.668677031993866 0.47858142852783203 0.02651660330593586
0.6782663464546204 0.46971097588539124 0.02803025022149086
