ply
format ascii 1.0
element vertex 468
property float x
property float y
property float z
end_header
0.518548309803009 0.7285025715827942 -0.04607269540429115
0.5435612797737122 0.6674385666847229 -0.12917526066303253
0.52730393409729 0.6851596832275391 -0.06228885427117348
0.5184746980667114 0.5719042420387268 -0.11489243060350418
0.5461999177932739 0.639838695526123 -0.1407606452703476
0.5438807010650635 0.601068913936615 -0.13600392639636993
0.5319415330886841 0.5058587789535522 -0.08581273257732391
0.3369995653629303 0.48455625772476196 -0.03129326179623604
0.5300699472427368 0.4392043352127075 -0.0781647339463234
0.5324177742004395 0.403815358877182 -0.08881369233131409
0.5315597653388977 0.2679525315761566 -0.08707620948553085
0.5161275863647461 0.7390641570091248 -0.04134855419397354
0.5131363868713379 0.7449204325675964 -0.03376040980219841
0.509982168674469 0.7445155382156372 -0.023467905819416046
0.5110718011856079 0.7785392999649048 -0.01241441909223795
0.5116882920265198 0.7886267900466919 -0.015217950567603111
0.5112946033477783 0.8004869222640991 -0.019375678151845932
0.5096703767776489 0.81389319896698 -0.014027878642082214
0.5045962333679199 0.8362882137298584 0.009426831267774105
0.5388614535331726 0.6797547340393066 -0.11529980599880219
0.5084472894668579 0.6740496158599854 -0.0862211287021637
0.21396957337856293 0.37267112731933594 0.037880320101976395
0.4126468002796173 0.5089695453643799 -0.038104984909296036
0.38737159967422485 0.5098145604133606 -0.041659243404865265
0.3619360327720642 0.5080229640007019 -0.04056794196367264
0.3239009380340576 0.4927927851676941 -0.028439044952392578
0.4334319233894348 0.5043009519577026 -0.03084644302725792
0.3793075680732727 0.4443741738796234 -0.060631655156612396
0.406559556722641 0.4466976225376129 -0.05384770408272743
0.3529724180698395 0.4480261206626892 -0.05710842087864876
0.333922803401947 0.45656728744506836 -0.04995138943195343
0.3002844452857971 0.5081906914710999 -0.017241710796952248
0.4061530530452728 0.8708418607711792 0.029876437038183212
0.3251747786998749 0.4779569208621979 -0.026035893708467484
0.19795353710651398 0.48982682824134827 0.06904777884483337
0.2668389678001404 0.4908767640590668 -0.002080803969874978
0.38646307587623596 0.617961049079895 -0.04560457542538643
0.4810980260372162 0.7235810160636902 -0.05150292441248894
0.4770891070365906 0.7428230047225952 -0.03646358102560043
0.43775463104248047 0.7237744927406311 -0.042364608496427536
0.4065883159637451 0.7242084741592407 -0.022951485589146614
0.44554951786994934 0.7392295002937317 -0.030308125540614128
0.4193525016307831 0.7353765964508057 -0.012888951227068901
0.37026625871658325 0.7619258165359497 0.023255029693245888
0.5222286581993103 0.6664360165596008 -0.1309083253145218
0.5222377181053162 0.6386423110961914 -0.14222079515457153
0.2959977984428406 0.4300767183303833 -0.057470906525850296
0.4449966847896576 0.5561971068382263 -0.04916276037693024
0.44775381684303284 0.6440432071685791 -0.08566839247941971
0.44469478726387024 0.6273359060287476 -0.08034177869558334
0.3008486330509186 0.6074265241622925 -0.03234190493822098
0.521238386631012 0.6029512882232666 -0.13377022743225098
0.3683238625526428 0.4052926301956177 -0.08628895878791809
0.32802140712738037 0.41262444853782654 -0.07583995163440704
0.2538337707519531 0.32802528142929077 -0.009664681740105152
0.47881436347961426 0.4316163659095764 -0.08201627433300018
0.42927154898643494 0.45592814683914185 -0.04098808765411377
0.34887760877609253 0.7305433750152588 0.016860220581293106
0.19970156252384186 0.7359007000923157 0.1805565059185028
0.46336957812309265 0.66009122133255 -0.07021211832761765
0.48480716347694397 0.6697051525115967 -0.06456007808446884
0.36641985177993774 0.72811359167099 0.0218680240213871
0.37791773676872253 0.7300084829330444 0.01937590166926384
0.31172388792037964 0.3935524523258209 -0.07084175199270248
0.4410944879055023 0.6508115530014038 -0.06996707618236542
0.4182548522949219 0.4099441170692444 -0.08922187238931656
0.41556739807128906 0.3873355984687805 -0.09901847690343857
0.38203153014183044 0.2731788158416748 -0.08546596765518188
0.2846437096595764 0.36052438616752625 -0.044848617166280746
0.4031936526298523 0.328824520111084 -0.09345341473817825
0.2754736840724945 0.4160228669643402 -0.04309181123971939
0.24562232196331024 0.39633095264434814 -0.004237422253936529
0.47881510853767395 0.7360140085220337 -0.04608958959579468
0.44256141781806946 0.7337818741798401 -0.03645199537277222
0.4136063754558563 0.7302452921867371 -0.01897219568490982
0.4678747057914734 0.6638357043266296 -0.062194351106882095
0.37207046151161194 0.7286179065704346 0.02064039185643196
0.3900887668132782 0.7475869655609131 0.01326714176684618
0.381350576877594 0.7308400273323059 0.01923922449350357
0.48554712533950806 0.6608258485794067 -0.10420837998390198
0.4213221073150635 0.7320672273635864 -0.008067816495895386
0.4472888708114624 0.7372550964355469 -0.019958797842264175
0.4764324128627777 0.742156982421875 -0.02662486582994461
0.46597543358802795 0.8343915939331055 0.005543165374547243
0.4722074270248413 0.8100751638412476 -0.018276702612638474
0.4749521017074585 0.7962833642959595 -0.022761229425668716
0.47649720311164856 0.7847024202346802 -0.01842395029962063
0.4781636893749237 0.7763001918792725 -0.015065949410200119
0.4205503761768341 0.7578459978103638 0.0013995443005114794
0.4171547293663025 0.7601844668388367 -0.001284956349991262
0.41203099489212036 0.7655467987060547 -0.002927722642198205
0.407461941242218 0.7730191349983215 0.0020865609403699636
0.3929845094680786 0.702511727809906 -0.023504124954342842
0.17230498790740967 0.6018975377082825 0.18436530232429504
0.5336926579475403 0.68265300989151 -0.08177387714385986
0.40229532122612 0.7475984692573547 0.013437752611935139
0.3962532579898834 0.7465569972991943 0.012212255038321018
0.49308720231056213 0.6813506484031677 -0.06179814040660858
0.4441734850406647 0.6635437607765198 -0.04594068229198456
0.48930877447128296 0.6760121583938599 -0.06409304589033127
0.41601964831352234 0.567766547203064 -0.044383466243743896
0.37096065282821655 0.5815376043319702 -0.04410218447446823
0.4356596767902374 0.6355580687522888 -0.06524316966533661
0.30820325016975403 0.2937065064907074 -0.052225980907678604
0.3353097140789032 0.3366871774196625 -0.07310562580823898
0.35955095291137695 0.38268133997917175 -0.08841345459222794
0.3956679403781891 0.7916948199272156 0.01698201522231102
0.47447195649147034 0.39596420526504517 -0.0976262018084526
0.46629783511161804 0.3303840756416321 -0.09860075265169144
0.4537034332752228 0.2656424045562744 -0.09621990472078323
0.33815619349479675 0.5025252103805542 -0.03518938273191452
0.26801612973213196 0.5249648094177246 -0.006419718731194735
0.4466904103755951 0.49917495250701904 -0.026877431198954582
0.303422212600708 0.46352267265319824 -0.03514457494020462
0.4658428430557251 0.5420694947242737 -0.05654193088412285
0.4706515073776245 0.6411600708961487 -0.10755368322134018
0.23219740390777588 0.5414767861366272 0.016608979552984238
0.2898167073726654 0.5425410270690918 -0.021848158910870552
0.3269067406654358 0.5528684854507446 -0.03476855158805847
0.37860509753227234 0.5524038672447205 -0.03677408769726753
0.4157777428627014 0.5447888374328613 -0.035639774054288864
0.44266384840011597 0.5352786779403687 -0.038626495748758316
0.5074246525764465 0.5117227435112 -0.08134029805660248
0.23092617094516754 0.5947862267494202 0.018897725269198418
0.27912598848342896 0.4581136703491211 -0.030506359413266182
0.5257526636123657 0.6784557104110718 -0.11668326705694199
0.44777095317840576 0.5836818218231201 -0.05505308136343956
0.17309945821762085 0.481842041015625 0.14177069067955017
0.4637738764286041 0.5234567523002625 -0.04083717614412308
0.4279311001300812 0.6335222721099854 -0.03985220566391945
0.3155851662158966 0.4795226454734802 -0.02294490858912468
0.46738165616989136 0.6202582120895386 -0.10071486234664917
0.17934411764144897 0.6675238013267517 0.18757842481136322
0.44455215334892273 0.4901275038719177 -0.023493895307183266
0.49517369270324707 0.609447717666626 -0.12242210656404495
0.2801108658313751 0.8028261661529541 0.08490120619535446
0.274540513753891 0.8332068920135498 0.12866973876953125
0.19032317399978638 0.6022069454193115 0.10031038522720337
0.23974460363388062 0.7668550610542297 0.09757879376411438
0.22008700668811798 0.43870919942855835 0.03727303072810173
0.4012848734855652 0.8971714973449707 0.04499078169465065
0.5236942768096924 0.6813110709190369 -0.08192887902259827
0.42063722014427185 0.5989854335784912 -0.04746883735060692
0.23791304230690002 0.4943064749240875 0.016623010858893394
0.36662107706069946 0.4930083453655243 -0.039345454424619675
0.3889794945716858 0.4954781234264374 -0.04103134199976921
0.38376885652542114 0.7501838803291321 0.015993203967809677
0.22737473249435425 0.6488237977027893 0.03803911432623863
0.4439195394515991 0.9300028681755066 0.06281694024801254
0.36270570755004883 0.8949480652809143 0.09016652405261993
0.3231040835380554 0.8697946071624756 0.1076928898692131
0.533072829246521 0.3347802758216858 -0.09011280536651611
0.4918145537376404 0.9326198101043701 0.0673694759607315
0.40939685702323914 0.49483928084373474 -0.03751523420214653
0.42852628231048584 0.4921343922615051 -0.031047731637954712
0.4399206340312958 0.491279274225235 -0.024792082607746124
0.254184365272522 0.45006754994392395 -0.011760297231376171
0.42162948846817017 0.4697446823120117 -0.038005515933036804
0.3994562029838562 0.46050161123275757 -0.04637930542230606
0.3781338930130005 0.4583226442337036 -0.050029899924993515
0.35577088594436646 0.46230554580688477 -0.04800936579704285
0.341230571269989 0.4692284166812897 -0.04183188080787659
0.18835243582725525 0.4206942319869995 0.09314814954996109
0.34982264041900635 0.4889101982116699 -0.035523660480976105
0.523247241973877 0.6985352635383606 -0.051071055233478546
0.42504754662513733 0.6946040391921997 -0.03926815092563629
0.46591901779174805 0.6589679718017578 -0.08007940649986267
0.484544962644577 0.697079598903656 -0.055422425270080566
0.5285394787788391 0.47030600905418396 -0.07342730462551117
0.3230106234550476 0.8390371799468994 0.07787617295980453
0.3611186742782593 0.868484377861023 0.0636826679110527
0.44775843620300293 0.9158475995063782 0.03207169473171234
0.23402166366577148 0.79157555103302 0.1556299328804016
0.4376373291015625 0.4825136661529541 -0.029623351991176605
0.49107760190963745 0.5550798773765564 -0.08486703038215637
0.49784040451049805 0.9179951548576355 0.037931255996227264
0.40229928493499756 0.916485071182251 0.07108722627162933
0.19389376044273376 0.6616084575653076 0.10893281549215317
0.4476839303970337 0.7685244083404541 -0.009140594862401485
0.44431552290916443 0.774273157119751 -0.012118074111640453
0.44106727838516235 0.7830916047096252 -0.014493830502033234
0.4379076063632965 0.7958019971847534 -0.009184256196022034
0.4269217550754547 0.8172322511672974 0.00823330320417881
0.3930988609790802 0.7306678295135498 0.003332539228722453
0.3867892324924469 0.7276937961578369 0.0020051600877195597
0.38056251406669617 0.7235404253005981 -0.00047570106107741594
0.36381471157073975 0.7132748365402222 -0.0047468566335737705
0.2672409415245056 0.6640726327896118 -0.00036849972093477845
0.48735952377319336 0.5255621671676636 -0.06737126410007477
0.4681857228279114 0.47238460183143616 -0.036268200725317
0.45004886388778687 0.4755287766456604 -0.0317683108150959
0.3981199264526367 0.7281064987182617 0.006590982433408499
0.2559625506401062 0.727164626121521 0.04889177903532982
0.4944945275783539 0.4728351831436157 -0.0630371943116188
0.4154233932495117 0.8423583507537842 0.020672006532549858
0.5397862195968628 0.568772554397583 -0.11806122958660126
0.5128706097602844 0.5435986518859863 -0.10007893294095993
0.5359921455383301 0.5389429926872253 -0.10137231647968292
0.4707064628601074 0.5950756072998047 -0.08186069130897522
0.5015687346458435 0.8937680721282959 0.021209876984357834
0.5029868483543396 0.8624582290649414 0.01576043665409088
0.4591136872768402 0.8610405325889587 0.01366046816110611
0.35352933406829834 0.7779461741447449 0.03218183293938637
0.4030996263027191 0.651322603225708 -0.0341285839676857
0.38168781995773315 0.8139167428016663 0.029087994247674942
0.3376697301864624 0.6458466053009033 -0.0377705916762352
0.37260526418685913 0.6738397479057312 -0.02621256187558174
0.3067363500595093 0.6837262511253357 -0.013057882897555828
0.4523220956325531 0.8918548822402954 0.016650285571813583
0.44982030987739563 0.605448842048645 -0.0651160255074501
0.33346036076545715 0.8049868941307068 0.05023815855383873
0.36959338188171387 0.839324951171875 0.04513845592737198
0.3307569622993469 0.741571843624115 0.019506163895130157
0.22930321097373962 0.6947805881500244 0.0575697086751461
0.2960256338119507 0.7537547945976257 0.034430764615535736
0.20796139538288116 0.7168445587158203 0.11229030042886734
0.34230196475982666 0.6978985071182251 -0.011691316030919552
0.4698416292667389 0.5694425702095032 -0.06870655715465546
0.4788249731063843 0.656017005443573 -0.11057533323764801
0.4553081691265106 0.6549283266067505 -0.08458763360977173
0.49629315733909607 0.6401630640029907 -0.1274377852678299
0.45097556710243225 0.4509097933769226 -0.050626832991838455
0.4125213325023651 0.43594658374786377 -0.06407897174358368
0.37691059708595276 0.43200042843818665 -0.06921002268791199
0.3448760509490967 0.43491363525390625 -0.06544065475463867
0.3195437788963318 0.4451082944869995 -0.054655954241752625
0.29528379440307617 0.4854319393634796 -0.015551959164440632
0.1912708580493927 0.5455405116081238 0.08485546708106995
0.31725841760635376 0.519222617149353 -0.02495606057345867
0.3467789590358734 0.5276653170585632 -0.03265928849577904
0.3823596239089966 0.5291871428489685 -0.035376276820898056
0.4145374894142151 0.5253951549530029 -0.033682432025671005
0.43881747126579285 0.5188045501708984 -0.030632250010967255
0.45578598976135254 0.5119617581367493 -0.029978416860103607
0.17083168029785156 0.5410352945327759 0.16978900134563446
0.45204734802246094 0.6579551696777344 -0.07160601019859314
0.49513107538223267 0.5814223289489746 -0.10046855360269547
0.5017157793045044 0.6614777445793152 -0.12416134774684906
0.5104935169219971 0.6729065179824829 -0.10914993286132812
0.4977118670940399 0.6643473505973816 -0.1122889444231987
0.45549824833869934 0.6636280417442322 -0.059663835912942886
0.5169997215270996 0.6762431859970093 -0.11423719674348831
0.5147234201431274 0.6788691282272339 -0.0840691551566124
0.45467352867126465 0.492288202047348 -0.023720884695649147
0.4696498513221741 0.49868661165237427 -0.03301184996962547
0.4804501533508301 0.5044636726379395 -0.047295521944761276
0.3324277698993683 0.4743894338607788 -0.035374052822589874
0.31921839714050293 0.46592921018600464 -0.03749457746744156
0.5568879246711731 0.5724093317985535 -0.10386467725038528
0.6654156446456909 0.48705554008483887 0.04915619269013405
0.5546630620956421 0.6733992099761963 -0.07772541046142578
0.7220128774642944 0.3878619074821472 0.16286031901836395
0.6008182764053345 0.5110795497894287 0.013679444789886475
0.6230542063713074 0.5122254490852356 0.020722266286611557
0.644243597984314 0.5107274055480957 0.031597863882780075
0.6708357334136963 0.4957033395767212 0.0572456456720829
0.5837756395339966 0.5059605240821838 0.009507785551249981
0.6388495564460754 0.45004743337631226 0.005255186464637518
0.6137182712554932 0.45190316438674927 -0.002088547218590975
0.6602981090545654 0.45388925075531006 0.018816502764821053
0.6728582382202148 0.46212685108184814 0.031885676085948944
0.6857115626335144 0.5125094056129456 0.07446872442960739
0.5779032707214355 0.8634060621261597 0.0678974911570549
0.6725894212722778 0.4809750020503998 0.0582369901239872
0.7240724563598633 0.4976472854614258 0.19467537105083466
0.7040994167327881 0.4965762495994568 0.10100606828927994
0.6301671266555786 0.6197254061698914 0.007521643303334713
0.5513091087341309 0.7230901718139648 -0.03707009181380272
0.5427393913269043 0.7422211766242981 -0.022896936163306236
0.5802211761474609 0.7222371101379395 -0.01278371550142765
0.5955658555030823 0.7231709957122803 0.017188645899295807
0.5642155408859253 0.7382218837738037 -0.004424116108566523
0.5790442228317261 0.7350720763206482 0.021744219586253166
0.608047604560852 0.7599248886108398 0.07438791543245316
0.5619058012962341 0.6657728552818298 -0.12381231039762497
0.5660712122917175 0.638779878616333 -0.1338222771883011
0.7041742205619812 0.43795984983444214 0.040225788950920105
0.5839133858680725 0.5581279397010803 -0.014593108557164669
0.6005176305770874 0.6445814371109009 -0.05324592813849449
0.5990350246429443 0.6285590529441833 -0.04700097814202309
0.6906814575195312 0.6092426776885986 0.0548098124563694
0.5624808073043823 0.6032288670539856 -0.12305440753698349
0.6652978658676147 0.41437745094299316 -0.019130384549498558
0.6904126405715942 0.42143380641937256 0.008456379175186157
0.7138923406600952 0.3448902368545532 0.10239529609680176
0.5743488073348999 0.4351077377796173 -0.060291778296232224
0.5921763777732849 0.45999112725257874 0.0008271855185739696
0.6277531385421753 0.7294560074806213 0.07826928794384003
0.672368586063385 0.7265336513519287 0.2958548963069916
0.5841092467308044 0.6598310470581055 -0.04561283811926842
0.5654245615005493 0.6700078845024109 -0.052059829235076904
0.6121953725814819 0.7287424206733704 0.07535844296216965
0.6011661291122437 0.7312502264976501 0.06662587821483612
0.7006825804710388 0.4039953351020813 0.019671399146318436
0.5985770225524902 0.6519007086753845 -0.0384797677397728
0.6278972625732422 0.4170764088630676 -0.04299227148294449
0.6344435811042786 0.3953467607498169 -0.0514417327940464
0.6522093415260315 0.2860049903392792 -0.022369489073753357
0.7078837156295776 0.37398311495780945 0.05510867387056351
0.6424205899238586 0.3390580713748932 -0.03927002474665642
0.713709831237793 0.42543959617614746 0.061251215636730194
0.7186656594276428 0.4085073471069336 0.10839018225669861
0.5479127168655396 0.7352409362792969 -0.031786251813173294
0.5717003345489502 0.7324795722961426 -0.008572456426918507
0.5877631306648254 0.7294661998748779 0.01785392127931118
0.5780552625656128 0.6638160347938538 -0.04269712418317795
0.6074647307395935 0.729612410068512 0.07069166749715805
0.596590518951416 0.7477760314941406 0.05537217855453491
0.5962281227111816 0.7320187091827393 0.06531226634979248
0.5782467722892761 0.6593345403671265 -0.08250590413808823
0.5729751586914062 0.7325369715690613 0.024541862308979034
0.5574991106987 0.7369657158851624 0.004568718373775482
0.5370751619338989 0.7418745756149292 -0.0126548046246171
0.5381919741630554 0.8326863050460815 0.018844246864318848
0.5419458150863647 0.8089860677719116 -0.003523503430187702
0.542604923248291 0.7952067852020264 -0.007301154546439648
0.5415096282958984 0.7837704420089722 -0.003329564817249775
0.5385767221450806 0.7753416895866394 -0.0010295144747942686
0.5754830837249756 0.7572131156921387 0.03399590775370598
0.5797308087348938 0.7595461010932922 0.03138449415564537
0.5842745900154114 0.7647275328636169 0.030777016654610634
0.5870444774627686 0.7718562483787537 0.03776583820581436
0.6143709421157837 0.7024713158607483 0.022068852558732033
0.6977105736732483 0.6026796698570251 0.31262969970703125
0.5846158862113953 0.7480676174163818 0.05417555943131447
0.5913066864013672 0.7470138072967529 0.05289297550916672
0.556723952293396 0.6817699670791626 -0.049755170941352844
0.5893267393112183 0.664945662021637 -0.020983586087822914
0.5611495971679688 0.6764093041419983 -0.052180252969264984
0.6053077578544617 0.5700661540031433 0.0018208170076832175
0.641776442527771 0.5841879844665527 0.018466537818312645
0.6003233790397644 0.6368001103401184 -0.03106597624719143
0.6933459043502808 0.31003114581108093 0.038377679884433746
0.6843574047088623 0.3498082458972931 0.006631788797676563
0.6737245917320251 0.3929426074028015 -0.017285102978348732
0.5907021760940552 0.7884633541107178 0.05876248702406883
0.5856632590293884 0.4011780619621277 -0.07397226989269257
0.5936197638511658 0.33583417534828186 -0.07043782621622086
0.6003976464271545 0.2732117474079132 -0.06459948420524597
0.6616402268409729 0.5052584409713745 0.04579411447048187
0.7055438756942749 0.5296885371208191 0.09578327089548111
0.5735658407211304 0.5003033876419067 0.009334755130112171
0.6903007626533508 0.4688662886619568 0.05796444043517113
0.5709969997406006 0.5435394048690796 -0.029176123440265656
0.5918689966201782 0.6411529779434204 -0.08178699761629105
0.7215396165847778 0.5454919338226318 0.13217654824256897
0.6954538226127625 0.5466575622558594 0.07411821186542511
0.6721677780151367 0.5566853880882263 0.04699600860476494
0.632254958152771 0.5552830100059509 0.025692608207464218
0.6017613410949707 0.5471101999282837 0.011622553691267967
0.5809482336044312 0.5371071696281433 -0.0029669729992747307
0.5504211187362671 0.5124709010124207 -0.06972062587738037
0.7230961322784424 0.59650057554245 0.13399046659469604
0.7046323418617249 0.4649012088775635 0.07205027341842651
0.5500758290290833 0.6781525611877441 -0.11109717935323715
0.5857086777687073 0.5855096578598022 -0.02170255035161972
0.7143834233283997 0.4913509488105774 0.27491235733032227
0.5668680667877197 0.5250080227851868 -0.013462236151099205
0.5989996194839478 0.6350989937782288 -0.0060559604316949844
0.6774746179580688 0.4829844534397125 0.0654870942234993
0.5892624855041504 0.621127724647522 -0.07444099336862564
0.6886226534843445 0.6632018685340881 0.3103867471218109
0.5738961696624756 0.49076980352401733 0.014548517763614655
0.5767733454704285 0.609994649887085 -0.10337670147418976
0.6508948802947998 0.790916919708252 0.17083972692489624
0.6336421966552734 0.8187335133552551 0.21575187146663666
0.7212022542953491 0.6022390127182007 0.22567231953144073
0.6762035489082336 0.756650984287262 0.1989670842885971
0.7220404744148254 0.4492032825946808 0.1582438349723816
0.575346827507019 0.8879354000091553 0.08591349422931671
0.5431993007659912 0.6814614534378052 -0.07854733616113663
0.6035138368606567 0.6010057926177979 -0.00621458375826478
0.7164798378944397 0.5004246234893799 0.13020990788936615
0.6442738771438599 0.4956132173538208 0.031255945563316345
0.6247148513793945 0.49814051389694214 0.02179771289229393
0.6006247997283936 0.7500240802764893 0.061200935393571854
0.7175334692001343 0.6469067931175232 0.14934319257736206
0.5343115329742432 0.9244793653488159 0.08538999408483505
0.5858997106552124 0.8822324275970459 0.14704419672489166
0.6066074371337891 0.8548392653465271 0.17871181666851044
0.6055523753166199 0.4971252977848053 0.015596424229443073
0.5881978869438171 0.49381810426712036 0.014615209773182869
0.5779072642326355 0.4922546446323395 0.016169928014278412
0.7151208519935608 0.45827949047088623 0.09884683042764664
0.5934638381004333 0.4717117249965668 0.008919182233512402
0.6125693321228027 0.46352142095565796 0.008480123244225979
0.633160412311554 0.46140217781066895 0.013974791392683983
0.6528334617614746 0.4654458165168762 0.024531012400984764
0.6636422872543335 0.47244319319725037 0.03549615666270256
0.7224575281143188 0.4336863160133362 0.22409987449645996
0.6571160554885864 0.4914357662200928 0.0413188710808754
0.5971378087997437 0.6947351694107056 -0.004800195340067148
0.5862832069396973 0.6582773327827454 -0.057080529630184174
0.5563770532608032 0.6970630288124084 -0.04080628231167793
0.6220296025276184 0.8261963129043579 0.14753207564353943
0.5981199741363525 0.8563905954360962 0.11896824091672897
0.5421721935272217 0.9106254577636719 0.054291270673274994
0.6538044810295105 0.7792238593101501 0.25945574045181274
0.5805143117904663 0.48327311873435974 0.012033160775899887
0.5649682283401489 0.5560880303382874 -0.06636889278888702
0.5641531348228455 0.9065667986869812 0.11269201338291168
0.7115592956542969 0.6574687361717224 0.22953151166439056
0.5598586201667786 0.7674274444580078 0.0156868826597929
0.5638346076011658 0.7730515003204346 0.013375907205045223
0.5668143033981323 0.7819029688835144 0.012288465164601803
0.5678907036781311 0.794244647026062 0.018404336646199226
0.5689162015914917 0.8144712448120117 0.03891927748918533
0.5930690169334412 0.7312401533126831 0.04629703611135483
0.6005504131317139 0.7280308604240417 0.04845041409134865
0.6071381568908691 0.7236544489860535 0.04830140992999077
0.6270891427993774 0.7130705714225769 0.0518563911318779
0.700761079788208 0.6625968813896179 0.09479908645153046
0.5601033568382263 0.5268002152442932 -0.04773326218128204
0.5636037588119507 0.47428661584854126 -0.01146447379142046
0.5731805562973022 0.4773373603820801 0.0031140099745243788
0.5858387351036072 0.7292804718017578 0.04752558097243309
0.687379777431488 0.7211489081382751 0.14438562095165253
0.5524662137031555 0.47427576780319214 -0.04863043874502182
0.5728065371513367 0.8369349241256714 0.05414953455328941
0.5540243983268738 0.5440946817398071 -0.09006393700838089
0.5789046883583069 0.5961362719535828 -0.05738504230976105
0.5408933758735657 0.8580853343009949 0.029675811529159546
0.6178733110427856 0.7727744579315186 0.09058711677789688
0.6139770746231079 0.652833104133606 0.009353228844702244
0.595937967300415 0.8078472018241882 0.07529381662607193
0.6643052101135254 0.6463242173194885 0.030717389658093452
0.6327964663505554 0.6744334697723389 0.028287192806601524
0.6758531928062439 0.6821197271347046 0.06516516208648682
0.5447516441345215 0.887836217880249 0.03796594589948654
0.5878978967666626 0.6069958209991455 -0.034512922167778015
0.626683235168457 0.7957961559295654 0.11664516478776932
0.600389301776886 0.8299769759178162 0.09627271443605423
0.6410341858863831 0.7378482818603516 0.09031020849943161
0.7054091691970825 0.6898335814476013 0.16444382071495056
0.6608108878135681 0.7469443082809448 0.11568363010883331
0.6967599391937256 0.7090139985084534 0.22694562375545502
0.6461111307144165 0.6974667906761169 0.05376392602920532
0.5743013024330139 0.5707636475563049 -0.042401473969221115
0.585941731929779 0.6547711491584778 -0.08710463345050812
0.5948718786239624 0.6547356843948364 -0.05726451054215431
0.580651044845581 0.6397910714149475 -0.10813282430171967
0.582539439201355 0.4537178874015808 -0.016807669773697853
0.6189435720443726 0.44086501002311707 -0.01472587138414383
0.6500046849250793 0.43874239921569824 -0.005036292597651482
0.6736922860145569 0.44225603342056274 0.01272729504853487
0.6870495676994324 0.45169898867607117 0.03282199800014496
0.6886449456214905 0.48992419242858887 0.07862348109483719
0.7248071432113647 0.5496026277542114 0.21334178745746613
0.6757387518882751 0.5228084921836853 0.061656493693590164
0.6549239754676819 0.5310622453689575 0.042604170739650726
0.6266224980354309 0.5320536494255066 0.026423605158925056
0.5998284220695496 0.5276085734367371 0.014831670559942722
0.5805004835128784 0.5204233527183533 0.005975006613880396
0.5680956244468689 0.5132332444190979 -0.0004626715090125799
0.70438152551651 0.5463033318519592 0.3022997975349426
0.59192955493927 0.6581413149833679 -0.04469100758433342
0.5694807767868042 0.5823061466217041 -0.08153130114078522
0.5748106837272644 0.660256564617157 -0.10940077155828476
0.5588372349739075 0.6716388463973999 -0.10061945021152496
0.5717670321464539 0.6628642678260803 -0.09691987186670303
0.5850784182548523 0.6643534898757935 -0.037094540894031525
0.5562489628791809 0.6753814220428467 -0.10725948214530945
0.5500929355621338 0.6784669756889343 -0.07796164602041245
0.5677496194839478 0.4932622015476227 0.007739306427538395
0.5590611696243286 0.5001308917999268 -0.009816134348511696
0.5568075180053711 0.5058915615081787 -0.027828173711895943
0.6692463755607605 0.4775088429450989 0.0458548441529274
0.6797948479652405 0.4706043004989624 0.04879629239439964
