ply
format ascii 1.0
element vertex 468
property float x
property float y
property float z
end_header
0.5433855056762695 0.7048346400260925 -0.07543539255857468
0.5598407983779907 0.6144764423370361 -0.11617249250411987
0.5398167967796326 0.6487126350402832 -0.06713195890188217
0.5256463885307312 0.5322114825248718 -0.08752436935901642
0.5613389015197754 0.5864776372909546 -0.12080030888319016
0.5542769432067871 0.5537917017936707 -0.10832606256008148
0.5302976965904236 0.4790084660053253 -0.040108755230903625
0.33318382501602173 0.4784114956855774 -0.02582361176609993
0.5230498909950256 0.42260241508483887 -0.01818540133535862
0.5244309306144714 0.3881976008415222 -0.017891744151711464
0.5112413763999939 0.266549676656723 0.02321506105363369
0.5427467226982117 0.7175359129905701 -0.0737086683511734
0.5397056937217712 0.7274561524391174 -0.06759839504957199
0.5349957942962646 0.7317566275596619 -0.05896083638072014
0.5362908244132996 0.7305147051811218 -0.059504780918359756
0.5385054349899292 0.7387359142303467 -0.06420265138149261
0.5393431186676025 0.7505574822425842 -0.07108735293149948
0.5377235412597656 0.765221893787384 -0.07120636105537415
0.5286058187484741 0.7988206148147583 -0.05541714280843735
0.5534067153930664 0.6312457323074341 -0.10661443322896957
0.5227320194244385 0.6331348419189453 -0.08616240322589874
0.18852490186691284 0.38460052013397217 0.05504545941948891
0.40530985593795776 0.5027197599411011 -0.025001047179102898
0.3811000883579254 0.5042454600334167 -0.032888058573007584
0.3562789857387543 0.5023653507232666 -0.03525529056787491
0.3189557194709778 0.4883729815483093 -0.027795780450105667
0.4250507950782776 0.4962003827095032 -0.012380861677229404
0.37956544756889343 0.4334809482097626 -0.03885221108794212
0.4036366939544678 0.436659038066864 -0.026050414890050888
0.3537616431713104 0.43621689081192017 -0.0408310629427433
0.3339559733867645 0.4451495110988617 -0.03812769427895546
0.2948634624481201 0.5063020586967468 -0.02430208958685398
0.4307526648044586 0.8605300188064575 -0.07067569345235825
0.3225310444831848 0.47235599160194397 -0.021202584728598595
0.18044069409370422 0.5029144287109375 0.04534313455224037
0.2590629458427429 0.49055811762809753 -0.010035892017185688
0.40015342831611633 0.6054484248161316 -0.06033574417233467
0.5146186947822571 0.7010468244552612 -0.08397919684648514
0.5137416124343872 0.727694571018219 -0.07508540898561478
0.4792836904525757 0.7116035223007202 -0.08470305055379868
0.4531673192977905 0.7232337594032288 -0.07887846976518631
0.4868798851966858 0.7305891513824463 -0.07653467357158661
0.46439677476882935 0.7344217300415039 -0.06964036822319031
0.4113176763057709 0.7668247818946838 -0.06321713328361511
0.5396420955657959 0.6142317056655884 -0.12061917781829834
0.5384568572044373 0.5871706008911133 -0.1256687194108963
0.29129570722579956 0.41795819997787476 -0.04125726968050003
0.4463387429714203 0.5405207872390747 -0.03833220154047012
0.46330535411834717 0.6144904494285583 -0.08969452977180481
0.4578962028026581 0.6012194752693176 -0.08260150253772736
0.31319743394851685 0.6055062413215637 -0.06223349645733833
0.5325911045074463 0.5568360090255737 -0.1114635169506073
0.36783134937286377 0.3879629373550415 -0.05054503306746483
0.32614031434059143 0.39715781807899475 -0.04885544255375862
0.2346307933330536 0.33311572670936584 0.028948603197932243
0.47566360235214233 0.4150921106338501 -0.031059641391038895
0.42366039752960205 0.4458194375038147 -0.011875679716467857
0.3900182247161865 0.7438290119171143 -0.06379657238721848
0.17171122133731842 0.7727588415145874 0.07518970966339111
0.47893887758255005 0.6299421191215515 -0.07531433552503586
0.49938279390335083 0.6385650634765625 -0.06895981729030609
0.42021483182907104 0.739581286907196 -0.057986970990896225
0.42845892906188965 0.7377473711967468 -0.05802711099386215
0.30731895565986633 0.3796880841255188 -0.04049834609031677
0.45671188831329346 0.6276065111160278 -0.07878157496452332
0.4175020456314087 0.3926306664943695 -0.04431241750717163
0.4142388105392456 0.3700315058231354 -0.04699353873729706
0.36926960945129395 0.27036818861961365 -0.00705652916803956
0.2730081379413605 0.35523930191993713 -0.011024869978427887
0.3962674140930176 0.3168974220752716 -0.027542609721422195
0.2676065266132355 0.40764570236206055 -0.026512499898672104
0.2295309156179428 0.39738455414772034 0.012422788888216019
0.5150222182273865 0.71666020154953 -0.08244664967060089
0.48555269837379456 0.7233601808547974 -0.0820583924651146
0.46042853593826294 0.7292428612709045 -0.07595104724168777
0.48350709676742554 0.6353340744972229 -0.06785283982753754
0.42532631754875183 0.7384917736053467 -0.0573459267616272
0.4404919743537903 0.7397368550300598 -0.0662820115685463
0.4289204478263855 0.7372882962226868 -0.057687077671289444
0.5014001727104187 0.6186573505401611 -0.10212673991918564
0.4635063409805298 0.7333805561065674 -0.06513669341802597
0.48644912242889404 0.7319768667221069 -0.06755183637142181
0.5111267566680908 0.7314195036888123 -0.0668475553393364
0.49865639209747314 0.800173282623291 -0.06449362635612488
0.5105032920837402 0.7646812200546265 -0.08058249950408936
0.5130500197410583 0.7487924098968506 -0.08036303520202637
0.5133163928985596 0.7373398542404175 -0.0731634572148323
0.5125617980957031 0.730550229549408 -0.06774666160345078
0.46333521604537964 0.7336443662643433 -0.06572981923818588
0.4618835151195526 0.735745370388031 -0.07047498226165771
0.4590674638748169 0.7421119213104248 -0.07641269266605377
0.4546370208263397 0.7517780065536499 -0.07612280547618866
0.42715156078338623 0.6971762180328369 -0.07421004772186279
0.14051949977874756 0.6353177428245544 0.11529570817947388
0.5459601283073425 0.6394263505935669 -0.08035396039485931
0.4463956356048584 0.7360638380050659 -0.061297670006752014
0.444550096988678 0.7363452911376953 -0.06459081172943115
0.5084405541419983 0.6498571038246155 -0.0721326470375061
0.46127164363861084 0.6448265314102173 -0.05978118255734444
0.5041437149047852 0.6444653868675232 -0.07029717415571213
0.4188729226589203 0.5565502643585205 -0.04334849864244461
0.3789086639881134 0.5731496214866638 -0.0533641055226326
0.4496619701385498 0.6141612529754639 -0.07283757627010345
0.2936810851097107 0.29373452067375183 0.005334476474672556
0.32705172896385193 0.3270421624183655 -0.02355438657104969
0.3575812578201294 0.3663398325443268 -0.046921249479055405
0.4353958070278168 0.7816693186759949 -0.06946901977062225
0.4710374176502228 0.3793429136276245 -0.03729159012436867
0.4572273790836334 0.31875085830688477 -0.019595282152295113
0.43895667791366577 0.2628355622291565 -0.0006241891533136368
0.3329355716705322 0.49768492579460144 -0.03252074122428894
0.2639330327510834 0.5260598063468933 -0.022998152300715446
0.4379238784313202 0.48905283212661743 -0.005020841024816036
0.29816192388534546 0.45507746934890747 -0.030067335814237595
0.46615687012672424 0.5224550366401672 -0.0384206548333168
0.48602113127708435 0.6018995046615601 -0.1039469838142395
0.22551900148391724 0.5476334095001221 -0.013852883130311966
0.2892402112483978 0.5422741770744324 -0.0400896891951561
0.3290408253669739 0.5502739548683167 -0.048536982387304306
0.3792020380496979 0.5461838245391846 -0.04093789681792259
0.4136368930339813 0.5360776782035828 -0.03149768337607384
0.43992120027542114 0.5233054161071777 -0.02506464533507824
0.506738007068634 0.485637366771698 -0.04243207350373268
0.22990143299102783 0.6041426062583923 -0.026211032643914223
0.2720193862915039 0.45207610726356506 -0.026404760777950287
0.5417313575744629 0.6301879286766052 -0.1105538010597229
0.45347288250923157 0.5646186470985413 -0.04991333559155464
0.14240163564682007 0.5084062218666077 0.11330092698335648
0.4605834484100342 0.5082715153694153 -0.019567621871829033
0.4409322738647461 0.6178964376449585 -0.05149542912840843
0.3107568621635437 0.4735053479671478 -0.021182619035243988
0.4797242283821106 0.5862915515899658 -0.0942862331867218
0.14843818545341492 0.7034730911254883 0.10033383220434189
0.43563950061798096 0.48037010431289673 0.0004911576979793608
0.5071524977684021 0.5681520700454712 -0.10717641562223434
0.2795085608959198 0.8212059736251831 -0.02358139120042324
0.26153457164764404 0.8609299659729004 0.009839416481554508
0.17499007284641266 0.6213012337684631 0.04126915708184242
0.2326740175485611 0.7883723974227905 -0.004119561985135078
0.20202483236789703 0.446237713098526 0.03466564044356346
0.41967737674713135 0.8927408456802368 -0.06591985374689102
0.5370378494262695 0.6382588744163513 -0.08218536525964737
0.4290773868560791 0.5850275754928589 -0.051386624574661255
0.22803670167922974 0.4977491497993469 0.002433701418340206
0.3606979250907898 0.4865485429763794 -0.031021831557154655
0.38233134150505066 0.48953962326049805 -0.02910013496875763
0.4344273507595062 0.7459560036659241 -0.06561043858528137
0.22887985408306122 0.6610727310180664 -0.023760497570037842
0.4629376232624054 0.9272595643997192 -0.049812156707048416
0.366958886384964 0.9075130820274353 -0.02942546270787716
0.3193742036819458 0.8901654481887817 -0.013171186670660973
0.5195477604866028 0.3246956765651703 0.0014641552697867155
0.5136773586273193 0.9266071319580078 -0.03670072928071022
0.4018472731113434 0.48867741227149963 -0.021695099771022797
0.419185072183609 0.48522496223449707 -0.011840843595564365
0.43000328540802 0.48277193307876587 -0.0025999569334089756
0.24385057389736176 0.44845807552337646 -0.010069900192320347
0.41781654953956604 0.46500271558761597 -0.013414623215794563
0.39852622151374817 0.45894867181777954 -0.023014076054096222
0.3796178996562958 0.4566884934902191 -0.030050063505768776
0.3581085801124573 0.4590596854686737 -0.032924141734838486
0.34275415539741516 0.4640573263168335 -0.031130148097872734
0.1594557911157608 0.43948298692703247 0.08869495987892151
0.3449953496456146 0.4827074110507965 -0.029036870226264
0.5396310091018677 0.6670063138008118 -0.06494367122650146
0.4523371756076813 0.6811922192573547 -0.07415121048688889
0.4816456735134125 0.62483811378479 -0.08144024759531021
0.507490873336792 0.6699963808059692 -0.07603263109922409
0.5225552916526794 0.45168328285217285 -0.020599713549017906
0.3274129629135132 0.8519306778907776 -0.0360700748860836
0.37159186601638794 0.8743367791175842 -0.05010293796658516
0.4722909927368164 0.9031211733818054 -0.07373619824647903
0.21227914094924927 0.8251909017562866 0.042808011174201965
0.4306457042694092 0.4738614857196808 -0.00513151939958334
0.49513402581214905 0.5250430703163147 -0.06043274328112602
0.5243971347808838 0.9018194079399109 -0.06054948270320892
0.4154266119003296 0.9200611114501953 -0.04653817042708397
0.17967763543128967 0.6835453510284424 0.03361634910106659
0.48749983310699463 0.7310441136360168 -0.06850405037403107
0.48620325326919556 0.7361159324645996 -0.07460028678178787
0.484706312417984 0.7452006936073303 -0.08149666339159012
0.4818291664123535 0.7596495151519775 -0.08175501227378845
0.46505817770957947 0.7929611802101135 -0.07204689085483551
0.44247525930404663 0.7371184229850769 -0.0636163279414177
0.4381121098995209 0.7352380752563477 -0.06687662750482559
0.4315248727798462 0.7318624258041382 -0.06934960186481476
0.4043249785900116 0.7183953523635864 -0.07106079161167145
0.2804495692253113 0.668592631816864 -0.05347669497132301
0.4867424964904785 0.5022220015525818 -0.03851993754506111
0.46086782217025757 0.4594714641571045 -0.0003084666095674038
0.4427500069141388 0.4644225239753723 -0.0020488291047513485
0.4436994194984436 0.7346376776695251 -0.06058422848582268
0.2639743685722351 0.7404372692108154 -0.0330682173371315
0.48935264348983765 0.4560871124267578 -0.019525878131389618
0.4459158778190613 0.8280403017997742 -0.06941092014312744
0.5458232164382935 0.5279977917671204 -0.08456500619649887
0.5161836743354797 0.5099057555198669 -0.06541666388511658
0.5382630825042725 0.5042127370834351 -0.061162129044532776
0.4791502356529236 0.5660569071769714 -0.070250004529953
0.5294111371040344 0.8700434565544128 -0.0687255710363388
0.5292945504188538 0.8324422836303711 -0.06276445835828781
0.4898259937763214 0.8354132175445557 -0.07155941426753998
0.3799474835395813 0.7857801914215088 -0.06045309081673622
0.41934844851493835 0.6399427056312561 -0.05637524649500847
0.41002723574638367 0.8119755983352661 -0.06520473212003708
0.3571348190307617 0.637233555316925 -0.06920786201953888
0.3957759141921997 0.6662321090698242 -0.06584195792675018
0.32655733823776245 0.6841260194778442 -0.06626824289560318
0.48099377751350403 0.8721877932548523 -0.07981480658054352
0.45835375785827637 0.5831064581871033 -0.06259365379810333
0.34830862283706665 0.8135408163070679 -0.0519937165081501
0.38915127515792847 0.8401850461959839 -0.05885753780603409
0.3577210307121277 0.7534325122833252 -0.06314516812562943
0.23053966462612152 0.7102295756340027 -0.01885903999209404
0.3111884295940399 0.7648369073867798 -0.05185293033719063
0.19463801383972168 0.740047037601471 0.020571837201714516
0.37164226174354553 0.7023107409477234 -0.0682935044169426
0.47437232732772827 0.5444811582565308 -0.054484184831380844
0.49496692419052124 0.6137117743492126 -0.10719617456197739
0.4715273976325989 0.6229215860366821 -0.08862447738647461
0.5119364261627197 0.5931487679481506 -0.11675271391868591
0.4453674554824829 0.43692633509635925 -0.013242574408650398
0.4098083972930908 0.42067384719848633 -0.02986527793109417
0.3767271339893341 0.41559749841690063 -0.04284418374300003
0.3446687161922455 0.41929787397384644 -0.04636169597506523
0.3173581659793854 0.4320945739746094 -0.041913069784641266
0.28834861516952515 0.48184460401535034 -0.017792927101254463
0.17470963299274445 0.5612726807594299 0.0419841967523098
0.313109815120697 0.5165376663208008 -0.03192760422825813
0.3430473804473877 0.5232148170471191 -0.03584958240389824
0.3778243064880371 0.5236294865608215 -0.03313007205724716
0.40904590487480164 0.5183110237121582 -0.025229966267943382
0.43269097805023193 0.5093984007835388 -0.014144021086394787
0.44967547059059143 0.5002427101135254 -0.009031892754137516
0.13934266567230225 0.5720116496086121 0.1210990771651268
0.4681239724159241 0.631045401096344 -0.0781317725777626
0.5028613805770874 0.5459714531898499 -0.08089593797922134
0.5188156366348267 0.6124223470687866 -0.11656483262777328
0.5262771844863892 0.6278083920478821 -0.10435117781162262
0.5141245126724243 0.6188250184059143 -0.10695254802703857
0.4718974232673645 0.6398224234580994 -0.06843511015176773
0.5330735445022583 0.6290205121040344 -0.10891815274953842
0.5286700129508972 0.6369501352310181 -0.08420158177614212
0.4463338255882263 0.48085862398147583 0.002728042658418417
0.4631956219673157 0.4854108989238739 -0.0039140935987234116
0.47622087597846985 0.48767054080963135 -0.016115503385663033
0.33249181509017944 0.46835827827453613 -0.027385029941797256
0.3162437677383423 0.45677119493484497 -0.03066415712237358
0.5616880059242249 0.5334655046463013 -0.06739857792854309
0.6450182795524597 0.49257153272628784 0.11966109275817871
0.56168532371521 0.6341387033462524 -0.07078416645526886
0.6752204895019531 0.4175320267677307 0.27598482370376587
0.5902630686759949 0.511682391166687 0.06852693855762482
0.6104526519775391 0.5147724151611328 0.07978631556034088
0.6287888884544373 0.51409512758255 0.09474913775920868
0.6484173536300659 0.502867579460144 0.12590570747852325
0.574201226234436 0.5038467645645142 0.061629585921764374
0.6194876432418823 0.4482998847961426 0.07813697308301926
0.5977368950843811 0.449457049369812 0.06630676239728928
0.638434648513794 0.4527519643306732 0.094596728682518
0.6492161750793457 0.4624820649623871 0.10832434892654419
0.6607837677001953 0.5219398736953735 0.14134743809700012
0.5937859416007996 0.8523651957511902 -0.003393088234588504
0.6495074033737183 0.4876668453216553 0.13072845339775085
0.6826456785202026 0.525007963180542 0.27247190475463867
0.6732296943664551 0.5083719491958618 0.17617568373680115
0.6198511123657227 0.6111540198326111 0.03369300067424774
0.5672987699508667 0.7018466591835022 -0.0603351816534996
0.5598726272583008 0.7278006672859192 -0.053609028458595276
0.5884088277816772 0.7119072675704956 -0.035538140684366226
0.600155770778656 0.7242709994316101 -0.01164757926017046
0.5745304226875305 0.7306949496269226 -0.03468955680727959
0.5857560634613037 0.7346373796463013 -0.013329651206731796
0.6114079356193542 0.7653855085372925 0.023174189031124115
0.5752009749412537 0.6156727075576782 -0.10760640352964401
0.579300045967102 0.588581919670105 -0.11024994403123856
0.6763204336166382 0.4378262162208557 0.1329754739999771
0.5761208534240723 0.5455546379089355 0.02291628159582615
0.5997505784034729 0.6175211668014526 -0.03158004209399223
0.5971871614456177 0.6042319536209106 -0.022766578942537308
0.67021644115448 0.6151033043861389 0.09338966757059097
0.571088433265686 0.5578860640525818 -0.0917520597577095
0.6436486840248108 0.4045024812221527 0.07019498199224472
0.6654606461524963 0.4160398840904236 0.10206843167543411
0.6700113415718079 0.36633917689323425 0.226689413189888
0.5630823373794556 0.4203174114227295 0.008852742612361908
0.5784624218940735 0.45664823055267334 0.06314845383167267
0.6283066272735596 0.7443315982818604 0.04137583449482918
0.6501224040985107 0.772458016872406 0.2826104760169983
0.5831785202026367 0.632439374923706 -0.03299793601036072
0.5677028894424438 0.6393440961837769 -0.047821007668972015
0.6086858510971069 0.7405399084091187 0.03214023634791374
0.5986681580543518 0.7382795214653015 0.02086709812283516
0.672848105430603 0.4006962180137634 0.12010706216096878
0.5957111716270447 0.6296113133430481 -0.021963585168123245
0.6105080842971802 0.40459558367729187 0.038150981068611145
0.6155451536178589 0.38314276933670044 0.0380997359752655
0.6164878606796265 0.29311004281044006 0.10664039105176926
0.6726121306419373 0.38235023617744446 0.16620054841041565
0.6161665916442871 0.3346967101097107 0.07121025770902634
0.6815433502197266 0.430120050907135 0.15981589257717133
0.6798403859138489 0.4252490997314453 0.21445544064044952
0.5648642182350159 0.7171134948730469 -0.059095241129398346
0.5819149613380432 0.7235864400863647 -0.03634820505976677
0.5936153531074524 0.7299199104309082 -0.014696259051561356
0.5768651962280273 0.6367109417915344 -0.032687969505786896
0.6039593815803528 0.7393884658813477 0.02562529779970646
0.5972734689712524 0.7398768067359924 0.0034339395351707935
0.5950793027877808 0.7375526428222656 0.019009053707122803
0.5824064612388611 0.6212985515594482 -0.062461771070957184
0.5786817073822021 0.7334458231925964 -0.011567918583750725
0.567002534866333 0.7320139408111572 -0.028171565383672714
0.5531506538391113 0.731623649597168 -0.04519318416714668
0.5537787079811096 0.7984218597412109 -0.04396193102002144
0.5603074431419373 0.7640233635902405 -0.05831839516758919
0.5608117580413818 0.7484311461448669 -0.057479728013277054
0.5588294267654419 0.7375380992889404 -0.050149861723184586
0.5555238127708435 0.7309677600860596 -0.045558713376522064
0.5818253755569458 0.7338847517967224 -0.012552795931696892
0.5852555632591248 0.7357761859893799 -0.01773788407444954
0.5892687439918518 0.7416542768478394 -0.021355193108320236
0.5925557613372803 0.7509175539016724 -0.01639495976269245
0.6149556636810303 0.6988519430160522 0.004404992330819368
0.657701313495636 0.6482970118522644 0.3469826579093933
0.5878117084503174 0.7362930178642273 0.005772791337221861
0.5923488140106201 0.7365002632141113 0.002711629029363394
0.5623307228088379 0.650010347366333 -0.05116995424032211
0.585551381111145 0.6452826857566833 -0.014649267308413982
0.5648228526115417 0.6448848843574524 -0.049954965710639954
0.5950852036476135 0.5625666379928589 0.03846093639731407
0.6276887655258179 0.5814656615257263 0.057576462626457214
0.5966392159461975 0.6166707873344421 -0.011213435791432858
0.6517484188079834 0.32422441244125366 0.16671447455883026
0.6523770093917847 0.3511204421520233 0.11923465877771378
0.6497049331665039 0.384403795003891 0.08071210235357285
0.5968167781829834 0.7786217331886292 0.0012446586042642593
0.5724244713783264 0.3863834738731384 0.006027158349752426
0.5732253789901733 0.3285560607910156 0.03194712847471237
0.5715426206588745 0.27586761116981506 0.056786973029375076
0.642115592956543 0.5107751488685608 0.11178301274776459
0.6778726577758789 0.54262375831604 0.16127349436283112
0.5644187331199646 0.49565696716308594 0.06118329241871834
0.6640151739120483 0.4726349115371704 0.13837337493896484
0.5649770498275757 0.5267127156257629 0.010743271559476852
0.5950571298599243 0.6053571701049805 -0.05689861252903938
0.69130939245224 0.5647106766700745 0.1950124353170395
0.6726380586624146 0.5566357374191284 0.1329880803823471
0.6538761258125305 0.5622196197509766 0.09803204983472824
0.6191110610961914 0.5554373860359192 0.07109878212213516
0.5916059613227844 0.5431903600692749 0.053713247179985046
0.5719494819641113 0.5290042757987976 0.03845309466123581
0.5476168394088745 0.4877433776855469 -0.021652890369296074
0.6955199241638184 0.6168469786643982 0.18137381970882416
0.6743770241737366 0.4714772403240204 0.15785911679267883
0.5628533363342285 0.6309453248977661 -0.10015856474637985
0.5796698927879333 0.5685411095619202 0.009599140845239162
0.6637349128723145 0.5324135422706604 0.3517210781574249
0.5588127970695496 0.5129762291908264 0.03049260936677456
0.5923338532447815 0.6200708150863647 0.0102956872433424
0.6534585356712341 0.4898527264595032 0.138679638504982
0.5906833410263062 0.5893016457557678 -0.04644044116139412
0.6560028195381165 0.7101905941963196 0.32220137119293213
0.5627480745315552 0.4867437481880188 0.06964733451604843
0.5823138952255249 0.5705142617225647 -0.07238036394119263
0.6528342962265015 0.8132017850875854 0.13090360164642334
0.634306788444519 0.8493450880050659 0.16671349108219147
0.6880282163619995 0.6345390677452087 0.26790276169776917
0.6682895421981812 0.785140335559845 0.17782656848430634
0.6800828576087952 0.47215113043785095 0.25134894251823425
0.5941935181617737 0.8821133375167847 0.007479036692529917
0.5536192655563354 0.6389487981796265 -0.07574153691530228
0.5945202112197876 0.5895123481750488 0.021785451099276543
0.6819292306900024 0.5171209573745728 0.20770595967769623
0.6288714408874512 0.4989289343357086 0.09693962335586548
0.6116806864738464 0.5007772445678711 0.08410798013210297
0.6010162830352783 0.7462172508239746 0.00949323270469904
0.692107081413269 0.6695854067802429 0.17585785686969757
0.5555945634841919 0.9203596711158752 -0.00947447121143341
0.5994434356689453 0.893030047416687 0.07202932238578796
0.6159664392471313 0.875436544418335 0.11458870768547058
0.5942438840866089 0.49860966205596924 0.07466387003660202
0.5783383250236511 0.4935576915740967 0.07112256437540054
0.5680958032608032 0.48978739976882935 0.07166813313961029
0.6801753640174866 0.47029680013656616 0.18819111585617065
0.5792325139045715 0.4739874005317688 0.07095636427402496
0.5961306691169739 0.47001802921295166 0.07475192099809647
0.6137599945068359 0.46879735589027405 0.08385705202817917
0.6309531927108765 0.4722747206687927 0.09683854132890701
0.6408309936523438 0.4784966707229614 0.10835260897874832
0.672307014465332 0.46926289796829224 0.3217567801475525
0.6390504837036133 0.49586328864097595 0.10950566083192825
0.5986373424530029 0.6818580627441406 -0.014490117318928242
0.5861617922782898 0.627943754196167 -0.040486808866262436
0.5662813782691956 0.6704042553901672 -0.05143158510327339
0.6321876049041748 0.8406839966773987 0.08837047219276428
0.6131474375724792 0.861674427986145 0.04846786707639694
0.5665813088417053 0.8970593214035034 -0.034189362078905106
0.6432332992553711 0.818724513053894 0.22789163887500763
0.5682159662246704 0.4807315170764923 0.07033556699752808
0.564271092414856 0.5277402997016907 -0.02709435485303402
0.5818613171577454 0.908117949962616 0.028464576229453087
0.6839574575424194 0.6914850473403931 0.2506137490272522
0.5708387494087219 0.7315132021903992 -0.02901908941566944
0.5745121240615845 0.7361633777618408 -0.03393871709704399
0.5774549841880798 0.7448409199714661 -0.038654133677482605
0.5791183114051819 0.7583239674568176 -0.036557164043188095
0.5780106782913208 0.7900463342666626 -0.022052953019738197
0.5943782329559326 0.7376479506492615 0.006033279467374086
0.6013830900192261 0.7363917827606201 0.009832154959440231
0.6072986125946045 0.7335081696510315 0.012763870880007744
0.6268970370292664 0.7201554775238037 0.02674727328121662
0.6814723014831543 0.6754516363143921 0.11393070966005325
0.5556203126907349 0.5055174827575684 -0.004113278817385435
0.5522247552871704 0.46461379528045654 0.04334157332777977
0.561052680015564 0.4716549813747406 0.061541929841041565
0.5876221656799316 0.7348660230636597 0.006321512628346682
0.6753522157669067 0.7416282296180725 0.13726364076137543
0.5437731146812439 0.4590848982334137 0.006503977347165346
0.5851833820343018 0.8220716714859009 -0.012348169460892677
0.5553578734397888 0.5116153359413147 -0.04743391275405884
0.5779839158058167 0.569024920463562 -0.026352327316999435
0.560027003288269 0.8320222496986389 -0.043746910989284515
0.625714123249054 0.7819830775260925 0.040220484137535095
0.6079974174499512 0.6424568295478821 0.020181884989142418
0.6057368516921997 0.805860698223114 0.014567135833203793
0.6514465808868408 0.6435459852218628 0.050901781767606735
0.6286914944648743 0.669686496257782 0.02966543845832348
0.6651902198791504 0.6884610056877136 0.07092153280973434
0.5676936507225037 0.8673723340034485 -0.04276374354958534
0.583977460861206 0.5863191485404968 -0.007646558806300163
0.6353697180747986 0.8063773512840271 0.06530321389436722
0.6132070422172546 0.8310317993164062 0.0314440093934536
0.6440245509147644 0.7526730298995972 0.05886811017990112
0.6855448484420776 0.7148944735527039 0.1719723492860794
0.6594489812850952 0.7627779841423035 0.09023554623126984
0.6775979399681091 0.7425155639648438 0.2262924164533615
0.6437894105911255 0.7050434947013855 0.04383710399270058
0.5709858536720276 0.5479111075401306 -0.007392336614429951
0.5897444486618042 0.6168040633201599 -0.06442461162805557
0.594892144203186 0.6259843111038208 -0.03970698267221451
0.5890107154846191 0.5955935120582581 -0.08296868205070496
0.5690849423408508 0.44440364837646484 0.04701767489314079
0.6018284559249878 0.43232372403144836 0.05833658576011658
0.6298199892044067 0.4311213195323944 0.07362048327922821
0.6509509682655334 0.4374823570251465 0.09475968778133392
0.6622674465179443 0.45060616731643677 0.1163848266005516
0.6622128486633301 0.49835386872291565 0.1529018133878708
0.6880668997764587 0.5795772075653076 0.27424806356430054
0.6545909643173218 0.5305734276771545 0.12372102588415146
0.6385442018508911 0.5352585911750793 0.09942622482776642
0.6143034100532532 0.5337005853652954 0.07806192338466644
0.5894424915313721 0.5263828635215759 0.0627930760383606
0.5706784725189209 0.5160593390464783 0.05248885601758957
0.558513343334198 0.50571209192276 0.04541061073541641
0.65753173828125 0.5905694961547852 0.3585406541824341
0.5902801752090454 0.6331669688224792 -0.03010738454759121
0.5715688467025757 0.5482223629951477 -0.046522632241249084
0.5842116475105286 0.6145470142364502 -0.08928166329860687
0.5675398111343384 0.6287206411361694 -0.08858484774827957
0.5787547826766968 0.6207835078239441 -0.07913258671760559
0.5825102925300598 0.6408278346061707 -0.028216173872351646
0.5674059391021729 0.6302656531333923 -0.09585109353065491
0.5586721897125244 0.6377174258232117 -0.07329566776752472
0.5573892593383789 0.4866902232170105 0.060301683843135834
0.5493484139442444 0.4901386499404907 0.039013370871543884
0.5488940477371216 0.49153703451156616 0.019071614369750023
0.6462560892105103 0.48339182138442993 0.11857559531927109
0.6555344462394714 0.4738651514053345 0.12467852234840393
