ply
format ascii 1.0
element vertex 468
property float x
property float y
property float z
end_header
0.43411558866500854 0.6885543465614319 -0.06508683413267136
0.4018867611885071 0.604048490524292 -0.09861855208873749
0.4356950521469116 0.6339293718338013 -0.05705505982041359
0.4127344489097595 0.5302935838699341 -0.053035445511341095
0.4002155661582947 0.5791187882423401 -0.10292407125234604
0.41124165058135986 0.549473226070404 -0.09253311902284622
0.44856899976730347 0.4774959087371826 -0.03447410836815834
0.3794219493865967 0.4816744327545166 0.13653063774108887
0.457133948802948 0.4148256182670593 -0.015135301277041435
0.4542776346206665 0.38170111179351807 -0.01444629579782486
0.4695301651954651 0.27366653084754944 0.01745455339550972
0.43610429763793945 0.7007939219474792 -0.06376686692237854
0.4414598345756531 0.7109519243240356 -0.05852903053164482
0.44829726219177246 0.716381311416626 -0.050447821617126465
0.44906920194625854 0.7280907034873962 -0.04891357943415642
0.4459761381149292 0.7379204630851746 -0.05233530327677727
0.44514477252960205 0.7507257461547852 -0.05616654083132744
0.4478467106819153 0.7648638486862183 -0.054156526923179626
0.46141040325164795 0.7872435450553894 -0.037818342447280884
0.41172242164611816 0.6186848878860474 -0.09082724153995514
0.4125661551952362 0.6194598078727722 -0.05651045963168144
0.3811463713645935 0.4085625410079956 0.2889631986618042
0.4194842576980591 0.4998894929885864 0.07979761809110641
0.4036935865879059 0.5029571056365967 0.09427256882190704
0.3902961015701294 0.50250244140625 0.11146073788404465
0.38057994842529297 0.4903964698314667 0.14410452544689178
0.43114519119262695 0.4919535517692566 0.06894747167825699
0.3915802240371704 0.4372066557407379 0.0935128927230835
0.4087778925895691 0.43843090534210205 0.076854407787323
0.37813878059387207 0.44157248735427856 0.11280042678117752
0.372346967458725 0.4513269364833832 0.12771368026733398
0.37344762682914734 0.5081737041473389 0.15980969369411469
0.4220789074897766 0.8195158243179321 0.024526650086045265
0.3779403269290924 0.47634291648864746 0.1477777659893036
0.3854180574417114 0.5038283467292786 0.28654760122299194
0.3721311092376709 0.49296510219573975 0.1948821097612381
0.38704222440719604 0.5965338349342346 0.05173248052597046
0.41682952642440796 0.6865003705024719 -0.045737043023109436
0.42890506982803345 0.7119484543800354 -0.04092159867286682
0.4064333140850067 0.6948736906051636 -0.01799842156469822
0.40514934062957764 0.7067685127258301 0.006640858948230743
0.4221761226654053 0.7143820524215698 -0.019384106621146202
0.4191174805164337 0.7183403372764587 0.0021417089737951756
0.40761494636535645 0.7461318969726562 0.04430142045021057
0.39098089933395386 0.6044230461120605 -0.08821023255586624
0.3874029517173767 0.5808260440826416 -0.0901021808385849
0.35619184374809265 0.4305824637413025 0.15676963329315186
0.42023321986198425 0.534996747970581 0.03358202427625656
0.3892194628715515 0.6027454137802124 -0.013057622127234936
0.3938513398170471 0.5907081365585327 -0.005217809230089188
0.35751160979270935 0.5981202721595764 0.11836002767086029
0.3988748788833618 0.5529792308807373 -0.07346633821725845
0.3672504127025604 0.3989032208919525 0.09080389142036438
0.35655632615089417 0.4099904000759125 0.12625902891159058
0.37359797954559326 0.364158570766449 0.24158932268619537
0.4241800904273987 0.4123481512069702 0.01713412255048752
0.4250712990760803 0.44557902216911316 0.06984138488769531
0.3971078395843506 0.7248927354812622 0.06261134892702103
0.43418070673942566 0.7218024134635925 0.2947233319282532
0.4028738737106323 0.6160491108894348 -0.017558544874191284
0.4152247905731201 0.6241199970245361 -0.035348933190107346
0.41133102774620056 0.7257446050643921 0.05079208314418793
0.41975194215774536 0.7242419719696045 0.03743921220302582
0.35403206944465637 0.39692461490631104 0.14381664991378784
0.3971516191959381 0.6140636801719666 -0.004874034319072962
0.3880119323730469 0.39786893129348755 0.05350663885474205
0.3835213780403137 0.37960386276245117 0.05401007831096649
0.39384445548057556 0.29991644620895386 0.11793770641088486
0.36174312233924866 0.3806556463241577 0.18619030714035034
0.38729792833328247 0.3385642468929291 0.08486659824848175
0.356114000082016 0.4231576919555664 0.18262559175491333
0.3668135404586792 0.41779521107673645 0.23189003765583038
0.4211300015449524 0.7009632587432861 -0.04503219574689865
0.41339781880378723 0.7062617540359497 -0.019825739786028862
0.41100192070007324 0.7126025557518005 0.0023393952287733555
0.4092217683792114 0.6205830574035645 -0.019529735669493675
0.41511207818984985 0.7254517674446106 0.04278517886996269
0.4154790937900543 0.729266345500946 0.021745286881923676
0.42327189445495605 0.7229012250900269 0.03542197495698929
0.3943679630756378 0.6062697768211365 -0.04365702345967293
0.42756426334381104 0.7178067564964294 0.0027729019057005644
0.4310961961746216 0.7165098786354065 -0.014961405657231808
0.4376043677330017 0.7164820432662964 -0.03344930708408356
0.4415827691555023 0.7857667207717896 -0.02246512658894062
0.4300038814544678 0.7620812654495239 -0.036727964878082275
0.42863380908966064 0.7477750778198242 -0.03797043114900589
0.4313061237335205 0.7354344725608826 -0.03348811715841293
0.43601560592651367 0.7274324297904968 -0.03091878816485405
0.4249863028526306 0.7259588837623596 0.004437243565917015
0.4209258556365967 0.7286415100097656 0.001010076841339469
0.41632089018821716 0.7344315052032471 -0.0013320476282387972
0.4137018918991089 0.7420142889022827 0.004620014689862728
0.39375823736190796 0.680474042892456 0.02296382188796997
0.4299691319465637 0.6083991527557373 0.35198506712913513
0.42375457286834717 0.625507652759552 -0.06867971271276474
0.42470285296440125 0.7256056666374207 0.02233256958425045
0.4195590615272522 0.7266051173210144 0.02053791657090187
0.41989028453826904 0.6348147988319397 -0.03817617893218994
0.4079490303993225 0.6293789744377136 -0.0015361570985987782
0.417530357837677 0.6298619508743286 -0.037302810698747635
0.40752798318862915 0.5501518249511719 0.05222085118293762
0.3834356963634491 0.5680621862411499 0.07640232145786285
0.39809760451316833 0.6023175120353699 0.00511056836694479
0.37679973244667053 0.3272967040538788 0.18139120936393738
0.3686336278915405 0.3531329333782196 0.13722430169582367
0.3632650077342987 0.3817942142486572 0.10098548233509064
0.4150492548942566 0.7607946991920471 0.024198712781071663
0.4147599935531616 0.3820918798446655 0.016438154503703117
0.4169107675552368 0.3327641785144806 0.03953392431139946
0.42296576499938965 0.28366658091545105 0.06111505255103111
0.38268306851387024 0.4987817704677582 0.13001896440982819
0.3655407428741455 0.5264941453933716 0.18088670074939728
0.43808886408805847 0.484071284532547 0.06640049815177917
0.368780255317688 0.4616166949272156 0.1588328331708908
0.4271649122238159 0.5184504389762878 0.020107844844460487
0.38597869873046875 0.5923606753349304 -0.03716006875038147
0.36249786615371704 0.5447361469268799 0.21648703515529633
0.3616558313369751 0.5422387719154358 0.1546606421470642
0.3685687780380249 0.5487910509109497 0.11820778250694275
0.3926061987876892 0.5425941348075867 0.08715293556451797
0.41346704959869385 0.5307185649871826 0.06527481973171234
0.4274255633354187 0.5179588198661804 0.047330066561698914
0.436394602060318 0.48466241359710693 -0.014046167023479939
0.3560812771320343 0.5928820967674255 0.20525527000427246
0.36491814255714417 0.4598354697227478 0.1794336885213852
0.4048876166343689 0.6180906891822815 -0.08281397819519043
0.41415178775787354 0.5571846961975098 0.02142273262143135
0.41530799865722656 0.5060564875602722 0.35627907514572144
0.4360823631286621 0.504004955291748 0.03664184361696243
0.40550222992897034 0.6050756573677063 0.022562725469470024
0.37700679898262024 0.4770839810371399 0.1564914733171463
0.3931344747543335 0.5781271457672119 -0.028602927923202515
0.43193256855010986 0.6637370586395264 0.3300084173679352
0.4402126669883728 0.47551053762435913 0.07409635931253433
0.39403295516967773 0.5628140568733215 -0.05344241484999657
0.4024503827095032 0.7722972631454468 0.1547623723745346
0.42722827196121216 0.800605297088623 0.1867968738079071
0.384270578622818 0.6024191975593567 0.28372588753700256
0.3982779383659363 0.742647647857666 0.2002214789390564
0.3769950568675995 0.4582924246788025 0.2667454183101654
0.42472636699676514 0.8439066410064697 0.03577909246087074
0.4182010591030121 0.6247443556785583 -0.06296925246715546
0.4056256115436554 0.5760941505432129 0.0356082022190094
0.37273314595222473 0.4994406998157501 0.2259836047887802
0.38869133591651917 0.48889458179473877 0.1122518852353096
0.4018082022666931 0.49036121368408203 0.09776477515697479
0.41269612312316895 0.7339134812355042 0.028815289959311485
0.36314618587493896 0.6399368643760681 0.19948247075080872
0.45345136523246765 0.879989743232727 0.014899463392794132
0.4328174889087677 0.8477941751480103 0.09639392048120499
0.42950642108917236 0.8285505175590515 0.13736999034881592
0.4591182470321655 0.3280751705169678 0.00024439170374535024
0.48570093512535095 0.8885412812232971 -0.01823783665895462
0.4159103035926819 0.4879527688026428 0.08552732318639755
0.42819488048553467 0.4822593927383423 0.07902827858924866
0.4360775947570801 0.4782746434211731 0.07724883407354355
0.366462767124176 0.458026647567749 0.20842015743255615
0.4279147982597351 0.4640893340110779 0.0787481740117073
0.414237380027771 0.4608628749847412 0.0858251079916954
0.39948898553848267 0.4602443277835846 0.09787888079881668
0.38644400238990784 0.4636155366897583 0.11297671496868134
0.38055500388145447 0.4688142240047455 0.12494689226150513
0.3950297236442566 0.452667772769928 0.3299226760864258
0.3824780285358429 0.4853236675262451 0.1260063499212265
0.4373660385608673 0.651717483997345 -0.054874636232852936
0.40032023191452026 0.6645447015762329 0.0027322557289153337
0.39778953790664673 0.6117870211601257 -0.024903304874897003
0.4177795648574829 0.6551001667976379 -0.036494772881269455
0.45974642038345337 0.4464777112007141 -0.017919111996889114
0.41048091650009155 0.800089955329895 0.11349174380302429
0.4184489846229553 0.8217328786849976 0.07533750683069229
0.4397231936454773 0.8613905906677246 -0.005788799840956926
0.4314950704574585 0.7681094408035278 0.24454277753829956
0.43599823117256165 0.47035425901412964 0.07649495452642441
0.4190351366996765 0.5226656794548035 -0.016048135235905647
0.47114744782447815 0.8684369325637817 -0.03835534304380417
0.43810755014419556 0.8655272126197815 0.05479615181684494
0.3900936245918274 0.6533476114273071 0.2675870656967163
0.4281280040740967 0.7263643741607666 -0.01247352547943592
0.423645555973053 0.7321048974990845 -0.015449989587068558
0.41996461153030396 0.7410452961921692 -0.018179073929786682
0.4187270998954773 0.7536029815673828 -0.014849711209535599
0.42562174797058105 0.7747222185134888 0.0017743816133588552
0.41917741298675537 0.7215715646743774 0.02277655526995659
0.4121665954589844 0.7196509838104248 0.027652107179164886
0.40719765424728394 0.7162825465202332 0.0314679816365242
0.39193564653396606 0.7013885378837585 0.046688687056303024
0.36123478412628174 0.6498738527297974 0.14014765620231628
0.43232837319374084 0.5001976490020752 0.004140699282288551
0.44397857785224915 0.4555695056915283 0.04559463635087013
0.439724862575531 0.46044930815696716 0.06539894640445709
0.4258120656013489 0.7187904715538025 0.02196132391691208
0.37887075543403625 0.7074878811836243 0.16181418299674988
0.44513046741485596 0.45244261622428894 0.010379627346992493
0.426044225692749 0.796452522277832 0.013347738422453403
0.42431026697158813 0.5256084203720093 -0.07265415787696838
0.42345669865608215 0.5089377760887146 -0.0370391346514225
0.43608981370925903 0.5028175115585327 -0.0530024915933609
0.40737587213516235 0.5595033168792725 -0.012728936970233917
0.4643537998199463 0.8421512842178345 -0.04543188214302063
0.463375449180603 0.8122100830078125 -0.04174864664673805
0.44083285331726074 0.8094437122344971 -0.018824778497219086
0.40109336376190186 0.7556054592132568 0.06377546489238739
0.396193265914917 0.6259477138519287 0.036105621606111526
0.41358232498168945 0.778819739818573 0.039281196892261505
0.36852872371673584 0.6260039210319519 0.07417672872543335
0.38411933183670044 0.6514108180999756 0.04912569373846054
0.3677869737148285 0.665408730506897 0.09526940435171127
0.43639129400253296 0.8372449278831482 -0.014013104140758514
0.40764880180358887 0.574070155620575 0.005897100083529949
0.3997560143470764 0.7733268737792969 0.09032995998859406
0.4129156470298767 0.7973434329032898 0.057631995528936386
0.38843387365341187 0.7276355028152466 0.08307109773159027
0.3734932541847229 0.680133044719696 0.19532445073127747
0.3842882812023163 0.7318788766860962 0.11564888805150986
0.3954406976699829 0.7003889679908752 0.2459147423505783
0.3808201551437378 0.684463620185852 0.06603652983903885
0.4174323081970215 0.5395733118057251 0.004041070118546486
0.3883751928806305 0.602327823638916 -0.044568222016096115
0.3918934464454651 0.6100027561187744 -0.021832969039678574
0.3844539225101471 0.5852272510528564 -0.06140252947807312
0.42758908867836 0.4338635206222534 0.053464554250240326
0.40090465545654297 0.4224929213523865 0.07050065696239471
0.38039281964302063 0.42198294401168823 0.09154250472784042
0.366892009973526 0.42851513624191284 0.11606576293706894
0.363661527633667 0.441678524017334 0.13890646398067474
0.3751763105392456 0.48487842082977295 0.17134061455726624
0.38309401273727417 0.5529535412788391 0.29000237584114075
0.373907208442688 0.5172416567802429 0.14196987450122833
0.3818844258785248 0.5228853821754456 0.1168801486492157
0.3993369936943054 0.521137535572052 0.09307332336902618
0.41828453540802 0.5138732194900513 0.07317252457141876
0.43188753724098206 0.5041254758834839 0.0594681091606617
0.4399104714393616 0.49506455659866333 0.050144147127866745
0.42762500047683716 0.55685955286026 0.36256667971611023
0.39902693033218384 0.6172084212303162 -0.014283151365816593
0.4076087474822998 0.5425195693969727 -0.031807489693164825
0.3871026039123535 0.6017210483551025 -0.06940972805023193
0.40397801995277405 0.6148973107337952 -0.07150423526763916
0.39428138732910156 0.606717050075531 -0.060572441667318344
0.4076971709728241 0.6247230172157288 -0.014185003936290741
0.40277254581451416 0.616899847984314 -0.0784124881029129
0.41452789306640625 0.6232843399047852 -0.05995889753103256
0.4433182179927826 0.475333034992218 0.06299438327550888
0.44658762216567993 0.48068785667419434 0.04134555906057358
0.44330334663391113 0.48413166403770447 0.023734521120786667
0.37822288274765015 0.47297152876853943 0.13589046895503998
0.3721723258495331 0.46217837929725647 0.1438463181257248
0.4423895478248596 0.5288124084472656 -0.0803457722067833
0.6409788131713867 0.4648739993572235 -0.06125076115131378
0.4428948760032654 0.619969367980957 -0.07711746543645859
0.7992759943008423 0.36668145656585693 -0.014922967180609703
0.5723746418952942 0.4895041584968567 -0.047232646495103836
0.5939593315124512 0.4905080795288086 -0.05872906744480133
0.6174994707107544 0.48862284421920776 -0.06522062420845032
0.6566277146339417 0.4727613031864166 -0.06532838940620422
0.5549167394638062 0.4837455749511719 -0.030975064262747765
0.5925160050392151 0.41608837246894836 -0.06586886197328568
0.569648802280426 0.4202321171760559 -0.04846804216504097
0.6185575723648071 0.4181433916091919 -0.0724223330616951
0.6395342946052551 0.4272496700286865 -0.07247582077980042
0.680231511592865 0.4896560311317444 -0.065010204911232
0.5553169250488281 0.8298183679580688 -0.06747843325138092
0.6526280641555786 0.4576070308685303 -0.05895674228668213
0.8074359893798828 0.4783121943473816 -0.023514781147241592
0.7175992727279663 0.4710087180137634 -0.05843412131071091
0.5695363283157349 0.590171217918396 -0.07559386640787125
0.45925235748291016 0.6856383681297302 -0.0782344788312912
0.4638445973396301 0.7118543386459351 -0.07041067630052567
0.49361521005630493 0.6952866911888123 -0.08520501106977463
0.5205556750297546 0.705981433391571 -0.08555945008993149
0.4894212484359741 0.7149143218994141 -0.07732456922531128
0.5116080045700073 0.7181495428085327 -0.0753258541226387
0.5703107714653015 0.748116135597229 -0.07425159215927124
0.4194396138191223 0.6037181615829468 -0.10590802878141403
0.4205583333969116 0.5795873999595642 -0.1110326424241066
0.6789193749427795 0.40072351694107056 -0.08137943595647812
0.5292773842811584 0.5296099781990051 -0.04940063878893852
0.49921780824661255 0.6012534499168396 -0.09100962430238724
0.5068250894546509 0.5885289311408997 -0.08570687472820282
0.6550885438919067 0.5881332755088806 -0.09357719123363495
0.4304704964160919 0.5517944097518921 -0.10028835386037827
0.5999880433082581 0.3720657229423523 -0.07417330890893936
0.6417058110237122 0.3805740177631378 -0.08042516559362411
0.7459003925323486 0.32073837518692017 -0.030912170186638832
0.5002774000167847 0.40285274386405945 -0.03650015592575073
0.5525760650634766 0.4310483932495117 -0.03190561383962631
0.5863614678382874 0.7243750691413879 -0.08119338005781174
0.8290140628814697 0.7293704152107239 0.010854464024305344
0.48577219247817993 0.6161478161811829 -0.07600930333137512
0.46768778562545776 0.6245580911636353 -0.06426308304071426
0.5588160157203674 0.7243325710296631 -0.07319986075162888
0.5501566529273987 0.7234888076782227 -0.07100501656532288
0.6608483791351318 0.364045113325119 -0.07699563354253769
0.5077548623085022 0.6133434176445007 -0.08111082017421722
0.5529714226722717 0.3778787851333618 -0.059554293751716614
0.5544518232345581 0.35755711793899536 -0.06279969960451126
0.6014993190765381 0.2695654034614563 -0.03868144750595093
0.7001932263374329 0.3428574502468109 -0.058055102825164795
0.5725501775741577 0.31274402141571045 -0.05087466910481453
0.7038980722427368 0.3907199800014496 -0.07224638015031815
0.7490307092666626 0.38077205419540405 -0.044438112527132034
0.46048444509506226 0.7006595730781555 -0.07691123336553574
0.4892514646053314 0.7067591547966003 -0.08262515813112259
0.514382541179657 0.7123433947563171 -0.0818818137049675
0.48269379138946533 0.6213931441307068 -0.06667132675647736
0.5535241365432739 0.7240705490112305 -0.07143639028072357
0.5400697588920593 0.7286373972892761 -0.07425953447818756
0.5499227643013 0.7226525545120239 -0.07001268118619919
0.4597774147987366 0.6063737273216248 -0.09701506048440933
0.5135585069656372 0.7172388434410095 -0.07073640823364258
0.49185115098953247 0.7165139317512512 -0.06902521103620529
0.4690920114517212 0.7162860035896301 -0.06341657787561417
0.4898870587348938 0.7874759435653687 -0.05169912800192833
0.4746319651603699 0.7632424831390381 -0.06886658817529678
0.4705173075199127 0.7483341097831726 -0.07113074511289597
0.4695735573768616 0.7356647849082947 -0.06637086719274521
0.47092556953430176 0.7276220917701721 -0.06187548115849495
0.5175155997276306 0.725679337978363 -0.06939930468797684
0.51878422498703 0.7285226583480835 -0.0728847086429596
0.5223348736763 0.7344554662704468 -0.07762850821018219
0.5277729034423828 0.7428338527679443 -0.07780391722917557
0.5425679087638855 0.6792506575584412 -0.08389149606227875
0.8619851469993591 0.5973889231681824 0.0347130224108696
0.533943772315979 0.7251738905906677 -0.06961431354284286
0.5356331467628479 0.7261612415313721 -0.07216748595237732
0.4608179032802582 0.6354276537895203 -0.06619028747081757
0.5065776109695435 0.6297957897186279 -0.062034573405981064
0.46383023262023926 0.6303001642227173 -0.06503219157457352
0.555050790309906 0.5433720946311951 -0.05866293981671333
0.5913116931915283 0.5588664412498474 -0.07418441772460938
0.5166647434234619 0.6004211902618408 -0.07787711173295975
0.6807664036750793 0.286967009305954 -0.041298821568489075
0.6430144309997559 0.31838005781173706 -0.059650443494319916
0.6097332835197449 0.3521975576877594 -0.07395388931035995
0.5483968257904053 0.7642641067504883 -0.07357313483953476
0.501585841178894 0.36949342489242554 -0.042682092636823654
0.5143328309059143 0.3189774751663208 -0.03117605671286583
0.5341721177101135 0.26658895611763 -0.018188048154115677
0.6416165232658386 0.48290711641311646 -0.06690791249275208
0.711326539516449 0.5079841017723083 -0.06915106624364853
0.543148398399353 0.4771629869937897 -0.022855188697576523
0.6756544709205627 0.43770310282707214 -0.07108992338180542
0.5102390050888062 0.5141441822052002 -0.046202801167964935
0.47435474395751953 0.5908739566802979 -0.10050391405820847
0.7523373365402222 0.5258508920669556 -0.06724777072668076
0.683512270450592 0.5255613327026367 -0.08034750819206238
0.6422092914581299 0.5350996255874634 -0.08055882900953293
0.5937554836273193 0.5319487452507019 -0.06470838934183121
0.5623350739479065 0.5226619243621826 -0.04955941438674927
0.5382193922996521 0.5118203163146973 -0.03876222297549248
0.4698907136917114 0.4823698401451111 -0.042379554361104965
0.7453705072402954 0.5805537104606628 -0.07759632170200348
0.7018264532089233 0.4337541460990906 -0.07189282029867172
0.4215114116668701 0.6177651286125183 -0.09683540463447571
0.5191159844398499 0.5531802773475647 -0.0587923526763916
0.8591874837875366 0.4786292314529419 0.029381362721323967
0.5187279582023621 0.49897876381874084 -0.03046347387135029
0.528076708316803 0.6031200885772705 -0.059706397354602814
0.6660767197608948 0.4565610885620117 -0.061083246022462845
0.4839743375778198 0.5757085680961609 -0.09258005768060684
0.8535029292106628 0.6616953611373901 0.02655390277504921
0.5460174083709717 0.4688453674316406 -0.019614219665527344
0.4557062089443207 0.5607558488845825 -0.10061120986938477
0.7045702934265137 0.7859219908714294 -0.05630846321582794
0.7318275570869446 0.8185954093933105 -0.028460076078772545
0.8121626973152161 0.5899850130081177 -0.025974251329898834
0.7527347207069397 0.752627432346344 -0.048536039888858795
0.7818403244018555 0.4256349205970764 -0.029503539204597473
0.5675561428070068 0.8570374846458435 -0.06354622542858124
0.4309595227241516 0.624507486820221 -0.07152170687913895
0.542705774307251 0.5712293386459351 -0.06321833282709122
0.7513898015022278 0.4763185381889343 -0.0530536025762558
0.6121559739112854 0.47430139780044556 -0.06136374548077583
0.5916120409965515 0.4770524203777313 -0.056003469973802567
0.5469626784324646 0.7330870032310486 -0.07517588883638382
0.7471805810928345 0.633781909942627 -0.07268830388784409
0.5312089920043945 0.8887724876403809 -0.04013234004378319
0.6246999502182007 0.8659704923629761 -0.04228077456355095
0.6726095080375671 0.8482056260108948 -0.037389740347862244
0.5748870372772217 0.47648727893829346 -0.045271314680576324
0.5603795647621155 0.4730960726737976 -0.03345615416765213
0.5508990287780762 0.47102999687194824 -0.023677395656704903
0.7324867248535156 0.4293137192726135 -0.061879634857177734
0.5605404376983643 0.45372503995895386 -0.036189004778862
0.5770223140716553 0.44715309143066406 -0.047735948115587234
0.594146192073822 0.4447855055332184 -0.05787190794944763
0.6152507066726685 0.44657427072525024 -0.06404508650302887
0.6308925151824951 0.45076537132263184 -0.06483666598796844
0.8353428244590759 0.4161641597747803 0.010446666739881039
0.6280590295791626 0.46980345249176025 -0.06277120858430862
0.5166305899620056 0.6645381450653076 -0.07844750583171844
0.48137563467025757 0.611580491065979 -0.07991155982017517
0.4644540250301361 0.6551326513290405 -0.07005124539136887
0.6575798988342285 0.8159826993942261 -0.05709366872906685
0.6144181489944458 0.8380908966064453 -0.05906902253627777
0.5177567601203918 0.8691641092300415 -0.06014079228043556
0.7850679159164429 0.7822988629341125 -0.009971017949283123
0.54976487159729 0.4630809426307678 -0.026410266757011414
0.4766584038734436 0.5197144150733948 -0.06106987223029137
0.5765531063079834 0.8803372383117676 -0.047695599496364594
0.808373212814331 0.6489357352256775 -0.02903902716934681
0.4943143129348755 0.7264077067375183 -0.06775886565446854
0.4956500828266144 0.7321616411209106 -0.0725896954536438
0.497795045375824 0.7417316436767578 -0.07774686813354492
0.501849353313446 0.7546456456184387 -0.07728495448827744
0.5211942195892334 0.777928352355957 -0.06835704296827316
0.5346075296401978 0.7207223176956177 -0.0739273652434349
0.5385358333587646 0.7184072732925415 -0.07862591743469238
0.5446617603302002 0.7147513031959534 -0.08167719095945358
0.5671676397323608 0.6997838616371155 -0.08607753366231918
0.6895232796669006 0.6453563570976257 -0.08920609205961227
0.48981231451034546 0.496582567691803 -0.0424705408513546
0.5198688507080078 0.44893115758895874 -0.014153452590107918
0.5375920534133911 0.45205074548721313 -0.019790446385741234
0.5335628390312195 0.7182796597480774 -0.0701446458697319
0.7125371694564819 0.7108503580093384 -0.0712396502494812
0.4906086027622223 0.4481121897697449 -0.024546895176172256
0.541034460067749 0.8036109209060669 -0.06555496901273727
0.45587462186813354 0.507342517375946 -0.06102367118000984
0.4897423982620239 0.5565516352653503 -0.07179314643144608
0.49952515959739685 0.8134883642196655 -0.05696382001042366
0.6005826592445374 0.7611877918243408 -0.07419827580451965
0.5496528148651123 0.6232619285583496 -0.06776989996433258
0.5748720169067383 0.7866091728210449 -0.06991411000490189
0.6092455983161926 0.6201590895652771 -0.08946801722049713
0.5724036693572998 0.6484556794166565 -0.08022572845220566
0.6402692198753357 0.6627844572067261 -0.09163641184568405
0.5077692866325378 0.8430030941963196 -0.06509952247142792
0.5112624168395996 0.5709593892097473 -0.0679982453584671
0.6328267455101013 0.7837806940078735 -0.06984268873929977
0.5956851243972778 0.8090606331825256 -0.06539638340473175
0.6175459027290344 0.7301260828971863 -0.08406373858451843
0.7479596138000488 0.6797604560852051 -0.06583938002586365
0.6646895408630371 0.7377491593360901 -0.07943254709243774
0.7932171821594238 0.703758955001831 -0.03561052307486534
0.5966038107872009 0.6824660897254944 -0.08713454753160477
0.4980509281158447 0.5361047387123108 -0.059591230005025864
0.4650503993034363 0.6019235849380493 -0.10216794162988663
0.4905380606651306 0.6095094084739685 -0.0879940539598465
0.44663935899734497 0.583860456943512 -0.10826698690652847
0.5314658284187317 0.42315810918807983 -0.02908099628984928
0.5625407695770264 0.4046797752380371 -0.050197333097457886
0.5935187935829163 0.398739218711853 -0.06683244556188583
0.6254945993423462 0.4021981358528137 -0.0766911506652832
0.6540688276290894 0.41488754749298096 -0.07754259556531906
0.6878973245620728 0.4637574553489685 -0.06118904426693916
0.8124985694885254 0.5334483981132507 -0.027388717979192734
0.6612250208854675 0.5003217458724976 -0.06906197220087051
0.6302493214607239 0.5084071159362793 -0.06702747195959091
0.5966780185699463 0.5093438625335693 -0.058172840625047684
0.5682982802391052 0.5046820640563965 -0.045676179230213165
0.5472079515457153 0.49712345004081726 -0.030348312109708786
0.5317490100860596 0.489526629447937 -0.022730965167284012
0.8639383316040039 0.5378699898719788 0.036873895674943924
0.4960746765136719 0.6168176531791687 -0.07877091318368912
0.46510326862335205 0.5400487780570984 -0.07810819894075394
0.43941497802734375 0.6016169786453247 -0.10614296793937683
0.436729371547699 0.615447461605072 -0.09265311062335968
0.44629764556884766 0.607145369052887 -0.09814288467168808
0.4945533871650696 0.6253131628036499 -0.06820442527532578
0.4295664429664612 0.6167201995849609 -0.09584768861532211
0.4377230107784271 0.6236095428466797 -0.07449974119663239
0.5350898504257202 0.4693949818611145 -0.014384080655872822
0.518787682056427 0.47574740648269653 -0.015501579269766808
0.5040103197097778 0.47980964183807373 -0.023956121876835823
0.6416618227958679 0.454252153635025 -0.06320077180862427
0.6585938930511475 0.43931227922439575 -0.0687442347407341
