ply
format ascii 1.0
element vertex 468
property float x
property float y
property float z
end_header
0.4972343444824219 0.6914163827896118 -0.06111275404691696
0.4911682903766632 0.6263054013252258 -0.13862177729606628
0.4954496920108795 0.6460733413696289 -0.0704563781619072
0.4748895764350891 0.5481578707695007 -0.11014150828123093
0.49092400074005127 0.6025820374488831 -0.14916160702705383
0.4925810396671295 0.5708484053611755 -0.14211398363113403
0.49861374497413635 0.4948575794696808 -0.08319541811943054
0.33586299419403076 0.48086991906166077 0.03186037391424179
0.5005839467048645 0.443789541721344 -0.07220327854156494
0.5007395148277283 0.4137038588523865 -0.08092638850212097
0.5052222609519958 0.2878071665763855 -0.06794193387031555
0.49779507517814636 0.7021234631538391 -0.057308074086904526
0.49890026450157166 0.7089793682098389 -0.049383506178855896
0.5000616312026978 0.7101382613182068 -0.038296084851026535
0.5005732178688049 0.7518448233604431 -0.022787876427173615
0.5000333786010742 0.7623573541641235 -0.026142677292227745
0.49966293573379517 0.7750356793403625 -0.029369059950113297
0.49997884035110474 0.7894014120101929 -0.022437160834670067
0.5008487105369568 0.8114964962005615 0.005014915019273758
0.49225422739982605 0.6378182172775269 -0.12472711503505707
0.47276395559310913 0.6335426568984985 -0.08819162845611572
0.26168927550315857 0.39096128940582275 0.14324292540550232
0.40609011054039 0.5000669360160828 0.003918600268661976
0.3822149634361267 0.5013542175292969 0.007193765603005886
0.3588328957557678 0.5003355145454407 0.01537156943231821
0.32652589678764343 0.48850223422050476 0.03732703998684883
0.4251546263694763 0.49563068151474 0.003636120818555355
0.3709581196308136 0.4494051933288574 -0.008160504512488842
0.39652717113494873 0.45106470584869385 -0.01046684104949236
0.3473737835884094 0.45190781354904175 0.0018451735377311707
0.3318188786506653 0.4585121273994446 0.013782464899122715
0.3081966042518616 0.5020968914031982 0.0520198717713356
0.4100642800331116 0.8343272805213928 0.047631483525037766
0.32668614387512207 0.4763941168785095 0.040052324533462524
0.24923065304756165 0.49058133363723755 0.16709265112876892
0.28450608253479004 0.48881804943084717 0.07681729644536972
0.3762982487678528 0.5935922861099243 -0.00953162182122469
0.46222394704818726 0.6858946681022644 -0.05541902408003807
0.4671129882335663 0.7065121531486511 -0.04231390729546547
0.4281875193119049 0.6871008276939392 -0.03522945195436478
0.40777158737182617 0.6907639503479004 -0.008042162284255028
0.4424910843372345 0.7040532827377319 -0.026923591271042824
0.42442089319229126 0.7028000950813293 -0.0022564029786735773
0.3842485249042511 0.7332209348678589 0.047687795013189316
0.47160089015960693 0.6248038411140442 -0.1351650059223175
0.4687771201133728 0.6018813848495483 -0.14486347138881683
0.2972583770751953 0.4367314577102661 0.01812630519270897
0.42963290214538574 0.5398678779602051 -0.023030899465084076
0.42025524377822876 0.6100727915763855 -0.06899169832468033
0.4197624921798706 0.5970829725265503 -0.061842162162065506
0.30430686473846436 0.5864566564559937 0.027585148811340332
0.47151902318000793 0.5725701451301575 -0.13220179080963135
0.35168540477752686 0.418098121881485 -0.033357325941324234
0.3190940022468567 0.4228671193122864 -0.010784726589918137
0.28227633237838745 0.35187801718711853 0.08721943944692612
0.4525672197341919 0.43992137908935547 -0.06127479299902916
0.418836385011673 0.45779621601104736 -0.004154221620410681
0.3651242256164551 0.7019779086112976 0.04867875948548317
0.2775154113769531 0.7067080736160278 0.25992411375045776
0.4380801022052765 0.6234148144721985 -0.05894247442483902
0.4578496813774109 0.6325689554214478 -0.06283411383628845
0.38460230827331543 0.7017296552658081 0.04737669602036476
0.3975677490234375 0.7035186290740967 0.040321242064237595
0.3075159788131714 0.4069322943687439 0.0006398060941137373
0.4199181795120239 0.6176170110702515 -0.05380111560225487
0.39543652534484863 0.4225122630596161 -0.050869885832071304
0.3908253312110901 0.4030727744102478 -0.05858401209115982
0.3693220615386963 0.2995993494987488 -0.022852690890431404
0.2954586446285248 0.37834835052490234 0.03841462731361389
0.3823995888233185 0.34858548641204834 -0.04204903915524483
0.2846026122570038 0.4253324866294861 0.03916716203093529
0.2730602025985718 0.4091593027114868 0.08858911693096161
0.4638920724391937 0.6984626054763794 -0.05118666589260101
0.43583977222442627 0.6973633766174316 -0.03141673654317856
0.4158703684806824 0.6967890858650208 -0.006804683245718479
0.4440152049064636 0.627405047416687 -0.05467035248875618
0.3906788229942322 0.7023423910140991 0.043258629739284515
0.4028266370296478 0.7212648987770081 0.030861560255289078
0.40215837955474854 0.7039316892623901 0.03925669938325882
0.4487862288951874 0.6204840540885925 -0.09629027545452118
0.4299684464931488 0.7009972929954529 0.0010294114472344518
0.44831493496894836 0.7038077116012573 -0.017246218398213387
0.4711945652961731 0.7075676321983337 -0.03153073415160179
0.4628230631351471 0.8063182830810547 0.009841571561992168
0.4636364281177521 0.7832465767860413 -0.016365204006433487
0.46490341424942017 0.7693029642105103 -0.02192576229572296
0.4674842357635498 0.7566916346549988 -0.018231101334095
0.4707944393157959 0.7480533123016357 -0.015320226550102234
0.42829185724258423 0.7304691672325134 0.014108655974268913
0.4234110713005066 0.7331078052520752 0.011325416155159473
0.4170868992805481 0.7386201620101929 0.010151784867048264
0.41237860918045044 0.7460755705833435 0.016779454424977303
0.39023303985595703 0.6701470613479614 -0.0023888014256954193
0.25490492582321167 0.5905019640922546 0.28212618827819824
0.4935941994190216 0.6416634917259216 -0.09015826135873795
0.4166598916053772 0.7210556268692017 0.03089406155049801
0.4093897044658661 0.7203476428985596 0.02936968021094799
0.46532711386680603 0.6432248950004578 -0.06157376244664192
0.427606999874115 0.630347728729248 -0.034090448170900345
0.4618288278579712 0.638206422328949 -0.06341398507356644
0.40415316820144653 0.5502452254295349 -0.01075722649693489
0.36247286200523376 0.5627860426902771 4.200920011498965e-05
0.41605713963508606 0.6054273247718811 -0.04592426121234894
0.3157157003879547 0.32071563601493835 0.029351504519581795
0.32993844151496887 0.35713261365890503 -0.004079439211636782
0.3439726233482361 0.39880627393722534 -0.03047172911465168
0.4032684564590454 0.7618741393089294 0.03642062842845917
0.444524884223938 0.4096217155456543 -0.07419318705797195
0.4377296268939972 0.34673815965652466 -0.06530925631523132
0.4301801919937134 0.28955212235450745 -0.055566854774951935
0.338230699300766 0.4961557984352112 0.02716936357319355
0.28348347544670105 0.5168091058731079 0.06953882426023483
0.4368589520454407 0.4906482696533203 0.005284443031996489
0.30750179290771484 0.46417978405952454 0.037038654088974
0.4463372826576233 0.5273857712745667 -0.03530355170369148
0.4337374269962311 0.6052833795547485 -0.09597603231668472
0.2601151764392853 0.5318936109542847 0.10168829560279846
0.2972947955131531 0.5311036109924316 0.04849078506231308
0.3259109556674957 0.5395145416259766 0.02465544268488884
0.371410071849823 0.5384502410888672 0.00907525047659874
0.406317800283432 0.5312846899032593 0.00025674374774098396
0.4310787320137024 0.5226566195487976 -0.010360678657889366
0.47646209597587585 0.500388503074646 -0.07045319676399231
0.25788766145706177 0.5777131915092468 0.10059233009815216
0.289740651845932 0.460834264755249 0.0489569790661335
0.48051324486732483 0.6363072991371155 -0.12223447859287262
0.4293119013309479 0.5625653862953186 -0.031649671494960785
0.24865993857383728 0.4871596395969391 0.24977467954158783
0.44858643412590027 0.5121626853942871 -0.017597820609807968
0.4143345355987549 0.6053200960159302 -0.01899624615907669
0.31928518414497375 0.47766250371932983 0.04543899744749069
0.433953195810318 0.5894787907600403 -0.08743953704833984
0.2619594633579254 0.6468176245689392 0.27720966935157776
0.43601399660110474 0.48282045125961304 0.010804126970469952
0.4522245526313782 0.5790888667106628 -0.11474864929914474
0.3173748254776001 0.7650108337402344 0.137525275349617
0.32527464628219604 0.7934171557426453 0.18161354959011078
0.24478459358215332 0.586342453956604 0.19217897951602936
0.2879302203655243 0.7319157719612122 0.16308258473873138
0.2605574429035187 0.44626104831695557 0.13455533981323242
0.40853068232536316 0.8596773147583008 0.06357083469629288
0.4844156503677368 0.6403020620346069 -0.08780024945735931
0.40746116638183594 0.5765077471733093 -0.019147124141454697
0.26663297414779663 0.4923449456691742 0.10385795682668686
0.36096298694610596 0.4864727854728699 0.016192255541682243
0.3822263479232788 0.48806750774383545 0.00871969573199749
0.3967813551425934 0.7235090732574463 0.03558117151260376
0.25960028171539307 0.6248868107795715 0.1146572008728981
0.452670693397522 0.8973301649093628 0.06802830845117569
0.3863033354282379 0.8546962738037109 0.11981412768363953
0.3588298559188843 0.8283743262290955 0.1478155255317688
0.502800703048706 0.34770262241363525 -0.07601457834243774
0.502875030040741 0.9056187868118286 0.057329535484313965
0.4018910825252533 0.4873146414756775 0.005758992861956358
0.4203624427318573 0.4847490191459656 0.007664446718990803
0.43130582571029663 0.48372191190719604 0.011118516325950623
0.2747242748737335 0.45487135648727417 0.074681356549263
0.41554686427116394 0.46952712535858154 0.0024490340147167444
0.3952426314353943 0.4643223285675049 -0.0013532584998756647
0.3746817111968994 0.46281570196151733 0.0013514221645891666
0.3537498712539673 0.4655415415763855 0.009293424896895885
0.34027019143104553 0.4706036448478699 0.01889416016638279
0.2511499226093292 0.43348899483680725 0.2016598880290985
0.34629106521606445 0.4837935268878937 0.02456723526120186
0.4966335892677307 0.66093510389328 -0.06073331460356712
0.4135816991329193 0.66037917137146 -0.02455724962055683
0.43695539236068726 0.6211962699890137 -0.06999345123767853
0.46127793192863464 0.659663736820221 -0.05473506823182106
0.5005749464035034 0.4674226641654968 -0.06788710504770279
0.34967362880706787 0.7994154691696167 0.11745383590459824
0.37856096029281616 0.8289973735809326 0.09262595325708389
0.4492439329624176 0.8818255662918091 0.037264514714479446
0.2996886968612671 0.7562004327774048 0.22260934114456177
0.4293799102306366 0.4773421883583069 0.007301349192857742
0.4593075215816498 0.5363548994064331 -0.07186036556959152
0.5012657642364502 0.8907648324966431 0.02823377586901188
0.4156832993030548 0.8790585994720459 0.08980169892311096
0.25088760256767273 0.6381771564483643 0.19430604577064514
0.44703879952430725 0.7403101921081543 -0.0018121924949809909
0.44219526648521423 0.7463040947914124 -0.0045092543587088585
0.4375683665275574 0.7557346224784851 -0.005401756148785353
0.4343244433403015 0.7684625387191772 0.000707841943949461
0.4281434118747711 0.7875211834907532 0.021856848150491714
0.4079415202140808 0.7010374069213867 0.020353928208351135
0.3997330963611603 0.6977207660675049 0.021256165578961372
0.3924568295478821 0.6937122344970703 0.02073381096124649
0.3719257712364197 0.682841420173645 0.023654727265238762
0.28542977571487427 0.6373148560523987 0.06316231936216354
0.46193382143974304 0.512774646282196 -0.05110769718885422
0.45311668515205383 0.4699936509132385 -0.011513769626617432
0.43939319252967834 0.47189265489578247 0.0005068790633231401
0.4148626923561096 0.6991325616836548 0.022300757467746735
0.28884565830230713 0.6953612565994263 0.1107010468840599
0.4711051285266876 0.4706866443157196 -0.046898722648620605
0.41860347986221313 0.8087791800498962 0.036302391439676285
0.4945681393146515 0.5451948046684265 -0.12092359364032745
0.4752694368362427 0.525715708732605 -0.09307443350553513
0.49649685621261597 0.5212589502334595 -0.1010371595621109
0.4417588710784912 0.5700103640556335 -0.06696294248104095
0.5006164312362671 0.8666014671325684 0.012779678218066692
0.5006684064865112 0.8365474343299866 0.009298582561314106
0.45671623945236206 0.8298137187957764 0.018090950325131416
0.36828869581222534 0.7454521656036377 0.06262794882059097
0.3944980502128601 0.6225664019584656 -0.007092594634741545
0.39136362075805664 0.7800994515419006 0.0523972287774086
0.3353275656700134 0.619218647480011 0.007752576842904091
0.36991360783576965 0.644360363483429 0.0064024957828223705
0.31662124395370483 0.6546291708946228 0.037253424525260925
0.4504173696041107 0.8581432104110718 0.02274145931005478
0.4285477101802826 0.5800374150276184 -0.045841000974178314
0.352431982755661 0.768911600112915 0.08716082572937012
0.38176682591438293 0.8026652336120605 0.07178131490945816
0.34723663330078125 0.7104125022888184 0.05944734066724777
0.267624169588089 0.6660060286521912 0.12904347479343414
0.31955939531326294 0.7201846241950989 0.08354293555021286
0.2643018364906311 0.6870248913764954 0.1904120296239853
0.3504955470561981 0.6686031818389893 0.026558613404631615
0.44496139883995056 0.5494043827056885 -0.05022590234875679
0.44090789556503296 0.616475522518158 -0.10144202411174774
0.42712903022766113 0.6183979511260986 -0.07198257744312286
0.45005878806114197 0.6030211448669434 -0.12162594497203827
0.43479210138320923 0.45355477929115295 -0.019050829112529755
0.3966926038265228 0.4416389763355255 -0.02228345163166523
0.36320123076438904 0.438309907913208 -0.018266282975673676
0.33535081148147583 0.440288782119751 -0.004808546509593725
0.3162557780742645 0.448548823595047 0.013260120525956154
0.30466902256011963 0.48317795991897583 0.05667288601398468
0.24451956152915955 0.5378360748291016 0.18168912827968597
0.32042038440704346 0.511175274848938 0.04015231505036354
0.34502118825912476 0.5178701877593994 0.023989958688616753
0.37694641947746277 0.5187094211578369 0.011664063669741154
0.40722689032554626 0.5148195624351501 0.004698329139500856
0.4297954738140106 0.5084742307662964 -0.00018434648518450558
0.4445956349372864 0.5021798610687256 -0.0038501149974763393
0.25205662846565247 0.5383114814758301 0.2746124565601349
0.4285316467285156 0.6225125789642334 -0.058871012181043625
0.45715978741645813 0.5572255253791809 -0.08964111655950546
0.45626598596572876 0.6201258301734924 -0.12232929468154907
0.47027620673179626 0.631219744682312 -0.1117616519331932
0.45716744661331177 0.6229347586631775 -0.1095726266503334
0.4348549544811249 0.6286723017692566 -0.04991009458899498
0.4735965132713318 0.6340943574905396 -0.11855971813201904
0.4773748815059662 0.637859046459198 -0.08790352195501328
0.44415563344955444 0.4847802519798279 0.005717888008803129
0.45611149072647095 0.4910404682159424 -0.010539073497056961
0.46188822388648987 0.49603334069252014 -0.029154270887374878
0.3324469327926636 0.47413989901542664 0.028103278949856758
0.3201158046722412 0.4662588834762573 0.029704002663493156
0.5155717134475708 0.548711359500885 -0.11391721665859222
0.6838786005973816 0.48554807901382446 0.004514140076935291
0.5167349576950073 0.6348842978477478 -0.0911717563867569
0.7840683460235596 0.3967793583869934 0.1013190895318985
0.6086715459823608 0.5029088854789734 -0.014005855657160282
0.6336151957511902 0.5048726201057434 -0.014021909795701504
0.6585531830787659 0.5046101808547974 -0.009478113614022732
0.6949112415313721 0.49364662170410156 0.00826690997928381
0.5882957577705383 0.49778369069099426 -0.01052562240511179
0.6441586017608643 0.45166343450546265 -0.03059212677180767
0.6174406409263611 0.4526746869087219 -0.02827460691332817
0.6695330739021301 0.4549486041069031 -0.02375314012169838
0.6869701743125916 0.4622591733932495 -0.013999865390360355
0.7149335741996765 0.508147120475769 0.020542385056614876
0.5992085933685303 0.840802788734436 0.034715160727500916
0.6944312453269958 0.48125892877578735 0.011408683843910694
0.7938895225524902 0.4988821744918823 0.12479347735643387
0.7438952922821045 0.49522021412849426 0.0420527383685112
0.6310715675354004 0.5982505679130554 -0.028090476989746094
0.5346816182136536 0.6875284910202026 -0.06098487973213196
0.5333412289619446 0.708223819732666 -0.04752770811319351
0.5741459131240845 0.6908242702484131 -0.046503935009241104
0.6005989909172058 0.6956700086593628 -0.022724533453583717
0.5618412494659424 0.7072059512138367 -0.0370212085545063
0.5850024819374084 0.7066889405250549 -0.015452569350600243
0.6324671506881714 0.7399008274078369 0.029729237779974937
0.5116931796073914 0.6256680488586426 -0.13765783607959747
0.5141863226890564 0.6025449633598328 -0.14765092730522156
0.7256889939308167 0.44067609310150146 -0.014532631263136864
0.5768372416496277 0.5422108173370361 -0.0354996956884861
0.575366199016571 0.6126689910888672 -0.080404132604599
0.5778031945228577 0.5997666716575623 -0.0737142339348793
0.7112784385681152 0.5939999222755432 -0.002742558252066374
0.5148110389709473 0.5732929706573486 -0.13590437173843384
0.6610023379325867 0.41910916566848755 -0.055369578301906586
0.6987484693527222 0.42540767788887024 -0.03839125111699104
0.7563779354095459 0.3557354509830475 0.049986641854047775
0.5511753559112549 0.4401148557662964 -0.06829050183296204
0.5946347713470459 0.4591865837574005 -0.01843384839594364
0.653424859046936 0.7091874480247498 0.027608757838606834
0.7711102962493896 0.7190423011779785 0.2209416925907135
0.5577506422996521 0.6256619095802307 -0.06789763271808624
0.5362626910209656 0.634139358997345 -0.06719214469194412
0.6337950229644775 0.7079076766967773 0.028416262939572334
0.6213183999061584 0.7089479565620422 0.02321847900748253
0.7135751247406006 0.40943819284439087 -0.029256664216518402
0.5784405469894409 0.6203983426094055 -0.06520316749811172
0.6120040416717529 0.4229305684566498 -0.06595528870820999
0.6166372299194336 0.4032151997089386 -0.07395392656326294
0.6496262550354004 0.30065128207206726 -0.04364589601755142
0.7335924506187439 0.3815174400806427 0.0051657091826200485
0.6297402381896973 0.3491750955581665 -0.060096852481365204
0.7425981163978577 0.4296431541442871 0.004207837861031294
0.762837290763855 0.41429683566093445 0.05044054985046387
0.5344375967979431 0.7002543807029724 -0.05680021643638611
0.5673211216926575 0.700904905796051 -0.04224097728729248
0.5928863286972046 0.7012575268745422 -0.020862173289060593
0.552075207233429 0.629464328289032 -0.06145559996366501
0.627830982208252 0.7081955075263977 0.025794517248868942
0.6124727129936218 0.7267968654632568 0.01554191205650568
0.617262601852417 0.709009051322937 0.022807184606790543
0.5413639545440674 0.6224855780601501 -0.10397808998823166
0.5810152888298035 0.7043617963790894 -0.011480137705802917
0.5578789710998535 0.7065445184707642 -0.026771705597639084
0.5315656661987305 0.709077775478363 -0.03713969513773918
0.5411165952682495 0.8088025450706482 0.00479291845113039
0.5385342240333557 0.7856749892234802 -0.022395487874746323
0.5367493629455566 0.7716546058654785 -0.02818767912685871
0.5345653891563416 0.7590323090553284 -0.02456658147275448
0.5322250127792358 0.7502020597457886 -0.021396663039922714
0.583104133605957 0.7347162365913391 0.001678634900599718
0.5875990390777588 0.7376254200935364 -0.0012940644519403577
0.593830406665802 0.7436397075653076 -0.0025668474845588207
0.5988649129867554 0.7512681484222412 0.003287595696747303
0.6177420020103455 0.6752288937568665 -0.01862972043454647
0.7993783354759216 0.6012658476829529 0.2393290400505066
0.5987486839294434 0.7257479429244995 0.016185706481337547
0.6056578159332275 0.7253926396369934 0.014526432380080223
0.5282822847366333 0.6446806788444519 -0.06561934947967529
0.5723405480384827 0.6331008672714233 -0.043109867721796036
0.5319216251373291 0.6396583318710327 -0.06755086034536362
0.6041417121887207 0.553499698638916 -0.02720855362713337
0.6478687524795532 0.5676578879356384 -0.021849453449249268
0.5839239358901978 0.6082627177238464 -0.05831947922706604
0.713137149810791 0.32286784052848816 -0.0009434189996682107
0.6910900473594666 0.3585136830806732 -0.030629772692918777
0.6700970530509949 0.39967894554138184 -0.0539252795279026
0.6094257831573486 0.767889678478241 0.021509574726223946
0.5588621497154236 0.40962743759155273 -0.08152466267347336
0.5696693062782288 0.34715551137924194 -0.07429314404726028
0.5827466249465942 0.29017555713653564 -0.06586911529302597
0.6813682913780212 0.501112163066864 -0.0003727798175532371
0.7423301935195923 0.5239740610122681 0.0348871611058712
0.5757182836532593 0.49265193939208984 -0.0072936792857944965
0.7155774235725403 0.46887606382369995 0.005435057915747166
0.5582374334335327 0.5289530158042908 -0.04527514800429344
0.5572053790092468 0.607466995716095 -0.10529547184705734
0.7709231972694397 0.5405109524726868 0.06253687292337418
0.7239503860473633 0.5379334688186646 0.015832073986530304
0.6906250715255737 0.5453571081161499 -0.0038641600403934717
0.6413437128067017 0.5426946878433228 -0.01271660067141056
0.604572594165802 0.5343195796012878 -0.01659991592168808
0.5784206986427307 0.524810254573822 -0.023078225553035736
0.5227164626121521 0.5009410381317139 -0.0744243934750557
0.7701797485351562 0.587252140045166 0.061646874994039536
0.7366082072257996 0.4660431444644928 0.01441502757370472
0.5045285224914551 0.6369904279708862 -0.12413400411605835
0.573930561542511 0.5649328827857971 -0.043804436922073364
0.8055461645126343 0.49570298194885254 0.20504558086395264
0.5590881109237671 0.5137547254562378 -0.027130885049700737
0.5887731313705444 0.6082324385643005 -0.03128137066960335
0.7031218409538269 0.48259684443473816 0.01569298654794693
0.5596326589584351 0.5916237235069275 -0.09689058363437653
0.7905386090278625 0.6587106585502625 0.23613642156124115
0.5776836276054382 0.48501837253570557 -0.002001376124098897
0.5372189283370972 0.5805537104606628 -0.12134760618209839
0.711672842502594 0.7768865823745728 0.10888472199440002
0.7097370028495789 0.805853009223938 0.152436301112175
0.7961127161979675 0.5971691608428955 0.1499328911304474
0.7464298009872437 0.7441185712814331 0.12924759089946747
0.7794857621192932 0.4529040455818176 0.09392310678958893
0.6019748449325562 0.8668352365493774 0.04972536861896515
0.5031275749206543 0.6407625079154968 -0.0890592560172081
0.5981717109680176 0.5796601176261902 -0.03383941575884819
0.7665987014770508 0.4996994733810425 0.06558199971914291
0.655791163444519 0.49060502648353577 -0.0077394298277795315
0.633436918258667 0.49148499965667725 -0.012516562826931477
0.6189953088760376 0.7293291091918945 0.01948653906583786
0.769132673740387 0.6354699730873108 0.07683093845844269
0.5551323294639587 0.9013665914535522 0.06024270877242088
0.6335566639900208 0.8641546964645386 0.10076576471328735
0.6683443784713745 0.8396822214126587 0.12407369911670685
0.6129540205001831 0.48999637365341187 -0.012428761459887028
0.5939571261405945 0.4869810938835144 -0.008035760372877121
0.5826238989830017 0.48581504821777344 -0.002889572875574231
0.7563610076904297 0.4606356918811798 0.03732498362660408
0.5998504161834717 0.4717867374420166 -0.013746065087616444
0.6213923692703247 0.4668023884296417 -0.02020944096148014
0.6422363519668579 0.46595343947410583 -0.020622972398996353
0.6639744639396667 0.46942374110221863 -0.015407189726829529
0.6784641146659851 0.47490423917770386 -0.007567227352410555
0.7994252443313599 0.4407118856906891 0.15799637138843536
0.671977162361145 0.4884672164916992 -0.0015252126613631845
0.5891355276107788 0.6641680002212524 -0.03701552376151085
0.557310163974762 0.6233325004577637 -0.07814531773328781
0.5344653129577637 0.6613579988479614 -0.060001302510499954
0.6736891269683838 0.8100998401641846 0.09425187110900879
0.6389920115470886 0.8383373022079468 0.07397593557834625
0.5554965138435364 0.8858232498168945 0.029785098508000374
0.7424570918083191 0.7685447931289673 0.18785719573497772
0.5844974517822266 0.47970321774482727 -0.007244471926242113
0.5381842255592346 0.5374606251716614 -0.07841802388429642
0.5970383882522583 0.886075496673584 0.07563779503107071
0.7896327376365662 0.6499802470207214 0.15375608205795288
0.5595940351486206 0.7437692284584045 -0.011720067821443081
0.5639536380767822 0.7499696016311646 -0.014742692932486534
0.5682474374771118 0.7597105503082275 -0.01610582508146763
0.5716994404792786 0.7725889086723328 -0.010112988762557507
0.5798307657241821 0.7922719717025757 0.010579370893537998
0.6073166728019714 0.7059025168418884 0.00463003758341074
0.6148546934127808 0.7031955718994141 0.004448072984814644
0.6220963001251221 0.6995331048965454 0.003479868406429887
0.6418100595474243 0.6890666484832764 0.003959651105105877
0.7351493835449219 0.6467702388763428 0.030433664098381996
0.5400620102882385 0.5139462351799011 -0.05817772075533867
0.5564297437667847 0.47096943855285645 -0.01997133530676365
0.5729104280471802 0.4735141098499298 -0.01145471166819334
0.6014928221702576 0.7034085988998413 0.007264777086675167
0.7381988763809204 0.7061929702758789 0.07849309593439102
0.5332200527191162 0.4713549017906189 -0.051966410130262375
0.5905532240867615 0.8142850399017334 0.024547725915908813
0.5192765593528748 0.5263254642486572 -0.09637703746557236
0.5554457306861877 0.5717039704322815 -0.07582002133131027
0.5472195148468018 0.8328468203544617 0.012338199652731419
0.6495541334152222 0.7535010576248169 0.04230377450585365
0.6117262840270996 0.6266666054725647 -0.02282276749610901
0.6228008270263672 0.7873501777648926 0.03643104061484337
0.6756435632705688 0.6260218620300293 -0.01573679782450199
0.6397631168365479 0.6500974893569946 -0.012650077231228352
0.6991852521896362 0.6627913117408752 0.010395373217761517
0.5533456802368164 0.8617624044418335 0.01573234423995018
0.5721794366836548 0.5824215412139893 -0.05696428194642067
0.6677083969116211 0.7783285975456238 0.06459920108318329
0.6337951421737671 0.8109461069107056 0.05425984039902687
0.6718705892562866 0.7185134291648865 0.035028330981731415
0.7631253600120544 0.6772955060005188 0.09289677441120148
0.7028098702430725 0.7301791310310364 0.055999528616666794
0.7747678756713867 0.6990997195243835 0.15158046782016754
0.6643605828285217 0.6754938364028931 0.003823762759566307
0.5556827187538147 0.5511742830276489 -0.059771452099084854
0.5491514801979065 0.6185289621353149 -0.10981380939483643
0.5676312446594238 0.6208755373954773 -0.08168765902519226
0.5365463495254517 0.6046839952468872 -0.12850938737392426
0.5748089551925659 0.4545733332633972 -0.030735258013010025
0.6142666339874268 0.44294971227645874 -0.03878430649638176
0.6499994993209839 0.43995726108551025 -0.03959451615810394
0.6808398962020874 0.443298876285553 -0.031085574999451637
0.703482985496521 0.45243558287620544 -0.015992751345038414
0.7204481363296509 0.4887135922908783 0.024702657014131546
0.7978372573852539 0.5476932525634766 0.13839587569236755
0.7000706195831299 0.5168653726577759 0.010298007167875767
0.6724111437797546 0.5228631496429443 -0.002038291422650218
0.6381202936172485 0.5226050615310669 -0.009878459386527538
0.6059954762458801 0.5175790786743164 -0.01233950350433588
0.5823516845703125 0.5107060670852661 -0.012947299517691135
0.5661947131156921 0.5038659572601318 -0.014295948669314384
0.8031327724456787 0.5479183793067932 0.23023110628128052
0.5683252811431885 0.6250706315040588 -0.0685349702835083
0.5361966490745544 0.5585342645645142 -0.09650002419948578
0.5296240448951721 0.6216229200363159 -0.12750662863254547
0.5172585248947144 0.6323994994163513 -0.11478664726018906
0.5307442545890808 0.6246160864830017 -0.11491226404905319
0.5629046559333801 0.6312377452850342 -0.058094073086977005
0.5123808979988098 0.6350898742675781 -0.12103547900915146
0.511227011680603 0.6387431621551514 -0.09009873121976852
0.5679739117622375 0.48651087284088135 -0.004948052577674389
0.553419291973114 0.49239394068717957 -0.018594890832901
0.5446491837501526 0.4970301687717438 -0.035826828330755234
0.6873683929443359 0.47872108221054077 0.0005454269121401012
0.7009409070014954 0.4706195890903473 0.0005697101005353034
