ply
format ascii 1.0
element vertex 468
property float x
property float y
property float z
end_header
0.5241753458976746 0.7516707181930542 -0.031174587085843086
0.55396568775177 0.6967236399650574 -0.1318834275007248
0.535072922706604 0.7092432379722595 -0.05709788575768471
0.5231092572212219 0.5951393842697144 -0.12846679985523224
0.5560619235038757 0.6695469617843628 -0.14664210379123688
0.5521821975708008 0.6279125213623047 -0.14604397118091583
0.5349874496459961 0.5205339193344116 -0.10725922882556915
0.3243081569671631 0.48982250690460205 -0.05345117673277855
0.5296367406845093 0.4420246481895447 -0.10790807753801346
0.5305122137069702 0.40491268038749695 -0.12375050038099289
0.5227190852165222 0.2615116834640503 -0.1451316922903061
0.5215408205986023 0.7614941596984863 -0.024861197918653488
0.5182574391365051 0.7665489315986633 -0.016558675095438957
0.5148897171020508 0.7653358578681946 -0.005301568657159805
0.5176124572753906 0.8253598213195801 0.020034367218613625
0.518519937992096 0.837469220161438 0.018625687807798386
0.5183895826339722 0.8506968021392822 0.017368169501423836
0.517310619354248 0.8642369508743286 0.027185291051864624
0.5137042999267578 0.8821163177490234 0.05524423345923424
0.5491280555725098 0.7078400254249573 -0.11566727608442307
0.514726996421814 0.7005926370620728 -0.08474919945001602
0.18017590045928955 0.3639689087867737 -0.0012614327715709805
0.41065073013305664 0.5127777457237244 -0.05794816091656685
0.3832760453224182 0.5149949789047241 -0.06091658025979996
0.354462593793869 0.514577329158783 -0.06002458184957504
0.31034302711486816 0.4969720244407654 -0.04935571923851967
0.4322773516178131 0.5077205896377563 -0.050870366394519806
0.3636849522590637 0.4422641694545746 -0.08646073192358017
0.3952593505382538 0.44385388493537903 -0.08030678331851959
0.33481866121292114 0.4477976858615875 -0.08230593800544739
0.31524384021759033 0.4583759903907776 -0.07457761466503143
0.28526151180267334 0.514333188533783 -0.03619427978992462
0.4055142104625702 0.9064854383468628 0.08303800225257874
0.3089573383331299 0.4816102385520935 -0.04914126172661781
0.16843825578689575 0.4870443344116211 0.04959752783179283
0.24653124809265137 0.4944574236869812 -0.023574747145175934
0.3796456456184387 0.6349294781684875 -0.04908652976155281
0.4813222289085388 0.7478224635124207 -0.036691270768642426
0.47816208004951477 0.7653741836547852 -0.019117364659905434
0.4330122768878937 0.747634768486023 -0.025585537776350975
0.3995018005371094 0.7464134693145752 -0.00233967206440866
0.4431378245353699 0.7618006467819214 -0.011861794628202915
0.41496044397354126 0.7576525807380676 0.00872803758829832
0.35849419236183167 0.788665771484375 0.05889001116156578
0.5309580564498901 0.6962011456489563 -0.13349401950836182
0.5295992493629456 0.6687024831771851 -0.14803974330425262
0.2774023115634918 0.4350922107696533 -0.08883881568908691
0.4422059655189514 0.5670836567878723 -0.062053292989730835
0.44810792803764343 0.6673341989517212 -0.08693313598632812
0.44412773847579956 0.6486286520957947 -0.08326954394578934
0.2876902222633362 0.622390627861023 -0.03793316334486008
0.5273202657699585 0.6299360394477844 -0.14352183043956757
0.35165295004844666 0.4108647406101227 -0.12078550457954407
0.31029510498046875 0.4182444214820862 -0.10959883779287338
0.22245484590530396 0.3225785493850708 -0.05657505616545677
0.471431702375412 0.43580782413482666 -0.11331697553396225
0.42174598574638367 0.45392709970474243 -0.06662165373563766
0.3352276384830475 0.75364750623703 0.04601989686489105
0.17460307478904724 0.7390855550765991 0.20480284094810486
0.4658413827419281 0.6833099722862244 -0.0696200430393219
0.4882807433605194 0.693665087223053 -0.06158756837248802
0.353219211101532 0.7527063488960266 0.050528351217508316
0.36778801679611206 0.7557709217071533 0.04766296595335007
0.29241979122161865 0.39886099100112915 -0.10778632014989853
0.44134053587913513 0.6724931001663208 -0.06924712657928467
0.4043157994747162 0.41430723667144775 -0.12291676551103592
0.4001976549625397 0.39256709814071655 -0.13606934249401093
0.35844603180885315 0.2716851532459259 -0.1412609964609146
0.259164422750473 0.3618996739387512 -0.08653190732002258
0.3841686248779297 0.33284664154052734 -0.1407199203968048
0.2541979253292084 0.419002503156662 -0.07668714970350266
0.21815745532512665 0.39467036724090576 -0.04101477190852165
0.4794526994228363 0.7594299912452698 -0.029945392161607742
0.4387453496456146 0.757070779800415 -0.01822493225336075
0.4075036346912384 0.7525089383125305 0.00223467661999166
0.47016599774360657 0.6869831681251526 -0.06047492474317551
0.36022835969924927 0.754040002822876 0.04901878535747528
0.3805806338787079 0.7812437415122986 0.04613476246595383
0.37243327498435974 0.7561561465263367 0.0477999709546566
0.4903765320777893 0.6875672936439514 -0.10618045926094055
0.4177565574645996 0.75377357006073 0.013405723497271538
0.44588369131088257 0.7588046789169312 -0.0007311137742362916
0.47773659229278564 0.7636151909828186 -0.008423907682299614
0.46858492493629456 0.8790533542633057 0.05085806921124458
0.4727265238761902 0.859877347946167 0.022245250642299652
0.4755587875843048 0.8466858863830566 0.013974469155073166
0.4780367910861969 0.8335882425308228 0.015226553194224834
0.48030513525009155 0.8233934640884399 0.016773119568824768
0.4171851873397827 0.7971545457839966 0.03282816335558891
0.4124916195869446 0.8007498979568481 0.03191935271024704
0.4053010046482086 0.8065716028213501 0.03247445076704025
0.39922070503234863 0.8132910132408142 0.03912758827209473
0.3856324553489685 0.7254621982574463 -0.007195496931672096
0.14200779795646667 0.5932825207710266 0.18560856580734253
0.5430183410644531 0.7090789675712585 -0.07926260679960251
0.39666298031806946 0.7815297245979309 0.044174112379550934
0.3886406421661377 0.7812181711196899 0.04410170763731003
0.49697577953338623 0.7058910727500916 -0.05618106573820114
0.4435284435749054 0.6847054958343506 -0.0418277345597744
0.4929274618625641 0.7002468109130859 -0.06019703298807144
0.41259893774986267 0.5782880783081055 -0.05523674562573433
0.3638213574886322 0.5942705869674683 -0.05372624471783638
0.4347246289253235 0.6556674838066101 -0.06642568111419678
0.2795635759830475 0.29086342453956604 -0.10414492338895798
0.312207967042923 0.33997029066085815 -0.11791783571243286
0.3409767150878906 0.38867634534835815 -0.12703019380569458
0.38761937618255615 0.8263152837753296 0.05709683150053024
0.4650326371192932 0.4008764624595642 -0.13362038135528564
0.4531581699848175 0.3335829973220825 -0.14581860601902008
0.43641722202301025 0.26308348774909973 -0.15351612865924835
0.32718348503112793 0.5086232423782349 -0.05522282421588898
0.2493743747472763 0.5320863127708435 -0.02296491526067257
0.4455929100513458 0.5027560591697693 -0.04766259714961052
0.28574448823928833 0.46771588921546936 -0.06110771372914314
0.4638233184814453 0.554134726524353 -0.0715516209602356
0.47310924530029297 0.667134702205658 -0.11121716350317001
0.2092846930027008 0.5475281476974487 0.0036644190549850464
0.27456986904144287 0.5517474412918091 -0.03585777431726456
0.31563737988471985 0.56340092420578 -0.048085615038871765
0.37281787395477295 0.5612383484840393 -0.049669284373521805
0.4130219519138336 0.5520821213722229 -0.04941296577453613
0.44014930725097656 0.5425926446914673 -0.053855378180742264
0.5083829164505005 0.5264391899108887 -0.10200951248407364
0.20895078778266907 0.6041600704193115 0.014105739071965218
0.2590444087982178 0.4614034593105316 -0.057734593749046326
0.5346243381500244 0.7069205641746521 -0.11713282018899918
0.44529518485069275 0.5985122919082642 -0.0642402321100235
0.13955819606781006 0.4689372181892395 0.12236026674509048
0.4616183638572693 0.5322064161300659 -0.05830594524741173
0.42583131790161133 0.6513878107070923 -0.04026578739285469
0.29904502630233765 0.4823453724384308 -0.04623226076364517
0.46851277351379395 0.643582284450531 -0.10652793943881989
0.15041714906692505 0.6635531783103943 0.1998867243528366
0.4417884945869446 0.4937455654144287 -0.04580875486135483
0.4985113739967346 0.6351142525672913 -0.13078093528747559
0.26418137550354004 0.8258970975875854 0.12185423821210861
0.2577204704284668 0.8535974025726318 0.16942985355854034
0.1615849733352661 0.6047623753547668 0.09892915934324265
0.2198430597782135 0.7843450307846069 0.1261967420578003
0.1909554898738861 0.4355517029762268 0.008562294766306877
0.4009275734424591 0.9350362420082092 0.10255219042301178
0.5318171381950378 0.7080245018005371 -0.07959312200546265
0.4169299900531769 0.6135915517807007 -0.05378872901201248
0.21418367326259613 0.4967206120491028 -0.004446228034794331
0.35976049304008484 0.49963560700416565 -0.060395222157239914
0.38495519757270813 0.5008359551429749 -0.06165862828493118
0.3727257549762726 0.7818168997764587 0.04944297671318054
0.2056492120027542 0.6603420376777649 0.04321880638599396
0.4500497281551361 0.9727358818054199 0.12568165361881256
0.35698333382606506 0.9263172149658203 0.14477096498012543
0.31215012073516846 0.8958319425582886 0.15634691715240479
0.5275078415870667 0.3340080678462982 -0.13745269179344177
0.5058299899101257 0.9755631685256958 0.13174273073673248
0.40665102005004883 0.49862927198410034 -0.05867408961057663
0.427029550075531 0.4946867525577545 -0.052674926817417145
0.43854737281799316 0.4939916133880615 -0.046939726918935776
0.23089003562927246 0.45139044523239136 -0.03977116569876671
0.4144074618816376 0.4702705442905426 -0.062004201114177704
0.3885824382305145 0.4598587155342102 -0.07070205360651016
0.3637680113315582 0.45896124839782715 -0.07423929870128632
0.3392731845378876 0.4643687605857849 -0.07202678918838501
0.3244693875312805 0.4726245403289795 -0.06570375710725784
0.15328821539878845 0.4094904065132141 0.06268124282360077
0.34010058641433716 0.4953060746192932 -0.057131171226501465
0.5300981998443604 0.7220150828361511 -0.04223538190126419
0.42049187421798706 0.7181153297424316 -0.027328571304678917
0.4686049520969391 0.6831555366516113 -0.08096424490213394
0.48643743991851807 0.7218803763389587 -0.045255087316036224
0.5295345783233643 0.4778030514717102 -0.09922726452350616
0.3122308552265167 0.8654356002807617 0.12441127002239227
0.35487571358680725 0.9000138640403748 0.11675798147916794
0.45388063788414 0.9582864046096802 0.09313057363033295
0.21309171617031097 0.8039188385009766 0.18815167248249054
0.4332551956176758 0.48561590909957886 -0.05289211496710777
0.49194082617759705 0.573573887348175 -0.09985334426164627
0.5108006596565247 0.9623112678527832 0.10054195672273636
0.40187692642211914 0.9544609785079956 0.13064220547676086
0.16547748446464539 0.6676813960075378 0.11781377345323563
0.4469386041164398 0.8128753304481506 0.02244330383837223
0.44225013256073 0.8198109269142151 0.02147306129336357
0.4375809133052826 0.8298985958099365 0.021914450451731682
0.4335935115814209 0.8424775004386902 0.029958847910165787
0.4232867658138275 0.8582789897918701 0.05118297040462494
0.38565927743911743 0.7536038160324097 0.028187980875372887
0.3776102364063263 0.7500318288803101 0.026862647384405136
0.3700244724750519 0.7452683448791504 0.024011801928281784
0.3536680042743683 0.7358755469322205 0.016961855813860893
0.2516656816005707 0.6803573966026306 0.005969580262899399
0.48674678802490234 0.5393288135528564 -0.08543536067008972
0.4645395576953888 0.47663962841033936 -0.06119905412197113
0.44570696353912354 0.4774240255355835 -0.056252989917993546
0.39191070199012756 0.7507834434509277 0.03122030757367611
0.23876716196537018 0.745155930519104 0.0692572072148323
0.49221721291542053 0.4802471995353699 -0.08885345607995987
0.4131702780723572 0.8783793449401855 0.06856533139944077
0.546357274055481 0.5919251441955566 -0.13192129135131836
0.5156171321868896 0.5631700754165649 -0.11753325909376144
0.5408890843391418 0.5582870841026306 -0.11934225261211395
0.47084155678749084 0.6146585941314697 -0.09092546999454498
0.5130112767219543 0.936658501625061 0.08020135015249252
0.5130175948143005 0.9053567051887512 0.06921807676553726
0.4634068012237549 0.9019531011581421 0.06670915335416794
0.34226593375205994 0.8032448291778564 0.07014580070972443
0.39802277088165283 0.6702114939689636 -0.030558519065380096
0.37363824248313904 0.8437933325767517 0.07323472946882248
0.3278657793998718 0.6657409071922302 -0.0357600674033165
0.36525630950927734 0.6949374079704285 -0.017001351341605186
0.2956485152244568 0.7040627002716064 -0.002198771107941866
0.4582008421421051 0.9321339726448059 0.07471222430467606
0.4484518766403198 0.6230605840682983 -0.0710965096950531
0.32240116596221924 0.8313779830932617 0.0915839821100235
0.3624812066555023 0.8698922991752625 0.09385040402412415
0.3178849220275879 0.7639642953872681 0.04870317503809929
0.20843423902988434 0.7081075310707092 0.07168441265821457
0.2810577154159546 0.7766314744949341 0.06253529340028763
0.18297290802001953 0.7275726199150085 0.13154084980487823
0.33299148082733154 0.7189375162124634 0.004795145709067583
0.46873971819877625 0.5858789682388306 -0.08051880449056625
0.4829503893852234 0.6830331683158875 -0.11348974704742432
0.45702868700027466 0.6789238452911377 -0.08493389189243317
0.5013147592544556 0.6686545610427856 -0.1321929693222046
0.44415897130966187 0.4522402882575989 -0.0786910131573677
0.4009089171886444 0.4365725517272949 -0.09377780556678772
0.36137324571609497 0.43373507261276245 -0.09864471107721329
0.3274999260902405 0.43823134899139404 -0.09395240992307663
0.3019607663154602 0.4495100677013397 -0.0824505016207695
0.2781030237674713 0.48914164304733276 -0.03823809325695038
0.1629369854927063 0.5455272793769836 0.07459370046854019
0.30474650859832764 0.5262553691864014 -0.04281393811106682
0.33760878443717957 0.5355362296104431 -0.04946798086166382
0.3775213956832886 0.5358217358589172 -0.051464248448610306
0.4123362600803375 0.5302449464797974 -0.050435133278369904
0.4369561970233917 0.52342689037323 -0.048309601843357086
0.4539857804775238 0.5176823139190674 -0.04881561920046806
0.139402836561203 0.5291541814804077 0.16035158932209015
0.4533875584602356 0.6806966066360474 -0.07069982588291168
0.4974464178085327 0.6035178899765015 -0.11202295124530792
0.5083491802215576 0.690935492515564 -0.12708240747451782
0.5173073410987854 0.7008792161941528 -0.10976243019104004
0.5038734078407288 0.6922876834869385 -0.11446382105350494
0.4564938545227051 0.6858781576156616 -0.057174183428287506
0.5248763561248779 0.7047643065452576 -0.11450256407260895
0.5217409729957581 0.7056034803390503 -0.08223112672567368
0.45271801948547363 0.49625274538993835 -0.04576557129621506
0.4676029682159424 0.5049408674240112 -0.05421591177582741
0.47858598828315735 0.5135197043418884 -0.06763625144958496
0.3157559931278229 0.47831499576568604 -0.0589226558804512
0.30162835121154785 0.46908968687057495 -0.06159462779760361
0.5651803016662598 0.5932474136352539 -0.11760403215885162
0.6792062520980835 0.46986132860183716 0.025903144851326942
0.5662024021148682 0.6975120306015015 -0.07667326182126999
0.738093376159668 0.34922507405281067 0.12207195162773132
0.6053261756896973 0.50279700756073 -0.006371053867042065
0.6298102736473083 0.5023660063743591 0.0009342815028503537
0.6541643142700195 0.4996195435523987 0.011398863047361374
0.6850563287734985 0.4766892194747925 0.03539997711777687
0.5872058272361755 0.4996296763420105 -0.010660339146852493
0.6510415077209473 0.4281179904937744 -0.02132067084312439
0.6218066215515137 0.4336594343185425 -0.0291894543915987
0.6754280924797058 0.43015483021736145 -0.007460908964276314
0.6896248459815979 0.43869468569755554 0.005956398788839579
0.701657772064209 0.4949253797531128 0.05476604029536247
0.597629964351654 0.8887948989868164 0.12074883282184601
0.6883952617645264 0.46004027128219604 0.03419588878750801
0.7457758188247681 0.46405094861984253 0.17292745411396027
0.7217830419540405 0.4725508987903595 0.07808572053909302
0.6457252502441406 0.6241894364356995 0.00420406274497509
0.561000406742096 0.7437930107116699 -0.022469166666269302
0.550128161907196 0.7619165182113647 -0.005168505944311619
0.5919290781021118 0.7393923401832581 0.003757430939003825
0.6063533425331116 0.7373828291893005 0.037848565727472305
0.5732221603393555 0.7558326721191406 0.01476032193750143
0.5876197218894958 0.7514685392379761 0.04387379810214043
0.6241686940193176 0.7760563492774963 0.11060735583305359
0.5737761855125427 0.6932485103607178 -0.12657853960990906
0.5776684284210205 0.6662916541099548 -0.13978904485702515
0.7181254625320435 0.4120468497276306 0.007698856759816408
0.5933495759963989 0.5611005425453186 -0.027726592496037483
0.6139640808105469 0.6600618958473206 -0.055911071598529816
0.6122877597808838 0.6421890258789062 -0.05114838480949402
0.710901141166687 0.6039544939994812 0.04980449005961418
0.572698712348938 0.6280492544174194 -0.13320571184158325
0.6774433255195618 0.3951389491558075 -0.05353374034166336
0.7035621404647827 0.3977940082550049 -0.025607697665691376
0.7264325618743896 0.3113462030887604 0.054094284772872925
0.5798448324203491 0.43125706911087036 -0.09089603275060654
0.5975911617279053 0.4463706612586975 -0.025320610031485558
0.6435749530792236 0.7400895357131958 0.10793895274400711
0.7054790258407593 0.7023300528526306 0.31779366731643677
0.5965573787689209 0.677021861076355 -0.045961059629917145
0.5775418281555176 0.6904307007789612 -0.04952538385987282
0.624845027923584 0.7440056800842285 0.10470066964626312
0.6119382381439209 0.7489118576049805 0.09581228345632553
0.7131303548812866 0.3782631754875183 -0.017870547249913216
0.6117334365844727 0.6664146184921265 -0.0385279506444931
0.6380672454833984 0.40392088890075684 -0.07649391889572144
0.6440268754959106 0.3823513984680176 -0.08890971541404724
0.6570769548416138 0.267230749130249 -0.07860540598630905
0.720483660697937 0.3461563289165497 0.01246075052767992
0.6492149829864502 0.3257754147052765 -0.08703092485666275
0.7279157638549805 0.3963402509689331 0.026503853499889374
0.7337216734886169 0.3759758174419403 0.07033581286668777
0.5563872456550598 0.7554292678833008 -0.015276147983968258
0.5820410251617432 0.7499592900276184 0.009826275520026684
0.5976137518882751 0.7445050477981567 0.03951611369848251
0.5905404090881348 0.6818456649780273 -0.04174540936946869
0.6192609667778015 0.7462059855461121 0.0997886061668396
0.6088683605194092 0.7734500765800476 0.08905595541000366
0.6065234541893005 0.7495654225349426 0.09471345692873001
0.5907049179077148 0.6807736158370972 -0.08530759066343307
0.580917477607727 0.7489908337593079 0.046970680356025696
0.5656614899635315 0.7544227838516235 0.024318385869264603
0.543854832649231 0.7611119747161865 0.00585220567882061
0.5524643063545227 0.8733771443367004 0.06484012305736542
0.5548189878463745 0.855276882648468 0.037908636033535004
0.5543690323829651 0.8419167995452881 0.030280286446213722
0.551925003528595 0.829338550567627 0.031184202060103416
0.5478575229644775 0.8194178342819214 0.0317731611430645
0.5851172804832458 0.7903549671173096 0.066344253718853
0.5906753540039062 0.7933902144432068 0.06547807902097702
0.5972383618354797 0.7982656359672546 0.06717455387115479
0.6016396880149841 0.8040578961372375 0.07560121268033981
0.6289306282997131 0.7154255509376526 0.03806985914707184
0.7251411080360413 0.5644453763961792 0.31194594502449036
0.5943624377250671 0.7750964164733887 0.08529902249574661
0.6023831367492676 0.7739839553833008 0.08562572300434113
0.56786048412323 0.7035324573516846 -0.04430362954735756
0.6031028032302856 0.6801419258117676 -0.0175394918769598
0.5730243921279907 0.6977786421775818 -0.04864867031574249
0.6154619455337524 0.5703876614570618 -0.009089973755180836
0.6555536985397339 0.5825618505477905 0.009420301765203476
0.6133798360824585 0.6493527293205261 -0.03297095373272896
0.702910304069519 0.2830204367637634 -0.014479601755738258
0.6947817802429199 0.3278801441192627 -0.039192698895931244
0.6855460405349731 0.37290239334106445 -0.056073885411024094
0.6075836420059204 0.8134790658950806 0.09954545646905899
0.590596079826355 0.39689764380455017 -0.10961341857910156
0.5950319766998291 0.33029240369796753 -0.11786564439535141
0.5994069576263428 0.2610597610473633 -0.12215249240398407
0.6743652820587158 0.49044620990753174 0.024877848103642464
0.7248166799545288 0.5113178491592407 0.07795475423336029
0.5768683552742004 0.49582439661026 -0.011963491328060627
0.7055566906929016 0.4454885721206665 0.03081468492746353
0.5792567729949951 0.5493120551109314 -0.044313233345746994
0.6052302122116089 0.6602659225463867 -0.08635777980089188
0.7445054054260254 0.5234591960906982 0.11760349571704865
0.7138247489929199 0.5330453515052795 0.05923228710889816
0.68783038854599 0.5482044219970703 0.033424630761146545
0.6427491903305054 0.5500024557113647 0.01290066447108984
0.6094312071800232 0.5435930490493774 -0.0020199597347527742
0.5882753729820251 0.5362690687179565 -0.018600814044475555
0.5554280877113342 0.5245333909988403 -0.09049142897129059
0.7497373819351196 0.5788447260856628 0.12784017622470856
0.7206605672836304 0.43893635272979736 0.04305248335003853
0.5613052845001221 0.7051792144775391 -0.11183704435825348
0.596975564956665 0.5928122997283936 -0.03143661096692085
0.7360576391220093 0.4483252167701721 0.25395941734313965
0.5735246539115906 0.5273401737213135 -0.031054336577653885
0.6123534440994263 0.6454219222068787 -0.007052079774439335
0.6935147047042847 0.4602624773979187 0.04131374508142471
0.6020586490631104 0.6379495859146118 -0.08111042529344559
0.7200530767440796 0.6300486922264099 0.3203391134738922
0.5781205892562866 0.4857059717178345 -0.008507958613336086
0.5884881019592285 0.6308344006538391 -0.1122526153922081
0.6793244481086731 0.7917361855506897 0.20622111856937408
0.6656742095947266 0.8164097666740417 0.254255473613739
0.7513523101806641 0.5745581984519958 0.22225302457809448
0.7073454260826111 0.7486932277679443 0.22552558779716492
0.7404412031173706 0.4159006178379059 0.12760211527347565
0.5978467464447021 0.9145721197128296 0.14287349581718445
0.5535742044448853 0.7071325182914734 -0.07623673975467682
0.6160469055175781 0.6062895059585571 -0.012992565520107746
0.7359713315963745 0.47345900535583496 0.10763897001743317
0.6532996892929077 0.4838865101337433 0.009437765926122665
0.6308273673057556 0.4879273772239685 0.0002847272262442857
0.6140866279602051 0.7727164030075073 0.09520072489976883
0.7467441558837891 0.631510853767395 0.1534414142370224
0.5555917024612427 0.9610867500305176 0.14839592576026917
0.6135746836662292 0.8988113403320312 0.20025354623794556
0.6361306309700012 0.8622889518737793 0.22513580322265625
0.6098834276199341 0.48799213767051697 -0.005983863491564989
0.5910729169845581 0.4860484302043915 -0.007332223933190107
0.5808619260787964 0.486014723777771 -0.006354209501296282
0.7319307327270508 0.4290452301502228 0.06934268027544022
0.5992555022239685 0.4599432051181793 -0.015688054263591766
0.6207661628723145 0.44705337285995483 -0.01635028049349785
0.6449131369590759 0.44256293773651123 -0.011118114925920963
0.6674447059631348 0.44511282444000244 -0.0001085414260160178
0.6794337034225464 0.4519665241241455 0.01106630451977253
0.7419787645339966 0.3923601806163788 0.19207291305065155
0.6685310006141663 0.477396696805954 0.018765073269605637
0.6121593713760376 0.7104849219322205 0.006778795272111893
0.5989536046981812 0.6761044263839722 -0.059004634618759155
0.5669209957122803 0.718198835849762 -0.03088448755443096
0.6484031677246094 0.8343814611434937 0.19283518195152283
0.6226435899734497 0.8727108240127563 0.17051057517528534
0.5611168146133423 0.9469632506370544 0.11553602665662766
0.6869403123855591 0.7662762403488159 0.2896175980567932
0.5852396488189697 0.47646814584732056 -0.011584507301449776
0.5735167860984802 0.5699940323829651 -0.0816696435213089
0.589340090751648 0.9337255954742432 0.1713896095752716
0.7455705404281616 0.6338180899620056 0.2360391765832901
0.569568395614624 0.8069237470626831 0.048220135271549225
0.5750393867492676 0.8132725358009338 0.048087526112794876
0.5796743631362915 0.8226452469825745 0.049856238067150116
0.5825987458229065 0.834600567817688 0.058395642787218094
0.5856406688690186 0.8484178781509399 0.08308984339237213
0.6020997166633606 0.7470702528953552 0.07182332873344421
0.6108235120773315 0.7420974373817444 0.07379985600709915
0.618117094039917 0.7364824414253235 0.07301593571901321
0.640820324420929 0.7239875793457031 0.07346850633621216
0.7247413396835327 0.6560964584350586 0.10127461701631546
0.5668413639068604 0.5359342694282532 -0.06587562710046768
0.5674945116043091 0.4717158079147339 -0.03723021224141121
0.5775919556617737 0.47066375613212585 -0.021722009405493736
0.5940922498703003 0.7454094290733337 0.07316460460424423
0.7137322425842285 0.7154492735862732 0.16407495737075806
0.5563615560531616 0.4774719476699829 -0.07454529404640198
0.590812087059021 0.8642688989639282 0.10251087695360184
0.5608610510826111 0.5611985325813293 -0.10780128836631775
0.5902297496795654 0.6096315383911133 -0.06734900921583176
0.5554526448249817 0.8942605257034302 0.08273226767778397
0.6376894116401672 0.784114420413971 0.12891480326652527
0.6291153430938721 0.6618287563323975 0.012405344285070896
0.6156468391418457 0.8260298371315002 0.11951594799757004
0.6826172471046448 0.6494223475456238 0.033235590904951096
0.648220956325531 0.6829183101654053 0.03734441474080086
0.6953237652778625 0.6834669709205627 0.07665488123893738
0.5611844658851624 0.922637939453125 0.0959467962384224
0.6001992225646973 0.6175364255905151 -0.041436340659856796
0.6501554250717163 0.8049941062927246 0.15760183334350586
0.6223692893981934 0.8468165993690491 0.14452172815799713
0.6599805355072021 0.7445875406265259 0.11983343213796616
0.7351202964782715 0.676740288734436 0.17722691595554352
0.684918999671936 0.7497149705886841 0.14346101880073547
0.7306365966796875 0.6915976405143738 0.2438250333070755
0.6612908840179443 0.7043298482894897 0.07048255205154419
0.5845209956169128 0.5811349153518677 -0.054952844977378845
0.5988895893096924 0.6755222082138062 -0.09085112065076828
0.6080659627914429 0.6715859174728394 -0.05858512595295906
0.5933974385261536 0.6634210348129272 -0.11358299106359482
0.5878547430038452 0.4451150596141815 -0.045538969337940216
0.6277682781219482 0.42511314153671265 -0.044918742030858994
0.6621747612953186 0.41864803433418274 -0.03460383787751198
0.687760055065155 0.4201205372810364 -0.01639244332909584
0.7018042206764221 0.4283309876918793 0.003926058299839497
0.7046926617622375 0.46744006872177124 0.05484763905405998
0.7502069473266602 0.5187389254570007 0.2010846585035324
0.6905347108840942 0.5081333518028259 0.0433233343064785
0.6670635938644409 0.5208480954170227 0.025562157854437828
0.6348931789398193 0.5240538120269775 0.010229022242128849
0.6053699254989624 0.5211226344108582 -0.0023450045846402645
0.5856418609619141 0.5162394046783447 -0.011847645044326782
0.573039710521698 0.5119809508323669 -0.01957121305167675
0.728197455406189 0.5048210620880127 0.2914324104785919
0.6048778891563416 0.6743836998939514 -0.04467609152197838
0.579596757888794 0.599833071231842 -0.09370473027229309
0.5873971581459045 0.6852070093154907 -0.1128477156162262
0.5708526372909546 0.6966952681541443 -0.10154782980680466
0.5841591358184814 0.6861871480941772 -0.09958670288324356
0.5981432199478149 0.6811258792877197 -0.03529408946633339
0.5679532885551453 0.701600968837738 -0.10785230249166489
0.561242401599884 0.7032865881919861 -0.07631789147853851
0.5714840292930603 0.4896900951862335 -0.014753362163901329
0.563508927822113 0.5005155801773071 -0.031359296292066574
0.5620958805084229 0.5099805593490601 -0.04824092984199524
0.6853998303413391 0.45697200298309326 0.02160199172794819
0.6959414482116699 0.44732892513275146 0.0233453381806612
