ply
format ascii 1.0
element vertex 468
property float x
property float y
property float z
end_header
0.5023135542869568 0.7032619714736938 -0.06126675754785538
0.5106454491615295 0.6285871267318726 -0.1291685551404953
0.5054336786270142 0.6498908996582031 -0.06259854882955551
0.4884958863258362 0.5510434508323669 -0.10513993352651596
0.5115182399749756 0.6052308678627014 -0.13971246778964996
0.5108703970909119 0.5737469792366028 -0.13243506848812103
0.507727861404419 0.4957800507545471 -0.07319214940071106
0.3242851197719574 0.4832684099674225 0.007087960373610258
0.506889820098877 0.4287428855895996 -0.062423937022686005
0.5074722766876221 0.3958548903465271 -0.07131379842758179
0.5061861276626587 0.291115939617157 -0.05925356596708298
0.5015479326248169 0.7142332792282104 -0.05749011039733887
0.500688374042511 0.7221992015838623 -0.048351649194955826
0.4998711049556732 0.7253075838088989 -0.03658587485551834
0.5003238320350647 0.7388741374015808 -0.032271016389131546
0.5003879070281982 0.7500074505805969 -0.03500251844525337
0.5002971887588501 0.7632599472999573 -0.037349727004766464
0.4999576210975647 0.7763641476631165 -0.029775291681289673
0.49867433309555054 0.7944907546043396 0.0004558031796477735
0.5091046094894409 0.6396350860595703 -0.11528407782316208
0.48713260889053345 0.6366991996765137 -0.08242141455411911
0.22109973430633545 0.3925069570541382 0.10850436240434647
0.39660608768463135 0.5062458515167236 -0.01293385773897171
0.37120360136032104 0.5078393220901489 -0.012232267297804356
0.346971333026886 0.5061537027359009 -0.006777839735150337
0.31490975618362427 0.4919278919696808 0.011407950893044472
0.41847068071365356 0.5004191994667053 -0.008097902871668339
0.3640126585960388 0.4438970685005188 -0.02766282670199871
0.3910852074623108 0.4454366862773895 -0.02620818465948105
0.33922386169433594 0.4480263590812683 -0.020316749811172485
0.32219475507736206 0.4566163420677185 -0.010676946491003036
0.2923671007156372 0.5079711675643921 0.02449791319668293
0.40589267015457153 0.821780800819397 0.02672862820327282
0.3149249851703644 0.4768524169921875 0.014295786619186401
0.20946592092514038 0.4922511577606201 0.12925954163074493
0.2625086307525635 0.49003541469573975 0.04654865339398384
0.37882333993911743 0.604773223400116 -0.0251170564442873
0.4734897017478943 0.6993690729141235 -0.0600486695766449
0.476097047328949 0.7213191986083984 -0.04696846380829811
0.44314301013946533 0.7045633792877197 -0.04737865552306175
0.4231508672237396 0.7116990089416504 -0.030743302777409554
0.45474281907081604 0.7215725779533386 -0.039503615349531174
0.4377106726169586 0.7221536040306091 -0.02374272421002388
0.3884921967983246 0.7455438375473022 0.01182992197573185
0.49086448550224304 0.6277332305908203 -0.12812089920043945
0.4882233738899231 0.6054709553718567 -0.13792306184768677
0.2824084758758545 0.43027716875076294 -0.0063303494825959206
0.42964380979537964 0.5462791323661804 -0.0311089176684618
0.4341563582420349 0.6198404431343079 -0.07211063802242279
0.4313839375972748 0.6072043180465698 -0.06613308936357498
0.30049896240234375 0.6016005873680115 7.7927514212206e-05
0.4884776473045349 0.5761277675628662 -0.12630482017993927
0.3421937823295593 0.40399593114852905 -0.046345531940460205
0.30790385603904724 0.41272681951522827 -0.02853747084736824
0.24946704506874084 0.35256242752075195 0.05651211738586426
0.4514646828174591 0.4223860502243042 -0.05928957089781761
0.4147998094558716 0.4538172781467438 -0.017210420221090317
0.37139973044395447 0.7225865125656128 0.011841482482850552
0.23208364844322205 0.703477144241333 0.22527369856834412
0.4515414535999298 0.6320415735244751 -0.06010645255446434
0.47064974904060364 0.6391046643257141 -0.058521371334791183
0.3990216553211212 0.7237879037857056 0.009293601848185062
0.4108855128288269 0.7226741313934326 0.003305537858977914
0.2926439046859741 0.39722657203674316 -0.020051630213856697
0.43307673931121826 0.6293396353721619 -0.057306088507175446
0.38849663734436035 0.4046593904495239 -0.05730755627155304
0.384016752243042 0.3860132694244385 -0.06483125686645508
0.3572918176651001 0.301457941532135 -0.03711758553981781
0.27103590965270996 0.3750985264778137 0.0117073068395257
0.37347570061683655 0.34449419379234314 -0.053256094455718994
0.2649051249027252 0.4192380905151367 0.012388254515826702
0.2427988350391388 0.40760737657546997 0.056375741958618164
0.4743354320526123 0.7122322916984558 -0.05645320191979408
0.4497109353542328 0.7149045467376709 -0.04455356299877167
0.43049684166908264 0.7173302173614502 -0.029256198555231094
0.4574151039123535 0.6361242532730103 -0.05325069651007652
0.405249685049057 0.7237530946731567 0.006242766045033932
0.4145122170448303 0.7311717867851257 -0.005390841979533434
0.41353940963745117 0.7211164832115173 0.00288453814573586
0.46478161215782166 0.6252801418304443 -0.09494253993034363
0.4422428011894226 0.7205661535263062 -0.019415585324168205
0.4589637517929077 0.7223821878433228 -0.029303092509508133
0.47835150361061096 0.7239784598350525 -0.03619105741381645
0.4655517041683197 0.7924986481666565 -0.0010068435221910477
0.4688267111778259 0.7731826305389404 -0.030600866302847862
0.4707365930080414 0.7596452236175537 -0.03693045303225517
0.4732958674430847 0.7466427087783813 -0.034212686121463776
0.47573399543762207 0.7375186085700989 -0.031247641891241074
0.43680888414382935 0.7303615212440491 -0.01478660199791193
0.4327123761177063 0.7336950302124023 -0.018005965277552605
0.4268076717853546 0.7400011420249939 -0.020283617079257965
0.42145347595214844 0.7476103901863098 -0.014928865246474743
0.40218114852905273 0.6860872507095337 -0.02479635551571846
0.20342159271240234 0.5885363817214966 0.24510836601257324
0.5073983669281006 0.6432632803916931 -0.08142845332622528
0.42561066150665283 0.7271727323532104 -0.003880848176777363
0.42062804102897644 0.7287037372589111 -0.005953710526227951
0.47778812050819397 0.6495679020881653 -0.0578729547560215
0.4400196373462677 0.6429197192192078 -0.03617236390709877
0.4746134281158447 0.6445763111114502 -0.05885026231408119
0.4027358591556549 0.5595496892929077 -0.023212283849716187
0.36048829555511475 0.57509446144104 -0.017014747485518456
0.42682647705078125 0.6168453693389893 -0.05121402069926262
0.2922331988811493 0.32140105962753296 0.00523047661408782
0.31190618872642517 0.3527635335922241 -0.024026060476899147
0.3323863446712494 0.3854018449783325 -0.045677006244659424
0.40750348567962646 0.7638705372810364 0.004870509263128042
0.4442918598651886 0.3915584087371826 -0.07243640720844269
0.43654465675354004 0.3447306752204895 -0.0678214281797409
0.4264317750930786 0.29278889298439026 -0.058574430644512177
0.32630106806755066 0.5011218190193176 0.002872640499845147
0.2631608247756958 0.5249899625778198 0.03785621002316475
0.43269550800323486 0.49424582719802856 -0.004749113228172064
0.2936188876628876 0.4625137150287628 0.00948617234826088
0.447931706905365 0.5314037799835205 -0.039893001317977905
0.44915318489074707 0.6118981838226318 -0.09616709500551224
0.2342345416545868 0.5395063161849976 0.06547861546278
0.2814730703830719 0.5428434610366821 0.017728187143802643
0.31523728370666504 0.5525545477867126 -0.002362593077123165
0.3647257685661316 0.5487497448921204 -0.009717829525470734
0.400926411151886 0.5390244722366333 -0.01356818713247776
0.4275982677936554 0.5282540321350098 -0.019381076097488403
0.4836360216140747 0.5014845132827759 -0.06542907655239105
0.23863308131694794 0.5890097618103027 0.06367571651935577
0.2707037031650543 0.4574654698371887 0.01956220157444477
0.4976987838745117 0.6385147571563721 -0.11479824036359787
0.4338867664337158 0.5697715282440186 -0.03915001079440117
0.1971023976802826 0.4870356023311615 0.21216249465942383
0.44769591093063354 0.5157920718193054 -0.02289074845612049
0.4225984215736389 0.6176207661628723 -0.026668408885598183
0.3071449398994446 0.47844940423965454 0.01889684982597828
0.446785032749176 0.5966683626174927 -0.08850724995136261
0.21252655982971191 0.6446782350540161 0.24175262451171875
0.43271106481552124 0.48478686809539795 -0.00022979288769420236
0.46678197383880615 0.5838383436203003 -0.1122659221291542
0.2949714958667755 0.7649857401847839 0.10128701478242874
0.29279035329818726 0.787009596824646 0.15082275867462158
0.20972850918769836 0.5901530981063843 0.15343712270259857
0.2616572380065918 0.7328753471374512 0.12619337439537048
0.22498759627342224 0.44651472568511963 0.09927228838205338
0.4003143906593323 0.8431231379508972 0.04439888894557953
0.49872052669525146 0.6422906517982483 -0.08023138344287872
0.41062235832214355 0.5865101218223572 -0.029760127887129784
0.23820605874061584 0.49366044998168945 0.07000280171632767
0.34970778226852417 0.49202919006347656 -0.005885303020477295
0.37124985456466675 0.49480968713760376 -0.010736566036939621
0.40805888175964355 0.734817624092102 -0.001354216248728335
0.24370208382606506 0.6343615055084229 0.07762322574853897
0.4443783164024353 0.8737735748291016 0.05858888849616051
0.3679564595222473 0.839131236076355 0.09705948084592819
0.3335278034210205 0.8176343441009521 0.11996481567621231
0.5070432424545288 0.34594959020614624 -0.06846848130226135
0.49577149748802185 0.8784106969833374 0.05569615215063095
0.39264485239982605 0.49383363127708435 -0.010270421393215656
0.41327208280563354 0.4899579882621765 -0.006024777423590422
0.42652565240859985 0.4874138832092285 -0.0005815718905068934
0.24967198073863983 0.4517729878425598 0.043174464255571365
0.4101718068122864 0.4657798707485199 -0.012359639629721642
0.3877306878566742 0.4579384922981262 -0.017581868916749954
0.36511892080307007 0.45658254623413086 -0.01784459874033928
0.34297963976860046 0.460872620344162 -0.012478563003242016
0.3292371928691864 0.46774691343307495 -0.005054904613643885
0.2044455111026764 0.4346950650215149 0.16525384783744812
0.33491718769073486 0.4878155589103699 0.0009881827281787992
0.5041525959968567 0.6663683652877808 -0.055293988436460495
0.4259696900844574 0.6744526028633118 -0.036087021231651306
0.45136651396751404 0.6287030577659607 -0.06984059512615204
0.472461462020874 0.6684446930885315 -0.05504561588168144
0.5065428018569946 0.46167904138565063 -0.05862509459257126
0.33057478070259094 0.7947250604629517 0.08485130220651627
0.3640502989292145 0.8185713291168213 0.06649785488843918
0.4445749521255493 0.8610455989837646 0.025935295969247818
0.26035529375076294 0.7515631914138794 0.19056978821754456
0.4259459674358368 0.4773644208908081 -0.005393992178142071
0.46718868613243103 0.5394372940063477 -0.07152726501226425
0.4975610077381134 0.8658044934272766 0.024222539737820625
0.403900682926178 0.8592174649238586 0.0730334222316742
0.21793416142463684 0.6408498287200928 0.15650151669979095
0.4545702338218689 0.7340424656867981 -0.02425108663737774
0.45049744844436646 0.7403815984725952 -0.02782467007637024
0.4461444020271301 0.7502781748771667 -0.029977459460496902
0.442374050617218 0.7626328468322754 -0.02437211014330387
0.43296414613723755 0.7804657220840454 -0.0015021489234641194
0.4220830500125885 0.7217796444892883 -0.009514045901596546
0.41460803151130676 0.720000147819519 -0.01037527434527874
0.4073096811771393 0.7165311574935913 -0.011488215997815132
0.3824408948421478 0.7023937106132507 -0.00875304639339447
0.2804953455924988 0.6491952538490295 0.03081193007528782
0.46608564257621765 0.5148410797119141 -0.05100433900952339
0.4516550898551941 0.4673939347267151 -0.016882363706827164
0.4367559254169464 0.47141319513320923 -0.009351339191198349
0.42737051844596863 0.718778669834137 -0.006929898168891668
0.27641990780830383 0.7022234201431274 0.0745709240436554
0.4737580418586731 0.4655030369758606 -0.045065443962812424
0.41804495453834534 0.80010986328125 0.015197104774415493
0.5098914504051208 0.5474870204925537 -0.1117633581161499
0.4856339395046234 0.5280172228813171 -0.08772334456443787
0.5087490677833557 0.5230714082717896 -0.09195173531770706
0.4507785439491272 0.5758189558982849 -0.06883350759744644
0.49843236804008484 0.8447137475013733 0.007828411646187305
0.49866917729377747 0.8177788853645325 0.004784095101058483
0.45713964104652405 0.8148099780082703 0.006745241116732359
0.3630261719226837 0.7541688084602356 0.02724478393793106
0.40000566840171814 0.6355875730514526 -0.020011231303215027
0.3873821496963501 0.7798800468444824 0.022564124315977097
0.33829110860824585 0.6316836476325989 -0.014847167767584324
0.3749002516269684 0.6573948860168457 -0.015265686437487602
0.31718936562538147 0.6670604944229126 0.006398596800863743
0.4488789737224579 0.8403881788253784 0.010482633486390114
0.43610239028930664 0.5882946252822876 -0.05093484744429588
0.3402862846851349 0.7710253000259399 0.05239201709628105
0.3721843361854553 0.7973970174789429 0.04360644519329071
0.3445807993412018 0.7254236936569214 0.022992582991719246
0.2506752610206604 0.6727724075317383 0.09208262711763382
0.3104858994483948 0.7287911176681519 0.04629502072930336
0.23270079493522644 0.6883974075317383 0.15265733003616333
0.35495471954345703 0.6854724287986755 -0.0030572873074561357
0.4507421553134918 0.5541864633560181 -0.05424274504184723
0.45731523633003235 0.6219894289970398 -0.10060195624828339
0.4418680965900421 0.6272528171539307 -0.07323064655065536
0.4675167500972748 0.6075814366340637 -0.11794859915971756
0.4312678277492523 0.44523942470550537 -0.028068656101822853
0.39100387692451477 0.4322746992111206 -0.034944914281368256
0.35626059770584106 0.4304771423339844 -0.034658364951610565
0.3272668719291687 0.4345788061618805 -0.025776376947760582
0.30617302656173706 0.44471901655197144 -0.011167650111019611
0.2879330813884735 0.48421770334243774 0.028969502076506615
0.2062382996082306 0.5407886505126953 0.14208059012889862
0.30674514174461365 0.5184186100959778 0.01314554177224636
0.33288902044296265 0.5261672139167786 0.0006282654940150678
0.3669685125350952 0.5262980461120605 -0.007267761044204235
0.3992455303668976 0.521090030670166 -0.010975843295454979
0.42416226863861084 0.5133261680603027 -0.010051813907921314
0.4413323998451233 0.5057116746902466 -0.011572357267141342
0.19944682717323303 0.5369555354118347 0.23647737503051758
0.44202420115470886 0.6328137516975403 -0.06021501496434212
0.4685456454753876 0.5610511898994446 -0.08845794945955276
0.47436413168907166 0.6237941384315491 -0.1179468184709549
0.4861975610256195 0.6339078545570374 -0.1055075153708458
0.4740152955055237 0.6266494989395142 -0.10566628724336624
0.4482588469982147 0.6394717693328857 -0.05024009943008423
0.4904477298259735 0.6365796327590942 -0.11155582219362259
0.49177709221839905 0.6404800415039062 -0.08124610036611557
0.44164884090423584 0.4867361783981323 -0.002289547584950924
0.4551089406013489 0.4926168620586395 -0.015017624013125896
0.463098406791687 0.4970381259918213 -0.029698193073272705
0.32129305601119995 0.4727381765842438 0.003339661518111825
0.3092195987701416 0.46517449617385864 0.0036039340775460005
0.5298876166343689 0.5508025288581848 -0.10152415186166763
0.675004780292511 0.47854968905448914 0.03297169879078865
0.5265766978263855 0.6366963386535645 -0.07960930466651917
0.7564147710800171 0.38931524753570557 0.1480754017829895
0.6048434972763062 0.5038201808929443 0.004033339209854603
0.6294798851013184 0.5048112869262695 0.007959414273500443
0.6525958776473999 0.502869725227356 0.01642567664384842
0.6818087697029114 0.48723477125167847 0.038759976625442505
0.5839887261390686 0.4984549880027771 0.005200995597988367
0.6387042999267578 0.43962928652763367 -0.006367592141032219
0.611483097076416 0.44216322898864746 -0.00935996975749731
0.6629160642623901 0.44285666942596436 0.004134663846343756
0.678581953048706 0.45118772983551025 0.01558246836066246
0.7010460495948792 0.5037196278572083 0.05415704846382141
0.5864693522453308 0.8183276057243347 0.039225660264492035
0.6830342411994934 0.47149261832237244 0.0415368527173996
0.7656847238540649 0.48681747913360596 0.16938059031963348
0.7269093990325928 0.484866201877594 0.07951155304908752
0.6219828128814697 0.6034204363822937 -0.007587105967104435
0.5302087068557739 0.6994606852531433 -0.055619459599256516
0.5238582491874695 0.7214202880859375 -0.04264312610030174
0.5568366050720215 0.7052137851715088 -0.038394682109355927
0.5725928544998169 0.7125673890113831 -0.01846221648156643
0.5425661206245422 0.7221413850784302 -0.031471386551856995
0.5567500591278076 0.7233601808547974 -0.013149930164217949
0.6016275882720947 0.7452011108398438 0.028221096843481064
0.5294079184532166 0.6274164915084839 -0.12580718100070953
0.5337287187576294 0.6051986217498779 -0.13536134362220764
0.7162278890609741 0.42323893308639526 0.024949919432401657
0.5748049020767212 0.5453755855560303 -0.01983524113893509
0.5755797624588013 0.6196641325950623 -0.061907604336738586
0.5771742463111877 0.6071434617042542 -0.055642034858465195
0.6932798624038696 0.598448634147644 0.028938408941030502
0.5322195887565613 0.5759451389312744 -0.12275855243206024
0.6653168201446533 0.3980785310268402 -0.023601127788424492
0.6959892511367798 0.40595543384552 -0.0008038629894144833
0.7372148036956787 0.3502786159515381 0.09207665920257568
0.5604674220085144 0.42030107975006104 -0.051418203860521317
0.5880773067474365 0.45153307914733887 -0.003487472189590335
0.6185882091522217 0.7224360108375549 0.031876977533102036
0.7278811931610107 0.6952376961708069 0.26180773973464966
0.5576284527778625 0.63210529088974 -0.05278884619474411
0.5391576290130615 0.6395235061645508 -0.05463193356990814
0.5908975005149841 0.7253776788711548 0.026385843753814697
0.5792810320854187 0.7244696021080017 0.018139885738492012
0.709459662437439 0.3901475667953491 0.009352955967187881
0.5742676258087158 0.629493236541748 -0.04718754068017006
0.6221033334732056 0.40049493312835693 -0.04163262993097305
0.6274654269218445 0.3818393647670746 -0.04898083955049515
0.6469032764434814 0.3009105324745178 -0.01660662330687046
0.7239920496940613 0.3704487681388855 0.043416593223810196
0.635357677936554 0.3421895503997803 -0.03564530983567238
0.7304385900497437 0.4124227464199066 0.04590979963541031
0.7439656257629395 0.40260201692581177 0.09239612519741058
0.5275725722312927 0.7124871611595154 -0.051961399614810944
0.5490164756774902 0.7155091166496277 -0.0361129455268383
0.5650148987770081 0.7182425260543823 -0.01785820722579956
0.5513204336166382 0.6364274024963379 -0.047125451266765594
0.5848574042320251 0.7253705859184265 0.02200632356107235
0.5771985054016113 0.7322151064872742 0.0075355940498411655
0.576411783695221 0.7227953672409058 0.017360076308250427
0.5494105815887451 0.6248289346694946 -0.08796490728855133
0.5511281490325928 0.72176194190979 -0.009415843524038792
0.536928653717041 0.723202109336853 -0.021736381575465202
0.5200380086898804 0.7242403626441956 -0.031896963715553284
0.5309274196624756 0.79200279712677 0.0032854252494871616
0.5300156474113464 0.7730241417884827 -0.026085708290338516
0.5287179350852966 0.7596234083175659 -0.03234062343835831
0.5262928009033203 0.746741771697998 -0.02973543107509613
0.5235224366188049 0.7376443147659302 -0.026931053027510643
0.5572982430458069 0.7309387922286987 -0.004917212761938572
0.5615150928497314 0.7343230247497559 -0.008076106198132038
0.5671979188919067 0.7404358386993408 -0.009882413782179356
0.572335958480835 0.747760534286499 -0.003699773456901312
0.5960653424263 0.6860435605049133 -0.010666017420589924
0.7557522654533386 0.581916868686676 0.2861594557762146
0.5662123560905457 0.7282393574714661 0.00854803342372179
0.5714808106422424 0.7298415899276733 0.0065424805507063866
0.5318326950073242 0.6499876976013184 -0.054097481071949005
0.5653688907623291 0.6435039043426514 -0.028502460569143295
0.5351741313934326 0.64499831199646 -0.05510197952389717
0.5994670987129211 0.5582687258720398 -0.00786714255809784
0.6394095420837402 0.5732332468032837 0.003861008444800973
0.5794041752815247 0.6169295310974121 -0.040449004620313644
0.7033697366714478 0.3198969066143036 0.0341104231774807
0.6904264688491821 0.34890609979629517 0.0017382821533828974
0.6751298308372498 0.379528671503067 -0.02223491482436657
0.5847722291946411 0.7627506852149963 0.018078774213790894
0.5696114897727966 0.38942795991897583 -0.06421919167041779
0.5758284330368042 0.34381842613220215 -0.05855783820152283
0.5832120180130005 0.29265034198760986 -0.04823487997055054
0.6715377569198608 0.49706530570983887 0.02861260063946247
0.7267694473266602 0.5206774473190308 0.07082276791334152
0.5706508755683899 0.49249520897865295 0.007139782886952162
0.7027767300605774 0.4567265510559082 0.03944476693868637
0.559296190738678 0.5306166410446167 -0.030857402831315994
0.5649664998054504 0.6115329265594482 -0.08801127225160599
0.749871015548706 0.5343564748764038 0.10262401401996613
0.7115523815155029 0.5391678214073181 0.04877486452460289
0.6813238859176636 0.5496746301651001 0.02440960332751274
0.6350154876708984 0.5466375350952148 0.011003099381923676
0.6007443070411682 0.5373753309249878 0.0021089911460876465
0.5758757591247559 0.527008593082428 -0.007576084695756435
0.5298755168914795 0.5010534524917603 -0.06151491403579712
0.7449285984039307 0.5839526057243347 0.1007021889090538
0.7226020097732544 0.4515492916107178 0.0523482970893383
0.5201048851013184 0.6383912563323975 -0.1128542497754097
0.5718218088150024 0.5693471431732178 -0.02852003276348114
0.7671366930007935 0.48211798071861267 0.2547946870326996
0.5578050017356873 0.5148630738258362 -0.013824999332427979
0.5807253122329712 0.6177091002464294 -0.01576627790927887
0.6895467042922974 0.47310328483581543 0.04753904044628143
0.5655964612960815 0.5964066982269287 -0.07999395579099655
0.7462096214294434 0.6369658708572388 0.2809702754020691
0.5700514912605286 0.4827123284339905 0.012297598645091057
0.5504066348075867 0.5834673643112183 -0.10607139021158218
0.6825270652770996 0.7580898404121399 0.12904968857765198
0.6783541440963745 0.778806746006012 0.1787082999944687
0.7619177103042603 0.583450436592102 0.19358840584754944
0.7114270925521851 0.725551962852478 0.15869934856891632
0.7553593516349792 0.44163501262664795 0.13771402835845947
0.5900253057479858 0.8387719392776489 0.05778271332383156
0.5158244967460632 0.6422353982925415 -0.07915516942739487
0.5921409130096436 0.5858244299888611 -0.01651674509048462
0.7464479804039001 0.48821234703063965 0.10642523318529129
0.6515852808952332 0.48846158385276794 0.016860896721482277
0.6306097507476807 0.4917140603065491 0.009665767662227154
0.5831688642501831 0.7356461882591248 0.012797119095921516
0.7369178533554077 0.6289241313934326 0.11350414156913757
0.5461894869804382 0.8712847232818604 0.06621144711971283
0.614655613899231 0.8329851031303406 0.11541727930307388
0.6439045667648315 0.8102204203605652 0.14281514286994934
0.6094236373901367 0.49107176065444946 0.007150828838348389
0.5893239378929138 0.4876841902732849 0.008974562399089336
0.5763022303581238 0.4853685796260834 0.0129442373290658
0.7392016649246216 0.4459194540977478 0.07851868867874146
0.591837465763092 0.46304014325141907 0.002847154624760151
0.6134428977966309 0.4544292092323303 8.414332842221484e-05
0.6359761357307434 0.4521647095680237 0.0028909645043313503
0.6579338312149048 0.45571452379226685 0.010909379459917545
0.6707051992416382 0.46233147382736206 0.020082548260688782
0.7660726308822632 0.4308781027793884 0.20687666535377502
0.6654749512672424 0.4836124777793884 0.025880375877022743
0.5762612223625183 0.6747187972068787 -0.025328638032078743
0.5591868162155151 0.6285123229026794 -0.06272304058074951
0.5344603657722473 0.6686683297157288 -0.05058494210243225
0.651167094707489 0.7883378863334656 0.10729112476110458
0.6215442419052124 0.8128781914710999 0.08412943035364151
0.5493918061256409 0.8587648868560791 0.033382218331098557
0.7045269012451172 0.7432948350906372 0.2235206514596939
0.5768792033195496 0.4750882387161255 0.008188650943338871
0.545703649520874 0.5388815999031067 -0.06539691984653473
0.5836338400840759 0.854540228843689 0.0863296315073967
0.7518458962440491 0.6336002349853516 0.19480760395526886
0.5424470901489258 0.7344616651535034 -0.01699228584766388
0.5466123819351196 0.7406335473060608 -0.020141076296567917
0.5509549379348755 0.7504205703735352 -0.02188066765666008
0.5543747544288635 0.7625234127044678 -0.015922261402010918
0.5614650845527649 0.7796481847763062 0.008043047040700912
0.5695120096206665 0.7234060764312744 0.0036508231423795223
0.5774637460708618 0.7215149402618408 0.003946234937757254
0.5846388936042786 0.7180625200271606 0.0038561082910746336
0.6112779378890991 0.7024334669113159 0.009249593131244183
0.706652045249939 0.6450411677360535 0.06160614266991615
0.5443784594535828 0.5142722129821777 -0.04446939751505852
0.5541184544563293 0.4659760892391205 -0.00911147240549326
0.5669421553611755 0.469666063785553 0.0022166119888424873
0.5637922286987305 0.7204389572143555 0.005913162138313055
0.7040823101997375 0.6968129277229309 0.10564354062080383
0.5363617539405823 0.4647124111652374 -0.04046826437115669
0.575110912322998 0.7978730797767639 0.025851406157016754
0.5305488109588623 0.5275859236717224 -0.08447224646806717
0.559721052646637 0.575398325920105 -0.061132483184337616
0.5389089584350586 0.8136236071586609 0.01205852534621954
0.6259123086929321 0.7515735030174255 0.04597384110093117
0.6007221937179565 0.6350902318954468 -0.00609936285763979
0.6030343174934387 0.777283787727356 0.03755449503660202
0.6583530902862549 0.6293401718139648 0.008019515313208103
0.6228249669075012 0.6563611030578613 0.0024074420798569918
0.6741477847099304 0.6638858318328857 0.032164428383111954
0.5469496846199036 0.8384749889373779 0.017492903396487236
0.570699155330658 0.5880632400512695 -0.04124430567026138
0.6456085443496704 0.7661622166633606 0.07402455806732178
0.6163610219955444 0.793135941028595 0.060244735330343246
0.6444013118743896 0.7230424880981445 0.04584711417555809
0.7272655963897705 0.6668183207511902 0.12629620730876923
0.6740767955780029 0.7242412567138672 0.07265885174274445
0.7369891405105591 0.6807045340538025 0.1890060156583786
0.6384179592132568 0.6841771602630615 0.018359044566750526
0.5582898259162903 0.5537515878677368 -0.04564486816525459
0.557205080986023 0.6214784979820251 -0.09307395666837692
0.5684750080108643 0.6270338296890259 -0.06466058641672134
0.5509803295135498 0.6070995926856995 -0.11193936318159103
0.5749869346618652 0.4429141879081726 -0.017378078773617744
0.6149924993515015 0.42846691608428955 -0.01879582740366459
0.6491819024085999 0.425712525844574 -0.01309255138039589
0.6764438152313232 0.4292084574699402 -3.241133890696801e-05
0.6943548917770386 0.4387401342391968 0.017282232642173767
0.7054672837257385 0.47900035977363586 0.05935318395495415
0.7671797871589661 0.5347544550895691 0.1830287128686905
0.6887164115905762 0.5145930647850037 0.04096687585115433
0.6647939682006836 0.5230550765991211 0.02518758364021778
0.6327121257781982 0.52385014295578 0.012943178415298462
0.6018940806388855 0.5190756320953369 0.004943921230733395
0.5784843564033508 0.5117018222808838 0.002136368304491043
0.5625021457672119 0.5044072866439819 -0.0017455031629651785
0.7612333297729492 0.5313631892204285 0.2790178060531616
0.5661110877990723 0.6329977512359619 -0.051837749779224396
0.5466044545173645 0.560605525970459 -0.08243636041879654
0.5438874959945679 0.6231681108474731 -0.11308982223272324
0.5295925140380859 0.6336715221405029 -0.10277434438467026
0.5419842600822449 0.6260148286819458 -0.10086129605770111
0.5590069890022278 0.6399737596511841 -0.04322846978902817
0.5265968441963196 0.6363468766212463 -0.10921967774629593
0.5223363637924194 0.6404290795326233 -0.07941316068172455
0.5621047019958496 0.48509663343429565 0.00784775149077177
0.5500685572624207 0.4915677607059479 -0.007320323493331671
0.5442905426025391 0.4963299632072449 -0.023131459951400757
0.6778969764709473 0.4672354459762573 0.029606668278574944
0.6891987919807434 0.4595489203929901 0.03113263100385666
