ply
format ascii 1.0
element vertex 468
property float x
property float y
property float z
end_header
0.48267993330955505 0.7164944410324097 -0.062236253172159195
0.45911896228790283 0.6585709452629089 -0.15098251402378082
0.4763250946998596 0.6756683588027954 -0.0782860815525055
0.4528290331363678 0.5611345767974854 -0.11704595386981964
0.4588545560836792 0.6307413578033447 -0.16202367842197418
0.4650190770626068 0.5916042327880859 -0.1545691043138504
0.4866468906402588 0.4965306520462036 -0.09301941841840744
0.3366973400115967 0.4658445417881012 0.059031665325164795
0.49439936876296997 0.4389435648918152 -0.08028888702392578
0.4954245388507843 0.4060557782649994 -0.08900097757577896
0.508938729763031 0.2630510628223419 -0.07690596580505371
0.48447152972221375 0.7273648977279663 -0.058052998036146164
0.48753178119659424 0.7338689565658569 -0.05077296122908592
0.4910432994365692 0.7339008450508118 -0.03996305540204048
0.48733556270599365 0.8125128149986267 -0.00987094547599554
0.4857674241065979 0.8243234753608704 -0.013727107085287571
0.48501187562942505 0.8375886082649231 -0.0175928995013237
0.4851120412349701 0.8521578311920166 -0.009874146431684494
0.4876825213432312 0.8706470727920532 0.016383018344640732
0.4631426930427551 0.671566903591156 -0.13646438717842102
0.44418203830718994 0.6637188792228699 -0.0946226641535759
0.2907329499721527 0.36808544397354126 0.18799343705177307
0.4088006913661957 0.49140727519989014 0.020062915980815887
0.3849993348121643 0.4915682077407837 0.026599809527397156
0.36099153757095337 0.49012184143066406 0.03777274489402771
0.3293888568878174 0.47408372163772583 0.06557991355657578
0.426506370306015 0.48822739720344543 0.01503789983689785
0.36794769763946533 0.43045318126678467 0.013153987936675549
0.39591020345687866 0.4343273639678955 0.0059390589594841
0.3433823585510254 0.432796448469162 0.026436882093548775
0.3285483121871948 0.44037097692489624 0.040601179003715515
0.3137857913970947 0.4912692606449127 0.08277419209480286
0.39670252799987793 0.8774794340133667 0.07666844129562378
0.3276571035385132 0.45981019735336304 0.0687648206949234
0.2754175662994385 0.4765273630619049 0.21472297608852386
0.29544761776924133 0.47680050134658813 0.11239338666200638
0.3646312952041626 0.6001974940299988 0.004369561094790697
0.4422352910041809 0.70863938331604 -0.0514376275241375
0.4521281123161316 0.729598879814148 -0.03809333220124245
0.4070480465888977 0.707470178604126 -0.024159438908100128
0.39056897163391113 0.7099146246910095 0.012561682611703873
0.4264305830001831 0.7253445386886597 -0.015548942610621452
0.41056182980537415 0.7239513397216797 0.016678744927048683
0.3731428384780884 0.7608067393302917 0.08287900686264038
0.43808549642562866 0.6560541987419128 -0.14506793022155762
0.43604278564453125 0.6282057166099548 -0.15447621047496796
0.3023369014263153 0.42353200912475586 0.04785953834652901
0.4216155409812927 0.541225790977478 -0.017008554190397263
0.392030268907547 0.6279983520507812 -0.06588489562273026
0.3949815332889557 0.6114366054534912 -0.0580289326608181
0.3006998896598816 0.5853885412216187 0.054361291229724884
0.44351330399513245 0.5922899842262268 -0.14044368267059326
0.3490586280822754 0.40611696243286133 -0.01643204316496849
0.3195488154888153 0.4095585346221924 0.0128090251237154
0.30453240871429443 0.3277617394924164 0.12577305734157562
0.4472629129886627 0.4334810674190521 -0.06034579500555992
0.4193333685398102 0.4435170888900757 0.009375537745654583
0.35517704486846924 0.721767783164978 0.08517321199178696
0.3016938865184784 0.7138357758522034 0.3072144389152527
0.41011857986450195 0.6451553106307983 -0.057831332087516785
0.4309861660003662 0.6574838161468506 -0.06692374497652054
0.3716272711753845 0.7250487804412842 0.08241237699985504
0.3860182762145996 0.7293230891227722 0.07309778779745102
0.31198620796203613 0.39323925971984863 0.027261944487690926
0.39310380816459656 0.6349791884422302 -0.05012423172593117
0.3908323049545288 0.4125262498855591 -0.04142460599541664
0.386484831571579 0.3917294442653656 -0.04929916933178902
0.37634438276290894 0.2737492620944977 -0.0060729472897946835
0.30881267786026 0.3598063588142395 0.0707598626613617
0.38318490982055664 0.32999786734580994 -0.029454706236720085
0.29478445649147034 0.4110136032104492 0.07265007495880127
0.29228317737579346 0.39142072200775146 0.12800613045692444
0.4459117352962494 0.7216018438339233 -0.04661019518971443
0.41697418689727783 0.7187412977218628 -0.019604315981268883
0.39985865354537964 0.7170311212539673 0.012858550064265728
0.4165218472480774 0.6495124101638794 -0.055725038051605225
0.3778177797794342 0.7268924713134766 0.07690837979316711
0.388343870639801 0.7571585774421692 0.06382977962493896
0.39218416810035706 0.7303814888000488 0.07171688228845596
0.41812217235565186 0.6472564935684204 -0.09866680204868317
0.41825711727142334 0.721717357635498 0.01910797506570816
0.43489137291908264 0.7244443297386169 -0.006122679449617863
0.4587480127811432 0.729817271232605 -0.02718152105808258
0.44575920701026917 0.861788272857666 0.02707068994641304
0.4443170428276062 0.8426931500434875 0.00258566509000957
0.4458693265914917 0.8287211060523987 -0.003141902619972825
0.44953519105911255 0.8155531287193298 0.0008971954812295735
0.4545122981071472 0.8057306408882141 0.0035532836336642504
0.41477298736572266 0.7756207585334778 0.042130064219236374
0.40845948457717896 0.7787107229232788 0.03994246944785118
0.4005129039287567 0.7836933135986328 0.03971128910779953
0.3949818015098572 0.7899008989334106 0.04759630188345909
0.37237709760665894 0.688930094242096 0.0176998283714056
0.2896375060081482 0.5832881331443787 0.33291274309158325
0.46877649426460266 0.6744985580444336 -0.09963862597942352
0.40523919463157654 0.7591848373413086 0.0624074712395668
0.3957810401916504 0.757643461227417 0.06158892437815666
0.43994325399398804 0.669779360294342 -0.06438233703374863
0.4020506739616394 0.6485859155654907 -0.031036440283060074
0.4352805018424988 0.6641595959663391 -0.06737122684717178
0.39771854877471924 0.5506954193115234 -0.00043949662358500063
0.3572070002555847 0.5623565316200256 0.015620602294802666
0.39254289865493774 0.6196119785308838 -0.04079079627990723
0.3302233815193176 0.29522019624710083 0.05861455947160721
0.3374408185482025 0.3383500576019287 0.01962474174797535
0.34320059418678284 0.38564223051071167 -0.011440462432801723
0.3892872929573059 0.7991440296173096 0.06846396625041962
0.43868473172187805 0.4009862244129181 -0.07333150506019592
0.4360244870185852 0.32878541946411133 -0.06288352608680725
0.4334530830383301 0.2638952136039734 -0.05164729803800583
0.3404948115348816 0.4840860366821289 0.0529867522418499
0.29177170991897583 0.5073052048683167 0.10461865365505219
0.43694472312927246 0.4841657876968384 0.015433446504175663
0.3112831711769104 0.4496648907661438 0.0677504912018776
0.4376929700374603 0.5288719534873962 -0.03222009539604187
0.4036829471588135 0.626563310623169 -0.09687148779630661
0.27184104919433594 0.5228877067565918 0.14264848828315735
0.30175095796585083 0.5231507420539856 0.08019521087408066
0.32695406675338745 0.533596396446228 0.05017411708831787
0.3707541227340698 0.5341519117355347 0.02668461762368679
0.4044237732887268 0.5280677676200867 0.012678791768848896
0.4273914396762848 0.5202186107635498 -0.0027684341184794903
0.4649086892604828 0.5016546845436096 -0.07544271647930145
0.2634201943874359 0.5721497535705566 0.1408379077911377
0.29816123843193054 0.44745123386383057 0.08277217298746109
0.4500395953655243 0.6691986918449402 -0.13183379173278809
0.41564038395881653 0.5687295198440552 -0.02643847092986107
0.2870883047580719 0.47051987051963806 0.30145859718322754
0.4436108469963074 0.5104899406433105 -0.013113320805132389
0.3941687345504761 0.6172701716423035 -0.011837146244943142
0.32169240713119507 0.46143436431884766 0.07544221729040146
0.40775179862976074 0.6058278679847717 -0.08775828033685684
0.29105344414711 0.6453202962875366 0.32626819610595703
0.4360654354095459 0.47532781958580017 0.02252674661576748
0.42521071434020996 0.5971163511276245 -0.11922208219766617
0.3215850591659546 0.7859176397323608 0.1801506131887436
0.3348214626312256 0.8175989985466003 0.22213417291641235
0.2618350386619568 0.580724835395813 0.23972468078136444
0.2972404360771179 0.7461032867431641 0.2071746289730072
0.28361910581588745 0.42970865964889526 0.1787228286266327
0.3949546813964844 0.9054737091064453 0.09260100871324539
0.45771926641464233 0.6726386547088623 -0.09612137079238892
0.3945707082748413 0.5824286341667175 -0.010325221344828606
0.28272151947021484 0.4803500175476074 0.14425718784332275
0.36231788992881775 0.47452735900878906 0.03932875394821167
0.3844965100288391 0.476908415555954 0.0290144644677639
0.38241487741470337 0.7571096420288086 0.06953109055757523
0.26289331912994385 0.6245893239974976 0.15526826679706573
0.43718042969703674 0.9526852369308472 0.08904066681861877
0.37911856174468994 0.8952834606170654 0.15375159680843353
0.35921019315719604 0.8608312606811523 0.1857692152261734
0.5015419721603394 0.3309023976325989 -0.08413298428058624
0.48931580781936646 0.9665292501449585 0.06995686888694763
0.40468132495880127 0.4767386019229889 0.022629741579294205
0.42269447445869446 0.4753877818584442 0.021503550931811333
0.4326670169830322 0.47555047273635864 0.023640798404812813
0.2887568175792694 0.44079357385635376 0.11274600774049759
0.41605955362319946 0.4562337398529053 0.018294071778655052
0.3957871198654175 0.44721558690071106 0.016893181949853897
0.3734028935432434 0.4439926743507385 0.02276226505637169
0.35144490003585815 0.4465712606906891 0.03344664350152016
0.338703989982605 0.4525569677352905 0.04549210146069527
0.2847246825695038 0.41289031505584717 0.25071027874946594
0.34713876247406006 0.4704880714416504 0.04991229623556137
0.47998857498168945 0.6885019540786743 -0.06601089239120483
0.39058613777160645 0.6803150773048401 -0.013680500909686089
0.40798866748809814 0.6439241170883179 -0.07075780630111694
0.4392924904823303 0.6846815943717957 -0.05392002686858177
0.493258535861969 0.4650803208351135 -0.07654717564582825
0.34812480211257935 0.8282099962234497 0.15746097266674042
0.37139761447906494 0.8656653761863708 0.1277972012758255
0.4324929714202881 0.9355363249778748 0.059141550213098526
0.31702303886413574 0.7725009322166443 0.2660353183746338
0.42921802401542664 0.4681144058704376 0.020469460636377335
0.4441375136375427 0.5433635711669922 -0.07403493672609329
0.4854658246040344 0.9500343203544617 0.04190906509757042
0.40245580673217773 0.9278585910797119 0.11818481236696243
0.2648768723011017 0.6383081674575806 0.24087496101856232
0.43117213249206543 0.7929608821868896 0.02203705720603466
0.4245355427265167 0.7993693351745605 0.0204465351998806
0.41871166229248047 0.8091439008712769 0.020597074180841446
0.4145526885986328 0.8213304281234741 0.027472108602523804
0.4108307361602783 0.8350080847740173 0.04851679131388664
0.3957364559173584 0.7233399152755737 0.04691576212644577
0.38615089654922485 0.7187992930412292 0.049569569528102875
0.37846511602401733 0.7134042382240295 0.04991592466831207
0.35897332429885864 0.7012041211128235 0.05384790152311325
0.28325414657592773 0.6409084796905518 0.09695710986852646
0.4520532190799713 0.5143700838088989 -0.051939841359853745
0.45170336961746216 0.4631727933883667 -0.006093427538871765
0.438852459192276 0.4624471068382263 0.010697058402001858
0.4045811891555786 0.7213022708892822 0.048161983489990234
0.29059267044067383 0.7059270143508911 0.15078993141651154
0.46538594365119934 0.4668363332748413 -0.04835151135921478
0.405079185962677 0.8515030145645142 0.0635228082537651
0.4726167619228363 0.559071958065033 -0.13219355046749115
0.4585191011428833 0.5328897833824158 -0.09933812916278839
0.47962144017219543 0.5289766788482666 -0.11138680577278137
0.4226802587509155 0.5812079906463623 -0.06672773510217667
0.48498767614364624 0.9230065941810608 0.027386898174881935
0.48678070306777954 0.8926162719726562 0.0232235100120306
0.44137176871299744 0.8817115426063538 0.038688063621520996
0.3606584072113037 0.7704378962516785 0.10015721619129181
0.3772641122341156 0.6350514888763428 0.005070303101092577
0.3810473680496216 0.8133902549743652 0.08543424308300018
0.3264912962913513 0.6266427636146545 0.029436664655804634
0.35742321610450745 0.6581318974494934 0.026132864877581596
0.31085628271102905 0.6639953255653381 0.0682215541601181
0.4340747594833374 0.9097427129745483 0.0454353503882885
0.4101285934448242 0.590273380279541 -0.042164042592048645
0.34741994738578796 0.7945312261581421 0.12638133764266968
0.37313413619995117 0.8363156914710999 0.10617411881685257
0.3406919240951538 0.7283622026443481 0.09759736061096191
0.27175089716911316 0.6711100935935974 0.17057503759860992
0.3166390359401703 0.7367903590202332 0.12332791835069656
0.2773151695728302 0.6937472224235535 0.23655594885349274
0.34211593866348267 0.6824206113815308 0.055254705250263214
0.43077945709228516 0.5561456680297852 -0.04838546738028526
0.40946948528289795 0.6415806412696838 -0.10369477421045303
0.3979577422142029 0.6392262578010559 -0.07108618319034576
0.4179278612136841 0.6275485157966614 -0.1271175742149353
0.4337964653968811 0.44361570477485657 -0.009859457612037659
0.3945152461528778 0.42820873856544495 -0.008901293389499187
0.35954874753952026 0.4229792654514313 0.0006319406675174832
0.3324136734008789 0.42495977878570557 0.018755095079541206
0.3162120580673218 0.43357640504837036 0.04065703973174095
0.3113006055355072 0.4697871208190918 0.08870908617973328
0.26677390933036804 0.5278739929199219 0.2308008223772049
0.32420969009399414 0.5011709928512573 0.06841892749071121
0.3477720618247986 0.509900689125061 0.04741060733795166
0.3790851831436157 0.5116941928863525 0.029917320236563683
0.4084397554397583 0.5085410475730896 0.019204668700695038
0.429199755191803 0.5034395456314087 0.00904808472841978
0.4428791105747223 0.49816232919692993 0.0030616349540650845
0.2904658913612366 0.5262159109115601 0.32719507813453674
0.4008253514766693 0.6423457860946655 -0.057421471923589706
0.4364473223686218 0.5695406198501587 -0.0926763117313385
0.4230194091796875 0.6492021083831787 -0.12860402464866638
0.4397427439689636 0.6621552109718323 -0.11974234879016876
0.425864577293396 0.6519343256950378 -0.1151287853717804
0.40783125162124634 0.6487322449684143 -0.049232494086027145
0.44288429617881775 0.6662229895591736 -0.12742523849010468
0.4495812952518463 0.6692361831665039 -0.0952506810426712
0.4434751868247986 0.47837576270103455 0.014192397706210613
0.45377200841903687 0.4868985712528229 -0.006456716451793909
0.45657551288604736 0.49372097849845886 -0.02832053415477276
0.33181026577949524 0.45701390504837036 0.055965062230825424
0.3203035593032837 0.4494384825229645 0.05877230316400528
0.4964182376861572 0.5631501078605652 -0.12859292328357697
0.7038882970809937 0.48443180322647095 -0.02627631090581417
0.49945542216300964 0.6674165725708008 -0.10354040563106537
0.8352317810058594 0.385297030210495 0.05469922348856926
0.616679310798645 0.5015705823898315 -0.034865852445364
0.6437750458717346 0.5042450428009033 -0.03906268626451492
0.6724764108657837 0.505347490310669 -0.03847503289580345
0.7179584503173828 0.4933841824531555 -0.0248025581240654
0.5958225131034851 0.49654126167297363 -0.0278336089104414
0.6624330282211304 0.44163647294044495 -0.05645078420639038
0.6312528252601624 0.4424383342266083 -0.049035169184207916
0.691839337348938 0.44706952571868896 -0.05382690206170082
0.712451696395874 0.4568638503551483 -0.04616917297244072
0.7397083044052124 0.5113450884819031 -0.01447960827499628
0.6007768511772156 0.8962007761001587 0.03500770032405853
0.7184666395187378 0.47925737500190735 -0.02053474634885788
0.8439833521842957 0.5016722083091736 0.08071129769086838
0.775702178478241 0.4983524978160858 0.0030801494140177965
0.6395215392112732 0.6139676570892334 -0.052475862205028534
0.5302532911300659 0.7138239145278931 -0.06773149222135544
0.5316308736801147 0.7343820333480835 -0.05357355251908302
0.5820443630218506 0.7185237407684326 -0.056754518300294876
0.6163796782493591 0.723385751247406 -0.03244651108980179
0.5692436695098877 0.7342363595962524 -0.04535916447639465
0.5989046692848206 0.7345165014266968 -0.022745976224541664
0.6533651351928711 0.778019905090332 0.02542904205620289
0.4833858013153076 0.6587647199630737 -0.1525222361087799
0.4865730404853821 0.6308621168136597 -0.16350264847278595
0.7500839233398438 0.44122567772865295 -0.05531664937734604
0.5786719918251038 0.5486682653427124 -0.05348474159836769
0.5726603865623474 0.6375738978385925 -0.1004500687122345
0.5769714713096619 0.6205588579177856 -0.09344076365232468
0.7313091158866882 0.6073787212371826 -0.039245832711458206
0.4906022250652313 0.5945863127708435 -0.15185271203517914
0.673796534538269 0.4157424867153168 -0.08754656463861465
0.7175009250640869 0.4237062335014343 -0.07678795605897903
0.7982888221740723 0.339700847864151 0.006281739100813866
0.5502334237098694 0.4354686737060547 -0.08362911641597748
0.605797290802002 0.450349897146225 -0.034699901938438416
0.678704559803009 0.7404254078865051 0.016724003478884697
0.8258238434791565 0.7524843215942383 0.1837466061115265
0.5533118844032288 0.6531270146369934 -0.08397793024778366
0.5283282399177551 0.6623492240905762 -0.07997969537973404
0.6610207557678223 0.7405751943588257 0.022221257910132408
0.6463072896003723 0.7426780462265015 0.01940435916185379
0.7345909476280212 0.40739214420318604 -0.06863279640674591
0.5800272226333618 0.6445209383964539 -0.08408348262310028
0.6180129051208496 0.4181632995605469 -0.09031350910663605
0.6230139136314392 0.39685139060020447 -0.09939463436603546
0.6693726778030396 0.2781016230583191 -0.07356680184602737
0.763808012008667 0.37298375368118286 -0.035346534103155136
0.6415547132492065 0.33477163314819336 -0.08732689917087555
0.7708252668380737 0.4292169213294983 -0.03791893273591995
0.8015434741973877 0.409412145614624 0.0075457049533724785
0.5312899351119995 0.7269060015678406 -0.06291560083627701
0.5748898983001709 0.7286919355392456 -0.05113321542739868
0.6074815988540649 0.7292095422744751 -0.029178308323025703
0.5482866168022156 0.6567227840423584 -0.07652698457241058
0.6541965007781982 0.741405725479126 0.020887073129415512
0.632598340511322 0.7704801559448242 0.01573355309665203
0.6413921117782593 0.7431737780570984 0.019330473616719246
0.5267207622528076 0.6545810699462891 -0.12192154675722122
0.5958241820335388 0.7308546304702759 -0.01839928701519966
0.5662274360656738 0.731795072555542 -0.03428823500871658
0.5318101644515991 0.7338614463806152 -0.043099962174892426
0.5367769598960876 0.8684549331665039 0.011225763708353043
0.5338690876960754 0.8486075401306152 -0.015276752412319183
0.5317049622535706 0.8345363140106201 -0.021441703662276268
0.5296651124954224 0.8211021423339844 -0.01702623814344406
0.527717113494873 0.8109646439552307 -0.013628002256155014
0.5940287113189697 0.7859604954719543 0.004412563517689705
0.599211573600769 0.7893977165222168 0.0017629048088565469
0.6066938042640686 0.7955247163772583 0.0005990089266560972
0.6124619245529175 0.8024968504905701 0.005845855455845594
0.6316856741905212 0.7032653093338013 -0.03228002041578293
0.8617184162139893 0.615435779094696 0.19543229043483734
0.6154425144195557 0.7705339193344116 0.016348961740732193
0.6242769360542297 0.7697809338569641 0.014991680160164833
0.5184152722358704 0.6736294031143188 -0.07703016698360443
0.5762359499931335 0.6570394039154053 -0.05821508169174194
0.5229580402374268 0.668553352355957 -0.07988625019788742
0.6089271306991577 0.5608156323432922 -0.04939195141196251
0.6571074724197388 0.5766249895095825 -0.05094859376549721
0.5869206190109253 0.6290577054023743 -0.07741615921258926
0.7450392842292786 0.3029225468635559 -0.038472991436719894
0.7124336957931519 0.3470678925514221 -0.06561645120382309
0.6839771866798401 0.39505642652511597 -0.08718608319759369
0.6230883002281189 0.81483393907547 0.020723028108477592
0.5587774515151978 0.40215563774108887 -0.09818071126937866
0.5744514465332031 0.3310076892375946 -0.09266646951436996
0.5937023758888245 0.2658523917198181 -0.08551457524299622
0.7003902196884155 0.5018714666366577 -0.032514434307813644
0.771652340888977 0.529837965965271 -0.0035033265594393015
0.5830531716346741 0.4914998710155487 -0.022930799052119255
0.7421119809150696 0.46894240379333496 -0.030828678980469704
0.5572948455810547 0.5344793200492859 -0.061433520168066025
0.5457131266593933 0.6347047090530396 -0.12451257556676865
0.8080641627311707 0.548865795135498 0.019869845360517502
0.746933102607727 0.5441374778747559 -0.021308664232492447
0.7060906887054443 0.5511298179626465 -0.036377228796482086
0.6501432061195374 0.5471842885017395 -0.039454203099012375
0.6101094484329224 0.5376698970794678 -0.037400078028440475
0.5823003053665161 0.5276296734809875 -0.040411774069070816
0.5140610933303833 0.503643810749054 -0.08780080825090408
0.80665123462677 0.6010685563087463 0.018764138221740723
0.7658979892730713 0.46742838621139526 -0.025663768872618675
0.4785955250263214 0.6711732149124146 -0.13787566125392914
0.5749034881591797 0.5763612985610962 -0.06178832799196243
0.867694616317749 0.49502137303352356 0.15878812968730927
0.5608475804328918 0.516075849533081 -0.0422636903822422
0.5951111316680908 0.6269505023956299 -0.04831359535455704
0.7292768955230713 0.481166809797287 -0.018112661316990852
0.5508857369422913 0.6133871078491211 -0.11573542654514313
0.8515785932540894 0.6814642548561096 0.19472436606884003
0.5873042941093445 0.48333293199539185 -0.01745304837822914
0.5198224186897278 0.6022111177444458 -0.1394801288843155
0.7413473129272461 0.8218982815742493 0.08822166174650192
0.7436835765838623 0.8560728430747986 0.12897130846977234
0.8480405807495117 0.6134583353996277 0.1060684397816658
0.7849864363670349 0.7844494581222534 0.09913966059684753
0.8246963024139404 0.45077162981033325 0.050285644829273224
0.6033094525337219 0.9265810251235962 0.0486198253929615
0.48083436489105225 0.6738708019256592 -0.09965943545103073
0.6034327149391174 0.5922996401786804 -0.054146286100149155
0.8044590950012207 0.5038601756095886 0.023456193506717682
0.6690186858177185 0.48968660831451416 -0.03522080183029175
0.6435142755508423 0.4894527196884155 -0.03688732534646988
0.640571653842926 0.7714155912399292 0.018260186538100243
0.8077331781387329 0.6569539308547974 0.03620963916182518
0.5488649606704712 0.9652153849601746 0.06377498805522919
0.6466698050498962 0.9237511157989502 0.09268787503242493
0.6909289360046387 0.8951618671417236 0.10971254855394363
0.6217775344848633 0.48728710412979126 -0.03384832665324211
0.6023889780044556 0.48421353101730347 -0.026492679491639137
0.5912622809410095 0.48371028900146484 -0.019440703094005585
0.7908295392990112 0.46162354946136475 -0.004670377820730209
0.6124276518821716 0.4656735062599182 -0.03170517832040787
0.6365393996238708 0.45816856622695923 -0.041283901780843735
0.6600769758224487 0.45747923851013184 -0.045265913009643555
0.6846397519111633 0.4625093936920166 -0.04351754114031792
0.7007827758789062 0.47003769874572754 -0.03713584318757057
0.8571960926055908 0.43368083238601685 0.1107199490070343
0.68855881690979 0.4877340793609619 -0.031085364520549774
0.5968514084815979 0.6914119124412537 -0.05168299749493599
0.5504530072212219 0.6522758603096008 -0.09472887217998505
0.5276340842247009 0.6897130012512207 -0.06988655775785446
0.6942509412765503 0.8602467775344849 0.08253894001245499
0.6508880853652954 0.8935064673423767 0.06794405728578568
0.5467262268066406 0.9474294781684875 0.03452903777360916
0.7868101596832275 0.8116949796676636 0.15507382154464722
0.5952596664428711 0.47687530517578125 -0.023588674142956734
0.5286535620689392 0.5474926829338074 -0.09346039593219757
0.6001238226890564 0.949184775352478 0.07291413843631744
0.8414584994316101 0.6745290756225586 0.11238487809896469
0.5627001523971558 0.8012617826461792 -0.007189145777374506
0.5677522420883179 0.8083282709121704 -0.00968027301132679
0.5726140737533569 0.818466305732727 -0.011243225075304508
0.5765599608421326 0.831156849861145 -0.005368498619645834
0.5857669115066528 0.8472058176994324 0.01260928250849247
0.6286041140556335 0.735735297203064 -0.001974743092432618
0.6370724439620972 0.7326140403747559 -0.0030563874170184135
0.6450068950653076 0.7281481027603149 -0.005177825223654509
0.6620992422103882 0.7180401682853699 -0.008893872611224651
0.7633485198020935 0.6693307161331177 -0.0056776013225317
0.5351160764694214 0.5181125998497009 -0.07281763851642609
0.5611817836761475 0.4676256775856018 -0.03201774135231972
0.5819387435913086 0.468938946723938 -0.026103340089321136
0.6223508715629578 0.7324774265289307 0.0015393996145576239
0.7718529105186462 0.7393598556518555 0.0479813776910305
0.5311263799667358 0.46907517313957214 -0.06360664963722229
0.5947590470314026 0.8672760725021362 0.02596927620470524
0.5052359104156494 0.5350069999694824 -0.10987058281898499
0.5483517050743103 0.5875883102416992 -0.09241098910570145
0.5409083962440491 0.890191912651062 0.020394379273056984
0.6688554883003235 0.7926058769226074 0.034866053611040115
0.620817244052887 0.6471958756446838 -0.04210105910897255
0.6357118487358093 0.833256721496582 0.033769771456718445
0.6898680329322815 0.646240234375 -0.04456273093819618
0.6520252823829651 0.6741008758544922 -0.03331509232521057
0.7197758555412292 0.6882138848304749 -0.016918310895562172
0.5445607304573059 0.9200767278671265 0.021959787234663963
0.5713688731193542 0.598095715045929 -0.07458470016717911
0.6871424913406372 0.8223928213119507 0.05404921621084213
0.6455070376396179 0.8607474565505981 0.05039053037762642
0.6949059367179871 0.7514879703521729 0.0194170530885458
0.8025435209274292 0.7058740258216858 0.05626199021935463
0.72994464635849 0.7668768167495728 0.03497934341430664
0.8220540285110474 0.7321493625640869 0.11369264870882034
0.6830093860626221 0.7018046379089355 -0.016685733571648598
0.5511733889579773 0.5619903802871704 -0.07624373584985733
0.5350877046585083 0.6496686339378357 -0.1287328451871872
0.5630142092704773 0.6484547257423401 -0.10019594430923462
0.5161897540092468 0.6334477663040161 -0.14787667989730835
0.5807229280471802 0.4490411877632141 -0.045882657170295715
0.624504804611206 0.4361533522605896 -0.06084657832980156
0.6650846600532532 0.43376225233078003 -0.06737601011991501
0.7007890939712524 0.4389784038066864 -0.06403777748346329
0.7271379828453064 0.4503733813762665 -0.05218164250254631
0.7481974363327026 0.49026668071746826 -0.011002686806023121
0.8487481474876404 0.5568773150444031 0.09367460757493973
0.720497727394104 0.5199441909790039 -0.02309473045170307
0.6867790818214417 0.525851309299469 -0.0325104184448719
0.6475750207901001 0.524379312992096 -0.035581424832344055
0.6130231618881226 0.5182719230651855 -0.03230246156454086
0.5882746577262878 0.51120924949646 -0.02965596318244934
0.5709772109985352 0.5044832825660706 -0.028313027694821358
0.8660109043121338 0.5541666746139526 0.1845083385705948
0.5669615268707275 0.6513780951499939 -0.0860176831483841
0.5219791531562805 0.5737408995628357 -0.11270349472761154
0.5076747536659241 0.6550680994987488 -0.14452961087226868
0.4969138503074646 0.6662204265594482 -0.12906211614608765
0.5119804739952087 0.6581212282180786 -0.13133496046066284
0.5630720257759094 0.6568912863731384 -0.07328420877456665
0.48899030685424805 0.6694357395172119 -0.13495685160160065
0.49164798855781555 0.6718581318855286 -0.10150012373924255
0.5755056142807007 0.48504549264907837 -0.018615035340189934
0.5574826002120972 0.4917828440666199 -0.030746765434741974
0.5448627471923828 0.49775224924087524 -0.04888959228992462
0.7106448411941528 0.47564077377319336 -0.03020358458161354
0.7268990278244019 0.4679517149925232 -0.03281024470925331
