ply
format ascii 1.0
element vertex 468
property float x
property float y
property float z
end_header
0.48831120133399963 0.7107976078987122 -0.04873349145054817
0.4811473786830902 0.653265655040741 -0.12998607754707336
0.4864680767059326 0.6701223850250244 -0.06336122006177902
0.4650835692882538 0.5657988786697388 -0.10784337669610977
0.48070240020751953 0.6283508539199829 -0.1416938602924347
0.4822613298892975 0.5928846001625061 -0.1367821842432022
0.488651841878891 0.5037374496459961 -0.08499816060066223
0.32877278327941895 0.48168590664863586 0.024293657392263412
0.4901328384876251 0.4299795627593994 -0.07653219997882843
0.48973405361175537 0.3936838209629059 -0.08695603162050247
0.4932378828525543 0.2684781551361084 -0.08760354667901993
0.48906949162483215 0.7207055687904358 -0.04371695965528488
0.49022263288497925 0.7261137366294861 -0.035512447357177734
0.49153366684913635 0.7258615493774414 -0.0248432420194149
0.4914921820163727 0.7598183155059814 -0.012798634357750416
0.4908832013607025 0.7694019675254822 -0.015541045926511288
0.49058759212493896 0.7807349562644958 -0.018835555762052536
0.4908406734466553 0.7931640148162842 -0.01331943366676569
0.49192917346954346 0.8108141422271729 0.010644646361470222
0.482325941324234 0.6645344495773315 -0.11592898517847061
0.46273335814476013 0.6581404209136963 -0.08086702972650528
0.25309866666793823 0.3740590214729309 0.12786893546581268
0.39890214800834656 0.5054024457931519 -0.0033612861298024654
0.3748825192451477 0.5059605836868286 0.001169560942798853
0.35149115324020386 0.5036805868148804 0.009962943382561207
0.31990063190460205 0.48828816413879395 0.031415972858667374
0.41784098744392395 0.5009633302688599 -0.0031978017650544643
0.36247721314430237 0.4414939284324646 -0.01643698289990425
0.38853490352630615 0.4443594515323639 -0.01954355463385582
0.3387223482131958 0.44459593296051025 -0.005077901296317577
0.323471337556839 0.4529682993888855 0.006788830738514662
0.30094605684280396 0.5018128156661987 0.047562189400196075
0.40775370597839355 0.8315258026123047 0.05867183208465576
0.3199400305747986 0.475656121969223 0.03265005350112915
0.24224597215652466 0.4810892939567566 0.15948159992694855
0.27765530347824097 0.4830874502658844 0.07127741724252701
0.3675369620323181 0.605467677116394 -0.008746878243982792
0.4534469544887543 0.7049105763435364 -0.043390270322561264
0.4579352140426636 0.7226617336273193 -0.028771305456757545
0.4195760488510132 0.7035372257232666 -0.022912809625267982
0.39937788248062134 0.7032501697540283 0.004127672873437405
0.4331497550010681 0.7185004353523254 -0.01341246534138918
0.41500118374824524 0.714658260345459 0.010595179162919521
0.3778609037399292 0.7367737293243408 0.059486351907253265
0.462039053440094 0.6513172388076782 -0.1267269253730774
0.45899444818496704 0.6268974542617798 -0.1372004896402359
0.2889675199985504 0.4229074716567993 0.012940983287990093
0.4210018813610077 0.5497023463249207 -0.024703262373805046
0.41187548637390137 0.6303318738937378 -0.0638996884226799
0.41168710589408875 0.6155514717102051 -0.058050476014614105
0.29514002799987793 0.593169629573822 0.02980162389576435
0.46149325370788574 0.594224214553833 -0.12725389003753662
0.33821022510528564 0.39889273047447205 -0.03738296404480934
0.3087219297885895 0.40591222047805786 -0.013796063140034676
0.2717754542827606 0.3331996202468872 0.07081181555986404
0.4381038248538971 0.4229890704154968 -0.06610291451215744
0.4111289381980896 0.453970730304718 -0.014038139022886753
0.357646107673645 0.7076342701911926 0.05997135117650032
0.27886074781417847 0.6990293264389038 0.26669615507125854
0.42875435948371887 0.6445541381835938 -0.05436677858233452
0.44814926385879517 0.6548015475273132 -0.05609150975942612
0.3755485713481903 0.7069815993309021 0.05910710245370865
0.3875381648540497 0.7098249197006226 0.05181463807821274
0.29670658707618713 0.38776710629463196 -0.00487048365175724
0.4115067422389984 0.6369004845619202 -0.04880741611123085
0.3793908655643463 0.40211865305900574 -0.055676765739917755
0.3745563328266144 0.38109368085861206 -0.0645284354686737
0.3558480143547058 0.27991265058517456 -0.0411188043653965
0.28379151225090027 0.36088961362838745 0.02750822715461254
0.36729902029037476 0.33051931858062744 -0.054589513689279556
0.27586662769317627 0.40934842824935913 0.03175598755478859
0.2638795077800751 0.3938162922859192 0.07637215405702591
0.45493263006210327 0.7160762548446655 -0.038044147193431854
0.4268774390220642 0.7129952311515808 -0.018226737156510353
0.4069274663925171 0.7090650796890259 0.005999316927045584
0.4342447519302368 0.6485499143600464 -0.048937346786260605
0.3810998499393463 0.7079784274101257 0.055068761110305786
0.39381667971611023 0.7265638709068298 0.04234253615140915
0.39210858941078186 0.7107715606689453 0.05108417943120003
0.43922680616378784 0.6442033648490906 -0.08991251140832901
0.4203711450099945 0.712325394153595 0.013828652910888195
0.43888282775878906 0.7172547578811646 -0.003996714949607849
0.46211662888526917 0.7226030826568604 -0.018074825406074524
0.45568767189979553 0.807051956653595 0.016436267644166946
0.4557665288448334 0.7876462936401367 -0.006648591253906488
0.45637160539627075 0.7748755812644958 -0.011203831061720848
0.4583767354488373 0.7639598250389099 -0.007703709881752729
0.4613412618637085 0.7558696866035461 -0.005372501909732819
0.4181705415248871 0.7368971109390259 0.024049755185842514
0.4138299822807312 0.7390558123588562 0.02165374532341957
0.4083678722381592 0.743842363357544 0.020320428535342216
0.4044284522533417 0.7505787014961243 0.026781681925058365
0.381437212228775 0.6834782958030701 0.007713702041655779
0.2532784640789032 0.5795390605926514 0.2791867256164551
0.4840050935745239 0.6672024726867676 -0.08248340338468552
0.4066590666770935 0.7272936105728149 0.041526444256305695
0.3997458219528198 0.7262189388275146 0.040511827915906906
0.4559345543384552 0.6660916805267334 -0.05425618588924408
0.41825053095817566 0.6492438912391663 -0.029269563034176826
0.4522581398487091 0.6608675718307495 -0.056086327880620956
0.3957519829273224 0.5596869587898254 -0.011708822101354599
0.35378509759902954 0.5713547468185425 0.0009906342020258307
0.4080970883369446 0.6229909658432007 -0.042292941361665726
0.3032302260398865 0.3009648323059082 0.012451591901481152
0.31582555174827576 0.338468998670578 -0.015706565231084824
0.32948029041290283 0.37772101163864136 -0.037220582365989685
0.39716261625289917 0.7644966244697571 0.04702214151620865
0.429527223110199 0.38878610730171204 -0.08013513684272766
0.4238396883010864 0.3310481607913971 -0.07847633957862854
0.41710710525512695 0.2703152894973755 -0.07479695975780487
0.33114826679229736 0.49774885177612305 0.021720893681049347
0.2755456268787384 0.5163388848304749 0.06576873362064362
0.4294021725654602 0.4959617555141449 -0.0023023050744086504
0.30053603649139404 0.45782923698425293 0.030493779107928276
0.4373554587364197 0.5369517803192139 -0.037213463336229324
0.4245724678039551 0.6272857189178467 -0.09027803689241409
0.2526213228702545 0.5298866629600525 0.09921865910291672
0.2889643609523773 0.5335586071014404 0.045784130692481995
0.3175739049911499 0.5442936420440674 0.02219506911933422
0.3634459376335144 0.5446687340736389 0.007377953268587589
0.3981262445449829 0.5383334159851074 -0.0027436241507530212
0.42234742641448975 0.5299425721168518 -0.013518376275897026
0.4671604037284851 0.5090543031692505 -0.07240381836891174
0.24999436736106873 0.5786428451538086 0.10163098573684692
0.28241223096847534 0.4510086178779602 0.04250643402338028
0.47072532773017883 0.6626253128051758 -0.11365912109613419
0.42086684703826904 0.5754363536834717 -0.03240654245018959
0.2431749403476715 0.4722886085510254 0.23867939412593842
0.43963533639907837 0.5192645788192749 -0.021512556821107864
0.4061509370803833 0.6212184429168701 -0.017605919390916824
0.31270545721054077 0.4751545786857605 0.03876712545752525
0.42508023977279663 0.6091414093971252 -0.08338432759046555
0.2621859014034271 0.6377332806587219 0.2790566682815552
0.4289914667606354 0.4873521327972412 0.001641172100789845
0.4427536725997925 0.5997130870819092 -0.11002158373594284
0.3182903826236725 0.7630355358123779 0.1473202258348465
0.3292502462863922 0.787310779094696 0.19376304745674133
0.23974421620368958 0.5818092823028564 0.19155853986740112
0.28651154041290283 0.7304928302764893 0.17161966860294342
0.2521497309207916 0.43417513370513916 0.12396777421236038
0.40865376591682434 0.8520364761352539 0.07665777206420898
0.4747519791126251 0.6657293438911438 -0.08033224195241928
0.39913156628608704 0.5888710618019104 -0.01935206539928913
0.25935617089271545 0.48536503314971924 0.09786022454500198
0.35358572006225586 0.4901162385940552 0.008813316002488136
0.37486350536346436 0.4928881525993347 0.001547367894090712
0.38836896419525146 0.7283645868301392 0.04756883904337883
0.2526485323905945 0.6266953349113464 0.1187189593911171
0.4504116177558899 0.8837162852287292 0.08237490803003311
0.3908865749835968 0.8446612358093262 0.13345935940742493
0.36433592438697815 0.8203075528144836 0.16075144708156586
0.4911637306213379 0.33274203538894653 -0.08991232514381409
0.4943371117115021 0.8912868499755859 0.07111560553312302
0.39489150047302246 0.49232175946235657 -0.0016610196325927973
0.41345837712287903 0.4897541403770447 -0.0003597983450163156
0.42448341846466064 0.4884490370750427 0.002729883184656501
0.2668280303478241 0.4429277777671814 0.06695189327001572
0.4085572063922882 0.4711138904094696 -0.007490722928196192
0.3879239559173584 0.46421152353286743 -0.010233251377940178
0.3666999936103821 0.462338924407959 -0.006959686521440744
0.345867395401001 0.4651327133178711 0.0013632919872179627
0.3327345550060272 0.4700690507888794 0.010813132859766483
0.2434951663017273 0.41787391901016235 0.18780840933322906
0.33908140659332275 0.48601844906806946 0.01737070642411709
0.48757848143577576 0.6828334331512451 -0.0527314655482769
0.4044605493545532 0.6772028803825378 -0.015672672539949417
0.42772889137268066 0.643042266368866 -0.06495676934719086
0.4523790776729584 0.6808273196220398 -0.046294283121824265
0.4905332028865814 0.4653387665748596 -0.07243349403142929
0.35264790058135986 0.7955380082130432 0.12928777933120728
0.38088560104370117 0.8229960203170776 0.1052975133061409
0.44570469856262207 0.8737752437591553 0.05067919194698334
0.30166786909103394 0.7499493360519409 0.23345161974430084
0.42248544096946716 0.48119068145751953 -0.002005051588639617
0.45008596777915955 0.5498043894767761 -0.0722055733203888
0.4924395978450775 0.8807026147842407 0.040920719504356384
0.4176134467124939 0.8671363592147827 0.10400529205799103
0.2470092475414276 0.6350921988487244 0.1970631182193756
0.43715980648994446 0.7475009560585022 0.008214435540139675
0.4327208995819092 0.7527848482131958 0.005759363994002342
0.42909103631973267 0.7612309455871582 0.004388296976685524
0.4268200993537903 0.7726365327835083 0.010242009535431862
0.42207518219947815 0.7892455458641052 0.030913231894373894
0.39787739515304565 0.7103635668754578 0.03308921307325363
0.39003321528434753 0.7067872285842896 0.03428301215171814
0.38332682847976685 0.7024690508842468 0.03334471583366394
0.3633039593696594 0.6925251483917236 0.0344037190079689
0.2767177224159241 0.6428685188293457 0.06854242831468582
0.4527318477630615 0.5219005942344666 -0.05326201766729355
0.4435499906539917 0.4689379930496216 -0.020298035815358162
0.4315035939216614 0.47295519709587097 -0.008634422905743122
0.40468573570251465 0.7084488868713379 0.034630995243787766
0.28397125005722046 0.697857677936554 0.11810674518346786
0.4610500633716583 0.4684675633907318 -0.05343100056052208
0.41428142786026 0.8089030981063843 0.045438602566719055
0.4844255745410919 0.563335657119751 -0.11870183795690536
0.4656349718570709 0.5396925806999207 -0.09320160001516342
0.48641231656074524 0.5356166362762451 -0.10127826035022736
0.4328843057155609 0.5861568450927734 -0.06564339995384216
0.49158868193626404 0.8609827160835266 0.024070989340543747
0.49184247851371765 0.8340758085250854 0.017540648579597473
0.45054060220718384 0.8293294906616211 0.02685241773724556
0.3646410405635834 0.7483892440795898 0.07401502132415771
0.3859701156616211 0.6370092034339905 -0.00407637283205986
0.3880062997341156 0.7811259627342224 0.06269176304340363
0.32602840662002563 0.6294478178024292 0.010492172092199326
0.361325204372406 0.6566926836967468 0.011687112040817738
0.30800724029541016 0.6624181270599365 0.04185614362359047
0.44542986154556274 0.8551248908042908 0.03447433561086655
0.4203413128852844 0.5955245494842529 -0.044655729085206985
0.3520531952381134 0.7688002586364746 0.09866604208946228
0.3809402883052826 0.8004298806190491 0.08285635709762573
0.3417777717113495 0.7153490781784058 0.0699467658996582
0.26231011748313904 0.6674588918685913 0.1351652592420578
0.3157394528388977 0.7230162620544434 0.09281539916992188
0.26168909668922424 0.6848703622817993 0.19658417999744415
0.34218838810920715 0.6776185035705566 0.034624841064214706
0.4361148774623871 0.5625808835029602 -0.05077135190367699
0.431621253490448 0.6399874687194824 -0.09507457166910172
0.4184863567352295 0.6395845413208008 -0.0664026066660881
0.4405490756034851 0.6268346905708313 -0.11407045274972916
0.4235672950744629 0.44535142183303833 -0.028186868876218796
0.3850855529308319 0.430009126663208 -0.029507899656891823
0.3523631989955902 0.42664653062820435 -0.023717891424894333
0.32587501406669617 0.4299076199531555 -0.009654013440012932
0.3084791898727417 0.4398036301136017 0.00821850448846817
0.2979933023452759 0.47919151186943054 0.05085010826587677
0.23852714896202087 0.5312474966049194 0.17757245898246765
0.3131360411643982 0.5126634240150452 0.03552781417965889
0.33744072914123535 0.5212799310684204 0.020334037020802498
0.369628369808197 0.5235649347305298 0.008129256777465343
0.3996284604072571 0.5203960537910461 -0.0009532546973787248
0.42167961597442627 0.5143669247627258 -0.005133231170475483
0.43610498309135437 0.5079090595245361 -0.00995652750134468
0.24854248762130737 0.5248274803161621 0.2668699026107788
0.41963914036750793 0.6429235935211182 -0.05349618196487427
0.44777199625968933 0.5742909908294678 -0.08790436387062073
0.44675353169441223 0.6456692218780518 -0.11455706506967545
0.46037426590919495 0.6563844680786133 -0.10369762033224106
0.4475128948688507 0.6476206183433533 -0.1023779958486557
0.425217866897583 0.6488142609596252 -0.04455334693193436
0.46391916275024414 0.6600391268730164 -0.10994017869234085
0.46768295764923096 0.6628767848014832 -0.08054031431674957
0.43654686212539673 0.48909613490104675 -0.0029252059757709503
0.4473872482776642 0.49530985951423645 -0.017613233998417854
0.4527609646320343 0.5011721253395081 -0.03350986912846565
0.3252502679824829 0.4735093414783478 0.02054205723106861
0.31294628977775574 0.4618352949619293 0.022745680063962936
0.5051076412200928 0.5663607120513916 -0.11245574802160263
0.6717560291290283 0.4853131175041199 -0.00864710658788681
0.5073946118354797 0.6599552631378174 -0.08430152386426926
0.7799240350723267 0.37498408555984497 0.07571664452552795
0.5970725417137146 0.5081560015678406 -0.024603499099612236
0.6220439672470093 0.5091658234596252 -0.024200668558478355
0.6471343636512756 0.507283091545105 -0.019930265843868256
0.6833184957504272 0.4923326373100281 -0.003745738882571459
0.5765641331672668 0.503202497959137 -0.019756406545639038
0.6334588527679443 0.4419088065624237 -0.04360116645693779
0.6063559651374817 0.44449710845947266 -0.040799468755722046
0.6591612696647644 0.44561299681663513 -0.03642229363322258
0.6765636205673218 0.4549146294593811 -0.02695643901824951
0.7052811980247498 0.5063186883926392 0.00974276289343834
0.5846567153930664 0.838114321231842 0.042971421033144
0.6824795603752136 0.4790777862071991 -0.001786356559023261
0.7899525761604309 0.48558732867240906 0.10681422799825668
0.7352364659309387 0.4872533082962036 0.028752772137522697
0.6225042939186096 0.6096465587615967 -0.030277570709586143
0.5256854295730591 0.7070620059967041 -0.049579255282878876
0.5254493355751038 0.7245993614196777 -0.0345221646130085
0.565502405166626 0.7082055807113647 -0.035475533455610275
0.5923361778259277 0.7091254591941833 -0.012890473008155823
0.5545531511306763 0.72231525182724 -0.024708477780222893
0.5779756903648376 0.7192373871803284 -0.004424498416483402
0.6226638555526733 0.7438668608665466 0.03769621625542641
0.5013672709465027 0.6525574326515198 -0.1294429451227188
0.5038841366767883 0.6277958154678345 -0.14059625566005707
0.7157373428344727 0.4238423705101013 -0.027074260637164116
0.5670955777168274 0.5517554879188538 -0.03891471028327942
0.5659099817276001 0.6338019371032715 -0.07708271592855453
0.5684630274772644 0.6187484860420227 -0.07183824479579926
0.7043110728263855 0.599615216255188 -0.0058705550618469715
0.5043827295303345 0.5949339866638184 -0.13168981671333313
0.6537814140319824 0.39653685688972473 -0.06379322707653046
0.6893647909164429 0.4051739573478699 -0.047529011964797974
0.7510156035423279 0.3325909674167633 0.024067314341664314
0.544346809387207 0.42184677720069885 -0.07443573325872421
0.5833268761634827 0.45444226264953613 -0.031082792207598686
0.6444772481918335 0.7152002453804016 0.03440901264548302
0.7635402083396912 0.7104270458221436 0.2187717854976654
0.5486539602279663 0.6480484008789062 -0.06470474600791931
0.5273603200912476 0.6569766402244568 -0.06118321418762207
0.6259424686431885 0.7137476205825806 0.03634156659245491
0.6142135858535767 0.715671718120575 0.03142648935317993
0.7050859928131104 0.3865109384059906 -0.041625577956438065
0.5693866610527039 0.6404210329055786 -0.06178496032953262
0.6066960096359253 0.39982542395591736 -0.07405409961938858
0.6108806729316711 0.3782813549041748 -0.08356180787086487
0.640958309173584 0.278443306684494 -0.067256860435009
0.7275383472442627 0.3601975440979004 -0.013926194049417973
0.6224774122238159 0.32863855361938477 -0.07702907919883728
0.7338696718215942 0.4101411700248718 -0.011272551491856575
0.7570213675498962 0.3949185013771057 0.02926544100046158
0.5259848833084106 0.7182804942131042 -0.04422580450773239
0.5593481063842773 0.717229962348938 -0.030325332656502724
0.5850459337234497 0.7144501209259033 -0.010093417018651962
0.5433510541915894 0.6515476107597351 -0.056917980313301086
0.6203168630599976 0.7144502401351929 0.0340423583984375
0.6043306589126587 0.7323296070098877 0.024001790210604668
0.6104148626327515 0.716434121131897 0.031102782115340233
0.531713604927063 0.6476138830184937 -0.09882927685976028
0.5742831826210022 0.7161559462547302 -0.0004146915453020483
0.550891101360321 0.7204433679580688 -0.014609703794121742
0.5239896178245544 0.7242521047592163 -0.024214845150709152
0.5306700468063354 0.8092594146728516 0.010597527958452702
0.5285094380378723 0.7898516654968262 -0.013402162119746208
0.5274060964584351 0.7771663665771484 -0.018314365297555923
0.5259538292884827 0.7663224935531616 -0.014694690704345703
0.5238810777664185 0.757968544960022 -0.011971842497587204
0.5763970017433167 0.7412866950035095 0.009664428420364857
0.5802540183067322 0.7436091303825378 0.006880754604935646
0.5853938460350037 0.7488602995872498 0.0055412366054952145
0.5894272327423096 0.7556621432304382 0.011324189603328705
0.6094121932983398 0.6888676881790161 -0.011227153241634369
0.7948510050773621 0.5873793363571167 0.22592493891716003
0.5918466448783875 0.7321398854255676 0.02405264414846897
0.598301887512207 0.7315089106559753 0.02267378196120262
0.5191116333007812 0.667718768119812 -0.059019144624471664
0.5641604065895081 0.6523040533065796 -0.03965776413679123
0.5228738188743591 0.6627123355865479 -0.061049047857522964
0.5947830080986023 0.5626053810119629 -0.030579380691051483
0.6390542984008789 0.5756092071533203 -0.024482486769557
0.5748741626739502 0.6263558864593506 -0.056624460965394974
0.7067360281944275 0.29937314987182617 -0.025475025177001953
0.6850491166114807 0.3364165723323822 -0.048632822930812836
0.6636321544647217 0.3750705122947693 -0.06578031182289124
0.5987895727157593 0.7704351544380188 0.029092585667967796
0.5514740943908691 0.38687700033187866 -0.08911462128162384
0.5601269006729126 0.33020591735839844 -0.08992131799459457
0.5721891522407532 0.2694489657878876 -0.0876462534070015
0.6698615550994873 0.5017074346542358 -0.011491499841213226
0.7349812984466553 0.5217563509941101 0.023553885519504547
0.563859760761261 0.4979105293750763 -0.01711157150566578
0.704684317111969 0.4605373442173004 -0.008096262812614441
0.5483165979385376 0.5383707284927368 -0.04851197451353073
0.5474749207496643 0.6305058002471924 -0.1009812206029892
0.7649256587028503 0.5362730026245117 0.05128723010420799
0.7160220742225647 0.5390411615371704 0.006424263119697571
0.681822657585144 0.5491621494293213 -0.01148611307144165
0.6314298510551453 0.5484663844108582 -0.018057148903608322
0.594737708568573 0.5411378145217896 -0.021913226693868637
0.5685692429542542 0.5319517850875854 -0.028048856183886528
0.5122900009155273 0.5094626545906067 -0.07716397941112518
0.7645329236984253 0.5864037871360779 0.05420960113406181
0.7271702289581299 0.4536040425300598 -9.770083852345124e-05
0.49453651905059814 0.6635406017303467 -0.11570348590612411
0.5645552277565002 0.5775613784790039 -0.04628099873661995
0.8029860258102417 0.47625795006752014 0.18326584994792938
0.5490298271179199 0.5206626653671265 -0.0325065515935421
0.5801949501037598 0.6244103312492371 -0.031476251780986786
0.6914815902709961 0.4786539673805237 0.0025802776217460632
0.5501225590705872 0.6116272807121277 -0.09432335942983627
0.7844576239585876 0.6477903127670288 0.22806395590305328
0.5653665065765381 0.4893585741519928 -0.0137794753536582
0.5271956920623779 0.6012508273124695 -0.1177949532866478
0.698258638381958 0.7746496200561523 0.11176810413599014
0.6952610611915588 0.7993677258491516 0.1577179729938507
0.7917734384536743 0.5903549194335938 0.1393197774887085
0.7371487021446228 0.742186427116394 0.12985414266586304
0.7749388217926025 0.43669024109840393 0.07349450141191483
0.5853672027587891 0.8592349290847778 0.059890955686569214
0.49353861808776855 0.6662821769714355 -0.0816742405295372
0.5892081260681152 0.591846227645874 -0.03617706149816513
0.7598525285720825 0.4899137020111084 0.05047483742237091
0.6435890197753906 0.4936332702636719 -0.01980820670723915
0.6213736534118652 0.49586692452430725 -0.023886099457740784
0.6103841662406921 0.7345542311668396 0.028063880279660225
0.7634324431419373 0.6358733177185059 0.07263433933258057
0.5408517718315125 0.887785792350769 0.07304427027702332
0.6144347190856934 0.8539844751358032 0.1102050393819809
0.649872362613678 0.8315703868865967 0.13151665031909943
0.6008098721504211 0.4949985146522522 -0.023387394845485687
0.5815960168838501 0.4919716715812683 -0.01907026208937168
0.5701793432235718 0.49059605598449707 -0.014018534682691097
0.7488228678703308 0.44545823335647583 0.020983854308724403
0.5879196524620056 0.4726809859275818 -0.02691183052957058
0.6099845767021179 0.4655320942401886 -0.03277624398469925
0.6313817501068115 0.46414458751678467 -0.033494602888822556
0.6529853343963623 0.4674132466316223 -0.028512051329016685
0.6671566963195801 0.4728427529335022 -0.021293362602591515
0.7964675426483154 0.4201674163341522 0.13338543474674225
0.6597058176994324 0.48975586891174316 -0.01407837588340044
0.5806829929351807 0.6812359094619751 -0.030093031004071236
0.5478590130805969 0.6467225551605225 -0.07433968782424927
0.5251958966255188 0.6826565265655518 -0.052341729402542114
0.6568455100059509 0.8065181970596313 0.10032965242862701
0.621390163898468 0.8324740529060364 0.08229685574769974
0.542019248008728 0.8779115676879883 0.0415317602455616
0.732293426990509 0.7617033123970032 0.19047141075134277
0.5722320675849915 0.48313108086586 -0.01937819831073284
0.5279191136360168 0.5507874488830566 -0.07975910604000092
0.5793001651763916 0.8739769458770752 0.08673907071352005
0.7844096422195435 0.6451311707496643 0.14707998931407928
0.5521602630615234 0.7511510848999023 -0.0031676958315074444
0.5561328530311584 0.7565542459487915 -0.0057656834833323956
0.5592764019966125 0.7651390433311462 -0.007718205917626619
0.5615913271903992 0.7765346765518188 -0.002149248495697975
0.5688353180885315 0.793653130531311 0.017565373331308365
0.6008121967315674 0.7156740427017212 0.014416523277759552
0.6078622937202454 0.7129528522491455 0.014064670540392399
0.6145808696746826 0.7090967297554016 0.012552076019346714
0.6338289380073547 0.6989775896072388 0.010790292173624039
0.7292656898498535 0.6512756943702698 0.029138663783669472
0.5297807455062866 0.5227826833724976 -0.061364930123090744
0.5463923811912537 0.46941667795181274 -0.030462808907032013
0.5615491271018982 0.4740292429924011 -0.02282024174928665
0.5950290560722351 0.713208794593811 0.016914857551455498
0.7301528453826904 0.7080076336860657 0.07855645567178726
0.5234779119491577 0.4685536026954651 -0.05944128334522247
0.5780465602874756 0.8143044114112854 0.031465284526348114
0.5088432431221008 0.5401878356933594 -0.09712246060371399
0.5458781123161316 0.5879232883453369 -0.07579921185970306
0.5359722375869751 0.8322471380233765 0.019989872351288795
0.637428879737854 0.7565292716026306 0.04948735609650612
0.6032747626304626 0.6410072445869446 -0.022210342809557915
0.6098907589912415 0.7884073257446289 0.043370865285396576
0.6680694818496704 0.6355553269386292 -0.01742463745176792
0.6314031481742859 0.6621283292770386 -0.0107331033796072
0.6921862363815308 0.6701453924179077 0.009767930954694748
0.5408517718315125 0.858665943145752 0.025909774005413055
0.5628401041030884 0.5979359745979309 -0.057336755096912384
0.652928352355957 0.7785024046897888 0.07083971053361893
0.6185731291770935 0.8090183734893799 0.06166177615523338
0.6615039110183716 0.723694920539856 0.04049811512231827
0.7562267780303955 0.6776779890060425 0.09082769602537155
0.6920937299728394 0.7328053116798401 0.059039823710918427
0.7681972980499268 0.6959342956542969 0.14895081520080566
0.6563547849655151 0.68438321352005 0.007425771560519934
0.5457712411880493 0.5642026662826538 -0.0616728775203228
0.5392442345619202 0.6434134840965271 -0.10482551902532578
0.5581331849098206 0.6433868408203125 -0.07760338485240936
0.526479184627533 0.6292492151260376 -0.12221381068229675
0.566045343875885 0.4453832507133484 -0.042259857058525085
0.6055949330329895 0.42970341444015503 -0.04963994398713112
0.6406046152114868 0.42624983191490173 -0.049805235117673874
0.670637845993042 0.4304795265197754 -0.041494373232126236
0.6923490166664124 0.4413507580757141 -0.02748938836157322
0.710064709186554 0.4829292595386505 0.012021797709167004
0.7936941385269165 0.5378586649894714 0.12409330159425735
0.6899410486221313 0.5171858072280884 -4.972257374902256e-05
0.6622359156608582 0.5254837274551392 -0.010569569654762745
0.6272956728935242 0.5270927548408508 -0.017160726711153984
0.595276415348053 0.5230875015258789 -0.02073623239994049
0.571647047996521 0.5164670348167419 -0.01985783874988556
0.5555045008659363 0.5095561742782593 -0.02203328162431717
0.7997370362281799 0.5307266116142273 0.21190209686756134
0.5592758655548096 0.6465473175048828 -0.06463652104139328
0.5259687900543213 0.5754175782203674 -0.09579138457775116
0.5195083022117615 0.6480917930603027 -0.12058611959218979
0.5075340270996094 0.6582462787628174 -0.10722561180591583
0.5208609700202942 0.6504995822906494 -0.10856079310178757
0.5544036030769348 0.6520106196403503 -0.05390458554029465
0.5024518370628357 0.6615351438522339 -0.11280959099531174
0.5016587972640991 0.6641378402709961 -0.08289549499750137
0.5562893748283386 0.49065154790878296 -0.01570511981844902
0.542940616607666 0.49638569355010986 -0.026902657002210617
0.5343049764633179 0.5018724203109741 -0.04118946194648743
0.6758508682250977 0.4766786992549896 -0.012811978347599506
0.689630925655365 0.4644699692726135 -0.012995453551411629
