ply
format ascii 1.0
element vertex 468
property float x
property float y
property float z
end_header
0.4905487298965454 0.7224713563919067 -0.05570045858621597
0.47437065839767456 0.6492417454719543 -0.13637623190879822
0.4842164218425751 0.6708304286003113 -0.06877786666154861
0.45915085077285767 0.5617582201957703 -0.10806260257959366
0.47286298871040344 0.623100221157074 -0.14738748967647552
0.47438958287239075 0.5876790285110474 -0.14089767634868622
0.48245376348495483 0.4994841516017914 -0.08419791609048843
0.33193838596343994 0.4776175618171692 0.04248243570327759
0.48394355177879333 0.437639057636261 -0.07309359312057495
0.4826759099960327 0.4038516879081726 -0.08228248357772827
0.4860217273235321 0.26868054270744324 -0.07391996681690216
0.49194175004959106 0.7337346076965332 -0.051382649689912796
0.49399885535240173 0.7395405769348145 -0.043722208589315414
0.4960954487323761 0.7389944195747375 -0.03313073143362999
0.497212678194046 0.7785171866416931 -0.020108534023165703
0.4968872666358948 0.788261353969574 -0.023534800857305527
0.4970236122608185 0.7997794151306152 -0.02753910981118679
0.4976888597011566 0.813075065612793 -0.022062385454773903
0.49972838163375854 0.8358793258666992 0.0022383201867341995
0.4770238399505615 0.6616867184638977 -0.12244513630867004
0.46106889843940735 0.6570932865142822 -0.08504949510097504
0.2618769407272339 0.3845650553703308 0.15629810094833374
0.400479793548584 0.5044429898262024 0.01071222871541977
0.37700334191322327 0.5049077272415161 0.015678677707910538
0.3543807864189148 0.5032215714454651 0.02507713995873928
0.3244078755378723 0.4871528148651123 0.04884512722492218
0.4189568758010864 0.5000180006027222 0.008286912925541401
0.36489444971084595 0.4402274489402771 0.0018186389934271574
0.3907827138900757 0.44341909885406494 -0.0034029793459922075
0.3417491614818573 0.44338715076446533 0.013159533031284809
0.3271709680557251 0.45189470052719116 0.025322750210762024
0.3062397241592407 0.5055526494979858 0.06523388624191284
0.4123985171318054 0.8640395998954773 0.05440876632928848
0.32347923517227173 0.4709482491016388 0.05101664364337921
0.2514633536338806 0.49452871084213257 0.18349167704582214
0.2839289605617523 0.49057334661483765 0.09088874608278275
0.3708564341068268 0.6128999590873718 -0.001982457470148802
0.4556647837162018 0.7173629403114319 -0.048211969435214996
0.4617464542388916 0.7370399236679077 -0.03458312526345253
0.4228641986846924 0.7176281809806824 -0.02517399750649929
0.4028848111629486 0.7198434472084045 0.005173207260668278
0.4376624822616577 0.7340817451477051 -0.016456207260489464
0.41936296224594116 0.7316687107086182 0.010780842043459415
0.3823860287666321 0.7604957222938538 0.06353752315044403
0.4563932418823242 0.6478707194328308 -0.13174507021903992
0.4525098502635956 0.6228695511817932 -0.14154760539531708
0.2944868803024292 0.43106651306152344 0.03126218914985657
0.42253950238227844 0.5511708855628967 -0.018601806834340096
0.4126615524291992 0.6325199604034424 -0.06287457048892975
0.4127652049064636 0.6179164052009583 -0.056006141006946564
0.300659716129303 0.6036336421966553 0.04099544510245323
0.4551076889038086 0.5899955034255981 -0.12941794097423553
0.3431740403175354 0.4085399806499481 -0.023609133437275887
0.3137845993041992 0.4143672585487366 0.001250258763320744
0.27980849146842957 0.3412349820137024 0.09846296906471252
0.4381923973560333 0.43320807814598083 -0.05847135931253433
0.4126841425895691 0.4530128240585327 0.0011537970276549459
0.36194658279418945 0.7283380031585693 0.06622486561536789
0.28624382615089417 0.7330111861228943 0.27715322375297546
0.4298759996891022 0.6468773484230042 -0.054245490580797195
0.4483676552772522 0.656845211982727 -0.059696704149246216
0.37901079654693604 0.7276133894920349 0.064837746322155
0.39087003469467163 0.7298880219459534 0.05711744353175163
0.30259236693382263 0.3979492783546448 0.012250991538167
0.4132511615753174 0.6410709023475647 -0.04804198443889618
0.3835532069206238 0.41344183683395386 -0.044141847640275955
0.3780573308467865 0.3927789330482483 -0.05227990075945854
0.35809993743896484 0.2836286425590515 -0.01808510534465313
0.2910655736923218 0.3691467344760895 0.049737878143787384
0.369451642036438 0.33615919947624207 -0.037175048142671585
0.28238120675086975 0.4196525812149048 0.05241221934556961
0.27173420786857605 0.40372735261917114 0.10169298201799393
0.4579503536224365 0.7301867008209229 -0.04316624253988266
0.43081116676330566 0.7281535267829895 -0.02074284665286541
0.4109100103378296 0.7259985208511353 0.006292605772614479
0.4354126751422882 0.6513320803642273 -0.05054723843932152
0.384376585483551 0.728430986404419 0.06050468236207962
0.3979726731777191 0.748267412185669 0.04585928097367287
0.39572131633758545 0.7306221127510071 0.05578198656439781
0.4381551146507263 0.6431558132171631 -0.09134425222873688
0.42465507984161377 0.729011595249176 0.013604206033051014
0.4434914290904999 0.7325772643089294 -0.007058846764266491
0.46645304560661316 0.7366999983787537 -0.02393522299826145
0.462125301361084 0.8327018618583679 0.010065591894090176
0.4620382487773895 0.8082514405250549 -0.013179230503737926
0.46252232789993286 0.7945566177368164 -0.01728827692568302
0.4640287756919861 0.7836490273475647 -0.013165452517569065
0.4669222831726074 0.7755829095840454 -0.010253101587295532
0.4233078956604004 0.7581566572189331 0.02503187209367752
0.41891413927078247 0.7603651285171509 0.02208540216088295
0.4135068356990814 0.7654256224632263 0.02119990438222885
0.40987110137939453 0.7727112174034119 0.028153112158179283
0.3851374387741089 0.6977861523628235 0.010561686009168625
0.2630418539047241 0.604499340057373 0.29809093475341797
0.4802037477493286 0.6657330989837646 -0.08825215697288513
0.4110686182975769 0.7486697435379028 0.04524578899145126
0.40388596057891846 0.7476019263267517 0.04375060275197029
0.4558994770050049 0.6689260005950928 -0.057848114520311356
0.420611709356308 0.655239462852478 -0.029452012851834297
0.45227164030075073 0.6632119417190552 -0.0601470060646534
0.39862361550331116 0.5630799531936646 -0.004454315174371004
0.3575904965400696 0.5773110389709473 0.00888423714786768
0.4099428951740265 0.6271756291389465 -0.04012984409928322
0.3093015253543854 0.30674871802330017 0.038046807050704956
0.32174041867256165 0.34533241391181946 0.00440811924636364
0.33498966693878174 0.3882286548614502 -0.021136363968253136
0.4021035432815552 0.7895384430885315 0.04870583862066269
0.42848777770996094 0.40015697479248047 -0.07128392159938812
0.42138636112213135 0.334171861410141 -0.0644109919667244
0.41478288173675537 0.2722632586956024 -0.05576758086681366
0.33500903844833374 0.4973563849925995 0.03806694969534874
0.2816767692565918 0.5240718722343445 0.0842384472489357
0.4302472174167633 0.49461692571640015 0.009172823280096054
0.30551111698150635 0.46086710691452026 0.04940376430749893
0.4374432861804962 0.536685049533844 -0.03195025026798248
0.42348960041999817 0.6267983317375183 -0.09065762907266617
0.25982269644737244 0.5412538051605225 0.11847861111164093
0.29488611221313477 0.5404875874519348 0.06246413290500641
0.3227124810218811 0.5502688884735107 0.036755360662937164
0.36733949184417725 0.5486626625061035 0.018222277984023094
0.4011697769165039 0.5407110452651978 0.006995403207838535
0.4242982268333435 0.5308761596679688 -0.005793594289571047
0.4626375734806061 0.5060106515884399 -0.06958886981010437
0.2569984197616577 0.5927080512046814 0.11811065673828125
0.28839823603630066 0.45864903926849365 0.06267590820789337
0.4664206802845001 0.6601553559303284 -0.11922215670347214
0.42217373847961426 0.5773845911026001 -0.027289066463708878
0.2531464695930481 0.4901646077632904 0.2646045982837677
0.44033199548721313 0.5190100073814392 -0.014374910853803158
0.4089962840080261 0.6266447901725769 -0.013875721022486687
0.3175658583641052 0.4737502634525299 0.05723421648144722
0.42459753155708313 0.6090444326400757 -0.0824861228466034
0.27059677243232727 0.6670767068862915 0.29366979002952576
0.4299167990684509 0.48484861850738525 0.014804662205278873
0.4389726519584656 0.5973218679428101 -0.11079958826303482
0.3226684331893921 0.794692873954773 0.1531791090965271
0.3340681195259094 0.8250464797019958 0.19695226848125458
0.24807536602020264 0.6013489961624146 0.20999377965927124
0.2923352122306824 0.7606131434440613 0.17996999621391296
0.2608460485935211 0.44514453411102295 0.14940087497234344
0.41324543952941895 0.8890674114227295 0.07034231722354889
0.47186970710754395 0.6644521355628967 -0.08543003350496292
0.4017525911331177 0.5934213995933533 -0.013565738685429096
0.2668188214302063 0.49563273787498474 0.11910810321569443
0.35560205578804016 0.4869634211063385 0.025598108768463135
0.37609535455703735 0.4900345504283905 0.01719181053340435
0.3928477168083191 0.7505819797515869 0.05141644924879074
0.25942927598953247 0.6449072957038879 0.13237124681472778
0.4576790928840637 0.9254528880119324 0.07083206623792648
0.39501315355300903 0.885100245475769 0.12995266914367676
0.3681764006614685 0.8595483899116516 0.16088224947452545
0.48379895091056824 0.333984911441803 -0.0797494575381279
0.5046314597129822 0.9333552122116089 0.05605695769190788
0.3958381116390228 0.4898831248283386 0.012976187281310558
0.4141801595687866 0.48756349086761475 0.013273123651742935
0.4254210591316223 0.48648494482040405 0.015727246180176735
0.274015873670578 0.45307403802871704 0.08911164104938507
0.40949976444244385 0.46301716566085815 0.008850784040987492
0.38958901166915894 0.4529465436935425 0.006949747912585735
0.3681328594684601 0.44976919889450073 0.010876367799937725
0.3471572995185852 0.4535214304924011 0.019918272271752357
0.33469924330711365 0.46093955636024475 0.03010634332895279
0.2529527246952057 0.43128150701522827 0.21557894349098206
0.3415602743625641 0.48262906074523926 0.03486265242099762
0.4870340824127197 0.6878793239593506 -0.05815920978784561
0.4078749418258667 0.6881447434425354 -0.015436157584190369
0.4284289479255676 0.6443666219711304 -0.06553997844457626
0.4532577395439148 0.6878056526184082 -0.04982272535562515
0.4849606156349182 0.4665241241455078 -0.06930471211671829
0.3561675548553467 0.8294917345046997 0.13125337660312653
0.3845416307449341 0.8585522174835205 0.10304543375968933
0.45191144943237305 0.9111687541007996 0.04018868878483772
0.308188796043396 0.7863086462020874 0.239756777882576
0.42332297563552856 0.4764617681503296 0.012258261442184448
0.44721901416778564 0.5475772619247437 -0.06929939985275269
0.5014286637306213 0.9181156158447266 0.02655382826924324
0.42276105284690857 0.9084292054176331 0.09641440957784653
0.2547110617160797 0.658708393573761 0.212083101272583
0.44262149930000305 0.7680236101150513 0.006156567018479109
0.4383534789085388 0.7733810544013977 0.0034482008777558804
0.4349696934223175 0.7819356918334961 0.0025703352876007557
0.432916522026062 0.7941333055496216 0.00866633839905262
0.4275304675102234 0.8148871660232544 0.029219452291727066
0.4016055762767792 0.7285102009773254 0.03599607199430466
0.3937534689903259 0.7252057790756226 0.03773226588964462
0.3870505690574646 0.7210974097251892 0.037416551262140274
0.3673244118690491 0.7099008560180664 0.040029216557741165
0.28304523229599 0.6593586206436157 0.07896400988101959
0.45070263743400574 0.5200290083885193 -0.04908185452222824
0.44418418407440186 0.4699077308177948 -0.009277364239096642
0.4321132302284241 0.47173506021499634 0.004253349732607603
0.4085239768028259 0.7263401746749878 0.03748835623264313
0.2895757555961609 0.7215865254402161 0.12735587358474731
0.45877042412757874 0.4704614579677582 -0.046115949749946594
0.41958731412887573 0.8376247882843018 0.04295949637889862
0.477169394493103 0.5581106543540955 -0.12059533596038818
0.46049705147743225 0.5357341170310974 -0.09162931889295578
0.47973912954330444 0.5304048657417297 -0.10135728120803833
0.43252232670783997 0.5863670110702515 -0.06318606436252594
0.4998316168785095 0.8934535980224609 0.010905059985816479
0.49964797496795654 0.8618263006210327 0.006716083735227585
0.4567006230354309 0.8578221797943115 0.01909436658024788
0.36892956495285034 0.7735596299171448 0.07824555039405823
0.3898690342903137 0.6460998058319092 0.00012522615725174546
0.3926893472671509 0.8089982271194458 0.06385627388954163
0.3308119475841522 0.6409751772880554 0.018326887860894203
0.3657510280609131 0.6693406105041504 0.0175453033298254
0.3137301802635193 0.6785960793495178 0.051067423075437546
0.4510553777217865 0.8879356384277344 0.025153635069727898
0.42174458503723145 0.5978261232376099 -0.04129499942064285
0.35608944296836853 0.7976009249687195 0.10204952955245972
0.3852264881134033 0.8313959836959839 0.08217170089483261
0.3463297486305237 0.7372482419013977 0.07648113369941711
0.26877593994140625 0.6897737979888916 0.1466529667377472
0.3205568194389343 0.7475050687789917 0.10009268671274185
0.2687082290649414 0.7123165130615234 0.20830810070037842
0.3470706343650818 0.6943933963775635 0.04136422649025917
0.4355996549129486 0.5625135898590088 -0.04675090312957764
0.4304382801055908 0.6389167904853821 -0.09631133824586868
0.4192327558994293 0.6415748596191406 -0.06655841320753098
0.4365217089653015 0.6241558790206909 -0.11681188642978668
0.42583584785461426 0.44943833351135254 -0.015262783505022526
0.3887518644332886 0.4345102906227112 -0.015596237033605576
0.3562012016773224 0.43031564354896545 -0.00863613374531269
0.32990187406539917 0.4331745505332947 0.006317358464002609
0.3130165934562683 0.4428125321865082 0.02508016861975193
0.3036271929740906 0.48251667618751526 0.06976699084043503
0.2473144829273224 0.5473247766494751 0.19941914081573486
0.3181414008140564 0.5158202648162842 0.05240770801901817
0.34187716245651245 0.5242012739181519 0.03476964682340622
0.37299489974975586 0.525334358215332 0.0204350296407938
0.4021228551864624 0.5213027000427246 0.011468383483588696
0.42337968945503235 0.5146178007125854 0.004357766360044479
0.4371047616004944 0.5076196193695068 -0.0005504162982106209
0.25874823331832886 0.5465701818466187 0.2900978624820709
0.4209953844547272 0.6463174819946289 -0.05365918204188347
0.4443589448928833 0.5719892382621765 -0.0864495038986206
0.44302257895469666 0.6426383256912231 -0.11789891123771667
0.45775270462036133 0.6544287204742432 -0.10824179649353027
0.445295512676239 0.6455426216125488 -0.1053353101015091
0.42699483036994934 0.6531773209571838 -0.045368850231170654
0.46037763357162476 0.6577782034873962 -0.11528283357620239
0.4655604958534241 0.6617841720581055 -0.08502668142318726
0.4370896518230438 0.4877631664276123 0.008586246520280838
0.4477074146270752 0.4948136806488037 -0.00844191201031208
0.4519861340522766 0.5004787445068359 -0.027195634320378304
0.327964186668396 0.466621994972229 0.03929951414465904
0.3175095021724701 0.4610774517059326 0.04134010523557663
0.4973480701446533 0.5616747736930847 -0.11560148000717163
0.6676397919654846 0.4816150665283203 -0.013158653862774372
0.5015153288841248 0.6577805280685425 -0.09082513302564621
0.786693274974823 0.38064026832580566 0.07053237408399582
0.5929820537567139 0.5063140392303467 -0.025507979094982147
0.6184941530227661 0.506985068321228 -0.027344634756445885
0.6438166499137878 0.5052337646484375 -0.024813245981931686
0.6802226901054382 0.49089375138282776 -0.010140612721443176
0.5716778635978699 0.5017050504684448 -0.019667288288474083
0.6270243525505066 0.44054287672042847 -0.04383228346705437
0.5993764400482178 0.44283294677734375 -0.03916550427675247
0.6528507471084595 0.44479331374168396 -0.03946623578667641
0.6711965203285217 0.45409727096557617 -0.03147556632757187
0.7041997313499451 0.5071040391921997 0.0019846369978040457
0.5976534485816956 0.8696946501731873 0.028213217854499817
0.6789137721061707 0.4754207134246826 -0.007055059541016817
0.7989212870597839 0.49460849165916443 0.09731508046388626
0.7366067171096802 0.49164408445358276 0.020149758085608482
0.6196854710578918 0.6130209565162659 -0.03921288624405861
0.5280548334121704 0.7173705697059631 -0.05834028497338295
0.5302249789237976 0.7372266054153442 -0.04412085935473442
0.5694539546966553 0.7180923223495483 -0.04558628052473068
0.5997709631919861 0.7198852896690369 -0.02278713323175907
0.5604919791221619 0.7344637513160706 -0.03497879579663277
0.5864186882972717 0.7313047051429749 -0.013742049224674702
0.6356067657470703 0.7620229721069336 0.028175026178359985
0.4940771460533142 0.6483146548271179 -0.1366499811410904
0.4953298568725586 0.6228848099708557 -0.1473504900932312
0.7112739682197571 0.4311894178390503 -0.03562260419130325
0.5618181228637695 0.551231861114502 -0.0427570603787899
0.5583298206329346 0.6327771544456482 -0.08509082347154617
0.5608950257301331 0.6178597211837769 -0.07897939532995224
0.7044727802276611 0.6046281456947327 -0.019312463700771332
0.49584075808525085 0.5899251699447632 -0.136763334274292
0.6419341564178467 0.4058271646499634 -0.0693608894944191
0.6810768842697144 0.4132925271987915 -0.05661704018712044
0.7508008480072021 0.33548909425735474 0.021568061783909798
0.5329881906509399 0.4315853714942932 -0.07316011935472488
0.5765156149864197 0.45248284935951233 -0.027833493426442146
0.6560653448104858 0.7287555932998657 0.023511352017521858
0.7862663269042969 0.7415423393249512 0.19881844520568848
0.5422782301902771 0.6475515961647034 -0.07110277563333511
0.5223059058189392 0.657017707824707 -0.06812989711761475
0.6399956941604614 0.7271250486373901 0.027515672147274017
0.6283517479896545 0.7290774583816528 0.02381253056228161
0.697404682636261 0.39575210213661194 -0.049750469624996185
0.5632756352424622 0.6411228179931641 -0.06966683268547058
0.5925374627113342 0.41048142313957214 -0.07579369097948074
0.5965296030044556 0.389070987701416 -0.08469393849372864
0.6310611367225647 0.2778247594833374 -0.061856459826231
0.7227373719215393 0.3651517927646637 -0.019293010234832764
0.6102826595306396 0.3314538598060608 -0.07476502656936646
0.730928361415863 0.41881370544433594 -0.019276296719908714
0.7582497000694275 0.40171313285827637 0.023757731541991234
0.529482364654541 0.7305521368980408 -0.05338992550969124
0.5641127824783325 0.7283952236175537 -0.04033787548542023
0.5926929712295532 0.7259196043014526 -0.019720621407032013
0.5376632809638977 0.6518622636795044 -0.06398497521877289
0.6345635056495667 0.7276549339294434 0.02567254565656185
0.6174821853637695 0.7482419610023499 0.016407450661063194
0.6243699193000793 0.7300853133201599 0.023493623360991478
0.5235833525657654 0.6443143486976624 -0.10640514642000198
0.5835875272750854 0.7282383441925049 -0.009836281649768353
0.5580011010169983 0.7325926423072815 -0.024600397795438766
0.5297945141792297 0.7366651892662048 -0.03389124199748039
0.5403504371643066 0.833992600440979 0.0005911702755838633
0.5369059443473816 0.8092628717422485 -0.02370147965848446
0.5349553227424622 0.7955679297447205 -0.028321364894509315
0.5330196619033813 0.784619152545929 -0.024089265614748
0.5308992862701416 0.7763831615447998 -0.020714180544018745
0.5870039463043213 0.7584940195083618 0.0018925790209323168
0.5909634828567505 0.7608727812767029 -0.0010792469838634133
0.5963643193244934 0.766282320022583 -0.002446927595883608
0.6008330583572388 0.7736937403678894 0.0031657537911087275
0.6124140024185181 0.697652280330658 -0.02069276198744774
0.8147594928741455 0.6086398363113403 0.21088320016860962
0.6043612957000732 0.7484917044639587 0.016929706558585167
0.6111549735069275 0.7473781704902649 0.015271536074578762
0.5154566168785095 0.6688537001609802 -0.06608333438634872
0.5595279335975647 0.6549485921859741 -0.04678335413336754
0.5184915065765381 0.6632534861564636 -0.06816831231117249
0.5901505351066589 0.5631422996520996 -0.03667681664228439
0.6359028816223145 0.5774489641189575 -0.03450719267129898
0.5686694979667664 0.6269397735595703 -0.06388960033655167
0.7005631923675537 0.2999693751335144 -0.024823905900120735
0.6752721071243286 0.34022679924964905 -0.05066604167222977
0.6513847708702087 0.38449764251708984 -0.07008550316095352
0.6108105778694153 0.7918861508369446 0.019349677488207817
0.5391446352005005 0.39768707752227783 -0.0872810110449791
0.5494065284729004 0.33159077167510986 -0.08389036357402802
0.562287449836731 0.26887837052345276 -0.07768622785806656
0.6667516827583313 0.5000981688499451 -0.017784621566534042
0.7356564998626709 0.5248704552650452 0.014098316431045532
0.5581308603286743 0.49655789136886597 -0.015890007838606834
0.7017637491226196 0.46271827816963196 -0.01484029833227396
0.5425507426261902 0.5367981195449829 -0.051110781729221344
0.5386744737625122 0.6274223923683167 -0.10851958394050598
0.7689659595489502 0.5425260066986084 0.039217155426740646
0.715120255947113 0.5412300229072571 -0.0033982424065470695
0.6792920827865601 0.5504297614097595 -0.01971341297030449
0.62799471616745 0.5490353107452393 -0.0248765517026186
0.5901203155517578 0.54109787940979 -0.02584000676870346
0.563433825969696 0.5313903093338013 -0.03053181618452072
0.505814254283905 0.5058242082595825 -0.07759314030408859
0.769406795501709 0.5950551629066467 0.0393289215862751
0.7260617017745972 0.4591755270957947 -0.007928198203444481
0.48867470026016235 0.6606143116950989 -0.12288393080234528
0.5588749051094055 0.5772451758384705 -0.05070098862051964
0.819098949432373 0.4897254705429077 0.17355434596538544
0.5433608293533325 0.5193312764167786 -0.03343270719051361
0.5753058195114136 0.6262147426605225 -0.03737657144665718
0.6881721019744873 0.4775920510292053 -0.003478085622191429
0.5413397550582886 0.6091358065605164 -0.10090473294258118
0.8061259388923645 0.674022376537323 0.21014404296875
0.5596385598182678 0.4871039092540741 -0.01126688253134489
0.5184171795845032 0.5974653363227844 -0.12389715760946274
0.7158684730529785 0.8035005331039429 0.0945436879992485
0.7167912125587463 0.8355083465576172 0.13745972514152527
0.8033708333969116 0.6051967144012451 0.12442287802696228
0.7542864680290222 0.7688250541687012 0.11093435436487198
0.7805317640304565 0.4438769817352295 0.06636369228363037
0.5999484658241272 0.8957970142364502 0.04246709123253822
0.48894548416137695 0.6646139025688171 -0.08781583607196808
0.5846421718597412 0.5931153893470764 -0.042300451546907425
0.763640284538269 0.49622291326522827 0.041114360094070435
0.6393393278121948 0.48995018005371094 -0.0229348074644804
0.6170822978019714 0.4926033020019531 -0.025789018720388412
0.6236485838890076 0.7507337927818298 0.019989756867289543
0.7712308168411255 0.648885190486908 0.05590827018022537
0.5543221831321716 0.9296903610229492 0.05518563091754913
0.6333857774734497 0.8942580223083496 0.09144358336925507
0.6707900762557983 0.8701833486557007 0.11242827773094177
0.5962827205657959 0.49211668968200684 -0.02382436767220497
0.5764845013618469 0.4895932078361511 -0.018260449171066284
0.5645017027854919 0.4887291193008423 -0.012572075240314007
0.7496983408927917 0.4528164565563202 0.013029868714511395
0.5825092792510986 0.4646071493625641 -0.024229591712355614
0.6046221256256104 0.4546900987625122 -0.031338151544332504
0.6262595653533936 0.45250403881073 -0.03382091969251633
0.6485477089881897 0.4570566415786743 -0.030547654256224632
0.6629782319068909 0.4649561643600464 -0.02394115924835205
0.808355987071991 0.42896929383277893 0.12621119618415833
0.655589759349823 0.4860764741897583 -0.017875364050269127
0.5798463821411133 0.6878972053527832 -0.039407625794410706
0.5408187508583069 0.6452900171279907 -0.08103207498788834
0.5242143869400024 0.6878249645233154 -0.05996178463101387
0.6746684908866882 0.838675856590271 0.08341065794229507
0.6381250619888306 0.8670570254325867 0.06510072946548462
0.5536850094795227 0.9152069091796875 0.024682551622390747
0.7544012069702148 0.7958128452301025 0.16928677260875702
0.5664739012718201 0.4787648916244507 -0.017032427713274956
0.520862340927124 0.5476254224777222 -0.08219189941883087
0.595660388469696 0.9154430627822876 0.06797736138105392
0.7984914779663086 0.6645553708076477 0.12992487847805023
0.5606468915939331 0.7690212726593018 -0.011692309752106667
0.5648372173309326 0.7743499875068665 -0.014856589026749134
0.5683399438858032 0.7832209467887878 -0.01647184230387211
0.5712600946426392 0.7955294847488403 -0.010999344289302826
0.5798816084861755 0.8171663284301758 0.007531797979027033
0.6125363111495972 0.7280094623565674 0.005779604893177748
0.6192518472671509 0.72477787733078 0.004969766363501549
0.6254628300666809 0.720672607421875 0.0032676546834409237
0.6414198875427246 0.7097852230072021 0.0008636616985313594
0.7342836856842041 0.662389874458313 0.01281649898737669
0.5234792232513428 0.5200902223587036 -0.0626685842871666
0.5393431782722473 0.4699271321296692 -0.026310699060559273
0.5554834604263306 0.47245460748672485 -0.019968118518590927
0.6069833636283875 0.7255898118019104 0.008469454012811184
0.7421026229858398 0.7270730137825012 0.06136283650994301
0.516754150390625 0.4700149893760681 -0.05643920227885246
0.5897459387779236 0.841533899307251 0.019593069329857826
0.5016162395477295 0.5355920195579529 -0.09866690635681152
0.538458526134491 0.586224377155304 -0.0800667256116867
0.5461945533752441 0.8601890802383423 0.007709369994699955
0.6499403715133667 0.777299165725708 0.0374104268848896
0.6005368232727051 0.6458409428596497 -0.030278289690613747
0.6225804686546326 0.8132803440093994 0.0316104032099247
0.6683163046836853 0.6420241594314575 -0.029482970014214516
0.6323084831237793 0.6698294281959534 -0.020383361726999283
0.6966096758842468 0.6809718012809753 -0.003411541460081935
0.5515868663787842 0.8911082744598389 0.010581817477941513
0.5562759637832642 0.597497284412384 -0.06255414336919785
0.6676290035247803 0.8041509985923767 0.05618525668978691
0.6328487992286682 0.8380630612373352 0.04691934585571289
0.6721928119659424 0.739668071269989 0.02733450010418892
0.7674775123596191 0.6950696706771851 0.07314208894968033
0.7044473886489868 0.7526540756225586 0.043800726532936096
0.7843294739723206 0.7195919752120972 0.1298999786376953
0.6618462204933167 0.6950424313545227 -0.004150469321757555
0.5392807126045227 0.5624640583992004 -0.06508494168519974
0.5308459401130676 0.6399990916252136 -0.11240839213132858
0.5508670210838318 0.6422762274742126 -0.08527246862649918
0.5175616145133972 0.6246795654296875 -0.13039086759090424
0.5567112565040588 0.4489086866378784 -0.03884005919098854
0.5955571532249451 0.43357396125793457 -0.04966815561056137
0.6314374208450317 0.4297199547290802 -0.052907221019268036
0.6629135012626648 0.43352916836738586 -0.04736832156777382
0.6867520809173584 0.44415444135665894 -0.03525763005018234
0.7087158560752869 0.4847848117351532 0.004873219877481461
0.8039548397064209 0.5491957068443298 0.1116727888584137
0.687706708908081 0.5173772573471069 -0.007259951438754797
0.6591841578483582 0.5251878499984741 -0.01723991148173809
0.6236580610275269 0.5264114141464233 -0.022398661822080612
0.5909885764122009 0.5224063992500305 -0.022425351664423943
0.5667165517807007 0.5157478451728821 -0.020953265950083733
0.5502132177352905 0.5085310339927673 -0.021256135776638985
0.8183732628822327 0.5482250452041626 0.19978603720664978
0.5529881119728088 0.6466735005378723 -0.07200125604867935
0.5181905031204224 0.5720512866973877 -0.09966272115707397
0.5114040970802307 0.6436419486999512 -0.1281871646642685
0.5009994506835938 0.6552959084510803 -0.1141720563173294
0.513156533241272 0.646814227104187 -0.11576546728610992
0.5491802096366882 0.6533516049385071 -0.060994554311037064
0.49609285593032837 0.6584364175796509 -0.11993531137704849
0.4963977634906769 0.6622905135154724 -0.08929908275604248
0.5504100322723389 0.48944395780563354 -0.012984129600226879
0.5371500849723816 0.4954976737499237 -0.024472428485751152
0.5284488797187805 0.5005363821983337 -0.04053259640932083
0.6717756390571594 0.47086313366889954 -0.016848141327500343
0.6855427026748657 0.46402081847190857 -0.01831221394240856
