ply
format ascii 1.0
element vertex 468
property float x
property float y
property float z
end_header
0.49796217679977417 0.7189708948135376 -0.06443105638027191
0.49377596378326416 0.639056921005249 -0.12350273132324219
0.4970482885837555 0.6625905632972717 -0.06349128484725952
0.4769274592399597 0.5540776252746582 -0.09284569323062897
0.4931929409503937 0.6130349040031433 -0.131942018866539
0.49426159262657166 0.5785316228866577 -0.12333664298057556
0.4986269772052765 0.49488237500190735 -0.06333663314580917
0.3423274755477905 0.48124098777770996 0.039682600647211075
0.4997059106826782 0.43227076530456543 -0.04888378456234932
0.4992848038673401 0.39880454540252686 -0.054940856993198395
0.4996102452278137 0.2673252522945404 -0.03189283236861229
0.4982365667819977 0.7315216064453125 -0.0614064522087574
0.49906641244888306 0.7415128946304321 -0.05331319198012352
0.5001550912857056 0.7458750009536743 -0.04294078052043915
0.5001847147941589 0.7594588398933411 -0.03929996117949486
0.4999861717224121 0.771269679069519 -0.042569804936647415
0.5001499652862549 0.7856941223144531 -0.04631369933485985
0.500916600227356 0.7999722957611084 -0.04146594926714897
0.5033323168754578 0.8170632123947144 -0.016362031921744347
0.49466198682785034 0.6515153050422668 -0.11137637495994568
0.4763895571231842 0.6494919061660767 -0.07810096442699432
0.2750900685787201 0.38204512000083923 0.15107332170009613
0.40757736563682556 0.5046722292900085 0.012265929020941257
0.38520288467407227 0.5064984560012817 0.015083122067153454
0.36370205879211426 0.5055813789367676 0.0226305965334177
0.33514800667762756 0.4903635084629059 0.04357761889696121
0.4261268377304077 0.49888673424720764 0.01289775688201189
0.3765797019004822 0.4398602247238159 0.005178380757570267
0.4016300439834595 0.4421577453613281 0.0029293533880263567
0.35373806953430176 0.443205863237381 0.013769867829978466
0.3388226628303528 0.451720654964447 0.02401718869805336
0.3179866373538971 0.5079025030136108 0.05620941147208214
0.4247506558895111 0.8438280820846558 0.01629805378615856
0.33440351486206055 0.474409818649292 0.04753844067454338
0.2631186544895172 0.491789847612381 0.16299200057983398
0.2955957055091858 0.49059221148490906 0.08043470233678818
0.3896629214286804 0.6128978729248047 -0.008548207581043243
0.47125792503356934 0.7146539092063904 -0.05959194526076317
0.47658202052116394 0.7410597801208496 -0.048481397330760956
0.44508686661720276 0.7222475409507751 -0.044265300035476685
0.4289991855621338 0.7319297790527344 -0.025960350409150124
0.45807671546936035 0.74232417345047 -0.038143180310726166
0.44384413957595825 0.7446514368057251 -0.020967399701476097
0.4036005735397339 0.7699563503265381 0.013426190242171288
0.47578856348991394 0.6383225917816162 -0.12051189690828323
0.4722389578819275 0.6133940815925598 -0.1280944049358368
0.30799809098243713 0.4298020899295807 0.03158889710903168
0.43439793586730957 0.5491554141044617 -0.015534253790974617
0.42965543270111084 0.6299739480018616 -0.059802960604429245
0.4285696744918823 0.6159101724624634 -0.05293074995279312
0.3243969678878784 0.6092883348464966 0.024545161053538322
0.47401636838912964 0.5812404155731201 -0.11466006934642792
0.3584102392196655 0.40681493282318115 -0.01386180892586708
0.3281843662261963 0.41334521770477295 0.006621898617595434
0.2931353449821472 0.3388415575027466 0.10289226472377777
0.4532942771911621 0.4283146262168884 -0.0387616902589798
0.4228309690952301 0.45111003518104553 0.008638047613203526
0.38726070523262024 0.7454407215118408 0.018574273213744164
0.2948209345340729 0.7204322814941406 0.2290218472480774
0.4461863934993744 0.6441290974617004 -0.05133151262998581
0.46399036049842834 0.6518142819404602 -0.05556260049343109
0.4108198285102844 0.7476918697357178 0.014596361666917801
0.4219434857368469 0.7468945980072021 0.007402364630252123
0.3177991211414337 0.3969048261642456 0.01821444183588028
0.4304119348526001 0.6404948234558105 -0.04683626815676689
0.39894017577171326 0.41020315885543823 -0.029360929504036903
0.3948875665664673 0.3898169994354248 -0.03469913825392723
0.3732007145881653 0.28166860342025757 0.0063272081315517426
0.3059243857860565 0.36699897050857544 0.05434660613536835
0.3864697813987732 0.3340860605239868 -0.01618722267448902
0.2962825298309326 0.4181414842605591 0.05232992395758629
0.2853671908378601 0.40104973316192627 0.09833443909883499
0.47325998544692993 0.7296668887138367 -0.05676782503724098
0.45199090242385864 0.7342609167098999 -0.04222826659679413
0.43607595562934875 0.7385466694831848 -0.025529714301228523
0.4522101879119873 0.6485442519187927 -0.047670457512140274
0.41644224524497986 0.747764527797699 0.010480914264917374
0.42440009117126465 0.7546428442001343 -0.0035137843806296587
0.4249982535839081 0.7451727390289307 0.006429366767406464
0.4547511637210846 0.6368727684020996 -0.0845019668340683
0.44926631450653076 0.7433601021766663 -0.017648736014962196
0.4636305868625641 0.7439068555831909 -0.02911727875471115
0.48053038120269775 0.7448774576187134 -0.03864661231637001
0.47349444031715393 0.8161351084709167 -0.014350507408380508
0.4724905788898468 0.7972447276115417 -0.038271453231573105
0.4733075201511383 0.7822296023368835 -0.04220058396458626
0.4753307104110718 0.7678337693214417 -0.03809987008571625
0.4779379963874817 0.7580950260162354 -0.03486032783985138
0.4445713460445404 0.7526090145111084 -0.014486712403595448
0.4407165050506592 0.7561041712760925 -0.017953166738152504
0.43486350774765015 0.7629910111427307 -0.020401155576109886
0.43026238679885864 0.7713796496391296 -0.01556350290775299
0.4099297523498535 0.7034412622451782 -0.01792948879301548
0.2702302932739258 0.5969663858413696 0.2610335648059845
0.49586501717567444 0.6559332013130188 -0.08015117049217224
0.43570610880851746 0.750106155872345 -0.0020617078989744186
0.43024563789367676 0.7518206834793091 -0.003963569179177284
0.47084909677505493 0.662477970123291 -0.055959731340408325
0.4387723207473755 0.655292272567749 -0.030418619513511658
0.46753090620040894 0.6574500799179077 -0.056513212621212006
0.4116956889629364 0.5632543563842773 -0.005876027513295412
0.37500908970832825 0.5801336169242859 0.0029908891301602125
0.4261437654495239 0.6265833377838135 -0.03927953913807869
0.3235853910446167 0.30497097969055176 0.051625724881887436
0.3378937244415283 0.34377321600914 0.017283564433455467
0.3512803912162781 0.38666144013404846 -0.009508436545729637
0.4214174747467041 0.7875582575798035 0.0024924606550484896
0.44555217027664185 0.3957490921020508 -0.04893188923597336
0.4384062886238098 0.3318334221839905 -0.03687321022152901
0.42985957860946655 0.270332932472229 -0.021885113790631294
0.3453614115715027 0.5003814101219177 0.03359328955411911
0.2950621247291565 0.5263848304748535 0.07067686319351196
0.4381158649921417 0.49256575107574463 0.01551142893731594
0.3170273005962372 0.46022775769233704 0.04518129304051399
0.4494227170944214 0.5333026647567749 -0.025221949443221092
0.440616637468338 0.6214744448661804 -0.08376053720712662
0.2736756205558777 0.5423362851142883 0.0980871319770813
0.30836015939712524 0.5455072522163391 0.04902206361293793
0.3364127576351166 0.5558753609657288 0.025851888582110405
0.37952864170074463 0.5514684915542603 0.012516843155026436
0.41086670756340027 0.5408403873443604 0.005392594262957573
0.4336812496185303 0.5293653011322021 -0.0028808589559048414
0.4776373505592346 0.5013622641563416 -0.052672043442726135
0.27663034200668335 0.5959553718566895 0.0922871008515358
0.3003350496292114 0.45737290382385254 0.057167354971170425
0.48396795988082886 0.6505116820335388 -0.10921337455511093
0.4362502992153168 0.5751029253005981 -0.024694999679923058
0.26344653964042664 0.4865199029445648 0.24070294201374054
0.4504223167896271 0.5164003968238831 -0.007620584685355425
0.42507463693618774 0.6274418234825134 -0.01604541577398777
0.32790496945381165 0.47592371702194214 0.05224902182817459
0.4402366876602173 0.6043334007263184 -0.07509692758321762
0.2780912518501282 0.657142162322998 0.25151053071022034
0.43842241168022156 0.4827677607536316 0.021680420264601707
0.4561997950077057 0.5900845527648926 -0.09913269430398941
0.3363737165927887 0.7859644293785095 0.10388915985822678
0.3420972526073456 0.8090915679931641 0.1464003175497055
0.26195624470710754 0.5974252223968506 0.17720796167850494
0.3087400794029236 0.7516800761222839 0.13331738114356995
0.2733488082885742 0.442574679851532 0.1372785121202469
0.4234207272529602 0.8638162612915039 0.030895965173840523
0.4873484671115875 0.654992938041687 -0.07815980911254883
0.41711923480033875 0.5931075215339661 -0.014771359041333199
0.2787209749221802 0.49449658393859863 0.10499097406864166
0.3648301064968109 0.4898761808872223 0.02473967708647251
0.3846168518066406 0.49206259846687317 0.017981356009840965
0.41867226362228394 0.7588733434677124 0.0008847590070217848
0.28345435857772827 0.6457346677780151 0.10008013248443604
0.46456220746040344 0.8936883211135864 0.035649873316287994
0.4022272825241089 0.8612068891525269 0.08444794267416
0.37491559982299805 0.8404412865638733 0.1115940734744072
0.4992746412754059 0.3319346606731415 -0.04550173506140709
0.5091500282287598 0.8992600440979004 0.026158422231674194
0.4036375880241394 0.4908510446548462 0.01572650857269764
0.42160099744796753 0.4871808588504791 0.017926426604390144
0.433030366897583 0.48499584197998047 0.021841632202267647
0.28626006841659546 0.45152533054351807 0.08147866278886795
0.4193767309188843 0.46439653635025024 0.01421824935823679
0.3999998867511749 0.45633405447006226 0.011415822431445122
0.3793988823890686 0.45424598455429077 0.013698759488761425
0.35909557342529297 0.45811259746551514 0.020475514233112335
0.34669947624206543 0.46497416496276855 0.028918497264385223
0.26550284028053284 0.4285423159599304 0.20098242163658142
0.35144490003585815 0.4858855903148651 0.032886601984500885
0.4977814555168152 0.6801348924636841 -0.057786960154771805
0.42854493856430054 0.6896913051605225 -0.031241577118635178
0.4448816776275635 0.6405692100524902 -0.060671888291835785
0.4682837128639221 0.6826517581939697 -0.05415575951337814
0.5000377893447876 0.4618525505065918 -0.0468490868806839
0.36615657806396484 0.8169075846672058 0.08113180845975876
0.3938167095184326 0.8401713967323303 0.05745679512619972
0.46056628227233887 0.8823161125183105 0.0066148885525763035
0.31682461500167847 0.7717167735099792 0.19004546105861664
0.4323946237564087 0.4755060076713562 0.018449701368808746
0.4624294638633728 0.541945219039917 -0.05788036435842514
0.5069125294685364 0.8867371082305908 -0.0013094013556838036
0.4308393597602844 0.8797914981842041 0.05568600445985794
0.2703940272331238 0.6524752974510193 0.174179807305336
0.45941752195358276 0.7553614377975464 -0.02538941241800785
0.4555613398551941 0.7622060775756836 -0.02917141653597355
0.451424777507782 0.7731714844703674 -0.03181532770395279
0.4486335813999176 0.786361038684845 -0.0275960061699152
0.44417646527290344 0.8038745522499084 -0.008568722754716873
0.43098634481430054 0.7456567287445068 -0.006001967936754227
0.42344146966934204 0.7433291673660278 -0.005715842358767986
0.4166935682296753 0.7393118143081665 -0.005583389662206173
0.3948718309402466 0.7226479053497314 -0.00017047446453943849
0.3109404146671295 0.6619611382484436 0.05093959718942642
0.463758647441864 0.5156596302986145 -0.03731155768036842
0.4545685946941376 0.46669602394104004 0.002588881878182292
0.44157177209854126 0.4691978693008423 0.012879425659775734
0.4367247223854065 0.7426586151123047 -0.00391623517498374
0.31386417150497437 0.7197363972663879 0.08737819641828537
0.4720273017883301 0.4662068486213684 -0.02870091050863266
0.4331851005554199 0.8233428597450256 0.005690806079655886
0.4957893490791321 0.550139844417572 -0.10243556648492813
0.4767151176929474 0.5293473601341248 -0.0752871036529541
0.49720099568367004 0.5237457156181335 -0.08213513344526291
0.44718679785728455 0.5816774964332581 -0.055708520114421844
0.5054199695587158 0.8661936521530151 -0.014380590058863163
0.5042386651039124 0.8399366736412048 -0.014828340150415897
0.4671371281147003 0.8380750417709351 -0.008434994146227837
0.3846103250980377 0.7777236700057983 0.028467761352658272
0.4068301320075989 0.6468791365623474 -0.009307091124355793
0.4067003130912781 0.8035284280776978 0.01838795095682144
0.3560110032558441 0.6426190733909607 0.0027022312860935926
0.38694047927856445 0.6715013980865479 -0.003963750321418047
0.34047931432724 0.6820659637451172 0.02313937060534954
0.46141842007637024 0.8629826307296753 -0.005962555296719074
0.4360254108905792 0.5953165292739868 -0.037780702114105225
0.3690720498561859 0.7933435440063477 0.05259702727198601
0.39649057388305664 0.8195001482963562 0.037475619465112686
0.36642879247665405 0.7473015189170837 0.030524300411343575
0.29256629943847656 0.6878427267074585 0.10880164802074432
0.341228187084198 0.7488703727722168 0.055333271622657776
0.2845928966999054 0.7037985920906067 0.16453608870506287
0.3720129728317261 0.7036865949630737 0.00843396969139576
0.449587881565094 0.5581511855125427 -0.04006664454936981
0.4476556181907654 0.6329477429389954 -0.08898616582155228
0.4362032413482666 0.638462483882904 -0.06291390210390091
0.4549371600151062 0.6162782907485962 -0.10687024146318436
0.43697237968444824 0.44594496488571167 -0.0039679622277617455
0.40076127648353577 0.4320460259914398 -0.006730860564857721
0.36874690651893616 0.4288559556007385 -0.0029797605238854885
0.3425065279006958 0.4318956732749939 0.008302544243633747
0.32497143745422363 0.4417824447154999 0.024154188111424446
0.3143168091773987 0.4832906126976013 0.06249970942735672
0.25925880670547485 0.5440407395362854 0.17162364721298218
0.3292272686958313 0.5192248821258545 0.04375828802585602
0.3519528806209564 0.5272653102874756 0.028071293607354164
0.3816783130168915 0.5270536541938782 0.01662774756550789
0.4097784161567688 0.5212043523788452 0.010990711860358715
0.4311361610889435 0.5132259726524353 0.008009490557014942
0.445919394493103 0.505325436592102 0.005801745690405369
0.26695454120635986 0.5410848259925842 0.25872042775154114
0.43806153535842896 0.6445701718330383 -0.051206476986408234
0.460655152797699 0.5653625130653381 -0.07530144602060318
0.4612531065940857 0.6346595287322998 -0.1083657518029213
0.47425466775894165 0.646098256111145 -0.09942775964736938
0.4623684883117676 0.6382061839103699 -0.0969468504190445
0.4447658061981201 0.6517908573150635 -0.04381066560745239
0.47754284739494324 0.6487219333648682 -0.10577405989170074
0.4808446168899536 0.6533620953559875 -0.07809831947088242
0.4459227919578552 0.4849655032157898 0.017118996009230614
0.45753464102745056 0.49191176891326904 0.0018008998595178127
0.4632669687271118 0.49704062938690186 -0.015518850646913052
0.3396875262260437 0.4701434373855591 0.037009503692388535
0.32843220233917236 0.4616340696811676 0.0381501205265522
0.5159620642662048 0.5539711117744446 -0.09577683359384537
0.6753925681114197 0.47827067971229553 0.019178548827767372
0.5165421962738037 0.649594247341156 -0.08043863624334335
0.7612758874893188 0.3774982988834381 0.1196298897266388
0.6060857176780701 0.5026111602783203 -0.0014370057033374906
0.6295950412750244 0.504168689250946 -0.001106057083234191
0.6525354981422424 0.5032649636268616 0.003807899309322238
0.6845287680625916 0.48757830262184143 0.0217078048735857
0.5862476229667664 0.4971541166305542 0.002106096362695098
0.6361557245254517 0.4352920651435852 -0.01143319346010685
0.60983806848526 0.43838852643966675 -0.010326728224754333
0.6609957218170166 0.43851858377456665 -0.005365428049117327
0.6779472231864929 0.44717806577682495 0.0031159515492618084
0.7036408185958862 0.5055869817733765 0.032463766634464264
0.5911136865615845 0.8461605310440063 0.007842588238418102
0.684382975101471 0.4708012342453003 0.02602476254105568
0.7753669023513794 0.4887414276599884 0.13105526566505432
0.7299246788024902 0.4874192774295807 0.05399534851312637
0.6199483275413513 0.6132107973098755 -0.021408166736364365
0.5256426930427551 0.7150338888168335 -0.0628359243273735
0.5230270624160767 0.7414444088935852 -0.051379863172769547
0.5553849339485168 0.7235096096992493 -0.05117415264248848
0.5747371315956116 0.7335247993469238 -0.03521269932389259
0.5440271496772766 0.7433664202690125 -0.044047459959983826
0.560849666595459 0.7457651495933533 -0.028795259073376656
0.6076048612594604 0.7721354961395264 0.002300318330526352
0.5125911235809326 0.6382699608802795 -0.12236755341291428
0.5155627727508545 0.6133065819740295 -0.13030138611793518
0.7114977836608887 0.42386963963508606 0.006845620460808277
0.5728269815444946 0.5486512184143066 -0.024598360061645508
0.5686125755310059 0.6305978894233704 -0.06822273880243301
0.571570634841919 0.6166399717330933 -0.061643969267606735
0.6936566829681396 0.6093219518661499 0.0033291939180344343
0.5156939029693604 0.5811375379562378 -0.1172947809100151
0.6514331102371216 0.40009671449661255 -0.030075278133153915
0.6863888502120972 0.4068111181259155 -0.014069203287363052
0.7349302172660828 0.3335820436477661 0.07463481277227402
0.5486070513725281 0.42578771710395813 -0.0438736230134964
0.588218092918396 0.4482361674308777 -0.002193993190303445
0.6239105463027954 0.7474868297576904 0.00516297435387969
0.7522180676460266 0.7216354608535767 0.20064030587673187
0.5514506101608276 0.6446629762649536 -0.05782078579068184
0.5325829982757568 0.6523407697677612 -0.058729156851768494
0.5975856781005859 0.7497690916061401 0.002794093219563365
0.5866861343383789 0.7487896680831909 -0.002939552068710327
0.6987101435661316 0.3898106515407562 -0.004056395962834358
0.5697060823440552 0.6416234970092773 -0.05504411831498146
0.6061734557151794 0.4048601984977722 -0.04062503203749657
0.6095256209373474 0.38423362374305725 -0.04628206789493561
0.6353685855865479 0.27763062715530396 -0.00971809308975935
0.7158520221710205 0.3610517978668213 0.02912633679807186
0.6193650364875793 0.32936450839042664 -0.029909612610936165
0.7260475754737854 0.4121882915496826 0.025839967653155327
0.7437413930892944 0.39597848057746887 0.06955237686634064
0.5245921015739441 0.7300916314125061 -0.05997302383184433
0.5489630699157715 0.7353419661521912 -0.04871135950088501
0.5677230358123779 0.7398990988731384 -0.03393210098147392
0.5458307266235352 0.6492896676063538 -0.05264250189065933
0.5917659401893616 0.7497673630714417 -0.000263049645582214
0.5826041102409363 0.7564005255699158 -0.012752342037856579
0.5840383768081665 0.7470853924751282 -0.0036661524791270494
0.5388826727867126 0.6367544531822205 -0.09037535637617111
0.5565716028213501 0.7442860007286072 -0.02481715939939022
0.5400720834732056 0.7447781562805176 -0.034487284719944
0.5212258696556091 0.745227038860321 -0.04158153384923935
0.5346276760101318 0.8169036507606506 -0.01668791100382805
0.5306062698364258 0.7978222370147705 -0.041165754199028015
0.5283719301223755 0.7828639149665833 -0.04534274712204933
0.5256814956665039 0.768572211265564 -0.04133109003305435
0.523433268070221 0.7585867047309875 -0.03784925118088722
0.5614056587219238 0.7537646293640137 -0.021817341446876526
0.5651116967201233 0.7574036121368408 -0.025192098692059517
0.5708699822425842 0.76453697681427 -0.02764793671667576
0.5760907530784607 0.7728414535522461 -0.023257426917552948
0.5957591533660889 0.7047305703163147 -0.02858014963567257
0.7795664072036743 0.5956888198852539 0.22926384210586548
0.5720396637916565 0.7517103552818298 -0.010734818875789642
0.5768296718597412 0.7535116672515869 -0.013089293614029884
0.5251307487487793 0.662861168384552 -0.05893312022089958
0.5626347064971924 0.6565077304840088 -0.03690177574753761
0.5286088585853577 0.6578302383422852 -0.05944368988275528
0.5980523824691772 0.5628544688224792 -0.017580999061465263
0.6375277638435364 0.5797662734985352 -0.012410339899361134
0.5757609605789185 0.6275591850280762 -0.048312779515981674
0.6946929693222046 0.29955852031707764 0.02846076712012291
0.6762598752975464 0.3375702500343323 -0.0028242142871022224
0.6587954163551331 0.3796640932559967 -0.0272065382450819
0.5890746116638184 0.7894008159637451 -0.006469849031418562
0.5552031993865967 0.3925634026527405 -0.05455103516578674
0.5626891255378723 0.3294033110141754 -0.043983835726976395
0.5725308656692505 0.26822221279144287 -0.029952237382531166
0.6729348301887512 0.4979568123817444 0.012881821021437645
0.7294998168945312 0.5244359374046326 0.04449664428830147
0.5732928514480591 0.4912392497062683 0.006025977432727814
0.7033548355102539 0.45588719844818115 0.020984813570976257
0.5559011101722717 0.5327376127243042 -0.032530222088098526
0.5542625188827515 0.6215914487838745 -0.09059900045394897
0.7557436227798462 0.5405375957489014 0.0688200443983078
0.7127082943916321 0.5440784692764282 0.02466551400721073
0.6806256771087646 0.5547519326210022 0.004874729551374912
0.6339623928070068 0.5506113767623901 -0.0033574027474969625
0.6004461050033569 0.5398925542831421 -0.006730990018695593
0.5758342146873474 0.5286282896995544 -0.012270031496882439
0.5218596458435059 0.5008625984191895 -0.055651988834142685
0.751799464225769 0.5953853130340576 0.06366261839866638
0.7224485874176025 0.45296648144721985 0.030847035348415375
0.5060538053512573 0.6504234075546265 -0.11068516224622726
0.5687832832336426 0.5750249028205872 -0.03337852284312248
0.7837632894515991 0.48353448510169983 0.20779773592948914
0.5570555925369263 0.5155657529830933 -0.0149111058562994
0.5792548656463623 0.6284770369529724 -0.024734416976571083
0.6922848224639893 0.4723314642906189 0.029721152037382126
0.556784987449646 0.6046024560928345 -0.08224482089281082
0.7710694074630737 0.6572057008743286 0.22091378271579742
0.5736975073814392 0.48111969232559204 0.011814962141215801
0.5368531346321106 0.5900384783744812 -0.10421352088451385
0.6926987171173096 0.7883562445640564 0.08352325856685638
0.6942852735519409 0.8117451667785645 0.12517449259757996
0.7774604558944702 0.5966498255729675 0.14583377540111542
0.72477787733078 0.753433883190155 0.10919652879238129
0.7606971263885498 0.43843162059783936 0.10673090815544128
0.5956852436065674 0.8663942813873291 0.021358516067266464
0.504413902759552 0.6549137830734253 -0.07916641235351562
0.5903646349906921 0.5932723879814148 -0.025073496624827385
0.7509845495223999 0.49132800102233887 0.07594034820795059
0.6506414413452148 0.48724377155303955 0.006594841368496418
0.6299110651016235 0.4893677234649658 0.0019311386859044433
0.5891351699829102 0.760837972164154 -0.008999796584248543
0.7457822561264038 0.6460113525390625 0.07267240434885025
0.5551756024360657 0.8953566551208496 0.030551807954907417
0.6247850060462952 0.8644800186157227 0.07074853032827377
0.6560726165771484 0.8435792326927185 0.09434022009372711
0.610084056854248 0.48831331729888916 0.0018890657229349017
0.591511070728302 0.48504573106765747 0.005901615135371685
0.5794223546981812 0.483182430267334 0.011099981144070625
0.7403400540351868 0.4469323754310608 0.053332991898059845
0.5937066674232483 0.4620705842971802 0.002059647347778082
0.6139491200447083 0.4532880485057831 -0.0026388990227133036
0.6350262761116028 0.45091885328292847 -0.0024975340347737074
0.6564269065856934 0.4544306695461273 0.0020496996585279703
0.6700066328048706 0.46121734380722046 0.009000911377370358
0.7768622636795044 0.4248860776424408 0.1687936782836914
0.6651448011398315 0.4831951856613159 0.013301650993525982
0.5740477442741394 0.690880298614502 -0.039529286324977875
0.5518169403076172 0.6408746838569641 -0.0666871890425682
0.528997540473938 0.6830529570579529 -0.05778275057673454
0.659394383430481 0.8199020624160767 0.06454041600227356
0.6286447048187256 0.8432900309562683 0.04445859044790268
0.5552262663841248 0.8838812708854675 0.0016993749886751175
0.725242018699646 0.7738114595413208 0.164677694439888
0.5796964168548584 0.47383517026901245 0.007474211044609547
0.5368218421936035 0.5417092442512512 -0.06291106343269348
0.5919550061225891 0.8824282884597778 0.04598166048526764
0.7687265276908875 0.6526569724082947 0.14440801739692688
0.5441114902496338 0.756270170211792 -0.031001310795545578
0.5479583144187927 0.7632293701171875 -0.034724101424217224
0.5524224638938904 0.7742928266525269 -0.03769894316792488
0.5560689568519592 0.7876431941986084 -0.03350202739238739
0.5652907490730286 0.8054580092430115 -0.014920013956725597
0.5760473012924194 0.7471663355827332 -0.015424864366650581
0.5830371975898743 0.7450876832008362 -0.016163840889930725
0.5899392366409302 0.7410606741905212 -0.016474265605211258
0.613462507724762 0.7242701053619385 -0.013058542273938656
0.7113733887672424 0.6625219583511353 0.028394823893904686
0.5385866165161133 0.5151236057281494 -0.04247482493519783
0.5531454086303711 0.4651496112346649 -0.0039284443482756615
0.5686795711517334 0.46740031242370605 0.003811322385445237
0.5708461999893188 0.7441480755805969 -0.012737051583826542
0.7123513221740723 0.7210227847099304 0.06496241688728333
0.5308775901794434 0.4652344882488251 -0.03246115520596504
0.5797272324562073 0.8252657651901245 -0.0013477182947099209
0.519131600856781 0.5291296243667603 -0.0779559388756752
0.552618682384491 0.5816622376441956 -0.0621320866048336
0.5432993769645691 0.8392145037651062 -0.011940806172788143
0.6305638551712036 0.7799241542816162 0.015790821984410286
0.599802553653717 0.6479783058166504 -0.02012442797422409
0.6078516244888306 0.805850088596344 0.00837156642228365
0.6572185158729553 0.6430948376655579 -0.013083694502711296
0.6220217347145081 0.672561764717102 -0.016705863177776337
0.676315188407898 0.6829579472541809 0.00534178176894784
0.5513598918914795 0.8643009662628174 -0.010416142642498016
0.5667807459831238 0.5956149101257324 -0.045907940715551376
0.6511294841766357 0.7958903908729553 0.037511903792619705
0.6216384768486023 0.8223074674606323 0.026041241362690926
0.6488416194915771 0.7489341497421265 0.015136939473450184
0.737541913986206 0.6887327432632446 0.08310610800981522
0.6799074411392212 0.7505755424499512 0.036795876920223236
0.7535549402236938 0.7047553658485413 0.13676337897777557
0.639720618724823 0.7048923969268799 -0.006349205505102873
0.5525632500648499 0.5580106973648071 -0.04712789133191109
0.546043872833252 0.6328865885734558 -0.09525325149297714
0.5611414313316345 0.6390874981880188 -0.07010044157505035
0.5360041856765747 0.6163039207458496 -0.11201019585132599
0.5704771876335144 0.4434824287891388 -0.012912297621369362
0.6078672409057617 0.42782336473464966 -0.01905626803636551
0.6420771479606628 0.423517107963562 -0.01904410310089588
0.6712534427642822 0.4266267418861389 -0.011315749026834965
0.6921360492706299 0.43668830394744873 0.0017589508788660169
0.7083646655082703 0.4798499345779419 0.03818544000387192
0.7801421880722046 0.5422734618186951 0.1393413543701172
0.6905369758605957 0.5171604156494141 0.021498920395970345
0.6649500727653503 0.5256579518318176 0.008693437092006207
0.6327849626541138 0.5253803133964539 0.0006727810250595212
0.6029509902000427 0.5196453332901001 -0.001739796600304544
0.5801622271537781 0.5119870901107788 -0.0016343483002856374
0.5640425682067871 0.5041964650154114 -0.0023060187231749296
0.7824521064758301 0.5388416051864624 0.22611497342586517
0.5606693625450134 0.6455103158950806 -0.05829894170165062
0.5352025032043457 0.5651374459266663 -0.08033324033021927
0.5291727185249329 0.6344014406204224 -0.11224821954965591
0.5175154209136963 0.6459823250770569 -0.10176999866962433
0.5296124219894409 0.6380025148391724 -0.10081309080123901
0.5548120141029358 0.6529980897903442 -0.04985456541180611
0.5132056474685669 0.6485955715179443 -0.10762982815504074
0.5117197036743164 0.6533268690109253 -0.07966388016939163
0.5650029182434082 0.48351752758026123 0.0088140107691288
0.5508596897125244 0.4908090829849243 -0.004521890543401241
0.5424067378044128 0.4961526691913605 -0.02053089812397957
0.6780069470405579 0.46655476093292236 0.01651163399219513
0.6903187036514282 0.45731812715530396 0.016002563759684563
