ply
format ascii 1.0
element vertex 468
property float x
property float y
property float z
end_header
0.49779385328292847 0.687098503112793 -0.08189073950052261
0.4915880560874939 0.6083980798721313 -0.14191552996635437
0.4967986047267914 0.6340044736862183 -0.08147351443767548
0.4741869270801544 0.5346375107765198 -0.0988287702202797
0.49103739857673645 0.5843015313148499 -0.1482112854719162
0.4924505949020386 0.5545416474342346 -0.1356423944234848
0.4981077313423157 0.48623529076576233 -0.0598081573843956
0.3395349383354187 0.4853123128414154 0.05485432967543602
0.4997635781764984 0.4363279938697815 -0.03604137524962425
0.4998563528060913 0.4080076813697815 -0.03674890846014023
0.5032197833061218 0.3141845464706421 0.0020669640507549047
0.4982298016548157 0.6993643641471863 -0.07941898703575134
0.4990525543689728 0.7084193229675293 -0.07269968092441559
0.5000107288360596 0.7116960883140564 -0.06258217990398407
0.5013740658760071 0.7582955360412598 -0.048820316791534424
0.5010240077972412 0.7700966000556946 -0.053904615342617035
0.5010724067687988 0.7836553454399109 -0.06015445664525032
0.5012261867523193 0.7985766530036926 -0.0563737116754055
0.5022012591362 0.8185514211654663 -0.03533116728067398
0.49318668246269226 0.6213929057121277 -0.12997031211853027
0.47210046648979187 0.6204533576965332 -0.09494782239198685
0.2769010066986084 0.42102158069610596 0.18588919937610626
0.4052577018737793 0.5026145577430725 0.024326451122760773
0.38267290592193604 0.5042724013328552 0.027163302525877953
0.3609221875667572 0.5042416453361511 0.03513561561703682
0.33125272393226624 0.4942967891693115 0.05817008763551712
0.4243961572647095 0.4975352883338928 0.02498701401054859
0.37294936180114746 0.4490275979042053 0.021209217607975006
0.39798808097839355 0.45051050186157227 0.02000395581126213
0.34964805841445923 0.4524116516113281 0.02988230437040329
0.33465832471847534 0.4606180191040039 0.04073089733719826
0.3146294951438904 0.5102996230125427 0.07010220736265182
0.40712159872055054 0.8375461101531982 0.0015018341364338994
0.3314335346221924 0.48132070899009705 0.06393999606370926
0.26205551624298096 0.510350227355957 0.185433030128479
0.29251784086227417 0.49831974506378174 0.09808509796857834
0.37800055742263794 0.5934209227561951 -0.011101825162768364
0.46131646633148193 0.6829929351806641 -0.07577072829008102
0.4670230746269226 0.7079591751098633 -0.06567710638046265
0.4259243607521057 0.6897386908531189 -0.0566764771938324
0.40573689341545105 0.6996493935585022 -0.030199246481060982
0.44196704030036926 0.7090355157852173 -0.05020131170749664
0.4239462912082672 0.7120487689971924 -0.02620886266231537
0.38087770342826843 0.7479597926139832 0.01613529585301876
0.4712291359901428 0.6077471375465393 -0.1382712721824646
0.46765536069869995 0.584841251373291 -0.1437806785106659
0.30204153060913086 0.43853840231895447 0.05227087438106537
0.42951276898384094 0.5381051301956177 -0.012134368531405926
0.41574758291244507 0.6030457019805908 -0.07222066074609756
0.4148307740688324 0.5911640524864197 -0.0631207674741745
0.3131318688392639 0.591188371181488 0.02735496126115322
0.4704257845878601 0.557243824005127 -0.1258719563484192
0.35127630829811096 0.411762535572052 0.007584577426314354
0.3211386203765869 0.42056775093078613 0.02851041778922081
0.2942274510860443 0.3809144198894501 0.1402483433485031
0.450946182012558 0.4305590093135834 -0.023410137742757797
0.4198797047138214 0.4577672779560089 0.02507464401423931
0.3633810877799988 0.7171415090560913 0.022252170369029045
0.283994197845459 0.7211222648620605 0.22614921629428864
0.43465304374694824 0.6161108613014221 -0.06517864018678665
0.4552443325519562 0.6238637566566467 -0.07134636491537094
0.38300853967666626 0.7212947010993958 0.0208981204777956
0.3967142403125763 0.7213044762611389 0.01382843591272831
0.3103798031806946 0.4076494574546814 0.04280808940529823
0.415096253156662 0.6136537790298462 -0.059504587203264236
0.39365875720977783 0.41371816396713257 -0.010590683668851852
0.3892097473144531 0.39646831154823303 -0.014153716154396534
0.3755425214767456 0.32667234539985657 0.04392196610569954
0.3024536669254303 0.3938782513141632 0.08595019578933716
0.38435906171798706 0.35992786288261414 0.01450648345053196
0.2915770709514618 0.4313877820968628 0.07557123899459839
0.2844882011413574 0.4274953603744507 0.12892475724220276
0.4633411765098572 0.6975730657577515 -0.07282891869544983
0.43439337611198425 0.7013116478919983 -0.053822241723537445
0.41438406705856323 0.7060382962226868 -0.03032083809375763
0.44086652994155884 0.6205996870994568 -0.061325497925281525
0.3893504738807678 0.7215664386749268 0.017086464911699295
0.40052491426467896 0.7383747100830078 0.002172027248889208
0.4015364646911621 0.7204985618591309 0.012699995189905167
0.4472975432872772 0.6080837845802307 -0.09916418790817261
0.4303293526172638 0.7106384634971619 -0.023294296115636826
0.4483937919139862 0.7099584341049194 -0.04148409515619278
0.47134238481521606 0.7107012271881104 -0.05588734894990921
0.46222972869873047 0.8143846988677979 -0.030538713559508324
0.462310791015625 0.7936497926712036 -0.05014858767390251
0.464372456073761 0.7793116569519043 -0.05261441320180893
0.4674437344074249 0.7652943134307861 -0.04604392498731613
0.4708484411239624 0.7557090520858765 -0.04149560257792473
0.4275020360946655 0.7430742979049683 -0.012271665036678314
0.4220430552959442 0.7466952800750732 -0.01636672019958496
0.414627343416214 0.753030002117157 -0.01933939754962921
0.40887629985809326 0.760510265827179 -0.014247703365981579
0.3894076943397522 0.6747367978096008 -0.02128865011036396
0.26683148741722107 0.6110963821411133 0.2736905813217163
0.4949672818183899 0.6268401145935059 -0.09816943854093552
0.41586819291114807 0.73568195104599 0.00417545298114419
0.40783271193504333 0.7360836267471313 0.0015819745603948832
0.4634350836277008 0.6341801881790161 -0.07300549745559692
0.42382943630218506 0.6281449198722839 -0.04338114708662033
0.4595043361186981 0.6292420625686646 -0.07295207679271698
0.40431973338127136 0.5505452156066895 -0.0030221608467400074
0.36617738008499146 0.5647984743118286 0.005272872745990753
0.410810649394989 0.6019637584686279 -0.04948858171701431
0.3245534300804138 0.3483526408672333 0.08964136987924576
0.3334025740623474 0.36986014246940613 0.04867434501647949
0.3437105715274811 0.3956433832645416 0.014726847410202026
0.4004002511501312 0.7731320261955261 0.001658324501477182
0.4431217312812805 0.40213140845298767 -0.029735108837485313
0.43847888708114624 0.35905441641807556 -0.007348502520471811
0.43329960107803345 0.3167625367641449 0.013740836642682552
0.34203946590423584 0.5010645389556885 0.04713238775730133
0.29171180725097656 0.5267988443374634 0.08399836719036102
0.4363371729850769 0.49170225858688354 0.02784436196088791
0.3126090466976166 0.46876466274261475 0.06396064907312393
0.4463977813720703 0.5235646367073059 -0.02158823050558567
0.43077924847602844 0.5939698815345764 -0.09699016064405441
0.27030670642852783 0.5441126227378845 0.11135886609554291
0.3045092225074768 0.5391844511032104 0.059381067752838135
0.33107274770736694 0.5452939867973328 0.03430561721324921
0.3738243579864502 0.5415463447570801 0.019462715834379196
0.406477689743042 0.5327675938606262 0.012509872205555439
0.431221067905426 0.5225369930267334 0.0042431531473994255
0.47607916593551636 0.492672860622406 -0.048199836164712906
0.26879775524139404 0.587884247303009 0.10039146989583969
0.2968704104423523 0.4670479893684387 0.077219158411026
0.48068922758102417 0.6203502416610718 -0.12758859992027283
0.4278455078601837 0.5588067770004272 -0.02620326355099678
0.2644715905189514 0.5146111845970154 0.2664109170436859
0.448977530002594 0.510412871837616 0.00038717291317880154
0.40974587202072144 0.603895366191864 -0.02309863455593586
0.3239453136920929 0.4827696681022644 0.0690653845667839
0.4305481016635895 0.5797802805900574 -0.08604536205530167
0.27049386501312256 0.6639096736907959 0.25646117329597473
0.436287522315979 0.48392561078071594 0.03588901460170746
0.4502340853214264 0.5661798715591431 -0.11042023450136185
0.3179994225502014 0.7721050381660461 0.09911982715129852
0.3245161175727844 0.8022956848144531 0.1350843459367752
0.25595396757125854 0.6006245017051697 0.18770314753055573
0.2937581539154053 0.7404248118400574 0.12942753732204437
0.273982435464859 0.46635520458221436 0.16443417966365814
0.40370994806289673 0.8633151650428772 0.01192246563732624
0.4850770831108093 0.6258072853088379 -0.09606540203094482
0.40605735778808594 0.5751379132270813 -0.01722625456750393
0.2765924632549286 0.5048192143440247 0.12387806922197342
0.36239421367645264 0.48992860317230225 0.03875196352601051
0.38223737478256226 0.49120283126831055 0.03127884119749069
0.39374497532844543 0.7409098744392395 0.006240671034902334
0.2707667350769043 0.6334071159362793 0.10352621972560883
0.4489234685897827 0.9028295278549194 0.009427218697965145
0.37928321957588196 0.8611088991165161 0.0671994686126709
0.3532056212425232 0.8355817794799805 0.09803213179111481
0.5013940334320068 0.36014610528945923 -0.01798747107386589
0.5037411451339722 0.9110244512557983 -0.0018233262235298753
0.4012354612350464 0.4903734624385834 0.028800170868635178
0.41932743787765503 0.48768848180770874 0.031081851571798325
0.4307529330253601 0.4857773184776306 0.03568795323371887
0.2842309772968292 0.46524515748023987 0.10395646840333939
0.41651996970176697 0.47282424569129944 0.02938847243785858
0.39694270491600037 0.46894121170043945 0.026217421516776085
0.37724870443344116 0.4678735136985779 0.028778722509741783
0.35738375782966614 0.47058674693107605 0.0359649620950222
0.3445969820022583 0.4752902388572693 0.044382333755493164
0.2677396535873413 0.4628165364265442 0.23247718811035156
0.3489362299442291 0.48781317472457886 0.047192372381687164
0.4976019859313965 0.651322066783905 -0.07563034445047379
0.41085296869277954 0.6607885956764221 -0.041143208742141724
0.4340531527996063 0.6122845411300659 -0.07383806258440018
0.459660142660141 0.653276264667511 -0.07018399983644485
0.49985942244529724 0.46159207820892334 -0.03812125325202942
0.34545737504959106 0.8055493235588074 0.0733732059597969
0.37329185009002686 0.8338238000869751 0.044377636164426804
0.4464166760444641 0.8847295045852661 -0.016768911853432655
0.30330798029899597 0.7675034999847412 0.18089936673641205
0.4299973249435425 0.4790548086166382 0.03336498513817787
0.4587063789367676 0.5273794531822205 -0.05831938609480858
0.5020133852958679 0.8932701349258423 -0.026923298835754395
0.4094817042350769 0.8848206400871277 0.03401165083050728
0.26095855236053467 0.6504194736480713 0.17865942418575287
0.4467448592185974 0.7501379251480103 -0.027748219668865204
0.4413525462150574 0.7570573091506958 -0.032236360013484955
0.4355469048023224 0.7675656676292419 -0.035389386117458344
0.43144649267196655 0.780348539352417 -0.031671807169914246
0.4257786273956299 0.7968703508377075 -0.01575477235019207
0.407663494348526 0.7149707078933716 -0.00486129941418767
0.39856815338134766 0.7123306393623352 -0.0036304721143096685
0.39076218008995056 0.7082154154777527 -0.003125392831861973
0.3719123601913452 0.6930902600288391 0.002703601261600852
0.2961856722831726 0.642565906047821 0.0514533556997776
0.4619106352329254 0.5068618655204773 -0.033176735043525696
0.45357298851013184 0.46854835748672485 0.016614612191915512
0.4401417374610901 0.4721657335758209 0.028500264510512352
0.4153473675251007 0.7118794322013855 -0.0029969033785164356
0.2964562177658081 0.7023570537567139 0.0864759087562561
0.4710248112678528 0.46592095494270325 -0.017931943759322166
0.41663050651550293 0.814064621925354 -0.005565118044614792
0.49449422955513 0.5309032797813416 -0.10903748124837875
0.4745880365371704 0.5147076845169067 -0.07556043565273285
0.496164470911026 0.5094573497772217 -0.08304739743471146
0.4400443434715271 0.5617420077323914 -0.06119802966713905
0.5014601945877075 0.8678054809570312 -0.036958225071430206
0.5019013285636902 0.8397882580757141 -0.03575023263692856
0.45612335205078125 0.8340823650360107 -0.02679860033094883
0.3648044168949127 0.7553287148475647 0.029389509931206703
0.39191025495529175 0.623100996017456 -0.015298479236662388
0.38768690824508667 0.7878236174583435 0.013770705088973045
0.3423074781894684 0.6205485463142395 0.0008704432402737439
0.37141454219818115 0.6463887691497803 -0.006181658245623112
0.3246975839138031 0.6581537127494812 0.023335490375757217
0.4487065374851227 0.8600055575370789 -0.026186062023043633
0.4254189133644104 0.5748011469841003 -0.04361247271299362
0.3491131365299225 0.7756803035736084 0.04930669441819191
0.37772291898727417 0.8078275918960571 0.02852230705320835
0.3464679419994354 0.720558762550354 0.03256005421280861
0.27710339426994324 0.6741403937339783 0.10908038169145584
0.321978360414505 0.7273213863372803 0.05540912598371506
0.2728038728237152 0.6976814270019531 0.1640620231628418
0.35382676124572754 0.675250768661499 0.008948053233325481
0.44414931535720825 0.5429850220680237 -0.04087354242801666
0.43900927901268005 0.6041347980499268 -0.10341229289770126
0.42346635460853577 0.610469400882721 -0.07675870507955551
0.44805505871772766 0.5882977843284607 -0.12188535928726196
0.4350002408027649 0.44964832067489624 0.013167805038392544
0.39698755741119385 0.4370066225528717 0.012665500864386559
0.3641306459903717 0.4348228871822357 0.01640573889017105
0.33738118410110474 0.4393088221549988 0.02780148945748806
0.32002943754196167 0.45014700293540955 0.044348716735839844
0.3106445074081421 0.49051880836486816 0.07936369627714157
0.25637510418891907 0.5547046065330505 0.18843282759189606
0.32565003633499146 0.5179081559181213 0.05624915286898613
0.3484652042388916 0.5228894352912903 0.03922826051712036
0.3780718445777893 0.5220553874969482 0.026730569079518318
0.4069448411464691 0.5170702338218689 0.020905952900648117
0.42969512939453125 0.5096612572669983 0.017974071204662323
0.4448786675930023 0.5022652745246887 0.01584610715508461
0.2661229372024536 0.5628531575202942 0.2791817784309387
0.4244464635848999 0.6168168783187866 -0.06472896039485931
0.45614027976989746 0.5459966063499451 -0.08087486773729324
0.4550244212150574 0.6047501564025879 -0.12452097982168198
0.46991440653800964 0.6168256998062134 -0.11659540235996246
0.4563755989074707 0.608950138092041 -0.11256581544876099
0.43124398589134216 0.6241672039031982 -0.057601448148489
0.4736599326133728 0.6187799572944641 -0.12385708838701248
0.47726529836654663 0.6241702437400818 -0.09535686671733856
0.4443639814853668 0.48492327332496643 0.030015859752893448
0.45674628019332886 0.4900897741317749 0.012702276930212975
0.4623580574989319 0.4930080771446228 -0.00715750502422452
0.33701592683792114 0.4787594974040985 0.052823927253484726
0.3241036534309387 0.4698089361190796 0.055136777460575104
0.5158200263977051 0.5349035263061523 -0.10285549610853195
0.6742219924926758 0.4868456721305847 0.02658931165933609
0.5200468301773071 0.6207503080368042 -0.0978190004825592
0.7593060731887817 0.42192503809928894 0.14467614889144897
0.6064373850822449 0.5027714967727661 0.005951295606791973
0.6296758651733398 0.5046727657318115 0.005206593312323093
0.6525576114654541 0.504899799823761 0.010113276541233063
0.6848328113555908 0.49595746397972107 0.028509100899100304
0.5867263078689575 0.4976635277271271 0.010213342495262623
0.637057363986969 0.4519997537136078 -0.001648615812882781
0.6119706630706787 0.45286184549331665 0.001948832650668919
0.6610020995140076 0.4557814300060272 0.0038655982352793217
0.6775720119476318 0.4637748599052429 0.01244004350155592
0.7039300203323364 0.5120651125907898 0.03778396174311638
0.6034792065620422 0.8418824672698975 -0.01167425699532032
0.6834562420845032 0.48343098163604736 0.03432246297597885
0.7751507759094238 0.5129382014274597 0.14280802011489868
0.7302036285400391 0.500993013381958 0.06247107684612274
0.6291090250015259 0.5940357446670532 -0.030242742970585823
0.5358721613883972 0.6828460693359375 -0.08114337921142578
0.5328812003135681 0.7081512212753296 -0.07035788148641586
0.5755265355110168 0.6897928714752197 -0.06720194220542908
0.6006839275360107 0.6996752619743347 -0.04494551569223404
0.5614660978317261 0.7092674970626831 -0.05980512499809265
0.5834478735923767 0.7122241258621216 -0.03917696699500084
0.6340909004211426 0.750166654586792 -0.0024025924503803253
0.5131469964981079 0.6079966425895691 -0.14066636562347412
0.5155278444290161 0.5850093364715576 -0.1467626541852951
0.711910605430603 0.44411200284957886 0.018844053149223328
0.5760031938552856 0.538456916809082 -0.024397151544690132
0.5813843607902527 0.6031321883201599 -0.08359351754188538
0.5837894082069397 0.5914573669433594 -0.07482757419347763
0.7015925645828247 0.5923544764518738 -0.004031196236610413
0.5157875418663025 0.5573881268501282 -0.12986062467098236
0.6544389724731445 0.4177934527397156 -0.016852986067533493
0.688094973564148 0.42667055130004883 -0.0015258470084518194
0.7339880466461182 0.38135963678359985 0.10309985280036926
0.5506307482719421 0.4326157569885254 -0.03198602795600891
0.5903754234313965 0.45926350355148315 0.010272454470396042
0.6522249579429626 0.7187654972076416 -0.0001639955153223127
0.7643413543701172 0.7282392382621765 0.18725687265396118
0.5635564923286438 0.6160860061645508 -0.07304063439369202
0.541551411151886 0.6236890554428101 -0.07512206584215164
0.6319850087165833 0.7221276760101318 0.0010486413957551122
0.618749737739563 0.7219296097755432 -0.003900849260389805
0.7006896138191223 0.41414564847946167 0.011543254368007183
0.5851288437843323 0.6137014031410217 -0.07079070061445236
0.6094974875450134 0.41796737909317017 -0.02737686224281788
0.6133488416671753 0.4007570147514343 -0.03058198280632496
0.637282133102417 0.3261909782886505 0.022258704528212547
0.7165900468826294 0.39687788486480713 0.0522167831659317
0.6226890087127686 0.36163461208343506 -0.004291946534067392
0.7260492444038391 0.43644076585769653 0.04018184170126915
0.7423741221427917 0.4304198622703552 0.09075850248336792
0.5347344279289246 0.697594404220581 -0.07822220027446747
0.5678524374961853 0.7014281749725342 -0.06429924070835114
0.5919855833053589 0.7060954570770264 -0.04392203316092491
0.5577105283737183 0.6202948093414307 -0.06807642430067062
0.6257777810096741 0.7223442196846008 -0.0013998410431668162
0.6127579212188721 0.7393147349357605 -0.013365545310080051
0.6144416928291321 0.721149206161499 -0.0043893856927752495
0.5452719330787659 0.608231782913208 -0.10690342634916306
0.5783903002738953 0.7107160091400146 -0.035645741969347
0.5565249919891357 0.710088849067688 -0.05039916932582855
0.5304305553436279 0.7105956077575684 -0.060992274433374405
0.5436232089996338 0.8155391216278076 -0.03568079322576523
0.5415886044502258 0.7945868968963623 -0.05587604641914368
0.5392096638679504 0.7799031138420105 -0.05817621946334839
0.5363155603408813 0.7659579515457153 -0.05186666175723076
0.5333148837089539 0.7562240362167358 -0.046928368508815765
0.5830656886100769 0.7437349557876587 -0.024499142542481422
0.5882716774940491 0.7473323345184326 -0.02837725542485714
0.5957416892051697 0.7542626857757568 -0.03214757516980171
0.6019020676612854 0.7618748545646667 -0.027957912534475327
0.6171060800552368 0.675240159034729 -0.03777935728430748
0.7842771410942078 0.6157934665679932 0.2307199239730835
0.5976380109786987 0.736316442489624 -0.010668722912669182
0.60514235496521 0.7370026111602783 -0.013532303273677826
0.533003568649292 0.6343019008636475 -0.07701263576745987
0.5782619714736938 0.6282614469528198 -0.05249829590320587
0.5369975566864014 0.6292136311531067 -0.0768476277589798
0.6031794548034668 0.5509006977081299 -0.019753366708755493
0.6433388590812683 0.5652937889099121 -0.017194073647260666
0.5902936458587646 0.6020234823226929 -0.061826229095458984
0.6956772804260254 0.34843987226486206 0.05938445404171944
0.6790058612823486 0.3729836642742157 0.021452775225043297
0.6627570986747742 0.40147310495376587 -0.010349881835281849
0.6120280623435974 0.775438666343689 -0.014188975095748901
0.557432234287262 0.4045183062553406 -0.03850126639008522
0.5654428601264954 0.35940316319465637 -0.016991788521409035
0.575234591960907 0.31618431210517883 0.0029649867210537195
0.6727776527404785 0.5020763874053955 0.019208010286092758
0.7297941446304321 0.5286896228790283 0.048642903566360474
0.5740721225738525 0.492021381855011 0.014704425819218159
0.7035177946090698 0.4724102020263672 0.031636424362659454
0.5573624968528748 0.5238909721374512 -0.03140917047858238
0.5615378022193909 0.5942292809486389 -0.10621678084135056
0.7567034959793091 0.5466113090515137 0.07143028825521469
0.7134757041931152 0.5405024290084839 0.025952180847525597
0.6830006241798401 0.5459174513816833 0.004883812740445137
0.6373130679130554 0.5418534278869629 -0.003120794426649809
0.6029544472694397 0.5330723524093628 -0.00496282521635294
0.5768662095069885 0.5228724479675293 -0.008471147157251835
0.5217940807342529 0.49292469024658203 -0.052197277545928955
0.7573065161705017 0.5904786586761475 0.060218144208192825
0.7225884199142456 0.47065454721450806 0.042438533157110214
0.5061302781105042 0.6205005645751953 -0.1293303370475769
0.5753011107444763 0.5590382814407349 -0.0380220040678978
0.7837399840354919 0.5172399282455444 0.22147180140018463
0.5573842525482178 0.5106590986251831 -0.009877221658825874
0.594565212726593 0.6041896343231201 -0.036134958267211914
0.692249059677124 0.48523345589637756 0.03807574510574341
0.5638412833213806 0.5800492167472839 -0.0951976329088211
0.7800616025924683 0.6699938774108887 0.2151218056678772
0.5753709673881531 0.48456233739852905 0.022212296724319458
0.5394176244735718 0.5665836334228516 -0.11710234731435776
0.7115330696105957 0.7795807123184204 0.0696975365281105
0.7113596200942993 0.8112730979919434 0.1056741252541542
0.7824118137359619 0.6050320863723755 0.14554190635681152
0.7411729097366333 0.7473527789115906 0.09491730481386185
0.758927583694458 0.46859654784202576 0.12397170066833496
0.6080331206321716 0.8688124418258667 -0.002367645502090454
0.5052656531333923 0.6259109377861023 -0.0972069650888443
0.5994137525558472 0.5755517482757568 -0.03194800391793251
0.7511402368545532 0.5077540874481201 0.08513817191123962
0.6497362852096558 0.490531325340271 0.01408033724874258
0.6294117569923401 0.4914964437484741 0.009277229197323322
0.6198309659957886 0.7421054840087891 -0.010335071943700314
0.7573254108428955 0.6370483636856079 0.06507844477891922
0.5600174069404602 0.9063488245010376 0.0014895206550136209
0.641545295715332 0.8686473369598389 0.048034023493528366
0.6748708486557007 0.8442111015319824 0.07402054965496063
0.6100614666938782 0.4904986619949341 0.01003661286085844
0.5921642780303955 0.4877330958843231 0.015048274770379066
0.5808247327804565 0.48618459701538086 0.0210472010076046
0.7398189306259155 0.4686983525753021 0.06618156284093857
0.5951749682426453 0.47371146082878113 0.01311734039336443
0.6149132251739502 0.4703371524810791 0.006922437809407711
0.6340847015380859 0.469776451587677 0.006569415330886841
0.6542257070541382 0.47277671098709106 0.010530163533985615
0.6681598424911499 0.47748348116874695 0.017388401553034782
0.7751981019973755 0.4646039605140686 0.18882018327713013
0.6640387773513794 0.4888991117477417 0.02037467248737812
0.5920554399490356 0.6610151529312134 -0.05393020436167717
0.5626384019851685 0.6121562123298645 -0.0817776769399643
0.5372821688652039 0.6532362699508667 -0.07533469796180725
0.6783404350280762 0.8128465414047241 0.04961714148521423
0.6452507376670837 0.8408260345458984 0.02530725859105587
0.5595377087593079 0.8879290819168091 -0.024692313745617867
0.7395610809326172 0.7757781147956848 0.14639431238174438
0.581363320350647 0.47993409633636475 0.018563494086265564
0.538080096244812 0.5276047587394714 -0.06474944204092026
0.6046795845031738 0.890781044960022 0.019536776468157768
0.7784143686294556 0.6558724641799927 0.13803237676620483
0.5603281855583191 0.750883936882019 -0.037084102630615234
0.565400242805481 0.7577990889549255 -0.0414709635078907
0.5709790587425232 0.7687150835990906 -0.045664139091968536
0.5755146741867065 0.7816363573074341 -0.042411040514707565
0.5832834839820862 0.7989138960838318 -0.027496883645653725
0.6044238805770874 0.7153266072273254 -0.020137878134846687
0.6129291653633118 0.7128459811210632 -0.020235368981957436
0.6204896569252014 0.7087058424949646 -0.020824313163757324
0.639144241809845 0.6939724087715149 -0.018175676465034485
0.7242113947868347 0.6452544331550598 0.018078390508890152
0.5389118790626526 0.5072337985038757 -0.03990234434604645
0.5543075799942017 0.4694144129753113 0.008189710788428783
0.5698636174201965 0.4728674292564392 0.015707941725850105
0.5978772640228271 0.7123542428016663 -0.018296044319868088
0.7305598855018616 0.7069389224052429 0.053583402186632156
0.5317965745925903 0.4666617512702942 -0.02344350703060627
0.5936590433120728 0.8172633647918701 -0.01787235215306282
0.5191639065742493 0.5148835778236389 -0.07907000929117203
0.5573033094406128 0.5620821714401245 -0.06974576413631439
0.5494926571846008 0.8359318375587463 -0.03220409154891968
0.6518002152442932 0.7588275671005249 0.00793203990906477
0.6144767999649048 0.6236344575881958 -0.031057218089699745
0.6266220808029175 0.7916034460067749 -0.003327114973217249
0.6685442328453064 0.6219276189804077 -0.02394234761595726
0.6372982859611511 0.6472944021224976 -0.026230331510305405
0.6909803152084351 0.6603867411613464 -0.005093316547572613
0.555973470211029 0.8626750707626343 -0.03347091004252434
0.5758463144302368 0.5751511454582214 -0.05463835224509239
0.6706904768943787 0.7811164259910583 0.026029905304312706
0.638465404510498 0.8131377696990967 0.010453484952449799
0.6704763770103455 0.723423957824707 0.006945568602532148
0.7530659437179565 0.6787031292915344 0.0722300112247467
0.6999979615211487 0.7320095896720886 0.026960330083966255
0.766313910484314 0.7037375569343567 0.12531006336212158
0.659033477306366 0.6767162680625916 -0.014541735872626305
0.5561500191688538 0.5433871746063232 -0.0502949021756649
0.553067684173584 0.6042665243148804 -0.11158886551856995
0.57341468334198 0.6104975938796997 -0.08614405244588852
0.5394209623336792 0.5886597037315369 -0.1274973750114441
0.5723836421966553 0.45158493518829346 0.0017354250885546207
0.6103139519691467 0.4402090609073639 -0.004741305019706488
0.6438133120536804 0.4386189877986908 -0.006911960896104574
0.6721208095550537 0.4434414505958557 6.385448796208948e-05
0.6925339698791504 0.45430684089660645 0.013469302095472813
0.7084150314331055 0.49303996562957764 0.04644865542650223
0.7814056277275085 0.5582074522972107 0.14463412761688232
0.6908585429191589 0.5189833641052246 0.02557135559618473
0.6659203767776489 0.5235771536827087 0.012427427805960178
0.6343923211097717 0.5223487615585327 0.004327306058257818
0.604080319404602 0.5171104669570923 0.003088179277256131
0.5806931257247925 0.5099279284477234 0.0045823450200259686
0.564314603805542 0.5025443434715271 0.004555393476039171
0.7843600511550903 0.5664056539535522 0.2344929575920105
0.5745718479156494 0.6168989539146423 -0.07421505451202393
0.5367645621299744 0.5463746786117554 -0.08751596510410309
0.532435417175293 0.6050813794136047 -0.12975174188613892
0.5200392603874207 0.6171901226043701 -0.11950865387916565
0.5338437557220459 0.6092386245727539 -0.11797882616519928
0.5688868165016174 0.6243114471435547 -0.06561922281980515
0.514640748500824 0.6190969944000244 -0.1262732893228531
0.5141128897666931 0.6245167255401611 -0.09741892665624619
0.5657386183738708 0.4854222536087036 0.018740840256214142
0.5513567328453064 0.49053770303726196 0.0038187040481716394
0.5427514910697937 0.4934420585632324 -0.014217723160982132
0.676727831363678 0.48099279403686523 0.024398433044552803
0.6902601718902588 0.4729110598564148 0.025317545980215073
