ply
format ascii 1.0
element vertex 468
property float x
property float y
property float z
end_header
0.4821396768093109 0.6937447786331177 -0.05409279465675354
0.46495917439460754 0.6424403786659241 -0.13441260159015656
0.47718214988708496 0.6581246256828308 -0.06927990913391113
0.4543628990650177 0.5590217709541321 -0.10562156140804291
0.4646068811416626 0.6181561946868896 -0.14510506391525269
0.4680742621421814 0.5843203067779541 -0.13848386704921722
0.48137813806533813 0.5017814040184021 -0.08256947994232178
0.3368851840496063 0.478423148393631 0.04696235433220863
0.48638948798179626 0.4479154944419861 -0.07039352506399155
0.48693209886550903 0.4180378317832947 -0.07809573411941528
0.49614888429641724 0.28986892104148865 -0.06800667196512222
0.4834943413734436 0.7034681439399719 -0.04982311651110649
0.48542463779449463 0.7088521122932434 -0.04279784485697746
0.48752227425575256 0.7082566022872925 -0.03281323239207268
0.4888865351676941 0.7501713037490845 -0.018391672521829605
0.48776036500930786 0.7591040730476379 -0.02219441719353199
0.4871112108230591 0.7700194716453552 -0.02691660076379776
0.4869292080402374 0.7829830646514893 -0.02300199493765831
0.4871940612792969 0.8056355118751526 -0.0019522103248164058
0.46783965826034546 0.6538360714912415 -0.1212175264954567
0.4496918022632599 0.6479309797286987 -0.084320567548275
0.2888145446777344 0.3900873363018036 0.15873286128044128
0.40221816301345825 0.49877238273620605 0.014871836639940739
0.3804738521575928 0.49930569529533386 0.01995146833360195
0.35889971256256104 0.49871665239334106 0.02948032319545746
0.32937556505203247 0.48575860261917114 0.05282646045088768
0.4191026985645294 0.49582913517951965 0.011797139421105385
0.36786752939224243 0.4465309977531433 0.007035385817289352
0.39254528284072876 0.4495336413383484 0.0018862397409975529
0.34575754404067993 0.44887083768844604 0.018111806362867355
0.3318544030189514 0.4559370279312134 0.03029407560825348
0.3142105042934418 0.5006685256958008 0.06838005036115646
0.40060919523239136 0.8299680948257446 0.053380437195301056
0.328447163105011 0.4732525944709778 0.055417101830244064
0.27369529008865356 0.48836833238601685 0.18330642580986023
0.29666271805763245 0.4876953065395355 0.09365411847829819
0.365244060754776 0.5966036319732666 0.0008924265275709331
0.4454101622104645 0.6884725093841553 -0.04578663408756256
0.4515765607357025 0.7062472701072693 -0.03235701844096184
0.41070854663848877 0.6872435808181763 -0.021972035989165306
0.39180630445480347 0.6874590516090393 0.010013430379331112
0.42609328031539917 0.702113687992096 -0.01276684831827879
0.4085899591445923 0.6990947127342224 0.015210435725748539
0.3748406767845154 0.7259822487831116 0.06814565509557724
0.4461304545402527 0.6408551335334778 -0.12992900609970093
0.44339051842689514 0.6169161796569824 -0.13900361955165863
0.3070235848426819 0.4370899200439453 0.03580278158187866
0.41840583086013794 0.5433591604232788 -0.016000933945178986
0.399557888507843 0.6196491718292236 -0.060998089611530304
0.40070417523384094 0.6054078936576843 -0.053821612149477005
0.3009306788444519 0.5851085782051086 0.04506757855415344
0.4482548236846924 0.5856630206108093 -0.12661154568195343
0.3523479104042053 0.4196765422821045 -0.018346097320318222
0.3245818614959717 0.4236028790473938 0.006539945490658283
0.30456429719924927 0.3529662787914276 0.10357452183961868
0.4420626759529114 0.443453311920166 -0.05433693528175354
0.4132099151611328 0.45746922492980957 0.005820371210575104
0.3549894690513611 0.6945300698280334 0.0711059421300888
0.29643234610557556 0.6993589997291565 0.27038338780403137
0.4163067936897278 0.6338099837303162 -0.05303503945469856
0.4358675181865692 0.6438212394714355 -0.05961604416370392
0.3704090118408203 0.6937124133110046 0.07069234549999237
0.3827970027923584 0.6968109607696533 0.06303902715444565
0.31685855984687805 0.4083653390407562 0.018237285315990448
0.3996753692626953 0.6256422996520996 -0.046521469950675964
0.3905077576637268 0.42496752738952637 -0.03926261514425278
0.38683244585990906 0.40630072355270386 -0.04681345075368881
0.3745642900466919 0.30285489559173584 -0.010399325750768185
0.3109886050224304 0.38032054901123047 0.05577238276600838
0.382663369178772 0.3522433638572693 -0.029993783682584763
0.2984675168991089 0.42596471309661865 0.05686752870678902
0.2934271991252899 0.4096025228500366 0.10567762702703476
0.4477269649505615 0.6997403502464294 -0.04061814025044441
0.4189811944961548 0.6965842843055725 -0.017085997387766838
0.39990469813346863 0.6933295130729675 0.011410887353122234
0.42189088463783264 0.637558102607727 -0.050184525549411774
0.3759549856185913 0.6946606040000916 0.06631133705377579
0.38960549235343933 0.7160680890083313 0.05171457678079605
0.38821402192115784 0.6980478763580322 0.06164487823843956
0.42557331919670105 0.6345269083976746 -0.08949264883995056
0.4145263731479645 0.6968464255332947 0.01782616414129734
0.4324813485145569 0.7009480595588684 -0.004048894625157118
0.4563533663749695 0.7057173252105713 -0.022190505638718605
0.4498559832572937 0.8013275861740112 0.0079718679189682
0.451057493686676 0.7778487801551819 -0.011836965568363667
0.4522513747215271 0.7648004293441772 -0.014719496481120586
0.45456045866012573 0.75425785779953 -0.009663774631917477
0.4580828547477722 0.7467304468154907 -0.006588875316083431
0.4150654673576355 0.7275371551513672 0.030222300440073013
0.4103938937187195 0.7296997308731079 0.027585720643401146
0.4045436978340149 0.7345802187919617 0.02646118402481079
0.40062415599823 0.7414063811302185 0.033321838825941086
0.374508798122406 0.6703693866729736 0.014475618489086628
0.2824145555496216 0.5838077664375305 0.29161128401756287
0.4718305766582489 0.6564377546310425 -0.08803251385688782
0.4033363461494446 0.7170305848121643 0.05107298493385315
0.3957924246788025 0.7157947421073914 0.04981021210551262
0.4444064795970917 0.6544230580329895 -0.05787994712591171
0.4069691300392151 0.6373491287231445 -0.029103770852088928
0.4402009844779968 0.6496735215187073 -0.06012009084224701
0.3949383497238159 0.5523998141288757 -0.001698436914011836
0.35570627450942993 0.563530683517456 0.011908510699868202
0.39765769243240356 0.6125519871711731 -0.038362130522727966
0.33065104484558105 0.32321441173553467 0.04511195048689842
0.33923932909965515 0.3601306080818176 0.011514157056808472
0.3469090759754181 0.4010425806045532 -0.014923648908734322
0.39341747760772705 0.7561483383178711 0.05199258401989937
0.4346059560775757 0.41394180059432983 -0.06636526435613632
0.4313214421272278 0.3506911098957062 -0.05760433152318001
0.4277678430080414 0.29279589653015137 -0.048622943460941315
0.3397931158542633 0.49407923221588135 0.04211944341659546
0.29260334372520447 0.5155220031738281 0.08715205639600754
0.42915838956832886 0.49194422364234924 0.012590964324772358
0.31423497200012207 0.46302881836891174 0.05375183746218681
0.4338911771774292 0.5319597125053406 -0.029526524245738983
0.4114752411842346 0.6174697279930115 -0.08836144953966141
0.2729952037334442 0.5299431085586548 0.12043508142232895
0.30238640308380127 0.5294167995452881 0.06614290177822113
0.3263952136039734 0.5382305383682251 0.040768641978502274
0.367792010307312 0.5379998683929443 0.02139979414641857
0.3997812867164612 0.5319782495498657 0.009706854820251465
0.4219638705253601 0.5245203971862793 -0.0033167691435664892
0.4608412981033325 0.506909966468811 -0.06745639443397522
0.26507022976875305 0.5744349956512451 0.11999741196632385
0.3011840581893921 0.46047449111938477 0.0663767084479332
0.4561605155467987 0.6521278619766235 -0.11768302321434021
0.41509294509887695 0.5677643418312073 -0.02489749900996685
0.28005218505859375 0.4824187755584717 0.26123979687690735
0.4376624524593353 0.5152240991592407 -0.011919889599084854
0.39741626381874084 0.6106418371200562 -0.012316231615841389
0.3230496644973755 0.47476786375045776 0.06119789183139801
0.4134899377822876 0.5998352766036987 -0.08040367811918259
0.2859645187854767 0.639434814453125 0.28648579120635986
0.42835235595703125 0.4840588867664337 0.01833942160010338
0.43038666248321533 0.5909700989723206 -0.10822587460279465
0.32198089361190796 0.7586867809295654 0.1520649939775467
0.3341277241706848 0.7866947650909424 0.19194456934928894
0.2624935805797577 0.5821293592453003 0.20768670737743378
0.295348584651947 0.7263928651809692 0.17808650434017181
0.2832615077495575 0.4455147385597229 0.1507987082004547
0.400236576795578 0.8544256687164307 0.06767357885837555
0.46206405758857727 0.6552070379257202 -0.08497793972492218
0.3945407271385193 0.5804643630981445 -0.010969950817525387
0.28336405754089355 0.49118027091026306 0.121148020029068
0.3602255582809448 0.48440107703208923 0.03028646484017372
0.3801303505897522 0.4859621226787567 0.021687839180231094
0.384405255317688 0.7175980806350708 0.05720220506191254
0.26416945457458496 0.6212339997291565 0.13365371525287628
0.4407443106174469 0.8905619382858276 0.06573265045881271
0.3847110867500305 0.8483406901359558 0.12560983002185822
0.36253952980041504 0.8216903805732727 0.15666672587394714
0.49097758531570435 0.35099858045578003 -0.07430937886238098
0.4861662983894348 0.8993369936943054 0.049666628241539
0.39839956164360046 0.48570460081100464 0.016999458894133568
0.415153831243515 0.4843185842037201 0.017049016430974007
0.4247591495513916 0.48419174551963806 0.019303932785987854
0.29089850187301636 0.4544943571090698 0.0922052189707756
0.4097093641757965 0.46868225932121277 0.013146345503628254
0.3910750150680542 0.46161168813705444 0.011488288640975952
0.3710211515426636 0.4591805338859558 0.01575275883078575
0.3511784076690674 0.46165308356285095 0.02464161440730095
0.33919793367385864 0.4670979976654053 0.03479238227009773
0.280778169631958 0.43081194162368774 0.21520346403121948
0.3465048670768738 0.48167580366134644 0.03926633298397064
0.47982358932495117 0.6694557070732117 -0.05845843255519867
0.39523646235466003 0.6640427708625793 -0.013354986906051636
0.41496026515960693 0.6326298713684082 -0.06421306729316711
0.4430309236049652 0.6673539876937866 -0.04907478764653206
0.4856008291244507 0.47229015827178955 -0.06743864715099335
0.3515637516975403 0.7931416630744934 0.13005731999874115
0.37588000297546387 0.8232411742210388 0.10122010856866837
0.4360755383968353 0.8766236901283264 0.03686100244522095
0.3128662705421448 0.7491471767425537 0.2333502620458603
0.42221641540527344 0.47819066047668457 0.016135316342115402
0.4428821802139282 0.5442348718643188 -0.06707819551229477
0.48388397693634033 0.8851566314697266 0.022291693836450577
0.40858346223831177 0.8727712631225586 0.0920354574918747
0.2656210958957672 0.6335242986679077 0.2093924731016159
0.4339560568332672 0.7384650707244873 0.010547344572842121
0.42904624342918396 0.7436875104904175 0.008225401863455772
0.4251065254211426 0.7519367933273315 0.007147203665226698
0.4224986135959625 0.7636580467224121 0.01239802222698927
0.4167589545249939 0.7828050255775452 0.030810320749878883
0.3921727240085602 0.6955999732017517 0.041184697300195694
0.38409852981567383 0.6919540166854858 0.043259210884571075
0.37733834981918335 0.687822699546814 0.04305795952677727
0.35865408182144165 0.6791775226593018 0.045215945690870285
0.28293994069099426 0.634876549243927 0.08221176266670227
0.448006272315979 0.518535852432251 -0.04671517759561539
0.44380927085876465 0.4723537564277649 -0.006027660332620144
0.431346595287323 0.4731672406196594 0.008041090331971645
0.39990270137786865 0.6940774917602539 0.04247913137078285
0.28994518518447876 0.6908652186393738 0.12874653935432434
0.4588466286659241 0.47468575835227966 -0.04325240105390549
0.4087222218513489 0.8042929768562317 0.04273756593465805
0.47269684076309204 0.5565240383148193 -0.11848912388086319
0.457339346408844 0.5346057415008545 -0.08951281011104584
0.4769216477870941 0.5305882096290588 -0.0994214415550232
0.42413529753685 0.5781506896018982 -0.06105580925941467
0.48371657729148865 0.8615255355834961 0.007526099681854248
0.48563116788864136 0.8310256004333496 0.0033133262768387794
0.44355279207229614 0.8254010081291199 0.01697966456413269
0.363200843334198 0.7386620044708252 0.08154112845659256
0.3799198567867279 0.626354992389679 0.002120211021974683
0.38463425636291504 0.774506688117981 0.0653371810913086
0.3265475332736969 0.6202999949455261 0.022078052163124084
0.35823655128479004 0.6456740498542786 0.020582912489771843
0.30999046564102173 0.6527093052864075 0.055419884622097015
0.43656787276268005 0.8541793823242188 0.02307186834514141
0.41209927201271057 0.5867326259613037 -0.039240773767232895
0.35094988346099854 0.7625197768211365 0.10332850366830826
0.3771013617515564 0.7970084547996521 0.08230499178171158
0.3415646255016327 0.7036770582199097 0.08065606653690338
0.27192962169647217 0.6617186069488525 0.1472369283437729
0.31792980432510376 0.7143669128417969 0.10286536067724228
0.2762293815612793 0.6819010376930237 0.2056034952402115
0.3409997820854187 0.6654172539710999 0.04555082321166992
0.4296762943267822 0.556111752986908 -0.044392067939043045
0.41776618361473083 0.6301100850105286 -0.09421448409557343
0.40566888451576233 0.6289276480674744 -0.06508003920316696
0.4260396957397461 0.6173405647277832 -0.11479748040437698
0.42727094888687134 0.45517510175704956 -0.010617511346936226
0.39237141609191895 0.4418593645095825 -0.010571221821010113
0.36121273040771484 0.4376140534877777 -0.003326989943161607
0.33618617057800293 0.43976539373397827 0.011741598136723042
0.32037878036499023 0.4477404057979584 0.030270984396338463
0.31253963708877563 0.48128944635391235 0.07300813496112823
0.26600003242492676 0.5346853733062744 0.19824931025505066
0.32404249906539917 0.5094151496887207 0.05612723156809807
0.3462105393409729 0.5165793895721436 0.038423411548137665
0.3752456307411194 0.5175694227218628 0.0238950252532959
0.40261393785476685 0.5143585801124573 0.01468831580132246
0.42244598269462585 0.5093713998794556 0.007072751875966787
0.43546587228775024 0.5041949152946472 0.002192354528233409
0.2822345495223999 0.532123863697052 0.28511935472488403
0.40723827481269836 0.6318153738975525 -0.052593130618333817
0.4382730722427368 0.5670070648193359 -0.08419034630060196
0.43170082569122314 0.6355980038642883 -0.11594028025865555
0.4463633596897125 0.646443247795105 -0.1070457175374031
0.433322936296463 0.6378270387649536 -0.10377328097820282
0.41313034296035767 0.6373503804206848 -0.044867340475320816
0.4495433568954468 0.649703323841095 -0.11390340328216553
0.4547349214553833 0.6523985266685486 -0.0845959335565567
0.4353262782096863 0.4866107106208801 0.011731556616723537
0.4457840919494629 0.49371257424354553 -0.005830503534525633
0.44994229078292847 0.49983471632003784 -0.02499300241470337
0.3325715661048889 0.4709341526031494 0.043859876692295074
0.3230764865875244 0.46380195021629333 0.04602827876806259
0.49339789152145386 0.5594548583030701 -0.11410001665353775
0.6663317680358887 0.4832329750061035 -0.01516636461019516
0.4976612627506256 0.6491698622703552 -0.09092608839273453
0.7759580612182617 0.38899141550064087 0.06309197843074799
0.591655433177948 0.50137859582901 -0.0255443025380373
0.6152098178863525 0.5024409294128418 -0.028017502278089523
0.6398868560791016 0.5021853446960449 -0.026344234123826027
0.6788262128829956 0.49047544598579407 -0.012753748334944248
0.5729418396949768 0.4979934096336365 -0.019653696566820145
0.6291571259498596 0.44939345121383667 -0.04392056167125702
0.6026067137718201 0.45124050974845886 -0.03832823783159256
0.6545771956443787 0.45258575677871704 -0.0402570478618145
0.6722179651260376 0.46018004417419434 -0.032729893922805786
0.6986676454544067 0.5040977001190186 -0.002529352670535445
0.5841360688209534 0.8370400667190552 0.022383159026503563
0.6786606311798096 0.478588730096817 -0.00956541858613491
0.7857303023338318 0.4914591312408447 0.08740654587745667
0.7294684648513794 0.4914121925830841 0.01472901739180088
0.6170341372489929 0.5975633859634399 -0.04175546020269394
0.5237446427345276 0.688603401184082 -0.05821686238050461
0.52530437707901 0.7062225937843323 -0.044454820454120636
0.5694282054901123 0.6875587701797485 -0.04679081588983536
0.6009398698806763 0.6872678995132446 -0.024147676303982735
0.55907142162323 0.7021850943565369 -0.03586377948522568
0.5866149663925171 0.6981895565986633 -0.015356001444160938
0.6326525211334229 0.7274009585380554 0.024271894246339798
0.48615482449531555 0.6416992545127869 -0.13529175519943237
0.4881822466850281 0.6173407435417175 -0.14548751711845398
0.7075643539428711 0.4415370523929596 -0.038708917796611786
0.5611543655395508 0.5444263219833374 -0.043370142579078674
0.559662401676178 0.6202664971351624 -0.08608762174844742
0.562375545501709 0.6057615876197815 -0.07978734374046326
0.697576105594635 0.5875989198684692 -0.024369211867451668
0.490328848361969 0.5862318873405457 -0.13518764078617096
0.6417807340621948 0.42233729362487793 -0.07013196498155594
0.6796221137046814 0.4274938404560089 -0.058546122163534164
0.7449398040771484 0.35015079379081726 0.017924068495631218
0.5354520678520203 0.44411027431488037 -0.07146134227514267
0.580756664276123 0.4588770270347595 -0.026417003944516182
0.6558884978294373 0.6950718760490417 0.019382908940315247
0.7723119854927063 0.711593508720398 0.18174324929714203
0.5434081554412842 0.6346024870872498 -0.07215745002031326
0.5214067697525024 0.6439446210861206 -0.06909862160682678
0.6424059271812439 0.6920678019523621 0.024762196466326714
0.6302311420440674 0.694705069065094 0.0217214934527874
0.6943386197090149 0.41177254915237427 -0.051541175693273544
0.5654817819595337 0.625576376914978 -0.07148990035057068
0.5939842462539673 0.42656439542770386 -0.07505867630243301
0.5980823636054993 0.4073357582092285 -0.08338788896799088
0.6358344554901123 0.2993180751800537 -0.05891596898436546
0.717563271522522 0.3804476857185364 -0.020750032737851143
0.612810492515564 0.3511127829551697 -0.07172352820634842
0.7252410054206848 0.42953601479530334 -0.02302374504506588
0.749417245388031 0.410970002412796 0.019014593213796616
0.5249317288398743 0.6999701261520386 -0.053330834954977036
0.5635352730751038 0.6968764662742615 -0.04132821038365364
0.5934963822364807 0.6930498480796814 -0.021121708676218987
0.538638710975647 0.6379328966140747 -0.06540501862764359
0.6368193626403809 0.6928266286849976 0.02340044267475605
0.6176277995109558 0.7151291370391846 0.01493034791201353
0.6259052753448486 0.696192741394043 0.021349143236875534
0.5219770073890686 0.63649982213974 -0.10647230595350266
0.5836148262023926 0.6952674388885498 -0.011143186129629612
0.5559878349304199 0.70029616355896 -0.026021897792816162
0.5247026681900024 0.7054455876350403 -0.03489205613732338
0.5292556881904602 0.8026973009109497 -0.004766871687024832
0.5280578136444092 0.778867244720459 -0.026036055758595467
0.5272411108016968 0.7658841609954834 -0.029548248276114464
0.5262735486030579 0.755301833152771 -0.024081818759441376
0.5247305631637573 0.7475754022598267 -0.0205405130982399
0.5848245620727539 0.7273891568183899 0.0010307410266250372
0.5887617468833923 0.7296155095100403 -0.002141739707440138
0.5940118432044983 0.7346910238265991 -0.003840162418782711
0.5979609489440918 0.7419557571411133 0.001100762514397502
0.6134812235832214 0.6703011393547058 -0.023152504116296768
0.8006594777107239 0.5912781953811646 0.19364750385284424
0.6037575602531433 0.716122031211853 0.015514795668423176
0.6108913421630859 0.7146539092063904 0.014082014560699463
0.5129557847976685 0.6544514298439026 -0.0673748329281807
0.5617903470993042 0.6366716623306274 -0.04921567812561989
0.5168670415878296 0.6496837735176086 -0.06938791275024414
0.5880785584449768 0.5534421801567078 -0.03841516748070717
0.6314244866371155 0.5648416876792908 -0.03782734274864197
0.5705452561378479 0.6124662756919861 -0.06536714732646942
0.6998344659805298 0.3194611370563507 -0.024604834616184235
0.6738402843475342 0.3593710660934448 -0.049846865236759186
0.6505758762359619 0.40315085649490356 -0.07002361863851547
0.6050781011581421 0.7585104703903198 0.015371233224868774
0.5424818992614746 0.41395485401153564 -0.08459118753671646
0.5546400547027588 0.34963852167129517 -0.07896316796541214
0.5702773928642273 0.29051753878593445 -0.07300930470228195
0.663857102394104 0.4981232285499573 -0.020042741671204567
0.7270489931106567 0.5188520550727844 0.008831720799207687
0.5615835785865784 0.4939790666103363 -0.01556894276291132
0.6994528770446777 0.46752065420150757 -0.017738081514835358
0.5421374440193176 0.5327688455581665 -0.051174700260162354
0.5373921394348145 0.6189420223236084 -0.10855784267187119
0.758333683013916 0.5341111421585083 0.03186552971601486
0.706899881362915 0.5322595834732056 -0.007842691615223885
0.6725562810897827 0.5401068329811096 -0.023136135190725327
0.6235488653182983 0.5396971106529236 -0.02778657339513302
0.5879639983177185 0.5336066484451294 -0.027769647538661957
0.563172459602356 0.5259073376655579 -0.031236642971634865
0.505118191242218 0.5072224736213684 -0.07666328549385071
0.7592602372169495 0.5791905522346497 0.031443044543266296
0.7207062244415283 0.46452152729034424 -0.011762380599975586
0.4809343218803406 0.6527479887008667 -0.12188541144132614
0.5586897730827332 0.5684402585029602 -0.05134138464927673
0.8041963577270508 0.4848209619522095 0.1588231772184372
0.5443830490112305 0.5163615942001343 -0.033406563103199005
0.5773960947990417 0.6102204918861389 -0.03967960178852081
0.6878309845924377 0.4797443747520447 -0.0067064096219837666
0.5409253835678101 0.6006407737731934 -0.10072032362222672
0.7918152213096619 0.6498066782951355 0.19280771911144257
0.5646474361419678 0.4865574836730957 -0.01067525427788496
0.5149803161621094 0.5919003486633301 -0.12303727865219116
0.7046765089035034 0.7714130878448486 0.0854744240641594
0.7034224271774292 0.8017745018005371 0.12485796958208084
0.7906553745269775 0.5892193913459778 0.11184729635715485
0.743202805519104 0.7384666800498962 0.09996593743562698
0.769059956073761 0.4471135139465332 0.05879979208111763
0.5843961834907532 0.8633512258529663 0.03543602675199509
0.4821539521217346 0.6554602980613708 -0.0877683237195015
0.5839246511459351 0.580824077129364 -0.04381360858678818
0.7538967132568359 0.4949610233306885 0.03425782918930054
0.6363756656646729 0.48842865228652954 -0.02393370307981968
0.6143597364425659 0.48924052715301514 -0.026250479742884636
0.6236097812652588 0.7170400619506836 0.01819342002272606
0.7619550228118896 0.6277357339859009 0.04708275571465492
0.5360382199287415 0.8962327241897583 0.047219421714544296
0.6177628040313721 0.8607898950576782 0.08149154484272003
0.6563795804977417 0.8362041115760803 0.10175637900829315
0.5955164432525635 0.48845961689949036 -0.02403627522289753
0.5781364440917969 0.4867875277996063 -0.01818336732685566
0.568253755569458 0.4866878390312195 -0.012228692881762981
0.7419074177742004 0.4578482508659363 0.007731507997959852
0.5861954689025879 0.4714752435684204 -0.02345418557524681
0.6067220568656921 0.4649186134338379 -0.031335122883319855
0.6269850134849548 0.4634685516357422 -0.03408641740679741
0.6483125686645508 0.46661514043807983 -0.031396154314279556
0.662743330001831 0.47214749455451965 -0.025369342416524887
0.7945941686630249 0.4309435486793518 0.1147979348897934
0.6532588005065918 0.48626527190208435 -0.019767725840210915
0.5809375643730164 0.6636771559715271 -0.041957926005125046
0.5414412617683411 0.6338995099067688 -0.08178193867206573
0.5207185745239258 0.6675384640693665 -0.06129733845591545
0.6621183753013611 0.8055369853973389 0.07537129521369934
0.62452632188797 0.8344932198524475 0.05759648606181145
0.5364012122154236 0.8818486928939819 0.018559033051133156
0.7407591342926025 0.7628546357154846 0.15385599434375763
0.5713335871696472 0.4810073673725128 -0.016279766336083412
0.5191371440887451 0.5449541211128235 -0.08129570633172989
0.5786477327346802 0.8822259306907654 0.0592777244746685
0.7862540483474731 0.642476499080658 0.11718491464853287
0.5565314292907715 0.7393113970756531 -0.01213162299245596
0.5602993965148926 0.744491696357727 -0.01553313434123993
0.5631997585296631 0.7529479265213013 -0.017685014754533768
0.5651840567588806 0.7648098468780518 -0.013254874385893345
0.5715155005455017 0.7850797176361084 0.0028830624651163816
0.6142510771751404 0.6940922141075134 0.003854250069707632
0.62131267786026 0.6908279657363892 0.0030364415142685175
0.627848744392395 0.6867244839668274 0.0011162725277245045
0.6423122882843018 0.6788585186004639 -0.0019299491541460156
0.7272257804870605 0.6398017406463623 0.006196027155965567
0.5231263041496277 0.5191904306411743 -0.062210649251937866
0.5432226061820984 0.47336822748184204 -0.024796416983008385
0.5600411891937256 0.47487401962280273 -0.01870032399892807
0.6085339188575745 0.6920374035835266 0.006462820339947939
0.7342544794082642 0.6992058753967285 0.05301046743988991
0.5186249613761902 0.4751427173614502 -0.054812002927064896
0.5788966417312622 0.808900773525238 0.013816144317388535
0.4991835057735443 0.5349816679954529 -0.09702031314373016
0.5373956561088562 0.5788663625717163 -0.07988867163658142
0.533007025718689 0.8281009197235107 0.0029277328867465258
0.6434874534606934 0.7437890768051147 0.03219739347696304
0.6012373566627502 0.6263414025306702 -0.03343166038393974
0.6140281558036804 0.7798682451248169 0.02630053274333477
0.6638622283935547 0.6224274039268494 -0.03371100127696991
0.6308761835098267 0.6468998193740845 -0.024144204333424568
0.691537618637085 0.6567575335502625 -0.00849644560366869
0.5360317230224609 0.8581026792526245 0.005641505122184753
0.5567759275436401 0.5870472192764282 -0.06323700398206711
0.6577385663986206 0.7715708017349243 0.04962366819381714
0.6216106414794922 0.8057361841201782 0.04079577699303627
0.6677721738815308 0.7077105045318604 0.021602166816592216
0.758812427520752 0.6700419783592224 0.06366127729415894
0.6971649527549744 0.7221765518188477 0.037313107401132584
0.7724443078041077 0.6926771402359009 0.11700760573148727
0.6600061655044556 0.6668091416358948 -0.008900931105017662
0.5384630560874939 0.5567253828048706 -0.06497760862112045
0.5291491746902466 0.6319560408592224 -0.11239985376596451
0.5518742799758911 0.6300472021102905 -0.08622429519891739
0.5131614208221436 0.6188721656799316 -0.12962134182453156
0.5605629086494446 0.4567512571811676 -0.03673835098743439
0.598147988319397 0.4442129135131836 -0.048583146184682846
0.6329878568649292 0.4405760169029236 -0.05311742052435875
0.6635730266571045 0.4434097111225128 -0.048352811485528946
0.6864908933639526 0.4520728588104248 -0.0369497686624527
0.70502769947052 0.4858693778514862 0.0005267974338494241
0.790569543838501 0.5398735404014587 0.10003155469894409
0.6826224327087402 0.5126044750213623 -0.010878569446504116
0.653823733329773 0.5192728638648987 -0.02002670243382454
0.6199210286140442 0.5200437903404236 -0.024466661736369133
0.5893920063972473 0.5163336992263794 -0.023436235263943672
0.5673255920410156 0.5112549066543579 -0.021530909463763237
0.5522374510765076 0.5056562423706055 -0.021131746470928192
0.8036791086196899 0.5370684862136841 0.18316355347633362
0.5546591281890869 0.6321836709976196 -0.07357913255691528
0.5153161287307739 0.5677926540374756 -0.09883994609117508
0.5063599348068237 0.6374697089195251 -0.1274445354938507
0.4960715174674988 0.6478909254074097 -0.11369216442108154
0.5096446871757507 0.6399735808372498 -0.11541704088449478
0.5508371591567993 0.6371409893035889 -0.06261229515075684
0.4897509217262268 0.6509138941764832 -0.11929038166999817
0.491181343793869 0.6533231139183044 -0.08929776400327682
0.5549423694610596 0.4886135756969452 -0.012246472761034966
0.5403169393539429 0.4948863387107849 -0.02368379756808281
0.5303630828857422 0.5005438923835754 -0.0400845929980278
0.6716311573982239 0.4763360619544983 -0.018887106329202652
0.6855157613754272 0.46856802701950073 -0.02032190002501011
