ply
format ascii 1.0
element vertex 468
property float x
property float y
property float z
end_header
0.5436193943023682 0.7263181805610657 -0.05431365594267845
0.5749915242195129 0.6453216671943665 -0.11908920109272003
0.5474675893783569 0.668556272983551 -0.05869113281369209
0.5402610898017883 0.5581899285316467 -0.10520066320896149
0.5777328014373779 0.6186765432357788 -0.12834963202476501
0.5706996917724609 0.583084225654602 -0.12146145850419998
0.5438047647476196 0.4956861734390259 -0.0695967897772789
0.3360576331615448 0.49015477299690247 -0.05107126757502556
0.5365768671035767 0.43447038531303406 -0.05921337381005287
0.5388906002044678 0.400104284286499 -0.06695117056369781
0.527926504611969 0.2624625861644745 -0.052500832825899124
0.5413605570793152 0.7383315563201904 -0.050808243453502655
0.5374692678451538 0.7463610172271729 -0.04297329857945442
0.5324854850769043 0.748508095741272 -0.0322459377348423
0.5334376096725464 0.753555178642273 -0.02803109399974346
0.5353320240974426 0.7632452249526978 -0.030759304761886597
0.5355643630027771 0.7755613923072815 -0.03488065302371979
0.5332415699958801 0.7891721725463867 -0.0309650506824255
0.5235393047332764 0.8124510049819946 -0.008123781532049179
0.5671334266662598 0.658146858215332 -0.10651697218418121
0.5337200164794922 0.6575358510017395 -0.08288022130727768
0.18249250948429108 0.37782028317451477 0.007085366174578667
0.4135998785495758 0.5115129947662354 -0.047459110617637634
0.3884904086589813 0.5146505832672119 -0.055162880569696426
0.36195963621139526 0.5138877630233765 -0.057913847267627716
0.32137346267700195 0.4988406300544739 -0.05133404582738876
0.4346027076244354 0.5041383504867554 -0.035839058458805084
0.38190409541130066 0.4443017244338989 -0.07158632576465607
0.4091733992099762 0.4449754059314728 -0.05945929139852524
0.3545985817909241 0.44903841614723206 -0.0727342888712883
0.33425331115722656 0.458448588848114 -0.06878500431776047
0.29631465673446655 0.5161062479019165 -0.04450039938092232
0.425671249628067 0.8636978268623352 -0.013086222112178802
0.3231734335422516 0.4828459620475769 -0.04732859507203102
0.17240038514137268 0.4989507794380188 0.025012526661157608
0.25730299949645996 0.4985755681991577 -0.033486850559711456
0.40482044219970703 0.620552122592926 -0.06039147451519966
0.5140791535377502 0.7241443395614624 -0.06313273310661316
0.5106831789016724 0.7472759485244751 -0.049707964062690735
0.4770287573337555 0.7322834134101868 -0.0618351511657238
0.44867706298828125 0.7405345439910889 -0.053652677685022354
0.4833841919898987 0.7491534948348999 -0.05089598149061203
0.45963573455810547 0.7505406737327576 -0.042193394154310226
0.4032844603061676 0.7776763439178467 -0.025633227080106735
0.5543713569641113 0.6457809209823608 -0.1235053613781929
0.5538417100906372 0.6198905110359192 -0.13323785364627838
0.29389727115631104 0.43679648637771606 -0.08000189810991287
0.45464569330215454 0.5528750419616699 -0.05280204117298126
0.4726395905017853 0.6372633576393127 -0.08909491449594498
0.4667186141014099 0.6217561960220337 -0.08386891335248947
0.3144693970680237 0.6195108294487 -0.06340506672859192
0.5481252074241638 0.5865793824195862 -0.12412981688976288
0.3752046823501587 0.4100572168827057 -0.09592296183109283
0.33096444606781006 0.4185655117034912 -0.09292268007993698
0.23174747824668884 0.3312287926673889 -0.030504582449793816
0.4877799451351166 0.430771142244339 -0.07279753684997559
0.4316716194152832 0.4528490900993347 -0.043134596198797226
0.38338732719421387 0.7554988861083984 -0.03191039711236954
0.1630350649356842 0.7516180872917175 0.11470865458250046
0.48842841386795044 0.6517496109008789 -0.07211058586835861
0.5088766813278198 0.6588380336761475 -0.06355128437280655
0.41107866168022156 0.7521846294403076 -0.02658221125602722
0.4208095967769623 0.750500500202179 -0.02720593474805355
0.31205135583877563 0.4005301296710968 -0.08807862550020218
0.465066134929657 0.6467967629432678 -0.07474254071712494
0.4273732602596283 0.4127214252948761 -0.08923142403364182
0.4245751202106476 0.39071130752563477 -0.09662948548793793
0.37632620334625244 0.27265164256095886 -0.08037160336971283
0.2747691869735718 0.3652999997138977 -0.06455758959054947
0.40585553646087646 0.32960066199302673 -0.09024269878864288
0.26923617720603943 0.42380091547966003 -0.06726505607366562
0.2276056408882141 0.40237128734588623 -0.03246515989303589
0.5128790140151978 0.7383958101272583 -0.059471726417541504
0.4821282625198364 0.7430987358093262 -0.057329874485731125
0.4555038809776306 0.7461188435554504 -0.04944872111082077
0.4927964210510254 0.6557524800300598 -0.06385616958141327
0.4166819453239441 0.7514337301254272 -0.02667919546365738
0.4320712387561798 0.7561199069023132 -0.03290139138698578
0.422294944524765 0.7496901154518127 -0.026860736310482025
0.5131793022155762 0.6462525129318237 -0.10308780521154404
0.4594738781452179 0.7477132678031921 -0.03700423240661621
0.4829806685447693 0.7485758662223816 -0.040399011224508286
0.5077832937240601 0.7488402128219604 -0.040153618901968
0.4926167130470276 0.8147342205047607 -0.017495082691311836
0.5042312145233154 0.7894078493118286 -0.040578700602054596
0.5077162384986877 0.7749431133270264 -0.04426779970526695
0.5086858868598938 0.762576162815094 -0.039717309176921844
0.5084740519523621 0.7542821168899536 -0.03581735119223595
0.4575696289539337 0.7527941465377808 -0.03424946591258049
0.45569613575935364 0.7558056712150574 -0.03755403310060501
0.45171427726745605 0.7623656392097473 -0.04093825817108154
0.44665664434432983 0.7709028124809265 -0.038876939564943314
0.4275505542755127 0.7136399745941162 -0.05362420901656151
0.12993943691253662 0.6150524616241455 0.1255277842283249
0.5577600598335266 0.6627362370491028 -0.07589519023895264
0.44022083282470703 0.7520172595977783 -0.029784077778458595
0.4371947944164276 0.7530335187911987 -0.0319073386490345
0.517003059387207 0.6696957945823669 -0.06270217150449753
0.4686598479747772 0.6614131331443787 -0.05112539604306221
0.5133681297302246 0.6645433902740479 -0.06374762207269669
0.42628490924835205 0.568144679069519 -0.054087501019239426
0.38415175676345825 0.5869652032852173 -0.061388999223709106
0.45726338028907776 0.6321610808372498 -0.07083337754011154
0.29514065384864807 0.29531294107437134 -0.06178179010748863
0.3326983153820038 0.33991068601608276 -0.0821668803691864
0.3651096224784851 0.38808682560920715 -0.09685462713241577
0.4284049868583679 0.7938177585601807 -0.02786710485816002
0.48384976387023926 0.39624297618865967 -0.08644171059131622
0.4700785279273987 0.3282783031463623 -0.08323605358600616
0.45107629895210266 0.26284754276275635 -0.0758880004286766
0.33684828877449036 0.5091123580932617 -0.05572408810257912
0.2625696063041687 0.5350820422172546 -0.03975026309490204
0.44845739006996155 0.4968193471431732 -0.029408033937215805
0.2993548512458801 0.46837979555130005 -0.06051800400018692
0.47560209035873413 0.5364980697631836 -0.05634875223040581
0.497373104095459 0.6294699907302856 -0.10701575875282288
0.22131997346878052 0.553136944770813 -0.025202790275216103
0.2899476885795593 0.5539845824241638 -0.053315170109272
0.33234208822250366 0.5630916357040405 -0.060530371963977814
0.38547056913375854 0.5576257109642029 -0.05396213009953499
0.4212602972984314 0.5459006428718567 -0.04595733433961868
0.44839924573898315 0.5332521200180054 -0.04292880743741989
0.5192654132843018 0.502962589263916 -0.07068157941102982
0.22618284821510315 0.6103522777557373 -0.02684405818581581
0.27194488048553467 0.4647151827812195 -0.05863171070814133
0.5546140074729919 0.6579233407974243 -0.11042481660842896
0.46198055148124695 0.5794292688369751 -0.058533843606710434
0.1315351128578186 0.49154675006866455 0.09438882023096085
0.46999824047088623 0.5193650722503662 -0.040671564638614655
0.4479432702064514 0.6324924826622009 -0.04723212122917175
0.3115045726299286 0.4839187264442444 -0.04701472073793411
0.49053120613098145 0.6105806827545166 -0.09998273849487305
0.13809801638126373 0.6821429133415222 0.12484923005104065
0.44594109058380127 0.48764568567276 -0.026051878929138184
0.5204233527183533 0.5960521697998047 -0.11688680201768875
0.2747008204460144 0.8171295523643494 0.023877931758761406
0.25606799125671387 0.846555233001709 0.06542165577411652
0.16705748438835144 0.6158322691917419 0.04619103670120239
0.22694873809814453 0.7824346423149109 0.036369167268276215
0.19669684767723083 0.44577550888061523 0.001312816864810884
0.4147615432739258 0.8908228874206543 -0.0013052626745775342
0.5481396913528442 0.6619084477424622 -0.07748736441135406
0.43587416410446167 0.5984026193618774 -0.05528189614415169
0.22369186580181122 0.5026648044586182 -0.019746463745832443
0.3671322762966156 0.499201238155365 -0.055314745754003525
0.39019066095352173 0.5007157325744629 -0.05367416515946388
0.4252675175666809 0.761271595954895 -0.031535305082798004
0.224895641207695 0.6648316383361816 -0.011216836050152779
0.45643848180770874 0.9185346961021423 0.023517906665802002
0.3622794449329376 0.8968700170516968 0.03623630851507187
0.3145464360713959 0.8779386281967163 0.04827797785401344
0.5353280305862427 0.32956647872924805 -0.0621815025806427
0.5056763887405396 0.9157958030700684 0.03690064325928688
0.4102811813354492 0.498193621635437 -0.04674938693642616
0.42896535992622375 0.4929500222206116 -0.03705880045890808
0.4404614567756653 0.4900548458099365 -0.02886294014751911
0.24203833937644958 0.45795270800590515 -0.042595647275447845
0.4245726466178894 0.46920424699783325 -0.042954955250024796
0.40258893370628357 0.46191805601119995 -0.053517382591962814
0.38110172748565674 0.4612855315208435 -0.060551274567842484
0.3580581247806549 0.46618103981018066 -0.06251850724220276
0.34260791540145874 0.4731534719467163 -0.05931300297379494
0.15066398680210114 0.42796748876571655 0.053738582879304886
0.3495016098022461 0.4950793385505676 -0.053962163627147675
0.5442733764648438 0.6870509386062622 -0.051482997834682465
0.45575249195098877 0.6984989643096924 -0.057447414845228195
0.49182021617889404 0.6488739848136902 -0.08038114011287689
0.5118024349212646 0.69089674949646 -0.06157422810792923
0.5351825952529907 0.46339869499206543 -0.05561446771025658
0.32316863536834717 0.8483262062072754 0.018759438768029213
0.3668892979621887 0.8712289929389954 0.010668441653251648
0.4659632742404938 0.901858389377594 -0.005809035152196884
0.2054123431444168 0.806975245475769 0.0913437008857727
0.43981993198394775 0.480345755815506 -0.033480703830718994
0.5071219205856323 0.5454630255699158 -0.07924704253673553
0.5161007046699524 0.8986802101135254 0.00827352050691843
0.4102367162704468 0.9112237095832825 0.023288829252123833
0.17182885110378265 0.6764899492263794 0.05167856812477112
0.48250526189804077 0.7536688446998596 -0.03689543902873993
0.48060619831085205 0.7596724629402161 -0.04130067303776741
0.4782521724700928 0.7693199515342712 -0.04550441727042198
0.47470420598983765 0.7825338840484619 -0.042977217584848404
0.4584544003009796 0.8066737055778503 -0.027831148356199265
0.4360385537147522 0.7505901455879211 -0.03555093705654144
0.43085795640945435 0.7490761876106262 -0.03914937376976013
0.4241279065608978 0.7458903193473816 -0.042111705988645554
0.40095940232276917 0.7328702807426453 -0.046165671199560165
0.27852925658226013 0.678307831287384 -0.04148457199335098
0.49799931049346924 0.5181237459182739 -0.06188378855586052
0.4718221127986908 0.4687325954437256 -0.031229330226778984
0.452269583940506 0.47173330187797546 -0.03195110335946083
0.4386521577835083 0.7473281621932983 -0.031546205282211304
0.2596663236618042 0.7432236075401306 -0.004006905481219292
0.5011899471282959 0.4679716229438782 -0.05258326604962349
0.43978002667427063 0.8353139162063599 -0.018243711441755295
0.561263918876648 0.5534358620643616 -0.10327297449111938
0.5297284722328186 0.5319557189941406 -0.08917097002267838
0.5527207851409912 0.5257536172866821 -0.08588811755180359
0.48922935128211975 0.5866326093673706 -0.07997024804353714
0.5215342044830322 0.8726608753204346 -0.006085036788135767
0.5223855376243591 0.8403857350349426 -0.006983366794884205
0.48320433497428894 0.8441760540008545 -0.016310257837176323
0.37437278032302856 0.7933648824691772 -0.01945819891989231
0.42441847920417786 0.654078483581543 -0.04871067404747009
0.4037867784500122 0.8186677694320679 -0.017935125157237053
0.3591998219490051 0.6535008549690247 -0.06300138682126999
0.3980378210544586 0.681525707244873 -0.05300666764378548
0.3262917101383209 0.6970268487930298 -0.050066739320755005
0.47461968660354614 0.8762140274047852 -0.01821368746459484
0.46717599034309387 0.6002629995346069 -0.06747323274612427
0.3437202274799347 0.8170332908630371 -0.005268363282084465
0.3838430941104889 0.8429393768310547 -0.004812963772565126
0.353191614151001 0.7630496621131897 -0.030492272228002548
0.22586451470851898 0.7112389206886292 0.00416740495711565
0.3069871962070465 0.7708050608634949 -0.01838175766170025
0.18764732778072357 0.7321800589561462 0.051522064954042435
0.3705534040927887 0.7159143090248108 -0.0486370287835598
0.48435482382774353 0.5621111392974854 -0.06796485930681229
0.506903350353241 0.6423096060752869 -0.10957948863506317
0.4813070297241211 0.6466166377067566 -0.08672187477350235
0.5257397890090942 0.6241689920425415 -0.12303358316421509
0.45572274923324585 0.4486169219017029 -0.0485047921538353
0.41777536273002625 0.43554025888442993 -0.06846300512552261
0.3816354274749756 0.43305981159210205 -0.08063382655382156
0.34784454107284546 0.4373486042022705 -0.08304708451032639
0.3193766474723816 0.44872766733169556 -0.07663039863109589
0.2887929677963257 0.4915391206741333 -0.0428134948015213
0.16660812497138977 0.5568656921386719 0.034692566841840744
0.3160940110683441 0.5273471474647522 -0.05031299218535423
0.34777888655662537 0.5346100330352783 -0.05408536642789841
0.3847450017929077 0.5340227484703064 -0.0510772205889225
0.4171210527420044 0.5271816253662109 -0.04344361275434494
0.441616028547287 0.5176382064819336 -0.03489458188414574
0.4593561887741089 0.5089748501777649 -0.030792677775025368
0.12833476066589355 0.5524975061416626 0.11639980971813202
0.477067768573761 0.6517542600631714 -0.07436482608318329
0.5155184864997864 0.5699970126152039 -0.09492652863264084
0.532272458076477 0.6437081098556519 -0.11978904157876968
0.5380505323410034 0.6549635529518127 -0.10432381927967072
0.5265133380889893 0.6477198600769043 -0.10878419876098633
0.4805169105529785 0.6584808230400085 -0.062252406030893326
0.5454882979393005 0.6568568348884583 -0.10843176394701004
0.5397599935531616 0.661094069480896 -0.08032065629959106
0.4570329487323761 0.48871463537216187 -0.023435957729816437
0.4736482501029968 0.4946102499961853 -0.029425308108329773
0.4868120849132538 0.49919405579566956 -0.04216168448328972
0.33270254731178284 0.47847211360931396 -0.054565899074077606
0.3168494701385498 0.46927809715270996 -0.059267740696668625
0.5765001773834229 0.5564560890197754 -0.08529280871152878
0.6548707485198975 0.47434568405151367 0.09507352113723755
0.5749387145042419 0.6542617678642273 -0.06793388724327087
0.6842727661132812 0.37666964530944824 0.23207099735736847
0.5974925756454468 0.503089427947998 0.04616107791662216
0.6187561750411987 0.5040553212165833 0.0574287548661232
0.6377168893814087 0.5013814568519592 0.07247227430343628
0.6562415361404419 0.48285335302352905 0.10348328202962875
0.5813119411468506 0.49724698066711426 0.0379144623875618
0.6312366127967834 0.43507272005081177 0.04695165902376175
0.6073758602142334 0.4388176500797272 0.033591143786907196
0.6508921384811401 0.43747615814208984 0.06411333382129669
0.6612812280654907 0.44516366720199585 0.07952040433883667
0.6680933237075806 0.5009698867797852 0.12205624580383301
0.5835176110267639 0.8436947464942932 0.05405264347791672
0.6588799953460693 0.46645909547805786 0.10555921494960785
0.6821061372756958 0.4844150245189667 0.2544420063495636
0.6783974170684814 0.4820363521575928 0.15377166867256165
0.6265813112258911 0.6106579303741455 0.032764732837677
0.5667062401771545 0.7207509875297546 -0.04040655866265297
0.5560721755027771 0.7444224953651428 -0.028959494084119797
0.5843864679336548 0.7247291207313538 -0.014610422775149345
0.592210054397583 0.7320501208305359 0.012081172317266464
0.5688800811767578 0.7437595725059509 -0.010069712065160275
0.5773971676826477 0.7442785501480103 0.012792500667273998
0.5996607542037964 0.763954222202301 0.06054117530584335
0.5904332399368286 0.6433968544006348 -0.1106872707605362
0.5945847034454346 0.6177641749382019 -0.11811836063861847
0.6884785890579224 0.42119207978248596 0.09643754363059998
0.5856932401657104 0.5475994944572449 0.00753436516970396
0.6097235083580017 0.6294898986816406 -0.03316393122076988
0.6062281131744385 0.6147735118865967 -0.026223519816994667
0.6749794483184814 0.6026211977005005 0.0925636738538742
0.5868606567382812 0.5846831202507019 -0.10464893281459808
0.6591922044754028 0.39900434017181396 0.027180273085832596
0.6800036430358887 0.40490013360977173 0.06134452670812607
0.6826393008232117 0.33255839347839355 0.17145338654518127
0.577042281627655 0.4268973469734192 -0.031933389604091644
0.586842954158783 0.4484296143054962 0.03185524791479111
0.6162062287330627 0.7412172555923462 0.07379709184169769
0.6352144479751587 0.7148146629333496 0.32287299633026123
0.59416264295578 0.6448673605918884 -0.030438994988799095
0.578584611415863 0.6548783779144287 -0.04277610406279564
0.5956781506538391 0.7438716888427734 0.06342780590057373
0.5866823792457581 0.7434098124504089 0.051805976778268814
0.6870742440223694 0.38715359568595886 0.07610063254833221
0.6042811870574951 0.63981032371521 -0.02034110017120838
0.6259710192680359 0.40500718355178833 -0.004701134283095598
0.6318106055259705 0.38332778215408325 -0.010176722891628742
0.6361682415008545 0.27599748969078064 0.03591213747859001
0.6857666969299316 0.3593313694000244 0.11657799035310745
0.6343104243278503 0.32763388752937317 0.010076189413666725
0.6933668851852417 0.40962347388267517 0.12131157517433167
0.6905553340911865 0.39474189281463623 0.172331765294075
0.562576949596405 0.7351528406143188 -0.0368504524230957
0.576724648475647 0.7364686727523804 -0.013167370110750198
0.58542799949646 0.7386082410812378 0.010033569298684597
0.5875539779663086 0.6498375535011292 -0.029609883204102516
0.5912737846374512 0.7440028190612793 0.056945912539958954
0.5864945650100708 0.7484578490257263 0.03665667772293091
0.5834929943084717 0.7423998117446899 0.049936313182115555
0.5967204570770264 0.639087438583374 -0.06504330784082413
0.5700865387916565 0.742885172367096 0.015329952351748943
0.5607548952102661 0.7443844079971313 -0.0021664570085704327
0.548696756362915 0.7466864585876465 -0.01901852712035179
0.5483230948448181 0.8090698719024658 0.003119348781183362
0.5557077527046204 0.7847769856452942 -0.018505604937672615
0.5566467046737671 0.7707340121269226 -0.02159499190747738
0.554969072341919 0.7591874599456787 -0.017380578443408012
0.551133930683136 0.7515044808387756 -0.014719386585056782
0.5732096433639526 0.7466564774513245 0.018105680122971535
0.5767918229103088 0.7489505410194397 0.014385893940925598
0.5809658169746399 0.7542755007743835 0.013109574094414711
0.5836206078529358 0.7618416547775269 0.01982945390045643
0.6118417978286743 0.7036572098731995 0.022907868027687073
0.648659884929657 0.5911945104598999 0.3594316840171814
0.5777072310447693 0.7454502582550049 0.036529794335365295
0.5823125839233398 0.7460867166519165 0.03469852730631828
0.5713521242141724 0.6664826273918152 -0.042507387697696686
0.5932760834693909 0.6555224061012268 -0.00814904272556305
0.575178861618042 0.6612337827682495 -0.04359426721930504
0.6033543348312378 0.5610887408256531 0.027292072772979736
0.6351796984672546 0.5765966176986694 0.04959233105182648
0.6043874025344849 0.6252725720405579 -0.011637693271040916
0.6685391664505005 0.2981535494327545 0.1027488261461258
0.6683594584465027 0.3356558084487915 0.06355731189250946
0.6656144857406616 0.3775950074195862 0.0330020971596241
0.5871162414550781 0.7803388237953186 0.04270908981561661
0.5882596373558044 0.39326775074005127 -0.04178987815976143
0.5912588834762573 0.3277271091938019 -0.03091415949165821
0.5913031101226807 0.2653127908706665 -0.017412079498171806
0.6507412195205688 0.4942150115966797 0.08979808539152145
0.6825835108757019 0.5187956690788269 0.1456597000360489
0.5716381072998047 0.49083760380744934 0.03620714321732521
0.6737381815910339 0.4523218274116516 0.10961034893989563
0.5755188465118408 0.5321833491325378 -0.008110740222036839
0.6078870296478271 0.6224737167358398 -0.06152379885315895
0.6927947998046875 0.5345425605773926 0.18490028381347656
0.6790850162506104 0.5383780598640442 0.1202460378408432
0.6615747213363647 0.549966037273407 0.08623074740171432
0.6266513466835022 0.5481309294700623 0.05779414251446724
0.59941565990448 0.5384600758552551 0.03839120268821716
0.5809412598609924 0.5276099443435669 0.020018137991428375
0.5602411031723022 0.5013260841369629 -0.04971061646938324
0.6965961456298828 0.5878332853317261 0.18178631365299225
0.6834350824356079 0.4489762783050537 0.12733186781406403
0.5768430233001709 0.6563345789909363 -0.10045173764228821
0.5892153978347778 0.5741050839424133 -0.000629984016995877
0.6619445085525513 0.4806268811225891 0.3360108435153961
0.568758487701416 0.5151469111442566 0.008438320830464363
0.5993837118148804 0.6258174777030945 0.011509797535836697
0.661907434463501 0.46759772300720215 0.11395030468702316
0.6022384166717529 0.60455721616745 -0.05366196855902672
0.6443449258804321 0.6514756679534912 0.34847909212112427
0.5699277520179749 0.4806661605834961 0.042992476373910904
0.5962543487548828 0.5920846462249756 -0.08313534408807755
0.6368594169616699 0.7804417610168457 0.17870552837848663
0.6174288392066956 0.8064219355583191 0.22273586690425873
0.6832196116447449 0.5908865332603455 0.27436038851737976
0.6531552076339722 0.7449781894683838 0.2186727374792099
0.6861563920974731 0.4363437592983246 0.22037073969841003
0.5823754668235779 0.8675798177719116 0.07176647335290909
0.5658302307128906 0.6611195802688599 -0.07135103642940521
0.602446436882019 0.5914132595062256 0.016284892335534096
0.6844853162765503 0.48612815141677856 0.18677334487438202
0.6392403841018677 0.4862865209579468 0.07279428094625473
0.62110435962677 0.4901474714279175 0.05980387330055237
0.5899562835693359 0.7525185346603394 0.04374406114220619
0.6896292567253113 0.6384093165397644 0.1888180822134018
0.5456913709640503 0.9052289724349976 0.06341171264648438
0.5859012603759766 0.8656647801399231 0.1376711130142212
0.6000630855560303 0.8408533334732056 0.17575252056121826
0.6019018292427063 0.4894044101238251 0.04993339255452156
0.5851816534996033 0.4854922890663147 0.04602315276861191
0.5748639106750488 0.48311731219291687 0.0457463338971138
0.6881181001663208 0.44344407320022583 0.15755654871463776
0.5864578485488892 0.46127912402153015 0.04222703352570534
0.6040103435516357 0.45260271430015564 0.04529804363846779
0.6244655847549438 0.4490482807159424 0.05477128177881241
0.6429667472839355 0.45148295164108276 0.06865978240966797
0.6522008180618286 0.45768874883651733 0.08125120401382446
0.6770427227020264 0.4233055114746094 0.29077231884002686
0.6493898630142212 0.4803810715675354 0.085724376142025
0.599895715713501 0.6907516717910767 0.0004926133551634848
0.5983461141586304 0.641475260257721 -0.041134290397167206
0.5708379745483398 0.6871461272239685 -0.037854813039302826
0.616685152053833 0.8136985898017883 0.14373651146888733
0.5991175174713135 0.8405143618583679 0.10891683399677277
0.5563825368881226 0.8891345262527466 0.03358788415789604
0.6266005635261536 0.7671262621879578 0.2772776186466217
0.5754126906394958 0.47278591990470886 0.04250102862715721
0.5768932700157166 0.5423496961593628 -0.04645842686295509
0.5700828433036804 0.8876239061355591 0.09802254289388657
0.6758263111114502 0.6457307934761047 0.26990413665771484
0.5646304488182068 0.7487028241157532 0.0016223464626818895
0.5684154033660889 0.7539883255958557 -0.0017671562964096665
0.5714994668960571 0.7626370787620544 -0.0036084470339119434
0.5727283954620361 0.7746275067329407 0.0011965755838900805
0.5706449747085571 0.7962918281555176 0.022481141611933708
0.5833311676979065 0.7440195679664612 0.034264255315065384
0.5901287794113159 0.7416281700134277 0.03754545748233795
0.596099317073822 0.7376100420951843 0.03962038457393646
0.6183746457099915 0.7208827137947083 0.05030113831162453
0.6795897483825684 0.6551385521888733 0.12717953324317932
0.5674656629562378 0.5151963829994202 -0.027302464470267296
0.5618891716003418 0.46447497606277466 0.012384709902107716
0.5694758296012878 0.4666554927825928 0.03116360493004322
0.5771230459213257 0.7414993643760681 0.0349433533847332
0.6650639176368713 0.7127645611763 0.1671687513589859
0.5554619431495667 0.4656343460083008 -0.02673543058335781
0.5759661197662354 0.8194013833999634 0.0389285683631897
0.5691359043121338 0.5302634835243225 -0.0714714303612709
0.5895333886146545 0.5818162560462952 -0.03754650056362152
0.5523121356964111 0.8355849981307983 0.011396083049476147
0.6141528487205505 0.7720826268196106 0.0815579891204834
0.6131113767623901 0.6453931927680969 0.02579508163034916
0.5948071479797363 0.7987882494926453 0.0618596188724041
0.6544448733329773 0.6382862329483032 0.05743049085140228
0.6296371221542358 0.6696987748146057 0.04146081954240799
0.6623814105987549 0.6768601536750793 0.08768750727176666
0.5586900115013123 0.8652962446212769 0.018884025514125824
0.5934494137763977 0.5945525169372559 -0.014410054311156273
0.622480034828186 0.7880486249923706 0.11231320351362228
0.6006456613540649 0.8167536854743958 0.08542370051145554
0.6329020261764526 0.7421731352806091 0.09233521670103073
0.6784030199050903 0.6808421611785889 0.1954791247844696
0.6477863788604736 0.7423968315124512 0.12512049078941345
0.6657387018203735 0.6967472434043884 0.2576749920845032
0.6381707191467285 0.7007892727851868 0.06363450735807419
0.5822075605392456 0.5577623844146729 -0.022148098796606064
0.6036799550056458 0.6345897912979126 -0.06805266439914703
0.6056410670280457 0.6387134194374084 -0.03956723213195801
0.6036936640739441 0.6188831925392151 -0.08926639705896378
0.5802754163742065 0.4428060054779053 0.012150858528912067
0.6146792769432068 0.4271746277809143 0.021363932639360428
0.6437128782272339 0.42295098304748535 0.03745007514953613
0.6647392511367798 0.4256499111652374 0.060066189616918564
0.6746081113815308 0.43468979001045227 0.08337225764989853
0.6692899465560913 0.4750131368637085 0.1290457546710968
0.6846855282783508 0.5373380184173584 0.26879313588142395
0.6624592542648315 0.5129783153533936 0.1058482974767685
0.6466386318206787 0.5225814580917358 0.08196073770523071
0.6218106150627136 0.5240483283996582 0.060175079852342606
0.5968247652053833 0.5191118717193604 0.04406021535396576
0.578816294670105 0.5114361047744751 0.03081691451370716
0.5674124956130981 0.5039386749267578 0.02256644330918789
0.651786744594574 0.5354859828948975 0.3564779758453369
0.6000962257385254 0.6446262001991272 -0.028436783701181412
0.5853850841522217 0.566541850566864 -0.06135626882314682
0.5993271470069885 0.6379676461219788 -0.09284289926290512
0.582046389579773 0.6507285237312317 -0.08874505013227463
0.5935088396072388 0.6414880752563477 -0.08151314407587051
0.591602087020874 0.6527538299560547 -0.02379855513572693
0.581394612789154 0.6540576219558716 -0.095978282392025
0.5714725852012634 0.658691942691803 -0.06959491968154907
0.565066933631897 0.48310619592666626 0.03359048441052437
0.5584161281585693 0.4906218647956848 0.012367774732410908
0.5592901110649109 0.49624258279800415 -0.007107915356755257
0.6565127372741699 0.46258118748664856 0.09255746006965637
0.6655550599098206 0.45383182168006897 0.09738067537546158
