ply
format ascii 1.0
element vertex 468
property float x
property float y
property float z
end_header
0.49475330114364624 0.6974829435348511 -0.061926841735839844
0.4850655198097229 0.6432487964630127 -0.13353228569030762
0.49092191457748413 0.6632209420204163 -0.07115347683429718
0.4702620506286621 0.5556514263153076 -0.10221843421459198
0.48470014333724976 0.6165992617607117 -0.1426621526479721
0.48659852147102356 0.5810297727584839 -0.1342087686061859
0.49429017305374146 0.4949069023132324 -0.07236028462648392
0.332949161529541 0.48630785942077637 0.038291655480861664
0.4965609908103943 0.42563509941101074 -0.056607332080602646
0.4965033233165741 0.38909047842025757 -0.06246456131339073
0.5006781220436096 0.2597210109233856 -0.04618513211607933
0.49559521675109863 0.7075616121292114 -0.058677174150943756
0.4969795048236847 0.7142941355705261 -0.0519745834171772
0.4983730912208557 0.7152895331382751 -0.04235265031456947
0.4992080628871918 0.7639197707176208 -0.02765844762325287
0.498769611120224 0.7733612656593323 -0.03144686669111252
0.49860480427742004 0.7850184440612793 -0.036212559789419174
0.49878743290901184 0.7982299327850342 -0.03163258358836174
0.4993474781513214 0.8182852268218994 -0.010563476011157036
0.4863443076610565 0.6565053462982178 -0.12105812877416611
0.46739280223846436 0.6524792909622192 -0.08673595637083054
0.2584347724914551 0.38421565294265747 0.15459400415420532
0.4026282727718353 0.5083761811256409 0.008611789904534817
0.3787827491760254 0.5094940066337585 0.012738791294395924
0.3555702567100525 0.5073862671852112 0.021472623571753502
0.3237904906272888 0.4935784935951233 0.044129736721515656
0.4216080904006958 0.503078818321228 0.009246444329619408
0.36773884296417236 0.44053196907043457 0.0011458469089120626
0.39331889152526855 0.4435209035873413 -0.0015589443501085043
0.3437000811100006 0.44417881965637207 0.01186549011617899
0.3279755115509033 0.453857421875 0.02307686023414135
0.30559563636779785 0.5076584815979004 0.05845465511083603
0.41370993852615356 0.8435023427009583 0.030191965401172638
0.324271023273468 0.4806205630302429 0.047421179711818695
0.24887385964393616 0.4955710172653198 0.17102105915546417
0.28307420015335083 0.491227924823761 0.08421959728002548
0.37274882197380066 0.6053578853607178 -0.010347935371100903
0.45843249559402466 0.6930326819419861 -0.05624891445040703
0.46339118480682373 0.7124078273773193 -0.04479006677865982
0.4232209324836731 0.6953015327453613 -0.036546871066093445
0.40285107493400574 0.6988747715950012 -0.009710317477583885
0.43776386976242065 0.7107186317443848 -0.029239382594823837
0.41962432861328125 0.7103389501571655 -0.004771884996443987
0.3835955262184143 0.7431604266166687 0.04120469093322754
0.4658319056034088 0.6423114538192749 -0.13022705912590027
0.46341246366500854 0.6160470843315125 -0.13823658227920532
0.2937431335449219 0.42531532049179077 0.032930128276348114
0.4264487326145172 0.5478459596633911 -0.018555592745542526
0.4157772660255432 0.6256837248802185 -0.06737769395112991
0.4159323573112488 0.6110053658485413 -0.06043058633804321
0.3001174330711365 0.5968493819236755 0.02847166173160076
0.4662320613861084 0.5833467841148376 -0.12485500425100327
0.3448600172996521 0.39731770753860474 -0.01498355995863676
0.31430894136428833 0.405839741230011 0.007971726357936859
0.2771996855735779 0.33814260363578796 0.1034720242023468
0.4453389644622803 0.4206070303916931 -0.04565420746803284
0.4153783321380615 0.45344239473342896 0.003333133179694414
0.36326658725738525 0.7118058204650879 0.04363569617271423
0.28553202748298645 0.7270900011062622 0.2439708560705185
0.4330155849456787 0.6405607461929321 -0.05924554169178009
0.45277032256126404 0.6499260663986206 -0.06267546117305756
0.3800660967826843 0.7099902629852295 0.04338466003537178
0.392814576625824 0.7127631306648254 0.036769092082977295
0.30227020382881165 0.38822484016418457 0.019510578364133835
0.4150873124599457 0.6332225203514099 -0.05371089279651642
0.3869350552558899 0.4002188444137573 -0.03368621692061424
0.38237130641937256 0.37819546461105347 -0.03980225324630737
0.36294567584991455 0.27518296241760254 -0.0018886947073042393
0.28968581557273865 0.3631182610988617 0.055991239845752716
0.37488606572151184 0.32528117299079895 -0.02202722430229187
0.2811100482940674 0.41318413615226746 0.053867973387241364
0.2694149613380432 0.4005454182624817 0.10126394033432007
0.4600551128387451 0.7046709060668945 -0.0524103045463562
0.43087881803512573 0.7047421932220459 -0.03296644240617752
0.41101184487342834 0.7044614553451538 -0.008776593953371048
0.43860846757888794 0.6443783044815063 -0.054509930312633514
0.38584423065185547 0.7108997106552124 0.0397966168820858
0.3989317715167999 0.731528103351593 0.02709498442709446
0.39774370193481445 0.7140048146247864 0.036023471504449844
0.44367069005966187 0.6390533447265625 -0.09333380311727524
0.4250769019126892 0.7081947326660156 -0.0020646133925765753
0.44366487860679626 0.7100116014480591 -0.020651360973715782
0.4675484597682953 0.7133744955062866 -0.03525385633111
0.46210038661956787 0.815421998500824 -0.00471673347055912
0.4625271260738373 0.7935476899147034 -0.024611428380012512
0.4632386267185211 0.7799590229988098 -0.027800854295492172
0.46512576937675476 0.7686556577682495 -0.022836895659565926
0.46815621852874756 0.7606849074363708 -0.019505340605974197
0.4244078993797302 0.7424401044845581 0.010372700169682503
0.4197651147842407 0.7445339560508728 0.007316583767533302
0.41386014223098755 0.7495467662811279 0.0049180504865944386
0.40973126888275146 0.7567126750946045 0.010523224249482155
0.3859676718711853 0.6822633743286133 -0.0036127418279647827
0.2598850429058075 0.6052125096321106 0.2733604311943054
0.488255113363266 0.6606366634368896 -0.08909472823143005
0.41267791390419006 0.7324695587158203 0.02730761468410492
0.40520793199539185 0.7310575842857361 0.025856424123048782
0.46023163199424744 0.6605750322341919 -0.062259551137685776
0.42205363512039185 0.6457463502883911 -0.03579459339380264
0.45665737986564636 0.655705451965332 -0.06335612386465073
0.4005851447582245 0.5592668056488037 -0.0077118584886193275
0.3586732745170593 0.5718486309051514 0.002969505498185754
0.4119645357131958 0.6195390224456787 -0.045764170587062836
0.3093646764755249 0.3008233606815338 0.04897341877222061
0.32254958152770996 0.3366515636444092 0.015164253301918507
0.33661484718322754 0.37592828273773193 -0.011749872006475925
0.40264904499053955 0.7720197439193726 0.027654966339468956
0.43717485666275024 0.3850593864917755 -0.05571063980460167
0.43136101961135864 0.3236243724822998 -0.04550153762102127
0.4245463013648987 0.26302221417427063 -0.034147653728723526
0.33530089259147644 0.5023351311683655 0.03359861299395561
0.2813609838485718 0.5234898924827576 0.07449626177549362
0.433292031288147 0.497153103351593 0.01065570954233408
0.30506306886672974 0.46195390820503235 0.04699215292930603
0.44307851791381836 0.5335617065429688 -0.02932666428387165
0.42906004190444946 0.6211079955101013 -0.09252157807350159
0.2590917646884918 0.5403606295585632 0.10504762083292007
0.2944984436035156 0.5384155511856079 0.052328113466501236
0.32267850637435913 0.5466791391372681 0.028024232015013695
0.368055135011673 0.5461183190345764 0.013302426785230637
0.40278494358062744 0.5392587184906006 0.004320662003010511
0.4275971055030823 0.5295956134796143 -0.005091063678264618
0.4726509153842926 0.5016884803771973 -0.06034252047538757
0.25614336133003235 0.5895208716392517 0.10063710063695908
0.2875692844390869 0.45684921741485596 0.05963381007313728
0.4750060439109802 0.6551171541213989 -0.11864488571882248
0.4260632395744324 0.5725007653236389 -0.029585644602775574
0.24906325340270996 0.4922946095466614 0.2499241977930069
0.44506290555000305 0.517253041267395 -0.011319016106426716
0.41014307737350464 0.618852436542511 -0.021023988723754883
0.3166455626487732 0.4805123209953308 0.05319411680102348
0.4299803376197815 0.6028037071228027 -0.08376987278461456
0.2686872184276581 0.6650580167770386 0.2646084427833557
0.4330148994922638 0.4886818528175354 0.01627396233379841
0.44783926010131836 0.5909662842750549 -0.10874928534030914
0.3245810270309448 0.7809575796127319 0.12182147055864334
0.335274338722229 0.8108484745025635 0.16254785656929016
0.24633949995040894 0.6004248857498169 0.18816253542900085
0.2929709255695343 0.7506093978881836 0.14872996509075165
0.25828316807746887 0.4448949992656708 0.14290426671504974
0.4143565893173218 0.8664436340332031 0.04352835193276405
0.4791145324707031 0.6594197154045105 -0.0869763046503067
0.4038146138191223 0.5874730348587036 -0.01886862888932228
0.2656197249889374 0.49568235874176025 0.1102120578289032
0.357385516166687 0.4939912259578705 0.021854044869542122
0.37865450978279114 0.4962868094444275 0.01442995760589838
0.39326053857803345 0.7336976528167725 0.03123077191412449
0.25823718309402466 0.6400484442710876 0.110324926674366
0.4560339152812958 0.8993360996246338 0.044495996087789536
0.39604175090789795 0.8642092943191528 0.09898445010185242
0.36976295709609985 0.8416709303855896 0.12810201942920685
0.49838772416114807 0.3242069482803345 -0.056564733386039734
0.5003779530525208 0.9058505296707153 0.03281641751527786
0.39849406480789185 0.4953627288341522 0.0115284388884902
0.41691893339157104 0.4923243820667267 0.013326941058039665
0.4280773997306824 0.4904435873031616 0.016906844452023506
0.27267763018608093 0.45053035020828247 0.08473462611436844
0.4130602777004242 0.47305333614349365 0.008630745112895966
0.39294224977493286 0.4664672017097473 0.006332056596875191
0.37261563539505005 0.4646088480949402 0.009410438127815723
0.35191380977630615 0.46763503551483154 0.01743144541978836
0.33829760551452637 0.4732760488986969 0.026382382959127426
0.24921396374702454 0.43277454376220703 0.20760077238082886
0.3430365324020386 0.49039798974990845 0.03075815550982952
0.49290767312049866 0.6744910478591919 -0.06203778460621834
0.40877461433410645 0.6737645864486694 -0.025839729234576225
0.43203482031822205 0.6388390064239502 -0.06887176632881165
0.45704805850982666 0.6735106706619263 -0.05579378083348274
0.49656975269317627 0.459586501121521 -0.05617193505167961
0.35840362310409546 0.8127272129058838 0.1007891297340393
0.3865145444869995 0.8388482928276062 0.07402939349412918
0.4518316984176636 0.8865719437599182 0.016290923580527306
0.3082388639450073 0.7763473987579346 0.20520584285259247
0.4266589283943176 0.4824715256690979 0.013397264294326305
0.45583072304725647 0.5427353978157043 -0.06496753543615341
0.49892738461494446 0.8919835686683655 0.006524196360260248
0.42286592721939087 0.8845427632331848 0.06746663898229599
0.2534206509590149 0.6557756662368774 0.18605144321918488
0.44350665807724 0.7527830600738525 -0.005678880028426647
0.4389168918132782 0.7580585479736328 -0.0085618169978261
0.4351009726524353 0.7669439315795898 -0.011088516563177109
0.4325907230377197 0.7789176106452942 -0.0066505661234259605
0.42756497859954834 0.797569990158081 0.010966467671096325
0.40282297134399414 0.7097773551940918 0.017905985936522484
0.394487589597702 0.7061862349510193 0.019332142546772957
0.38747918605804443 0.7020436525344849 0.018797198310494423
0.3683766722679138 0.6935378313064575 0.02144954539835453
0.2820900082588196 0.6516857147216797 0.059621620923280716
0.4584836959838867 0.5164054036140442 -0.04323438182473183
0.44851845502853394 0.46736645698547363 -0.0040526376105844975
0.4357866048812866 0.47271233797073364 0.007754655554890633
0.4096880555152893 0.7077503204345703 0.019100472331047058
0.2896045446395874 0.7120015025138855 0.10114499181509018
0.46663564443588257 0.46457961201667786 -0.037389542907476425
0.4201561510562897 0.8187894225120544 0.021134205162525177
0.4892876148223877 0.5521243810653687 -0.11249756067991257
0.47120991349220276 0.5305676460266113 -0.08385484665632248
0.4917259216308594 0.5252727270126343 -0.09161458909511566
0.4382779002189636 0.5804515480995178 -0.06325238943099976
0.49839240312576294 0.8699010610580444 -0.006022320128977299
0.49882277846336365 0.8417878746986389 -0.008118739351630211
0.456866979598999 0.8384561538696289 0.0011504790745675564
0.3711777329444885 0.7571153044700623 0.05380545184016228
0.39103958010673523 0.6362866163253784 -0.009368512779474258
0.3942062556743622 0.790890097618103 0.04006742686033249
0.3315606713294983 0.6318734288215637 0.005314966198056936
0.3669047951698303 0.6577112078666687 0.0037015427369624376
0.3136940002441406 0.6683605909347534 0.03193269297480583
0.451676607131958 0.8657734394073486 0.004338022321462631
0.4251794219017029 0.5917292833328247 -0.044238824397325516
0.35823506116867065 0.7813417911529541 0.07478559762239456
0.3870062530040741 0.8128112554550171 0.05595878139138222
0.348235547542572 0.7225247621536255 0.05266829952597618
0.2679128646850586 0.6832191348075867 0.12105393409729004
0.32187169790267944 0.7344675660133362 0.07429321110248566
0.26826319098472595 0.7065590023994446 0.17855174839496613
0.34797191619873047 0.6807209849357605 0.023175248876214027
0.44169825315475464 0.5578107237815857 -0.045816924422979355
0.43591511249542236 0.6343047022819519 -0.09798236936330795
0.42244449257850647 0.6352912783622742 -0.0707334503531456
0.4450826942920685 0.6183610558509827 -0.11568311601877213
0.42901596426963806 0.4440021812915802 -0.009413477964699268
0.39098745584487915 0.4281463027000427 -0.009727240540087223
0.35818660259246826 0.42461538314819336 -0.004371727351099253
0.331134170293808 0.4290807247161865 0.009072348475456238
0.3128584027290344 0.4411175549030304 0.02623409777879715
0.30264729261398315 0.4857133626937866 0.06480568647384644
0.24534675478935242 0.5479477047920227 0.1817973107099533
0.3176648020744324 0.5174265503883362 0.045396026223897934
0.3421162962913513 0.5244224667549133 0.029572902247309685
0.37374699115753174 0.5263352394104004 0.017015650868415833
0.40372732281684875 0.5226250290870667 0.008804930374026299
0.4262165129184723 0.5155687928199768 0.005334989167749882
0.4408673644065857 0.5078022480010986 0.001411033677868545
0.25475016236305237 0.548279881477356 0.26994258165359497
0.42357251048088074 0.6390403509140015 -0.05858227610588074
0.4531917870044708 0.5661644339561462 -0.08366558700799942
0.45103904604911804 0.6381400227546692 -0.11770378798246384
0.4649564027786255 0.6500390768051147 -0.10860895365476608
0.45208412408828735 0.6414934396743774 -0.10597290098667145
0.42925602197647095 0.6449252963066101 -0.05051862820982933
0.4682227671146393 0.6531054973602295 -0.11500968784093857
0.4721662402153015 0.6570117473602295 -0.0867227166891098
0.4408228099346161 0.4894239902496338 0.011254208162426949
0.4521365165710449 0.4940124750137329 -0.0043209572322666645
0.45802420377731323 0.4979609549045563 -0.02136092819273472
0.33027684688568115 0.47752177715301514 0.03570742532610893
0.3170281946659088 0.465101957321167 0.038243409246206284
0.5100889801979065 0.5555458068847656 -0.10649130493402481
0.682526707649231 0.4842844307422638 0.007242518477141857
0.5116404891014099 0.6530777812004089 -0.09004587680101395
0.7912801504135132 0.3802165985107422 0.10650811344385147
0.6067970991134644 0.5067545175552368 -0.011755858547985554
0.632154107093811 0.5078897476196289 -0.011410265229642391
0.6573175191879272 0.5058839917182922 -0.006817004177719355
0.6942318677902222 0.4917387068271637 0.010997183620929718
0.5862665772438049 0.5014703869819641 -0.006639100145548582
0.6426140069961548 0.4371405839920044 -0.024435805156826973
0.6153560876846313 0.4402555823326111 -0.021587183699011803
0.6690964698791504 0.4409475326538086 -0.0175990778952837
0.687416136264801 0.45094358921051025 -0.00856613926589489
0.7151716947555542 0.5060783624649048 0.022760340943932533
0.591995120048523 0.8470156788825989 0.015452546067535877
0.6931341886520386 0.478270947933197 0.014909045770764351
0.798656702041626 0.49359482526779175 0.1228456050157547
0.7448781132698059 0.48911499977111816 0.04436352476477623
0.6297579407691956 0.6053887605667114 -0.03138933330774307
0.5339922904968262 0.6936096549034119 -0.062456775456666946
0.5341750979423523 0.7129673957824707 -0.05090274661779404
0.5758495330810547 0.6967458128929138 -0.049295470118522644
0.6037188768386841 0.7005792856216431 -0.0267123244702816
0.5644652247428894 0.7119930386543274 -0.04085355997085571
0.5885322093963623 0.7114748954772949 -0.020002325996756554
0.6319935917854309 0.7452303171157837 0.020310865715146065
0.5054952502250671 0.6425768733024597 -0.13287238776683807
0.5079662799835205 0.6161369681358337 -0.14144930243492126
0.7275781631469727 0.4212683439254761 -0.004650309681892395
0.573787271976471 0.5474550724029541 -0.03250559791922569
0.5712645053863525 0.626248300075531 -0.08015144616365433
0.5736340880393982 0.6114110350608826 -0.07350610941648483
0.7129248380661011 0.5968295335769653 -0.005978527013212442
0.5086709260940552 0.5833021998405457 -0.12891918420791626
0.6630630493164062 0.3916189670562744 -0.039819855242967606
0.7004209756851196 0.4008956551551819 -0.023854875937104225
0.7625645399093628 0.3328290581703186 0.06028600037097931
0.5510045886039734 0.4181935489177704 -0.053413864225149155
0.5924599766731262 0.4508318305015564 -0.012685326859354973
0.6540472507476807 0.7137058973312378 0.01916830614209175
0.7651937007904053 0.7308465838432312 0.1996912807226181
0.553722083568573 0.6412613987922668 -0.06921067088842392
0.5322700142860413 0.6504062414169312 -0.06757224351167679
0.6374808549880981 0.7115297913551331 0.021494334563612938
0.6251184940338135 0.7139056921005249 0.016858961433172226
0.7166873812675476 0.38265281915664673 -0.014990647323429585
0.574922502040863 0.6338211297988892 -0.06630795449018478
0.6141732335090637 0.3953757882118225 -0.05080091208219528
0.6185687780380249 0.37303122878074646 -0.05738866701722145
0.6502825021743774 0.2707362771034241 -0.02598715014755726
0.7389589548110962 0.3579184114933014 0.017517661675810814
0.6310346126556396 0.32065823674201965 -0.04274015128612518
0.7455241680145264 0.40902039408683777 0.01352133322507143
0.7683340311050415 0.3967145085334778 0.057371318340301514
0.5346165895462036 0.7054369449615479 -0.05882658809423447
0.5697149038314819 0.7061454057693481 -0.04535048082470894
0.5961984992027283 0.7059805393218994 -0.024923574179410934
0.5485866665840149 0.6450269818305969 -0.062189288437366486
0.6316924095153809 0.7122370004653931 0.01935144141316414
0.615468442440033 0.7328960299491882 0.00911769364029169
0.6209511160850525 0.7151507139205933 0.01658163033425808
0.5363712906837463 0.6398467421531677 -0.1019606739282608
0.5848669409751892 0.7088642120361328 -0.01661120541393757
0.5607110261917114 0.7109082937240601 -0.031537674367427826
0.5327759981155396 0.7137624025344849 -0.04161274805665016
0.5393100380897522 0.8165022134780884 -0.010818789713084698
0.5379072427749634 0.7945287227630615 -0.03174363076686859
0.5367050766944885 0.78092360496521 -0.03534102439880371
0.5350489020347595 0.769766092300415 -0.030359700322151184
0.532781183719635 0.7616273164749146 -0.026668963953852654
0.5861931443214417 0.7436471581459045 -0.004150525201112032
0.5904318690299988 0.7458442449569702 -0.0074369823560118675
0.5960749387741089 0.7510584592819214 -0.009963888674974442
0.6003413796424866 0.7582294940948486 -0.004964863415807486
0.6187664866447449 0.6833741664886475 -0.022061532363295555
0.7992819547653198 0.6059187650680542 0.22460725903511047
0.6018322706222534 0.733693540096283 0.010198845528066158
0.6090102195739746 0.7322416305541992 0.00824733916670084
0.5243382453918457 0.6609082221984863 -0.06689273566007614
0.569936215877533 0.6461504697799683 -0.0459517166018486
0.5278679132461548 0.656069815158844 -0.06796020269393921
0.602072536945343 0.5588607788085938 -0.026128213852643967
0.6472903490066528 0.5714083909988403 -0.02177988365292549
0.5804546475410461 0.61998051404953 -0.059614382684230804
0.7173112034797668 0.2951705753803253 0.014052726328372955
0.6954265832901001 0.33088040351867676 -0.015449826605618
0.6730414628982544 0.36988598108291626 -0.038699422031641006
0.6084750294685364 0.7740975022315979 0.010193093679845333
0.5585247278213501 0.3819153606891632 -0.06394347548484802
0.5680475831031799 0.32129374146461487 -0.05576709657907486
0.5805257558822632 0.2604942321777344 -0.0461382158100605
0.6804720163345337 0.5007046461105347 0.002240521367639303
0.7435877323150635 0.522052526473999 0.03489479795098305
0.5734543204307556 0.49568554759025574 -0.003191673196852207
0.715840220451355 0.4593418538570404 0.01095492485910654
0.5548020005226135 0.5330891609191895 -0.040388599038124084
0.5523627400398254 0.6216768026351929 -0.10272909700870514
0.7726378440856934 0.5394619107246399 0.0604747049510479
0.7247106432914734 0.5372870564460754 0.015175946988165379
0.6904436945915222 0.5456880331039429 -0.00428550411015749
0.6402265429496765 0.5453141927719116 -0.011396175250411034
0.6027496457099915 0.5385466814041138 -0.01449961494654417
0.5759403705596924 0.5288875102996826 -0.019398389384150505
0.5185085535049438 0.5012348294258118 -0.06487128138542175
0.7715866565704346 0.5895456075668335 0.056282199919223785
0.7377890944480896 0.45384418964385986 0.019933858886361122
0.4987200200557709 0.6553905606269836 -0.12073787301778793
0.5705649256706238 0.5724142789840698 -0.043204840272665024
0.8114794492721558 0.49026137590408325 0.19887176156044006
0.5562690496444702 0.5165234804153442 -0.02209658734500408
0.5859034061431885 0.6191330552101135 -0.034536413848400116
0.7027040719985962 0.47812122106552124 0.01932019367814064
0.554690420627594 0.6032195687294006 -0.0945153459906578
0.7871246337890625 0.6675971746444702 0.21803614497184753
0.5748735666275024 0.4871613681316376 0.0018640554044395685
0.5315350890159607 0.5910813212394714 -0.11614173650741577
0.7026473879814148 0.7859138250350952 0.08932837098836899
0.6983532905578613 0.8167312741279602 0.12951362133026123
0.7971551418304443 0.6012214422225952 0.14005115628242493
0.7407923936843872 0.754842221736908 0.1102600172162056
0.7849128246307373 0.44186317920684814 0.0962936207652092
0.5920047163963318 0.8707003593444824 0.028105400502681732
0.4977651834487915 0.6595394015312195 -0.08822190016508102
0.5957701206207275 0.5872746109962463 -0.03525594621896744
0.768774151802063 0.4936726987361908 0.06624650210142136
0.6543798446655273 0.4922453761100769 -0.005297870375216007
0.6317718625068665 0.49429595470428467 -0.009648141451179981
0.6215769052505493 0.7353053092956543 0.01251138187944889
0.7698934674263 0.6413266658782959 0.06712425500154495
0.5470682978630066 0.9020946025848389 0.03540082648396492
0.6200673580169678 0.869777262210846 0.0772530660033226
0.6545122861862183 0.8478944301605225 0.10104966908693314
0.6109725832939148 0.49335554242134094 -0.009043198078870773
0.5918688178062439 0.49031004309654236 -0.00425304751843214
0.5801913142204285 0.488754540681839 0.0013359473086893559
0.7589851021766663 0.44740039110183716 0.04194653406739235
0.5971074104309082 0.47117894887924194 -0.009561976417899132
0.6187891960144043 0.4643628001213074 -0.014967584982514381
0.6395274996757507 0.46255484223365784 -0.015571407042443752
0.6613399386405945 0.4655248522758484 -0.010794629342854023
0.6762883067131042 0.47109198570251465 -0.0038331367541104555
0.8066797256469727 0.4296230673789978 0.15756765007972717
0.6706267595291138 0.48862481117248535 0.0011537933023646474
0.5884854197502136 0.6747369170188904 -0.03997940197587013
0.5529696345329285 0.6395300626754761 -0.07782634347677231
0.5319685935974121 0.6740539073944092 -0.06182407587766647
0.6622375249862671 0.8180089592933655 0.07415810227394104
0.6272866725921631 0.8439477682113647 0.05299566313624382
0.548559844493866 0.8891396522521973 0.007655538152903318
0.7341808676719666 0.7810684442520142 0.1654285192489624
0.5816822052001953 0.48102468252182007 -0.0028722044080495834
0.5335043668746948 0.5425811409950256 -0.07227472215890884
0.5855053067207336 0.8889065980911255 0.05144570767879486
0.788532555103302 0.6578198671340942 0.13980849087238312
0.5617194175720215 0.7541211247444153 -0.017453143373131752
0.5659720301628113 0.7594736218452454 -0.020695140585303307
0.569521427154541 0.7683781385421753 -0.0237031951546669
0.5719941854476929 0.7803260087966919 -0.019213443621993065
0.5784246325492859 0.7994149327278137 -0.0025265903677791357
0.6117880940437317 0.7109208703041077 -0.0005201349849812686
0.6192083358764648 0.7077345252037048 -0.00034435492125339806
0.6261928677558899 0.7036381959915161 -0.0013606669381260872
0.6436682939529419 0.6949441432952881 -0.0012446129694581032
0.7369152903556824 0.6528420448303223 0.022146984934806824
0.5361312031745911 0.5159599781036377 -0.051151882857084274
0.5545762181282043 0.4657740592956543 -0.013459057547152042
0.570639967918396 0.47094830870628357 -0.0055997841991484165
0.6059695482254028 0.7087242603302002 0.0016063046641647816
0.7363526821136475 0.7147781848907471 0.06426563113927841
0.5303142666816711 0.4635986089706421 -0.04303724318742752
0.5861014723777771 0.8213902711868286 0.007604599464684725
0.5141947269439697 0.5303574800491333 -0.08770272135734558
0.550966739654541 0.5805842280387878 -0.07302405685186386
0.5438423752784729 0.8400936126708984 -0.005614657420665026
0.6448003053665161 0.7600241899490356 0.030499236658215523
0.6094911098480225 0.636749804019928 -0.0270382147282362
0.6175070405006409 0.7939438223838806 0.021560994908213615
0.676194429397583 0.632352352142334 -0.021524176001548767
0.6391759514808655 0.6586890816688538 -0.017902273684740067
0.6999974250793457 0.6697185039520264 0.0013762750895693898
0.5481569170951843 0.8677619099617004 -0.0037780702114105225
0.5681517124176025 0.591882586479187 -0.0566023588180542
0.6592849493026733 0.7854697108268738 0.048869114369153976
0.6252745389938354 0.8168778419494629 0.03606758266687393
0.66920405626297 0.7247664332389832 0.024611564353108406
0.7621966600418091 0.6855959296226501 0.07964268326759338
0.6987461447715759 0.7376207113265991 0.04270433261990547
0.7714375257492065 0.7096050977706909 0.1343882530927658
0.6649848818778992 0.6818870902061462 -0.0029218660201877356
0.5514544248580933 0.557738184928894 -0.056356195360422134
0.5440190434455872 0.6350787878036499 -0.10718848556280136
0.5633993744850159 0.6360360383987427 -0.08163922280073166
0.530691921710968 0.6188763380050659 -0.12340425699949265
0.5741530656814575 0.44168782234191895 -0.022666560485959053
0.6140789985656738 0.4245811998844147 -0.028497278690338135
0.6499674916267395 0.42050349712371826 -0.028613531962037086
0.6811803579330444 0.4253435730934143 -0.020722275599837303
0.7038492560386658 0.43783819675445557 -0.007089930586516857
0.7205402851104736 0.48341602087020874 0.028283946216106415
0.8007461428642273 0.5473039150238037 0.13249748945236206
0.6997920870780945 0.5160496830940247 0.011636273004114628
0.6715296506881714 0.5233050584793091 6.028132702340372e-05
0.6365759968757629 0.525122880935669 -0.007198724430054426
0.6042312383651733 0.5214014053344727 -0.010472871363162994
0.5801884531974792 0.5144243240356445 -0.008910749107599258
0.5638561844825745 0.5066253542900085 -0.010184179991483688
0.80628502368927 0.5474663972854614 0.21909628808498383
0.5645791292190552 0.6397122740745544 -0.06937091052532196
0.5309348702430725 0.5661540031433105 -0.09125334769487381
0.523759126663208 0.638684868812561 -0.12341845780611038
0.5117359161376953 0.6506437659263611 -0.11192218959331512
0.5253252983093262 0.6423986554145813 -0.11184331029653549
0.5599717497825623 0.6455898880958557 -0.05967651307582855
0.5066414475440979 0.6535404324531555 -0.11774463206529617
0.5059481859207153 0.6573334336280823 -0.08904682099819183
0.5654406547546387 0.48784080147743225 -0.0005710777477361262
0.5511322617530823 0.49273407459259033 -0.013215146027505398
0.5416316390037537 0.4970055818557739 -0.028744466602802277
0.6856890916824341 0.47523728013038635 0.004311117343604565
0.7009567618370056 0.4623185396194458 0.004983679391443729
