ply
format ascii 1.0
element vertex 468
property float x
property float y
property float z
end_header
0.4451403021812439 0.6997573375701904 -0.04627159610390663
0.40858978033065796 0.619120717048645 -0.0984485000371933
0.447817325592041 0.6445145010948181 -0.048130691051483154
0.42381367087364197 0.5430187582969666 -0.06502173840999603
0.4074964225292206 0.5953342914581299 -0.10646802186965942
0.42053723335266113 0.5658037066459656 -0.1017184853553772
0.46498095989227295 0.49256476759910583 -0.06104237958788872
0.4006224274635315 0.471902072429657 0.1245514526963234
0.47687286138534546 0.4424867630004883 -0.05628777667880058
0.47512638568878174 0.41278332471847534 -0.0635024830698967
0.49948012828826904 0.2890726625919342 -0.05528510734438896
0.44731366634368896 0.7121922969818115 -0.043183762580156326
0.4530993700027466 0.7224370241165161 -0.036104295402765274
0.4603559970855713 0.7273824214935303 -0.027009624987840652
0.46002131700515747 0.7409855723381042 -0.018387096002697945
0.455891489982605 0.7523752450942993 -0.020228054374456406
0.4542471766471863 0.7668073177337646 -0.02130492962896824
0.4562370777130127 0.7819604873657227 -0.014996143989264965
0.46956712007522583 0.8038643598556519 0.008186807855963707
0.4189962148666382 0.6320443153381348 -0.08849958330392838
0.41908517479896545 0.628267765045166 -0.05100993439555168
0.409943163394928 0.38981330394744873 0.26009106636047363
0.4426131546497345 0.49560731649398804 0.06769698113203049
0.4266029894351959 0.49689266085624695 0.08359730988740921
0.41185811161994934 0.49494367837905884 0.10157790035009384
0.40206223726272583 0.4793633222579956 0.13434040546417236
0.45315057039260864 0.49012407660484314 0.05316898226737976
0.4123055636882782 0.4410548806190491 0.07297562062740326
0.4302189350128174 0.4444120228290558 0.0538448691368103
0.3990354537963867 0.441989004611969 0.09393051266670227
0.39385008811950684 0.44764941930770874 0.11084536463022232
0.3952186703681946 0.49567604064941406 0.1529310941696167
0.4280988574028015 0.8237785696983337 0.08286680281162262
0.3991956412792206 0.4664030075073242 0.13488000631332397
0.412563681602478 0.4837503135204315 0.2839048206806183
0.3952499032020569 0.4800836145877838 0.18587347865104675
0.4005875289440155 0.593360960483551 0.06128114089369774
0.4272643029689789 0.6933131217956543 -0.02561926655471325
0.44057589769363403 0.7201763987541199 -0.01696156896650791
0.41659146547317505 0.6979851126670837 0.005510397721081972
0.41704845428466797 0.7081125974655151 0.03503735736012459
0.4338147044181824 0.7198390960693359 0.006935231853276491
0.431768000125885 0.7222282886505127 0.03200859948992729
0.4197954535484314 0.746495246887207 0.08770085126161575
0.39661452174186707 0.6163615584373474 -0.08718980103731155
0.3942442834377289 0.5939816236495972 -0.0927799716591835
0.37693607807159424 0.4279373288154602 0.13136079907417297
0.4363071620464325 0.536481499671936 0.026415541768074036
0.395961731672287 0.6051391959190369 -0.007226391229778528
0.40244224667549133 0.5927146673202515 -0.0007792806718498468
0.37489092350006104 0.5869688987731934 0.13045050203800201
0.40779706835746765 0.5662423372268677 -0.08097485452890396
0.3883139193058014 0.41079413890838623 0.0544375404715538
0.37682387232780457 0.4147018492221832 0.09330595284700394
0.40088072419166565 0.35115864872932434 0.20060403645038605
0.44591471552848816 0.4366777837276459 -0.02141306921839714
0.44630610942840576 0.45114558935165405 0.046898409724235535
0.4102870523929596 0.7220906019210815 0.10202024132013321
0.4534226655960083 0.6998713612556458 0.34357038140296936
0.4097222685813904 0.6196126341819763 -0.009347716346383095
0.4222659468650818 0.6302512288093567 -0.027553042396903038
0.4252581298351288 0.726552426815033 0.08849713206291199
0.4338546395301819 0.7263656258583069 0.07460398226976395
0.3752191960811615 0.4000203013420105 0.10883387923240662
0.4041438400745392 0.6155226826667786 0.003487862879410386
0.4105086028575897 0.41706281900405884 0.015926063060760498
0.40619492530822754 0.3984595537185669 0.012203441932797432
0.4201287031173706 0.3015407621860504 0.05790397897362709
0.38629406690597534 0.37504035234451294 0.148719921708107
0.4117850363254547 0.3471876382827759 0.033238109201192856
0.3783740699291229 0.418134868144989 0.15654940903186798
0.39199569821357727 0.4056016206741333 0.20448924601078033
0.43192315101623535 0.7084564566612244 -0.023148762062191963
0.424333393573761 0.7107547521591187 0.005463024135679007
0.42300087213516235 0.7152746319770813 0.03159647807478905
0.41601240634918213 0.6250011324882507 -0.012017275206744671
0.4292808473110199 0.7269723415374756 0.07989305257797241
0.42881184816360474 0.7328522205352783 0.06063001975417137
0.4372768998146057 0.7249748706817627 0.07218711078166962
0.4001982808113098 0.6122446060180664 -0.04017321765422821
0.44067567586898804 0.7223894000053406 0.03289693593978882
0.44346457719802856 0.7225454449653625 0.012575178407132626
0.4496889114379883 0.7249608635902405 -0.00814607460051775
0.4488562345504761 0.7983834147453308 0.024995189160108566
0.4373164772987366 0.7754429578781128 0.003563337493687868
0.4373457133769989 0.760270357131958 -0.0012394709046930075
0.44140520691871643 0.7463243007659912 -8.937502570915967e-05
0.4473363161087036 0.7376066446304321 0.0009085575584322214
0.43855786323547363 0.731872022151947 0.0391886867582798
0.43374451994895935 0.7347677946090698 0.03717502951622009
0.4279139041900635 0.7405080795288086 0.037774812430143356
0.42456352710723877 0.7480244636535645 0.04597945138812065
0.4042346179485321 0.6795525550842285 0.048029880970716476
0.4572930634021759 0.58445805311203 0.37723270058631897
0.43276745080947876 0.637703537940979 -0.06308083236217499
0.43845266103744507 0.7298957109451294 0.058787427842617035
0.43317660689353943 0.730626106262207 0.05807748809456825
0.42866969108581543 0.6414769291877747 -0.027084320783615112
0.4154857099056244 0.6316505074501038 0.01031413208693266
0.42526376247406006 0.6361507177352905 -0.02845095284283161
0.42466315627098083 0.5482179522514343 0.0499323345720768
0.40058743953704834 0.5625559091567993 0.07875020056962967
0.406570702791214 0.6032106876373291 0.012381596490740776
0.40368738770484924 0.3210269808769226 0.13043296337127686
0.3937000632286072 0.35421884059906006 0.09271030128002167
0.3852819502353668 0.3922678828239441 0.062034495174884796
0.4252118468284607 0.7647929787635803 0.06989849358797073
0.43680518865585327 0.4082012176513672 -0.02860845997929573
0.4411037266254425 0.34638646245002747 -0.016636604443192482
0.4502687156200409 0.29150450229644775 -0.005440842360258102
0.4039318561553955 0.4888613820075989 0.1208001896739006
0.3883611261844635 0.5113660097122192 0.17951640486717224
0.45851051807403564 0.48447442054748535 0.04899873957037926
0.39012500643730164 0.4534626007080078 0.14268657565116882
0.44278672337532043 0.5232857465744019 0.00846167467534542
0.39252549409866333 0.5975099802017212 -0.03492356836795807
0.386231005191803 0.5267202854156494 0.22148241102695465
0.382872611284256 0.528640627861023 0.15612807869911194
0.3882146179676056 0.5392230749130249 0.11963722854852676
0.41206029057502747 0.5372133851051331 0.08454239368438721
0.4330882430076599 0.5281693339347839 0.05908508598804474
0.4458635449409485 0.5185747146606445 0.03652717545628548
0.4518364667892456 0.49661219120025635 -0.037253350019454956
0.37704703211784363 0.5747239589691162 0.22098727524280548
0.3871251046657562 0.45120900869369507 0.16259610652923584
0.4110376536846161 0.6297955513000488 -0.07944618165493011
0.4276289939880371 0.55945885181427 0.020168865099549294
0.4464063048362732 0.48228129744529724 0.35570183396339417
0.4536277651786804 0.5082154870033264 0.021417617797851562
0.41548699140548706 0.6049520969390869 0.031948238611221313
0.3988707959651947 0.46643900871276855 0.14408527314662933
0.40162649750709534 0.5831294655799866 -0.028344834223389626
0.45513683557510376 0.639970064163208 0.3671020269393921
0.45983585715293884 0.476937472820282 0.05496147647500038
0.40279456973075867 0.572313666343689 -0.057339124381542206
0.4148879647254944 0.7603084444999695 0.2098812311887741
0.4397759437561035 0.7879105806350708 0.2475593090057373
0.40773215889930725 0.5807204246520996 0.30427515506744385
0.413479745388031 0.7258934378623962 0.2508552670478821
0.403412789106369 0.44139206409454346 0.2507769465446472
0.42923790216445923 0.8478791117668152 0.10024306178092957
0.42639023065567017 0.6356294751167297 -0.056894440203905106
0.4193112254142761 0.5754319429397583 0.039703257381916046
0.39745375514030457 0.4840199649333954 0.21990051865577698
0.410596638917923 0.4810289740562439 0.10032134503126144
0.4250751733779907 0.4840029180049896 0.08467376232147217
0.42545655369758606 0.7366094589233398 0.06842131167650223
0.38171157240867615 0.6218671202659607 0.2263183742761612
0.45608505606651306 0.8897784948348999 0.08372858166694641
0.43864893913269043 0.8471719622612 0.1618644744157791
0.43858057260513306 0.8221250176429749 0.20062823593616486
0.48424482345581055 0.34789884090423584 -0.060339298099279404
0.4900837540626526 0.9037742614746094 0.04870287701487541
0.4393485188484192 0.4832596778869629 0.07050173729658127
0.45076635479927063 0.47948476672172546 0.062317974865436554
0.45701128244400024 0.477658212184906 0.058818694204092026
0.3904128670692444 0.4470248222351074 0.1919504851102829
0.4492020308971405 0.46639326214790344 0.05933966860175133
0.436179518699646 0.4627547562122345 0.06570940464735031
0.4208942949771881 0.4603581428527832 0.07926054298877716
0.40743884444236755 0.46066373586654663 0.0960925742983818
0.40144026279449463 0.4631340503692627 0.11002998054027557
0.4252713918685913 0.4305664896965027 0.3138069212436676
0.403976708650589 0.4762842059135437 0.11439157277345657
0.44942373037338257 0.6623942852020264 -0.0420512855052948
0.40905851125717163 0.6660219430923462 0.023018889129161835
0.4039379060268402 0.6153627038002014 -0.019663050770759583
0.4278576374053955 0.6616459488868713 -0.021287253126502037
0.4783995747566223 0.46609145402908325 -0.05086066573858261
0.4201980233192444 0.7933106422424316 0.17283359169960022
0.4258323609828949 0.8206204175949097 0.13737447559833527
0.44264790415763855 0.8711305856704712 0.058681175112724304
0.44726693630218506 0.7499909400939941 0.30022794008255005
0.4557534456253052 0.4722449779510498 0.05677548050880432
0.4323844611644745 0.5316884517669678 -0.028826992958784103
0.47547054290771484 0.8841991424560547 0.02464527077972889
0.4417487382888794 0.870202362537384 0.12241794168949127
0.41034039855003357 0.6319078803062439 0.29978615045547485
0.4406313896179199 0.7340412139892578 0.020821047946810722
0.43510353565216064 0.7404192090034485 0.019643045961856842
0.4299814701080322 0.7502663731575012 0.02016969583928585
0.4271019995212555 0.7633036971092224 0.02682618983089924
0.43403398990631104 0.7828890085220337 0.04895781725645065
0.4332789182662964 0.7241076827049255 0.055804189294576645
0.4260241985321045 0.7212913036346436 0.06081872060894966
0.42061102390289307 0.7165729403495789 0.06473284214735031
0.40427452325820923 0.6990194916725159 0.07812561094760895
0.37809231877326965 0.6361835598945618 0.1660512387752533
0.4477364420890808 0.5087700486183167 -0.013475331477820873
0.46403735876083374 0.4646754264831543 0.0205779280513525
0.4598904550075531 0.46515899896621704 0.04219062253832817
0.43970972299575806 0.7222591638565063 0.055636677891016006
0.39409855008125305 0.6925989985466003 0.2027149796485901
0.4638252854347229 0.4675807058811188 -0.018211141228675842
0.43414002656936646 0.8019000291824341 0.06622809171676636
0.43621891736984253 0.5411319732666016 -0.08726927638053894
0.43683913350105286 0.5210759043693542 -0.05549294874072075
0.4500070810317993 0.5178319215774536 -0.07352574914693832
0.4185722768306732 0.5654094815254211 -0.01650782860815525
0.469387948513031 0.8575650453567505 0.011662597768008709
0.47038260102272034 0.8279827237129211 0.009711687453091145
0.4472601115703583 0.8199759721755981 0.03442421182990074
0.4124228060245514 0.7524038553237915 0.1105349063873291
0.40675562620162964 0.6242519021034241 0.050433192402124405
0.4233623147010803 0.7795764803886414 0.09056854248046875
0.38253557682037354 0.6192936897277832 0.09233205765485764
0.39565151929855347 0.6480927467346191 0.0707269087433815
0.3820422291755676 0.656436562538147 0.12385804951190948
0.4405113458633423 0.8466838598251343 0.04493161663413048
0.4187115430831909 0.5765256881713867 0.006909532938152552
0.40998199582099915 0.7676299810409546 0.1430165022611618
0.4220180809497833 0.7968794703483582 0.11410199850797653
0.40107518434524536 0.7216914296150208 0.12474365532398224
0.3903280198574066 0.6621957421302795 0.23152348399162292
0.3975208103656769 0.721666157245636 0.15986768901348114
0.4131399393081665 0.6799981594085693 0.28882840275764465
0.39357954263687134 0.6792324185371399 0.09518931061029434
0.4308558702468872 0.5452321767807007 -0.0028013158589601517
0.39421647787094116 0.6078065037727356 -0.04171422868967056
0.3980570435523987 0.6128634810447693 -0.01561978179961443
0.390919029712677 0.594217836856842 -0.06212334334850311
0.44956958293914795 0.4460696876049042 0.025842687115073204
0.42283353209495544 0.43285664916038513 0.041484374552965164
0.40109938383102417 0.4285551905632019 0.06369969993829727
0.3870227336883545 0.4304395318031311 0.0914006158709526
0.38387373089790344 0.4383995532989502 0.11727480590343475
0.3971371054649353 0.4732639491558075 0.15997758507728577
0.40894177556037903 0.5316477417945862 0.29972323775291443
0.3952350318431854 0.5062115788459778 0.13716904819011688
0.4029141962528229 0.5147776007652283 0.11115364730358124
0.42070913314819336 0.5155796408653259 0.08591942489147186
0.4399139881134033 0.5106441974639893 0.06439054757356644
0.45223528146743774 0.503642737865448 0.04556918144226074
0.4593392610549927 0.4974156320095062 0.03439426049590111
0.45767271518707275 0.5327712297439575 0.37430426478385925
0.40546470880508423 0.6196974515914917 -0.006250289268791676
0.4190087914466858 0.5519318580627441 -0.03997420519590378
0.39220699667930603 0.6107865571975708 -0.06782729178667068
0.4097088873386383 0.624360978603363 -0.06805438548326492
0.3996768295764923 0.6146025061607361 -0.05788847431540489
0.4145043194293976 0.6279736161231995 -0.005021804478019476
0.40853580832481384 0.6272278428077698 -0.0751178190112114
0.4219270944595337 0.6331877112388611 -0.05408874899148941
0.4627845287322998 0.478346586227417 0.043112460523843765
0.46559932827949524 0.48648273944854736 0.020646555349230766
0.46095454692840576 0.4920942485332489 0.0025739013217389584
0.399112343788147 0.46523815393447876 0.1216622069478035
0.3936620056629181 0.45467132329940796 0.12957993149757385
0.45483261346817017 0.5461440086364746 -0.09536490589380264
0.6665375232696533 0.4950479567050934 -0.09636813402175903
0.45535314083099365 0.6350684762001038 -0.07378784567117691
0.8520301580429077 0.3982807695865631 -0.08060010522603989
0.591874361038208 0.5105514526367188 -0.07389169931411743
0.6142491102218628 0.5143600106239319 -0.0871800109744072
0.6399070024490356 0.5153653025627136 -0.095733642578125
0.6840395331382751 0.5030420422554016 -0.0994337946176529
0.5746457576751709 0.5023880004882812 -0.058260537683963776
0.6222401857376099 0.45104309916496277 -0.10531411319971085
0.5979660749435425 0.45119717717170715 -0.08664616197347641
0.6486393809318542 0.45523887872695923 -0.11294350773096085
0.668878436088562 0.46390002965927124 -0.11279384791851044
0.7097283601760864 0.5214284658432007 -0.09829430282115936
0.5665382146835327 0.8525339961051941 -0.019607437774538994
0.6808648109436035 0.48923245072364807 -0.09621179848909378
0.8528640270233154 0.512510359287262 -0.06367819011211395
0.7531089186668396 0.5072499513626099 -0.09738115221261978
0.5889264941215515 0.6131042838096619 -0.08087023347616196
0.47241199016571045 0.6996985077857971 -0.06137363240122795
0.47693932056427 0.7262556552886963 -0.049572911113500595
0.5093855857849121 0.7124584913253784 -0.0681406706571579
0.5383030772209167 0.7252069711685181 -0.06707475334405899
0.5043827891349792 0.7312668561935425 -0.05706842616200447
0.5283036231994629 0.7362958192825317 -0.05383973568677902
0.5900242328643799 0.7714283466339111 -0.045056793838739395
0.4276354908943176 0.621095597743988 -0.10677970945835114
0.42896854877471924 0.5982110500335693 -0.11595367640256882
0.7120641469955444 0.44510626792907715 -0.13482120633125305
0.5489730834960938 0.5472573637962341 -0.066048264503479
0.5179165601730347 0.6206490397453308 -0.09387616068124771
0.5266469717025757 0.6073246598243713 -0.0898592472076416
0.6771661639213562 0.6182817220687866 -0.10642034560441971
0.44081735610961914 0.5698462128639221 -0.11040166765451431
0.6260855197906494 0.41870224475860596 -0.13006332516670227
0.6715728044509888 0.4272678792476654 -0.1381174623966217
0.7952624559402466 0.3538929522037506 -0.10461749881505966
0.5194719433784485 0.4385605752468109 -0.08184566348791122
0.5794273614883423 0.45668599009513855 -0.0666382759809494
0.6083918213844299 0.7487955689430237 -0.058556195348501205
0.8687491416931152 0.7581738233566284 0.02683143876492977
0.5029724836349487 0.6335535645484924 -0.07482073456048965
0.48328930139541626 0.639004647731781 -0.06002978980541229
0.5804576277732849 0.7462992668151855 -0.049731746315956116
0.5703633427619934 0.7445060014724731 -0.04661351069808006
0.6931747794151306 0.41154175996780396 -0.13819091022014618
0.5280219316482544 0.6310317516326904 -0.08123628795146942
0.5746336579322815 0.42167502641677856 -0.11118868738412857
0.5774617791175842 0.401913046836853 -0.11888696998357773
0.640376091003418 0.29871866106987 -0.11755948513746262
0.7401231527328491 0.3823676109313965 -0.12476665526628494
0.6027849912643433 0.3481685519218445 -0.11843791604042053
0.74061119556427 0.4348500967025757 -0.12890510261058807
0.793542742729187 0.41818729043006897 -0.10547323524951935
0.4731346368789673 0.7152191400527954 -0.05818258598446846
0.5043714642524719 0.7239131331443787 -0.06405827403068542
0.5314955711364746 0.7312031984329224 -0.06179104372859001
0.4998401701450348 0.6376845836639404 -0.06460926681756973
0.574326753616333 0.7456220984458923 -0.047590069472789764
0.5590640306472778 0.7507009506225586 -0.04637564346194267
0.569740891456604 0.7429516315460205 -0.045370060950517654
0.4729717969894409 0.6254665851593018 -0.0991780236363411
0.530459463596344 0.7346081733703613 -0.048531439155340195
0.5071515440940857 0.7323780059814453 -0.047457944601774216
0.4828028678894043 0.7299033999443054 -0.041259508579969406
0.4999815821647644 0.8072447776794434 -0.007677264045923948
0.48533371090888977 0.7839348316192627 -0.03215402364730835
0.4816700220108032 0.7680844068527222 -0.03805136680603027
0.48110681772232056 0.75298672914505 -0.036373622715473175
0.4828454256057739 0.7437798380851746 -0.03340649604797363
0.5333136320114136 0.745481550693512 -0.042482320219278336
0.5346783399581909 0.74946129322052 -0.044548217207193375
0.5388529896736145 0.7568725347518921 -0.0468800812959671
0.5447461009025574 0.7660452127456665 -0.04550805315375328
0.5612727999687195 0.7000210285186768 -0.07037346065044403
0.9097102284431458 0.627639651298523 0.022283392027020454
0.5515530109405518 0.7454833984375 -0.043541766703128815
0.5538452863693237 0.7473039031028748 -0.04503520205616951
0.47580087184906006 0.6485944390296936 -0.058444224298000336
0.5262666940689087 0.6454029679298401 -0.05711473152041435
0.47907790541648865 0.6440874338150024 -0.05947323516011238
0.5745434761047363 0.56289142370224 -0.07368892431259155
0.610927939414978 0.5831048488616943 -0.08962089568376541
0.5374540090560913 0.6183285713195801 -0.07987353950738907
0.7251483798027039 0.3198002874851227 -0.11903071403503418
0.677818775177002 0.3577675223350525 -0.12797434628009796
0.6374557018280029 0.39937806129455566 -0.13402096927165985
0.564693808555603 0.7873729467391968 -0.03842255100607872
0.5222392678260803 0.40808236598968506 -0.09522369503974915
0.5416451692581177 0.34666305780410767 -0.09592592716217041
0.568465530872345 0.28970858454704285 -0.09424016624689102
0.6665695905685425 0.5122660398483276 -0.09932010620832443
0.742659866809845 0.5412709712982178 -0.0996926948428154
0.5634363293647766 0.4950690269470215 -0.05060269683599472
0.7074464559555054 0.4750227928161621 -0.11435186117887497
0.5293170809745789 0.5314577221870422 -0.06545723974704742
0.4887394905090332 0.6108517646789551 -0.10513503104448318
0.7871956825256348 0.5605509877204895 -0.0960150957107544
0.7103855013847351 0.557180643081665 -0.10606541484594345
0.6651075482368469 0.5638056993484497 -0.10205941647291183
0.6139893531799316 0.5558133721351624 -0.08480299264192581
0.5819454789161682 0.5423920154571533 -0.06901875138282776
0.5582142472267151 0.5293949842453003 -0.059191491454839706
0.4871625304222107 0.4995685815811157 -0.06946220993995667
0.7765571475028992 0.6146570444107056 -0.09488838911056519
0.7370752692222595 0.4739152193069458 -0.11865305155515671
0.43012404441833496 0.6327688694000244 -0.09518879652023315
0.5388365387916565 0.5707578063011169 -0.06910679489374161
0.9118399620056152 0.5084737539291382 -0.010282393544912338
0.5385843515396118 0.5163094401359558 -0.053319066762924194
0.5499688386917114 0.6200554966926575 -0.0595439113676548
0.6952630877494812 0.4892023801803589 -0.09909852594137192
0.5001389980316162 0.5947327613830566 -0.09951586276292801
0.898609459400177 0.6914756894111633 0.027515025809407234
0.5684512257575989 0.4881674647331238 -0.04959170147776604
0.4685736894607544 0.5797746777534485 -0.10965888202190399
0.7291006445884705 0.8147698640823364 -0.025374148041009903
0.7577504515647888 0.8457054495811462 0.007771371863782406
0.8526766300201416 0.6241505742073059 -0.04187581315636635
0.782068133354187 0.7832057476043701 -0.026715267449617386
0.8277090191841125 0.4604135751724243 -0.08102399110794067
0.5789291858673096 0.8808393478393555 -0.010727617889642715
0.44160348176956177 0.6375738382339478 -0.06628640741109848
0.5630840063095093 0.5901970863342285 -0.07072412967681885
0.7899830341339111 0.5132088661193848 -0.09232126176357269
0.6333194375038147 0.5013095736503601 -0.09333141893148422
0.611113965511322 0.5015199780464172 -0.0870041474699974
0.5665885210037231 0.7557069063186646 -0.047005537897348404
0.777380645275116 0.6671581864356995 -0.07751812040805817
0.5389035940170288 0.9088464379310608 0.022752419114112854
0.6403034329414368 0.8903622627258301 0.008168468251824379
0.6928463578224182 0.8736620545387268 0.0066053736954927444
0.5946804881095886 0.49843037128448486 -0.07544226199388504
0.5805776715278625 0.492467999458313 -0.06352374702692032
0.5720552802085876 0.48937544226646423 -0.05401785671710968
0.7715826630592346 0.4692283868789673 -0.11045040190219879
0.5852967500686646 0.477853387594223 -0.06936366111040115
0.6035839319229126 0.47523418068885803 -0.08360165357589722
0.622266411781311 0.4764603078365326 -0.09494182467460632
0.6437107920646667 0.4798610210418701 -0.10165980458259583
0.6591659188270569 0.4840056896209717 -0.10194496065378189
0.889009952545166 0.44641783833503723 -0.0437745600938797
0.6511725187301636 0.49884146451950073 -0.0964813157916069
0.5344938635826111 0.6823843717575073 -0.06757863610982895
0.49780964851379395 0.6300665736198425 -0.08084018528461456
0.478567898273468 0.669083297252655 -0.05855260044336319
0.6777212619781494 0.842984676361084 -0.017191197723150253
0.630427360534668 0.8635910153388977 -0.012067246250808239
0.5249248743057251 0.8894032835960388 -0.001637349254451692
0.8176602721214294 0.8103809356689453 0.01711348630487919
0.5730862617492676 0.4839939475059509 -0.05838051810860634
0.49272406101226807 0.5374538898468018 -0.07888363301753998
0.5879762768745422 0.9029794931411743 0.008843912743031979
0.8467721939086914 0.68239426612854 -0.03140059858560562
0.5075418949127197 0.7445605993270874 -0.04018072411417961
0.5091180205345154 0.7519829869270325 -0.04378736764192581
0.5113831162452698 0.7636239528656006 -0.04581262171268463
0.515802800655365 0.7775459289550781 -0.043011270463466644
0.5344640016555786 0.8002492785453796 -0.029504112899303436
0.5532817244529724 0.7403439879417419 -0.0520692840218544
0.5577659010887146 0.738678514957428 -0.05738949775695801
0.5646721720695496 0.735177755355835 -0.061661265790462494
0.5872416496276855 0.722900927066803 -0.06978952884674072
0.7138056755065918 0.6767683625221252 -0.09012139588594437
0.5079823732376099 0.5141304135322571 -0.06572451442480087
0.5420264005661011 0.4705105423927307 -0.04606384038925171
0.5618007183074951 0.4725732207298279 -0.05266571789979935
0.5524991750717163 0.7370421886444092 -0.04735448583960533
0.7390294671058655 0.7420840263366699 -0.057795945554971695
0.510993242263794 0.47050100564956665 -0.057317040860652924
0.5528594255447388 0.8254386186599731 -0.021460209041833878
0.47091853618621826 0.5242944955825806 -0.0824362188577652
0.5065199136734009 0.574647843837738 -0.08198953419923782
0.5084303617477417 0.83246248960495 -0.007832672446966171
0.6201551556587219 0.7862668633460999 -0.04346521198749542
0.5706628561019897 0.642716109752655 -0.06527763605117798
0.5906704068183899 0.8102283477783203 -0.030934669077396393
0.6286070346832275 0.6477808356285095 -0.0907520279288292
0.5916376709938049 0.6718601584434509 -0.07354854047298431
0.6611595153808594 0.6923736333847046 -0.08510711789131165
0.51506108045578 0.8626587390899658 -0.011789883486926556
0.5308436751365662 0.5884012579917908 -0.07514014840126038
0.6527040600776672 0.8107587695121765 -0.035775236785411835
0.6116546392440796 0.8341567516326904 -0.02250572293996811
0.6390982866287231 0.7567963600158691 -0.06232237443327904
0.7778790593147278 0.7124559283256531 -0.05975913256406784
0.6875797510147095 0.7668969035148621 -0.057907793670892715
0.8282837867736816 0.7360161542892456 -0.025324339047074318
0.6170555949211121 0.7078808546066284 -0.0760045051574707
0.5160309076309204 0.5538817644119263 -0.07371890544891357
0.4782482385635376 0.6217355132102966 -0.10588842630386353
0.5078456997871399 0.6287758350372314 -0.08886449784040451
0.45777428150177 0.6036664247512817 -0.11437854915857315
0.5542252063751221 0.4520074725151062 -0.06675052642822266
0.5875348448753357 0.4407566785812378 -0.09403862804174423
0.6206901669502258 0.43820813298225403 -0.11351268738508224
0.6545014381408691 0.442926824092865 -0.12401582300662994
0.684553861618042 0.45474591851234436 -0.12428832799196243
0.7197412252426147 0.4981481432914734 -0.0999375581741333
0.8552595376968384 0.5681279897689819 -0.05561581999063492
0.6874957084655762 0.5308160185813904 -0.09853257238864899
0.6537790298461914 0.5363569259643555 -0.09392409771680832
0.6176660060882568 0.5333408713340759 -0.08299882709980011
0.5882108211517334 0.524896502494812 -0.06784043461084366
0.5673436522483826 0.5151637196540833 -0.05414329469203949
0.551988422870636 0.5067690014839172 -0.04656635597348213
0.9142497777938843 0.5676494240760803 0.010717635042965412
0.5146791934967041 0.6345654726028442 -0.07801118493080139
0.47925812005996704 0.5582456588745117 -0.09138798713684082
0.44992655515670776 0.620607316493988 -0.10842304676771164
0.4476470351219177 0.6318289041519165 -0.09165456146001816
0.4578913450241089 0.6256442070007324 -0.09983447939157486
0.5130542516708374 0.6411682367324829 -0.06500452011823654
0.4393165409564972 0.6325752139091492 -0.09424293041229248
0.4495370388031006 0.6377357244491577 -0.07026375085115433
0.5571948289871216 0.4877379238605499 -0.043078601360321045
0.5396699905395508 0.49341481924057007 -0.04226885735988617
0.5241225361824036 0.4976767301559448 -0.05063972994685173
0.6699398159980774 0.48723089694976807 -0.10053187608718872
0.6881340146064758 0.4748307466506958 -0.10833707451820374
