ply
format ascii 1.0
element vertex 468
property float x
property float y
property float z
end_header
0.5099098086357117 0.6896158456802368 -0.05338214710354805
0.514854371547699 0.618915319442749 -0.12713980674743652
0.5109131932258606 0.6404752135276794 -0.06430055946111679
0.49309149384498596 0.5383478999137878 -0.10302240401506424
0.5152084231376648 0.5939732789993286 -0.13682088255882263
0.5141353607177734 0.5612465143203735 -0.13010625541210175
0.5097746849060059 0.484072744846344 -0.07525650411844254
0.3421357572078705 0.48326948285102844 0.012326281517744064
0.508102297782898 0.44326239824295044 -0.06522275507450104
0.5082264542579651 0.414021372795105 -0.0730447843670845
0.5067952275276184 0.2824595272541046 -0.05822820961475372
0.5096294283866882 0.7000741958618164 -0.049187012016773224
0.509006142616272 0.7054861783981323 -0.04170660302042961
0.5083664059638977 0.7047938108444214 -0.03141731396317482
0.5083573460578918 0.707346498966217 -0.030458172783255577
0.5086198449134827 0.7134777903556824 -0.03470051288604736
0.5084983706474304 0.7225465774536133 -0.04120426997542381
0.5081626772880554 0.7353395223617554 -0.04074365645647049
0.5068269968032837 0.7673448324203491 -0.022313755005598068
0.5135370492935181 0.6313244104385376 -0.11419562250375748
0.4888571798801422 0.6278809309005737 -0.08240650594234467
0.24359533190727234 0.39816781878471375 0.1059267446398735
0.41034790873527527 0.5013440251350403 -0.005959170404821634
0.3870169520378113 0.5031795501708984 -0.00579474400728941
0.3641100525856018 0.5019444823265076 -0.0011535707162693143
0.33203375339508057 0.4919215738773346 0.01606239750981331
0.42935168743133545 0.4954528212547302 -0.0034712792839854956
0.3785586953163147 0.45751383900642395 -0.021636197343468666
0.4016703963279724 0.4569459557533264 -0.019364992156624794
0.35659492015838623 0.46074336767196655 -0.015153243206441402
0.3411698043346405 0.4663712680339813 -0.00570105342194438
0.31256967782974243 0.505212664604187 0.028399070724844933
0.4168069660663605 0.8205737471580505 0.00944237969815731
0.3330785930156708 0.4795374572277069 0.01862599514424801
0.23608645796775818 0.5012205839157104 0.12807151675224304
0.28390738368034363 0.49515414237976074 0.0485917404294014
0.38764500617980957 0.5916644930839539 -0.021028488874435425
0.47545337677001953 0.6847848892211914 -0.05314048379659653
0.4763038754463196 0.7033249735832214 -0.03907179459929466
0.4387126564979553 0.6863983869552612 -0.03896727412939072
0.4129924476146698 0.689595103263855 -0.0181264765560627
0.44857582449913025 0.7007914781570435 -0.028864385560154915
0.42590761184692383 0.6988885998725891 -0.010148221626877785
0.38653498888015747 0.7217586040496826 0.021073875948786736
0.4945136606693268 0.6180583834648132 -0.12589168548583984
0.4926467835903168 0.5938459634780884 -0.13522496819496155
0.30091530084609985 0.4468382000923157 -0.007575399242341518
0.4386705160140991 0.5359436273574829 -0.027340734377503395
0.43243536353111267 0.6048110723495483 -0.07004132121801376
0.4315289855003357 0.5916791558265686 -0.06334860622882843
0.3140685558319092 0.5869889259338379 0.005559335928410292
0.49321311712265015 0.5636516809463501 -0.12375888973474503
0.3628232777118683 0.42604130506515503 -0.048081181943416595
0.32701557874679565 0.43287259340286255 -0.03192102164030075
0.26954883337020874 0.3551943302154541 0.05672799050807953
0.4650607705116272 0.44192683696746826 -0.06091708689928055
0.42248058319091797 0.46052008867263794 -0.010071939788758755
0.36411792039871216 0.6982724666595459 0.024053607136011124
0.25310516357421875 0.7283133864402771 0.212380051612854
0.44854289293289185 0.6182660460472107 -0.05851117894053459
0.4693123400211334 0.6267648339271545 -0.05989549309015274
0.3834686875343323 0.6931837201118469 0.026576440781354904
0.3931790590286255 0.6936390995979309 0.02153465524315834
0.3117862343788147 0.41664832830429077 -0.02179463766515255
0.4288064241409302 0.6125728487968445 -0.05585499480366707
0.40927690267562866 0.4281434714794159 -0.057934872806072235
0.4042533040046692 0.40708014369010925 -0.06501384824514389
0.37120628356933594 0.29596710205078125 -0.03353326767683029
0.29204094409942627 0.38333821296691895 0.012544538825750351
0.39041024446487427 0.34635835886001587 -0.0499875508248806
0.2846435308456421 0.43563440442085266 0.010964184068143368
0.2645273208618164 0.4173309803009033 0.056547969579696655
0.4755304157733917 0.6972492337226868 -0.04825412482023239
0.44479358196258545 0.6961297988891602 -0.03418295085430145
0.42023149132728577 0.6948849558830261 -0.0157315693795681
0.4537579417228699 0.62195885181427 -0.0538007952272892
0.3881880044937134 0.6929097771644592 0.02389533817768097
0.40427365899086 0.7004156112670898 0.009113975800573826
0.39605051279067993 0.6948374509811401 0.0207041185349226
0.4655523896217346 0.6151254177093506 -0.09310305863618851
0.428578644990921 0.6962904334068298 -0.0060802423395216465
0.4518134891986847 0.6993154883384705 -0.019172079861164093
0.47810256481170654 0.7028926014900208 -0.029201040044426918
0.4733487367630005 0.7672971487045288 -0.021138040348887444
0.47704005241394043 0.7339791655540466 -0.03921949118375778
0.4782376289367676 0.7201290130615234 -0.03991997614502907
0.47878924012184143 0.7114537954330444 -0.032534122467041016
0.47985970973968506 0.7062156200408936 -0.028204675763845444
0.4294968843460083 0.701444149017334 -0.004967993590980768
0.42691269516944885 0.7027199268341064 -0.009286373853683472
0.4234793782234192 0.7075170278549194 -0.012529797852039337
0.4204601049423218 0.7155383825302124 -0.008129117079079151
0.39624330401420593 0.6687583923339844 -0.014556069858372211
0.22977665066719055 0.611873984336853 0.2345065325498581
0.512272298336029 0.6356228590011597 -0.0820126086473465
0.4137120246887207 0.6995933055877686 0.010621401481330395
0.4092964231967926 0.698322594165802 0.008244079537689686
0.477946937084198 0.6380100846290588 -0.05950268730521202
0.435381144285202 0.6253550052642822 -0.036458972841501236
0.4737887680530548 0.6326920986175537 -0.06059020757675171
0.41338256001472473 0.5480626821517944 -0.019189441576600075
0.3736518621444702 0.5616048574447632 -0.014089804142713547
0.42540156841278076 0.600373387336731 -0.04890691861510277
0.31068193912506104 0.32009485363960266 0.0077304113656282425
0.33287349343299866 0.358864963054657 -0.021687529981136322
0.35367804765701294 0.4053701162338257 -0.04527095705270767
0.41023510694503784 0.7407551407814026 0.006876868195831776
0.4573250710964203 0.4105873107910156 -0.07342913001775742
0.44606906175613403 0.3419802188873291 -0.06456182152032852
0.43415045738220215 0.28450828790664673 -0.054928008466959
0.344061017036438 0.49878939986228943 0.007738962769508362
0.2865957021713257 0.5207114815711975 0.04231595993041992
0.4407954216003418 0.4896690547466278 -0.0004663527070078999
0.31212687492370605 0.47130265831947327 0.012656694278120995
0.455814003944397 0.5216024518013 -0.03706413134932518
0.45091959834098816 0.5995960831642151 -0.09371411055326462
0.2599108815193176 0.538834273815155 0.0687776431441307
0.3044712543487549 0.5331628918647766 0.02403358742594719
0.3355643153190613 0.539624035358429 0.005270730704069138
0.3801227807998657 0.5379455089569092 -0.004706281237304211
0.41369035840034485 0.5301694273948669 -0.008773180656135082
0.43811431527137756 0.519861102104187 -0.015443461015820503
0.4875665605068207 0.4907352328300476 -0.06631768494844437
0.2600146532058716 0.5850749611854553 0.06747757643461227
0.29080215096473694 0.46910664439201355 0.021491190418601036
0.5012494921684265 0.6301306486129761 -0.1134488582611084
0.43968504667282104 0.5580149292945862 -0.03456916660070419
0.22432231903076172 0.5021239519119263 0.20443572103977203
0.45608943700790405 0.5076672434806824 -0.01998143643140793
0.42195290327072144 0.6008861660957336 -0.023581242188811302
0.3253116309642792 0.48271000385284424 0.022701993584632874
0.44992733001708984 0.5834188461303711 -0.08559641987085342
0.2372453510761261 0.6700344085693359 0.22925961017608643
0.43904241919517517 0.4818686544895172 0.004482492804527283
0.47194379568099976 0.5716620087623596 -0.10958653688430786
0.3070589601993561 0.771125078201294 0.09721702337265015
0.310528427362442 0.805336594581604 0.13902121782302856
0.23566335439682007 0.601184070110321 0.15073034167289734
0.27443721890449524 0.742641031742096 0.12172438204288483
0.2494337409734726 0.45486390590667725 0.09848878532648087
0.4126620292663574 0.8493114709854126 0.023172711953520775
0.50245201587677 0.634343147277832 -0.08074182271957397
0.4170965254306793 0.5735838413238525 -0.02524452656507492
0.26246964931488037 0.5003941059112549 0.07132061570882797
0.3667290210723877 0.48855283856391907 0.0002598885912448168
0.38731056451797485 0.4901128113269806 -0.004410863388329744
0.3993397355079651 0.70501708984375 0.0131423594430089
0.2587076425552368 0.6343666911125183 0.0804905891418457
0.4566796123981476 0.8815371990203857 0.031085997819900513
0.3835655748844147 0.855535626411438 0.07789640128612518
0.35022759437561035 0.8350958824157715 0.1054978221654892
0.5077935457229614 0.3427824079990387 -0.06676436960697174
0.5041531920433044 0.8836389183998108 0.026588154956698418
0.4064127504825592 0.4885736107826233 -0.004692765884101391
0.42399704456329346 0.4851246476173401 -0.0009655617759563029
0.4344034492969513 0.483440637588501 0.003757661674171686
0.2718895375728607 0.46402645111083984 0.043613385409116745
0.4188440442085266 0.46773743629455566 -0.005418678279966116
0.3993386924266815 0.46335113048553467 -0.011491877026855946
0.3805709779262543 0.4627206027507782 -0.011762146838009357
0.3606516122817993 0.4664156436920166 -0.006910241674631834
0.3475326597690582 0.47203484177589417 0.0008978285477496684
0.2300245463848114 0.443748414516449 0.15991924703121185
0.35232144594192505 0.4858829081058502 0.006631036754697561
0.5103160738945007 0.6567516326904297 -0.05556538328528404
0.42253565788269043 0.6577887535095215 -0.032021477818489075
0.449268102645874 0.6160471439361572 -0.06854790449142456
0.47434377670288086 0.6560555696487427 -0.055232856422662735
0.5082771182060242 0.462330162525177 -0.06076506897807121
0.34374338388442993 0.8020945191383362 0.07640843838453293
0.37731727957725525 0.8265920877456665 0.05140526965260506
0.45598945021629333 0.8625310659408569 0.0002557346597313881
0.27907073497772217 0.7728531360626221 0.17815348505973816
0.4328199625015259 0.47562986612319946 0.00026066345162689686
0.4731791019439697 0.5278834700584412 -0.0687500536441803
0.5058303475379944 0.8636772632598877 -0.0032650339417159557
0.4180111289024353 0.8716774582862854 0.048937443643808365
0.24057641625404358 0.6543987393379211 0.15251387655735016
0.4530247151851654 0.7037085294723511 -0.01807337813079357
0.4505056142807007 0.7075814008712769 -0.02274983748793602
0.4488712251186371 0.7147102355957031 -0.02723095938563347
0.44703900814056396 0.726928174495697 -0.024501608684659004
0.43866169452667236 0.7565120458602905 -0.009537823498249054
0.4047299921512604 0.695917546749115 0.00666753388941288
0.3989945650100708 0.6939966678619385 0.006428102497011423
0.39289623498916626 0.690860390663147 0.005352288018912077
0.3731268048286438 0.6812793612480164 0.005624689627438784
0.28807181119918823 0.6415175795555115 0.035080064088106155
0.47247496247291565 0.5049390196800232 -0.049843110144138336
0.4590098559856415 0.4678628742694855 -0.011832932941615582
0.44314277172088623 0.47164809703826904 -0.004178924486041069
0.40930187702178955 0.6939040422439575 0.009042450226843357
0.2823924422264099 0.7019922137260437 0.0761093720793724
0.4794389009475708 0.4668307900428772 -0.04423610493540764
0.42735064029693604 0.7887731790542603 0.0005223010084591806
0.5126409530639648 0.5345419049263 -0.1102089062333107
0.49027296900749207 0.5152583718299866 -0.08687755465507507
0.5112667083740234 0.5097944736480713 -0.09170941263437271
0.456262469291687 0.5639247894287109 -0.06537377089262009
0.5065807104110718 0.8354008197784424 -0.01907346397638321
0.5066678524017334 0.7994109392166138 -0.021434888243675232
0.46641889214515686 0.8002282381057739 -0.017027009278535843
0.3691099286079407 0.7402991652488708 0.031193412840366364
0.40217703580856323 0.6196428537368774 -0.01713997684419155
0.3969147205352783 0.7687140107154846 0.017839225009083748
0.3442956209182739 0.6180352568626404 -0.010559876449406147
0.3761556148529053 0.6426838636398315 -0.008782787248492241
0.3188535273075104 0.6557217836380005 0.013207251206040382
0.4588926434516907 0.8354573845863342 -0.01418833527714014
0.43983638286590576 0.5751839876174927 -0.047405097633600235
0.35069143772125244 0.7671830654144287 0.05063507333397865
0.38445571064949036 0.7958759069442749 0.033645398914813995
0.34571099281311035 0.7096695899963379 0.030767932534217834
0.2615832984447479 0.6765416264533997 0.09327702224254608
0.31573277711868286 0.72184157371521 0.050840217620134354
0.25105148553848267 0.7022503614425659 0.14764785766601562
0.3509126901626587 0.6684914827346802 0.00581396883353591
0.45714783668518066 0.5430999994277954 -0.050261154770851135
0.4581944942474365 0.6110042333602905 -0.09838535636663437
0.43923473358154297 0.6133252382278442 -0.07187963277101517
0.4710889756679535 0.596351146697998 -0.11627460271120071
0.4424898028373718 0.4557092785835266 -0.0218658410012722
0.4061189293861389 0.4478043019771576 -0.03079872764647007
0.37371987104415894 0.44619765877723694 -0.032350633293390274
0.34534376859664917 0.4489262104034424 -0.023965422064065933
0.32408785820007324 0.45697498321533203 -0.009321282617747784
0.30746299028396606 0.4887726902961731 0.03165578469634056
0.23324313759803772 0.5506991744041443 0.14075174927711487
0.3270956873893738 0.5133967399597168 0.018459321931004524
0.35195618867874146 0.5186775922775269 0.005979917477816343
0.3832443654537201 0.5193299055099487 -0.00210698158480227
0.4126552939414978 0.5148859620094299 -0.004292943049222231
0.43518778681755066 0.507394552230835 -0.005935412831604481
0.4501497149467468 0.49965235590934753 -0.007189649157226086
0.2266722023487091 0.556846022605896 0.2274097502231598
0.4382481276988983 0.6174579858779907 -0.059531450271606445
0.4744667708873749 0.5491679310798645 -0.08547782152891159
0.47689539194107056 0.6137709021568298 -0.11574403941631317
0.4887178838253021 0.6254144310951233 -0.10432509332895279
0.4757227301597595 0.6172934174537659 -0.10393279790878296
0.4436197280883789 0.6235164403915405 -0.050262659788131714
0.4935382902622223 0.6279670000076294 -0.11029122769832611
0.49451714754104614 0.6320613026618958 -0.08155402541160583
0.4477021098136902 0.4835313558578491 0.0018009655177593231
0.4617246389389038 0.48762691020965576 -0.011340540833771229
0.46938908100128174 0.490681916475296 -0.02857358567416668
0.33948540687561035 0.4762974679470062 0.008443144150078297
0.3276427388191223 0.47287535667419434 0.008211402222514153
0.5310481190681458 0.5383455753326416 -0.1001543179154396
0.6626580953598022 0.48290446400642395 0.03244076296687126
0.5341452360153198 0.6278858780860901 -0.08013614267110825
0.7445929646492004 0.4001413583755493 0.13656054437160492
0.5970866680145264 0.5015207529067993 0.007170690223574638
0.6199879050254822 0.5033468008041382 0.009990247897803783
0.6419764757156372 0.5020043253898621 0.016817225143313408
0.671024739742279 0.4917370080947876 0.03729023411870003
0.5785412788391113 0.4957505464553833 0.0069509162567555904
0.6289434432983398 0.4565894603729248 -0.005148417316377163
0.6060494184494019 0.4564014673233032 -0.006381314713507891
0.6501737236976624 0.45999282598495483 0.003778308629989624
0.6644037961959839 0.4659460783004761 0.014681419357657433
0.6891940832138062 0.5054784417152405 0.05153008550405502
0.5915349721908569 0.8192329406738281 0.019334517419338226
0.6706860065460205 0.47900137305259705 0.03980288282036781
0.751121997833252 0.5019486546516418 0.15946155786514282
0.7141426205635071 0.49538755416870117 0.07443267852067947
0.6235772371292114 0.5919874906539917 -0.007496545556932688
0.5433520674705505 0.6848623752593994 -0.04933025687932968
0.5404142737388611 0.7036342620849609 -0.035884562879800797
0.5772185325622559 0.6865832805633545 -0.0315106138586998
0.5996534824371338 0.6899895071983337 -0.007828819565474987
0.565832793712616 0.7011067867279053 -0.022533085197210312
0.5860666632652283 0.6993302702903748 -0.001325028482824564
0.62062007188797 0.7216503620147705 0.03462592512369156
0.534382700920105 0.6180564761161804 -0.12413816899061203
0.5365796685218811 0.5938792824745178 -0.13306601345539093
0.702714204788208 0.44595640897750854 0.016922416165471077
0.5734372138977051 0.5361582636833191 -0.01864887960255146
0.586479663848877 0.6051586866378784 -0.061943311244249344
0.5859878659248352 0.5918936133384705 -0.05513526499271393
0.6912370324134827 0.5872316360473633 0.027945691719651222
0.5340017676353455 0.5637159943580627 -0.12102490663528442
0.6475520133972168 0.4244621992111206 -0.030639348551630974
0.6803242564201355 0.4315124452114105 -0.010377811267971992
0.7250096797943115 0.35711172223091125 0.08403097093105316
0.5496402978897095 0.4410743713378906 -0.05483536049723625
0.5855352878570557 0.4603192210197449 0.000560227781534195
0.6425976753234863 0.6983372569084167 0.04054885357618332
0.7239285707473755 0.7264559864997864 0.24129195511341095
0.5702221393585205 0.6185710430145264 -0.05289731174707413
0.5506157875061035 0.6271019577980042 -0.057022109627723694
0.6244339346885681 0.6938561201095581 0.04084501415491104
0.614703893661499 0.6942183971405029 0.034206803888082504
0.6939783096313477 0.41549140214920044 0.0009571780101396143
0.588131844997406 0.6129923462867737 -0.04811586067080498
0.6035832762718201 0.42664188146591187 -0.045980438590049744
0.6091779470443726 0.40562281012535095 -0.05272269621491432
0.6361658573150635 0.29731127619743347 -0.017568286508321762
0.708774209022522 0.3838578760623932 0.03694334998726845
0.620938241481781 0.346567302942276 -0.03653455898165703
0.7163411378860474 0.43522149324417114 0.0369010791182518
0.7305830717086792 0.41814225912094116 0.08440400660037994
0.5424371361732483 0.6974221467971802 -0.04468270391225815
0.5705751180648804 0.6963031888008118 -0.027500012889504433
0.5924391150474548 0.6952348947525024 -0.006313987076282501
0.5647450685501099 0.6222784519195557 -0.04895428195595741
0.6197710633277893 0.693419337272644 0.03716195747256279
0.604996383190155 0.7008384466171265 0.020300980657339096
0.6114083528518677 0.695273220539093 0.03295626863837242
0.5572296977043152 0.6152881979942322 -0.08772633969783783
0.5823806524276733 0.6966943740844727 0.0020576068200170994
0.5615190863609314 0.6996802687644958 -0.013095809146761894
0.5373772382736206 0.703200101852417 -0.025769485160708427
0.5394163131713867 0.7671838402748108 -0.017701031640172005
0.5383455753326416 0.733974277973175 -0.03569282963871956
0.5378625392913818 0.7202633619308472 -0.036169297993183136
0.5373796224594116 0.7116706371307373 -0.029031066223978996
0.535749614238739 0.7064692974090576 -0.024874886497855186
0.5817360877990723 0.7017209529876709 0.0033357697539031506
0.5843949913978577 0.7029892206192017 -0.0009968404192477465
0.5877570509910583 0.7077466249465942 -0.003835260169580579
0.5906125903129578 0.715771496295929 0.0014638655120506883
0.6160949468612671 0.6689999103546143 -0.0027177506126463413
0.7456332445144653 0.611785888671875 0.26628828048706055
0.5953918695449829 0.6999080181121826 0.02123781479895115
0.6002582907676697 0.6987664103507996 0.018999606370925903
0.5425055623054504 0.6381381750106812 -0.05656161904335022
0.5804013013839722 0.62581866979599 -0.03019685111939907
0.5463547706604004 0.6329304575920105 -0.057790227234363556
0.5973753333091736 0.5484083890914917 -0.007508193142712116
0.6358077526092529 0.5620577335357666 0.0019323363667353988
0.5904608964920044 0.6007154583930969 -0.04037860035896301
0.6902205348014832 0.32177773118019104 0.029951397329568863
0.6733579039573669 0.3590368628501892 -0.0019355127587914467
0.6562752723693848 0.4039141535758972 -0.0270543210208416
0.5985569953918457 0.7403668165206909 0.017849404364824295
0.5584617853164673 0.40963608026504517 -0.06694449484348297
0.5683161020278931 0.3422631025314331 -0.05730361118912697
0.5773504972457886 0.2853300869464874 -0.047111865133047104
0.6606346964836121 0.4986149072647095 0.027657130733132362
0.712924063205719 0.5211191177368164 0.06799011677503586
0.5674570798873901 0.48987624049186707 0.008730461820960045
0.6904875636100769 0.47098422050476074 0.0360785573720932
0.5577772855758667 0.5216172933578491 -0.030220862478017807
0.5714606046676636 0.5998305082321167 -0.0872962474822998
0.7354027032852173 0.5393452048301697 0.09778378903865814
0.6980583071708679 0.5336870551109314 0.04810085520148277
0.670351505279541 0.5401175618171692 0.026005538180470467
0.6280230283737183 0.5383416414260864 0.011262515559792519
0.5954881906509399 0.5303981304168701 0.003296817420050502
0.5720237493515015 0.520038902759552 -0.006508476100862026
0.5306260585784912 0.4907425343990326 -0.06337393820285797
0.7358479499816895 0.5851408839225769 0.09649266302585602
0.709653913974762 0.46882766485214233 0.046772755682468414
0.5254181623458862 0.6301142573356628 -0.11202054470777512
0.5743883848190308 0.5582857728004456 -0.026317082345485687
0.7539634108543396 0.5032839775085449 0.23769517242908478
0.5554372072219849 0.5078034400939941 -0.012920621782541275
0.5916308164596558 0.6012084484100342 -0.014792007394134998
0.6771456003189087 0.48227328062057495 0.04497537389397621
0.5706208944320679 0.5836529731750488 -0.0790880098938942
0.7382795810699463 0.6690911054611206 0.2599097192287445
0.5686256885528564 0.4819355905056 0.014371449127793312
0.552270770072937 0.5716638565063477 -0.1048186719417572
0.6866602897644043 0.7687050700187683 0.11907566338777542
0.6773776412010193 0.8020283579826355 0.16110388934612274
0.7500717639923096 0.6010323166847229 0.18224593997001648
0.7146769762039185 0.7405217885971069 0.1474994271993637
0.7413403391838074 0.45577025413513184 0.12840354442596436
0.5939946174621582 0.847376823425293 0.03402725234627724
0.5217942595481873 0.6344030499458313 -0.07991087436676025
0.5952077507972717 0.573789119720459 -0.01498461700975895
0.7320805788040161 0.5006775856018066 0.09984900802373886
0.640159010887146 0.4885612428188324 0.01815025880932808
0.6201478242874146 0.4903068244457245 0.011602232232689857
0.6093931794166565 0.705306887626648 0.02505132369697094
0.7356265187263489 0.633954644203186 0.10870953649282455
0.5504706501960754 0.8804415464401245 0.03686104714870453
0.6155294179916382 0.8527610898017883 0.09234385192394257
0.6439981460571289 0.8319360017776489 0.12376552075147629
0.6011613607406616 0.4888947010040283 0.008863665163516998
0.5834896564483643 0.4853428900241852 0.010605084709823132
0.5732598900794983 0.48359543085098267 0.014058837667107582
0.7252693772315979 0.46408116817474365 0.07115428894758224
0.588218629360199 0.4674264192581177 0.006242644973099232
0.6072975993156433 0.4627041816711426 0.0021634071599692106
0.6260764598846436 0.4617849588394165 0.004116145893931389
0.6454439163208008 0.46543094515800476 0.011247063055634499
0.6577684283256531 0.4711436629295349 0.020255552604794502
0.7529128789901733 0.44553661346435547 0.19235429167747498
0.6535457372665405 0.485740602016449 0.025968434289097786
0.5924733281135559 0.6579103469848633 -0.023169957101345062
0.5705814361572266 0.6163386702537537 -0.06293565034866333
0.5450494885444641 0.656243085861206 -0.05160826817154884
0.654332160949707 0.799530029296875 0.09430936723947525
0.6245504021644592 0.824116587638855 0.0656750276684761
0.5542033910751343 0.8616183996200562 0.005890252068638802
0.7027639150619507 0.7702066898345947 0.2039547711610794
0.5747719407081604 0.47550222277641296 0.010677669197320938
0.5457215905189514 0.5279821753501892 -0.0640486553311348
0.5859587788581848 0.8696349859237671 0.059612758457660675
0.7442319393157959 0.6535316109657288 0.18284431099891663
0.5605980157852173 0.704013466835022 -0.012196874246001244
0.5634456872940063 0.7078288197517395 -0.016602514311671257
0.5649889707565308 0.7147879600524902 -0.020500849932432175
0.5665546655654907 0.7268435955047607 -0.017296677455306053
0.5722560286521912 0.7562083601951599 -0.0014115888625383377
0.6047205328941345 0.6965644359588623 0.01765339821577072
0.6108221411705017 0.6945132613182068 0.018250834196805954
0.616936981678009 0.6914618015289307 0.01800086349248886
0.6363931894302368 0.681556224822998 0.020515872165560722
0.7125333547592163 0.6413699984550476 0.05918603017926216
0.543403685092926 0.505001425743103 -0.0450509674847126
0.5513600707054138 0.46764400601387024 -0.005946627352386713
0.5653829574584961 0.47145023941993713 0.004791710060089827
0.5993972420692444 0.6944633722305298 0.01968136429786682
0.7133206725120544 0.7008607387542725 0.10062755644321442
0.5347298979759216 0.4667056202888489 -0.04049793630838394
0.5817559957504272 0.7877371311187744 0.009430758655071259
0.5311551094055176 0.51533043384552 -0.08424358069896698
0.5619145035743713 0.5639586448669434 -0.05932580307126045
0.5456817150115967 0.7997096180915833 -0.012908236123621464
0.6360502243041992 0.7395512461662292 0.04685583338141441
0.610068678855896 0.619915783405304 -0.006030680611729622
0.6097121834754944 0.7676714658737183 0.030229168012738228
0.6641802787780762 0.6182230710983276 0.006931858602911234
0.6344693303108215 0.642887532711029 0.005307472310960293
0.685983419418335 0.6555665731430054 0.033533964306116104
0.5529890656471252 0.8347225189208984 -0.008691358380019665
0.5756294131278992 0.5754225850105286 -0.039855487644672394
0.6511993408203125 0.7654139399528503 0.06804024428129196
0.6201869249343872 0.7941374778747559 0.04697680100798607
0.659050464630127 0.7090330719947815 0.049227435141801834
0.7309568524360657 0.6756049394607544 0.12017572671175003
0.6844526529312134 0.7205826640129089 0.07175405323505402
0.7341433763504028 0.7007379531860352 0.17638427019119263
0.6567182540893555 0.668505072593689 0.02270864136517048
0.5590498447418213 0.5431074500083923 -0.043719083070755005
0.5648953318595886 0.6111449003219604 -0.09259670972824097
0.5803061127662659 0.6136291027069092 -0.06498754024505615
0.5551876425743103 0.5963850021362305 -0.11195940524339676
0.5679227113723755 0.45495474338531494 -0.013704009354114532
0.603863537311554 0.44668978452682495 -0.018317189067602158
0.6354004144668579 0.4452390670776367 -0.01573224924504757
0.6622517704963684 0.448271781206131 -0.004094375297427177
0.681189775466919 0.45640015602111816 0.012801866978406906
0.693361759185791 0.48867955803871155 0.05535971373319626
0.7530550956726074 0.5510556101799011 0.17306959629058838
0.676366925239563 0.5136508941650391 0.04036381468176842
0.6535423398017883 0.5188937783241272 0.0249953456223011
0.6238203048706055 0.5197283029556274 0.01367122307419777
0.5953382253646851 0.5150720477104187 0.008250615559518337
0.5735653042793274 0.5075705051422119 0.0035250682849437
0.5594488978385925 0.499746710062027 0.0006151404231786728
0.7494035959243774 0.5575162768363953 0.2601931691169739
0.5798428058624268 0.6177706718444824 -0.052846409380435944
0.5472351908683777 0.5491943955421448 -0.08074463903903961
0.5495155453681946 0.6138838529586792 -0.11205430328845978
0.535761296749115 0.6253781318664551 -0.10229569673538208
0.548662006855011 0.6173532009124756 -0.10008616000413895
0.5736654996871948 0.623883843421936 -0.04463182017207146
0.5323387384414673 0.6281010508537292 -0.10846354067325592
0.5290812849998474 0.6320955753326416 -0.07999415695667267
0.5608291625976562 0.4834979772567749 0.00964102428406477
0.5486218333244324 0.4876619875431061 -0.005265157204121351
0.543350875377655 0.49074938893318176 -0.0235182773321867
0.6650375127792358 0.4756350815296173 0.028811637312173843
0.6762222647666931 0.4724464416503906 0.029708778485655785
