ply
format ascii 1.0
element vertex 468
property float x
property float y
property float z
end_header
0.4779394268989563 0.6845155954360962 -0.05431815981864929
0.4560003876686096 0.6352405548095703 -0.13271094858646393
0.4705830216407776 0.6511720418930054 -0.06796716898679733
0.4494639039039612 0.5575023889541626 -0.10406521707773209
0.45567673444747925 0.6127551794052124 -0.14313393831253052
0.46086224913597107 0.5816379189491272 -0.13665586709976196
0.47961413860321045 0.5037608742713928 -0.08107797056436539
0.33831799030303955 0.4785607159137726 0.046890322118997574
0.48711875081062317 0.442044198513031 -0.06919188052415848
0.4880084991455078 0.41105586290359497 -0.07787736505270004
0.4980308413505554 0.29348117113113403 -0.07186388969421387
0.4797324538230896 0.6937849521636963 -0.050176747143268585
0.4825519621372223 0.6995514035224915 -0.04335036128759384
0.48557937145233154 0.6997836232185364 -0.03330788388848305
0.48338383436203003 0.743100643157959 -0.016370026394724846
0.4820636212825775 0.7524412870407104 -0.019749920815229416
0.4815230369567871 0.7634544968605042 -0.023630905896425247
0.48170191049575806 0.7756767868995667 -0.018179800361394882
0.48374298214912415 0.7924803495407104 0.004488108213990927
0.4592961370944977 0.6459700465202332 -0.11937667429447174
0.4443833529949188 0.6405519843101501 -0.08287375420331955
0.2963521480560303 0.38428735733032227 0.16161608695983887
0.4037564992904663 0.504487931728363 0.0124516561627388
0.3811724781990051 0.5038518309593201 0.018703900277614594
0.3597255349159241 0.500684380531311 0.029068203642964363
0.3326675295829773 0.4840620160102844 0.05402693152427673
0.42169371247291565 0.5015569925308228 0.00993081834167242
0.369507759809494 0.44019997119903564 0.006068661343306303
0.3954191207885742 0.44532519578933716 -0.0002075820229947567
0.3462495803833008 0.44173991680145264 0.018728036433458328
0.33209919929504395 0.44939982891082764 0.031213192269206047
0.3188316226005554 0.4967033863067627 0.07050076127052307
0.4056556224822998 0.8029075264930725 0.05945904925465584
0.33102795481681824 0.4713377356529236 0.05640853941440582
0.2873201072216034 0.4784623980522156 0.18698714673519135
0.303658664226532 0.4804328680038452 0.09704452008008957
0.3675878643989563 0.5903431177139282 0.0009198584593832493
0.44322484731674194 0.6775767207145691 -0.045341309159994125
0.45102906227111816 0.6951799392700195 -0.03249306604266167
0.41215574741363525 0.6750355958938599 -0.02143685519695282
0.396187961101532 0.6744329929351807 0.00968695804476738
0.427920401096344 0.6901916861534119 -0.013372647576034069
0.41289833188056946 0.6868650317192078 0.014186601154506207
0.3805730938911438 0.710091233253479 0.06852217018604279
0.43807148933410645 0.6331880688667297 -0.1279626488685608
0.43575650453567505 0.6109786033630371 -0.136930912733078
0.3081779479980469 0.42682933807373047 0.04053809493780136
0.4190557599067688 0.5427552461624146 -0.016119467094540596
0.3983323574066162 0.6131927371025085 -0.05968637764453888
0.40006938576698303 0.6000249981880188 -0.05308472365140915
0.30647775530815125 0.576631486415863 0.04688932001590729
0.4413873851299286 0.5822604894638062 -0.12478329241275787
0.34904682636260986 0.409699022769928 -0.015174590051174164
0.32331690192222595 0.4128130078315735 0.011435015127062798
0.3079184293746948 0.34859979152679443 0.10520566999912262
0.4387834668159485 0.4364479184150696 -0.0535338819026947
0.41695138812065125 0.4564318060874939 0.0028353706002235413
0.3634125590324402 0.6795409917831421 0.07099732756614685
0.3221392035484314 0.6718825101852417 0.27692967653274536
0.4146442413330078 0.6267783045768738 -0.052125874906778336
0.4332082271575928 0.6371016502380371 -0.057778216898441315
0.3778427839279175 0.6797031164169312 0.06934856623411179
0.3900686502456665 0.6837198138237 0.061367981135845184
0.31612640619277954 0.39755886793136597 0.022592302411794662
0.39978522062301636 0.6192551255226135 -0.04541062191128731
0.3856445252895355 0.4159732162952423 -0.037951573729515076
0.38218584656715393 0.397590309381485 -0.045565228909254074
0.37341421842575073 0.3021405041217804 -0.012659162282943726
0.3118401765823364 0.37341564893722534 0.05859500914812088
0.3796599805355072 0.34930771589279175 -0.03131666034460068
0.3007413148880005 0.4153243899345398 0.061484742909669876
0.29812368750572205 0.4017243981361389 0.10844055563211441
0.44617000222206116 0.6882265210151672 -0.040512751787900925
0.4202982783317566 0.6842194199562073 -0.01709495484828949
0.40409842133522034 0.6805878281593323 0.010544096119701862
0.42049193382263184 0.6307336091995239 -0.048831213265657425
0.38323259353637695 0.6812580823898315 0.06481451541185379
0.3934020400047302 0.703334629535675 0.051335327327251434
0.3954591155052185 0.6851255297660828 0.06008452549576759
0.42085474729537964 0.6266816258430481 -0.08787436038255692
0.4194123446941376 0.685278594493866 0.016690710559487343
0.43502578139305115 0.6899237632751465 -0.004665331915020943
0.45669692754745483 0.6956471800804138 -0.02262706682085991
0.4477589726448059 0.786160409450531 0.013901966623961926
0.44683170318603516 0.768470287322998 -0.007113834377378225
0.4473497271537781 0.7563354969024658 -0.01114011462777853
0.4500502645969391 0.7455459833145142 -0.0071411700919270515
0.4540911018848419 0.7378469705581665 -0.004572195932269096
0.4162715673446655 0.7161968946456909 0.030567796900868416
0.41117238998413086 0.7183219194412231 0.0281407181173563
0.40491151809692383 0.7229110598564148 0.02736026607453823
0.40095171332359314 0.7289971113204956 0.03404927998781204
0.37992310523986816 0.6583849191665649 0.014598144218325615
0.3053531050682068 0.5656216740608215 0.2967402935028076
0.46402379870414734 0.6489870548248291 -0.08656279742717743
0.4072113633155823 0.7048222422599792 0.05018985643982887
0.3994888663291931 0.7034264802932739 0.04915596544742584
0.4408358931541443 0.6470234394073486 -0.056313272565603256
0.40772926807403564 0.6303865313529968 -0.028151702135801315
0.4369369149208069 0.6425411105155945 -0.058115750551223755
0.3958912193775177 0.5506446361541748 -0.0015910766087472439
0.3580126166343689 0.5593457221984863 0.013508361764252186
0.39824751019477844 0.6067433953285217 -0.03766150400042534
0.3307958245277405 0.320534348487854 0.04532207176089287
0.3370817303657532 0.35487833619117737 0.012417084537446499
0.34330201148986816 0.39127016067504883 -0.012858367525041103
0.39632779359817505 0.7397314310073853 0.05374754220247269
0.43125540018081665 0.4069139361381531 -0.06579320132732391
0.42961567640304565 0.34998834133148193 -0.060345135629177094
0.4270314574241638 0.2939976751804352 -0.05234726518392563
0.34182560443878174 0.4940774440765381 0.04277099668979645
0.2996043562889099 0.5093814730644226 0.08981650322675705
0.4328572750091553 0.49768251180648804 0.010251171886920929
0.3169219493865967 0.4564018249511719 0.05663750693202019
0.4341893196105957 0.5321352481842041 -0.029247695580124855
0.4076617360115051 0.6107232570648193 -0.08684025704860687
0.28313034772872925 0.520863950252533 0.12396067380905151
0.307295560836792 0.5243151187896729 0.06786639988422394
0.32933855056762695 0.5342887043952942 0.04145709425210953
0.36937230825424194 0.5364388227462769 0.02198934182524681
0.40086472034454346 0.5323755741119385 0.00942562147974968
0.4230506122112274 0.5259031057357788 -0.0036380209494382143
0.4599032700061798 0.5082656145095825 -0.06631282716989517
0.27642709016799927 0.562729001045227 0.12346571683883667
0.3051436245441437 0.4518241882324219 0.07008454948663712
0.44866031408309937 0.6440923810005188 -0.11581352353096008
0.4155764877796173 0.5651998519897461 -0.025418046861886978
0.2970443367958069 0.47112154960632324 0.2653023600578308
0.43884599208831787 0.5171350240707397 -0.012602723203599453
0.3986768126487732 0.6049100756645203 -0.013014372438192368
0.3260776698589325 0.47134721279144287 0.0630965381860733
0.4105726480484009 0.5945548415184021 -0.0789048820734024
0.31098002195358276 0.6168919205665588 0.29269298911094666
0.43344953656196594 0.48965445160865784 0.015699081122875214
0.42549222707748413 0.5866667032241821 -0.10641095787286758
0.3398638963699341 0.7314499020576477 0.15623851120471954
0.3550782799720764 0.7539112567901611 0.19815565645694733
0.28027650713920593 0.5664411187171936 0.21203552186489105
0.31597551703453064 0.7001929879188538 0.18258334696292877
0.2921285331249237 0.43724775314331055 0.15421971678733826
0.4073772430419922 0.8221032619476318 0.07493117451667786
0.455089271068573 0.6475745439529419 -0.08363035321235657
0.39589962363243103 0.5764192938804626 -0.011604774743318558
0.2927883267402649 0.48249101638793945 0.12465929239988327
0.36023300886154175 0.48909705877304077 0.02922726795077324
0.38028985261917114 0.49251270294189453 0.02028661035001278
0.38840967416763306 0.7041303515434265 0.05673303082585335
0.2782174348831177 0.605151891708374 0.13678820431232452
0.4450604319572449 0.8549129366874695 0.07402513921260834
0.39734339714050293 0.8124426603317261 0.1329631805419922
0.3794569671154022 0.7870620489120483 0.16315995156764984
0.4922901690006256 0.3518185615539551 -0.07739250361919403
0.48665204644203186 0.8652526140213013 0.05735728144645691
0.3998861610889435 0.4929545521736145 0.01519372221082449
0.4181874394416809 0.49155741930007935 0.01482070330530405
0.4291282594203949 0.49091699719429016 0.017110275104641914
0.29670602083206177 0.4451029896736145 0.09611620008945465
0.4143446981906891 0.4689241945743561 0.01031800452619791
0.3950565457344055 0.45854172110557556 0.009730651043355465
0.37389126420021057 0.45462921261787415 0.014573897235095501
0.3533649444580078 0.45685824751853943 0.024359405040740967
0.34129631519317627 0.46295759081840515 0.034624237567186356
0.29258331656455994 0.42294809222221375 0.21864359080791473
0.3470286726951599 0.4840678870677948 0.039072416722774506
0.4745318591594696 0.6619734764099121 -0.05756359547376633
0.3975062370300293 0.6539576053619385 -0.012266164645552635
0.41248950362205505 0.6253210306167603 -0.06300396472215652
0.44020336866378784 0.658911406993866 -0.047685686498880386
0.48570841550827026 0.47127991914749146 -0.06695739179849625
0.36600983142852783 0.7639002799987793 0.13491588830947876
0.3871895968914032 0.7917599678039551 0.10712927579879761
0.43909168243408203 0.8454621434211731 0.04497649520635605
0.33697569370269775 0.7185157537460327 0.24006430804729462
0.42724812030792236 0.48203516006469727 0.01349620521068573
0.440944105386734 0.543372392654419 -0.06640341877937317
0.48305052518844604 0.8559565544128418 0.030181465670466423
0.41699689626693726 0.836366593837738 0.10007082670927048
0.2856822609901428 0.6132858991622925 0.213894322514534
0.43215370178222656 0.7283053994178772 0.011991958133876324
0.4269159436225891 0.733410656452179 0.009922652505338192
0.42248764634132385 0.7417132258415222 0.009153353050351143
0.41995692253112793 0.7527194023132324 0.014920522458851337
0.4169793128967285 0.7666041254997253 0.034536655992269516
0.398787260055542 0.6830412745475769 0.04004726931452751
0.3905433714389801 0.6788033843040466 0.042286697775125504
0.3840300142765045 0.6742538809776306 0.04189131036400795
0.3666059970855713 0.6657036542892456 0.04471750184893608
0.29363012313842773 0.6204465627670288 0.08420632034540176
0.4476459324359894 0.5192922949790955 -0.046046096831560135
0.4454547166824341 0.47409409284591675 -0.008730323985219002
0.43511125445365906 0.47599175572395325 0.0054689389653503895
0.40664881467819214 0.6821566820144653 0.04109885171055794
0.30533164739608765 0.670325756072998 0.1311311423778534
0.4589037001132965 0.4739885926246643 -0.04447038471698761
0.41163647174835205 0.7823291420936584 0.047542694956064224
0.4673771858215332 0.5557410717010498 -0.11690700054168701
0.4542350471019745 0.5347168445587158 -0.0881219282746315
0.47338297963142395 0.5314574241638184 -0.09809985011816025
0.422298789024353 0.5746341943740845 -0.06042822450399399
0.48201417922973633 0.8375781774520874 0.015880737453699112
0.4831621050834656 0.8129674196243286 0.010666602291166782
0.44340386986732483 0.8051143884658813 0.02392539568245411
0.37162643671035767 0.719841480255127 0.08321940153837204
0.3826611340045929 0.6187865734100342 0.0019351877272129059
0.39031535387039185 0.7532871961593628 0.06852098554372787
0.3316451907157898 0.6105819344520569 0.022477412596344948
0.36312901973724365 0.6356697082519531 0.020448246970772743
0.31846240162849426 0.6391842365264893 0.055371906608343124
0.4382559657096863 0.8279594779014587 0.03089255653321743
0.4117613434791565 0.5826231837272644 -0.039114776998758316
0.3619915843009949 0.7389661073684692 0.10657723993062973
0.38543373346328735 0.7708842754364014 0.08686159551143646
0.3512154817581177 0.6869250535964966 0.08164393901824951
0.28853148221969604 0.6419616341590881 0.1502254158258438
0.3303290605545044 0.6943464279174805 0.10460413992404938
0.2976920008659363 0.6581318378448486 0.21039927005767822
0.34932613372802734 0.6526780128479004 0.04567844793200493
0.4288901686668396 0.5544205904006958 -0.04420328512787819
0.41331884264945984 0.6224268078804016 -0.09238683432340622
0.40382668375968933 0.6218079328536987 -0.06365358829498291
0.4201684892177582 0.6106615662574768 -0.11202755570411682
0.427376925945282 0.4526160955429077 -0.013390962965786457
0.39157766103744507 0.43616983294487 -0.01124674454331398
0.36006277799606323 0.43032699823379517 -0.002183416625484824
0.3356947600841522 0.43146252632141113 0.014236079528927803
0.32101377844810486 0.43992966413497925 0.0332217663526535
0.31737568974494934 0.4762711524963379 0.07581281661987305
0.28186097741127014 0.5223640203475952 0.20252667367458344
0.3273470401763916 0.5065146684646606 0.05722798407077789
0.3481183648109436 0.5152519345283508 0.03915534168481827
0.37644684314727783 0.5186328887939453 0.02394266240298748
0.40394535660743713 0.5171826481819153 0.012949761003255844
0.4243984818458557 0.5129119157791138 0.005903505254536867
0.43768900632858276 0.5077507495880127 0.00028410812956281006
0.30243462324142456 0.5176857709884644 0.28966301679611206
0.40649017691612244 0.6249633431434631 -0.051269084215164185
0.4343639612197876 0.5646252036094666 -0.08308463543653488
0.4252180755138397 0.627859354019165 -0.11405091732740402
0.4404412508010864 0.6386016011238098 -0.10523093491792679
0.4277479946613312 0.6301109194755554 -0.10180556029081345
0.41295623779296875 0.6305652856826782 -0.04359975457191467
0.4428335428237915 0.6418373584747314 -0.11187999695539474
0.448676735162735 0.6449038982391357 -0.08298581838607788
0.43968814611434937 0.4917004108428955 0.009150083176791668
0.4483873248100281 0.49712929129600525 -0.007872981019318104
0.45114612579345703 0.5018004179000854 -0.025361718609929085
0.3350488543510437 0.46752506494522095 0.04441458731889725
0.32464510202407837 0.4585684537887573 0.047299329191446304
0.4889184236526489 0.559219479560852 -0.11323600262403488
0.6823873519897461 0.4928624927997589 -0.01903523877263069
0.48890212178230286 0.6433590650558472 -0.08975189924240112
0.7951319813728333 0.3995656371116638 0.05827552080154419
0.6015639305114746 0.5115183591842651 -0.030079877004027367
0.6272280216217041 0.5133571028709412 -0.032373130321502686
0.6530272364616394 0.5126303434371948 -0.030310023576021194
0.6935852766036987 0.49929147958755493 -0.01621345616877079
0.5807809233665466 0.5070598721504211 -0.023288065567612648
0.6420474052429199 0.44781404733657837 -0.04773076996207237
0.6120975017547607 0.45046693086624146 -0.04249471053481102
0.670412003993988 0.4523366391658783 -0.0434192530810833
0.6898264288902283 0.4622223973274231 -0.03601466119289398
0.7117628455162048 0.5131952166557312 -0.00493293721228838
0.5814730525016785 0.8176577687263489 0.026406383141875267
0.6949864625930786 0.48621541261672974 -0.012689299881458282
0.7994656562805176 0.49966588616371155 0.08373163640499115
0.7426067590713501 0.4981372356414795 0.012282826006412506
0.6192170977592468 0.6025673747062683 -0.043751269578933716
0.5192358493804932 0.6824173331260681 -0.05880624055862427
0.5223186612129211 0.6999514102935791 -0.045358654111623764
0.5658174753189087 0.6854535341262817 -0.0483749620616436
0.5986884832382202 0.6873706579208374 -0.02706148289144039
0.5562992095947266 0.6989193558692932 -0.03778368979692459
0.584423303604126 0.6972869634628296 -0.01829495280981064
0.6322200894355774 0.7253389954566956 0.022226087749004364
0.4767299294471741 0.6353459358215332 -0.13366800546646118
0.4800648093223572 0.6132265329360962 -0.1439821720123291
0.7253279685974121 0.4400935471057892 -0.03925412893295288
0.5632978081703186 0.5490297079086304 -0.04499584808945656
0.5535049438476562 0.6211774945259094 -0.08676397055387497
0.5578433871269226 0.607620894908905 -0.08094805479049683
0.7046080231666565 0.5961360931396484 -0.02631591632962227
0.483707457780838 0.5842586159706116 -0.13375234603881836
0.6583012938499451 0.4156903028488159 -0.06920438259840012
0.6973249316215515 0.4228283166885376 -0.05746976658701897
0.7646444439888 0.3597899079322815 0.012970225885510445
0.543030858039856 0.43776458501815796 -0.0708678811788559
0.587846577167511 0.4605947732925415 -0.03125039488077164
0.6559101343154907 0.6964029669761658 0.01650652289390564
0.7724400758743286 0.7019416093826294 0.18091130256652832
0.5359764695167542 0.633560061454773 -0.07302892953157425
0.5138342976570129 0.6411131620407104 -0.06829730421304703
0.6416100263595581 0.6947802305221558 0.020884722471237183
0.6286954879760742 0.696759045124054 0.01778140291571617
0.713098406791687 0.4072531461715698 -0.05143600329756737
0.5593978762626648 0.6271837949752808 -0.07216604053974152
0.6079119443893433 0.4192054867744446 -0.07509272545576096
0.6118490695953369 0.400234580039978 -0.0839105024933815
0.648063063621521 0.30658721923828125 -0.06433593481779099
0.7371963262557983 0.3841238021850586 -0.0235693771392107
0.6255530714988708 0.35297632217407227 -0.0755818635225296
0.7435457706451416 0.4291512370109558 -0.024083109572529793
0.7680696845054626 0.416683554649353 0.015356499701738358
0.5212453007698059 0.6933124661445618 -0.05409221351146698
0.5605777502059937 0.693851888179779 -0.04321399703621864
0.5915350914001465 0.6924780607223511 -0.023969607427716255
0.5313118100166321 0.6368751525878906 -0.06496433913707733
0.6356521844863892 0.6953224539756775 0.01953316479921341
0.6151270270347595 0.7161489129066467 0.012172418646514416
0.6243950128555298 0.6975414752960205 0.017628135159611702
0.5135473012924194 0.632652997970581 -0.10617722570896149
0.581729531288147 0.694328784942627 -0.014414987526834011
0.5536292791366577 0.6973135471343994 -0.028161410242319107
0.5224239826202393 0.6997311115264893 -0.036029838025569916
0.5260533094406128 0.7917932271957397 0.0010928530246019363
0.5239134430885315 0.7736837863922119 -0.02213759906589985
0.5223622918128967 0.7616050243377686 -0.026658229529857635
0.5208152532577515 0.7507098913192749 -0.022521192207932472
0.5192973017692566 0.7427554726600647 -0.019213514402508736
0.5808491706848145 0.7261028289794922 -0.0006239030626602471
0.5849632620811462 0.7288323640823364 -0.0032817269675433636
0.5909029245376587 0.734076976776123 -0.004994239192456007
0.5953515768051147 0.7407563924789429 0.00031331670470535755
0.6111587285995483 0.6716171503067017 -0.025636641308665276
0.8075945377349854 0.591575562953949 0.1910478174686432
0.600669264793396 0.7157977223396301 0.012426446191966534
0.6080231666564941 0.7153636813163757 0.01125237625092268
0.5057746171951294 0.65034419298172 -0.06645097583532333
0.556205153465271 0.6377894282341003 -0.04949356988072395
0.509222149848938 0.6461105942726135 -0.0682075172662735
0.5918110609054565 0.5593209266662598 -0.039947036653757095
0.6371687650680542 0.5720785856246948 -0.03864290937781334
0.5663116574287415 0.6147066354751587 -0.06671107560396194
0.7173992395401001 0.32811617851257324 -0.02966117672622204
0.6917951107025146 0.3616557717323303 -0.053021837025880814
0.667884349822998 0.3970233201980591 -0.07093463093042374
0.6035159826278687 0.7535967826843262 0.015328703448176384
0.5506926774978638 0.407420814037323 -0.08435547351837158
0.5614103078842163 0.35206833481788635 -0.08273674547672272
0.5771074891090393 0.29637396335601807 -0.07816978543996811
0.6780659556388855 0.5082560777664185 -0.023614566773176193
0.7392822504043579 0.5283235311508179 0.005834232550114393
0.5678788423538208 0.5022667646408081 -0.0192512609064579
0.7155531644821167 0.4715088903903961 -0.019689315930008888
0.5438206195831299 0.5366919040679932 -0.05212868005037308
0.5309478044509888 0.6173855066299438 -0.10848671942949295
0.7696312069892883 0.542762041091919 0.029052315279841423
0.7187607288360596 0.542191743850708 -0.011119118891656399
0.6824987530708313 0.5495849847793579 -0.026397231966257095
0.6313068866729736 0.5475649833679199 -0.02967206761240959
0.5941261053085327 0.5403333902359009 -0.029778115451335907
0.5676921010017395 0.5316852927207947 -0.033204637467861176
0.5045711398124695 0.5097649693489075 -0.07578463852405548
0.7678848505020142 0.5871307849884033 0.0284294243901968
0.7359590530395508 0.4675552248954773 -0.014174260199069977
0.47199317812919617 0.645639955997467 -0.12047509849071503
0.5584207773208618 0.5716596245765686 -0.053359948098659515
0.8184100389480591 0.4921343922615051 0.1552896350622177
0.5475396513938904 0.5213393568992615 -0.03515734523534775
0.5739781260490417 0.6132181882858276 -0.04162294417619705
0.7041501998901367 0.4867424964904785 -0.009334973990917206
0.5358353853225708 0.6007289886474609 -0.1011253148317337
0.7952550053596497 0.645386278629303 0.19133508205413818
0.5702570080757141 0.4944908320903778 -0.014831652864813805
0.5094130039215088 0.5908132195472717 -0.12239603698253632
0.7016627788543701 0.7596787214279175 0.08480729907751083
0.7003105282783508 0.7834218144416809 0.12591370940208435
0.7982321977615356 0.5932652354240417 0.10880990326404572
0.7410882711410522 0.73054039478302 0.09848418831825256
0.7852805256843567 0.45502138137817383 0.054806504398584366
0.5811120867729187 0.8382833003997803 0.04027712345123291
0.4736673831939697 0.6484073400497437 -0.08655267208814621
0.5846447348594666 0.5850002765655518 -0.046104710549116135
0.7669337391853333 0.5019223093986511 0.03127746284008026
0.6511938571929932 0.5006383061408997 -0.028385762125253677
0.6275896430015564 0.5014868974685669 -0.030803684145212173
0.6219979524612427 0.717678427696228 0.015151173807680607
0.766869068145752 0.6324134469032288 0.043837957084178925
0.5341823101043701 0.8639758825302124 0.0540660098195076
0.6148315668106079 0.833612322807312 0.08529549837112427
0.652964174747467 0.8127646446228027 0.10380805283784866
0.6064251065254211 0.49989938735961914 -0.028279675170779228
0.5869392156600952 0.49706941843032837 -0.02213800884783268
0.5750455260276794 0.49591654539108276 -0.01597493886947632
0.7575170993804932 0.4617166519165039 0.005253762472420931
0.5947368741035461 0.47515422105789185 -0.028146395459771156
0.6179482936859131 0.4660174250602722 -0.03525182232260704
0.6405089497566223 0.464328408241272 -0.03815668076276779
0.6640234589576721 0.46869295835494995 -0.035227060317993164
0.6790338158607483 0.47623881697654724 -0.029199158772826195
0.8117285370826721 0.44118940830230713 0.11050711572170258
0.668954610824585 0.4973798990249634 -0.023747067898511887
0.5774250030517578 0.6639347076416016 -0.04280495271086693
0.5335797667503357 0.6322934627532959 -0.08202967792749405
0.515581488609314 0.6634413599967957 -0.060570716857910156
0.6590458750724792 0.7885735034942627 0.07634957134723663
0.6212639808654785 0.8130307197570801 0.060496289283037186
0.5339941382408142 0.8544590473175049 0.02542976103723049
0.7388916015625 0.7486951947212219 0.15372733771800995
0.5778216123580933 0.4876374900341034 -0.02053087390959263
0.5177317261695862 0.5467668771743774 -0.08170825242996216
0.5758859515190125 0.8521111011505127 0.06445512175559998
0.7901549339294434 0.6426199078559875 0.11433756351470947
0.5516079068183899 0.7364190816879272 -0.012327580712735653
0.5556230545043945 0.7418521642684937 -0.015088317915797234
0.5591817498207092 0.7503858208656311 -0.01727597415447235
0.5616121888160706 0.7615243792533875 -0.01206770446151495
0.5689245462417603 0.7772354483604431 0.00554771488532424
0.6125918030738831 0.6953161358833313 5.934776709182188e-05
0.6198990941047668 0.6923565864562988 -0.0007227766327559948
0.626529335975647 0.6886826157569885 -0.002615259261801839
0.6408539414405823 0.681114673614502 -0.005601728335022926
0.7310185432434082 0.644893229007721 0.003742954693734646
0.5236037373542786 0.5222704410552979 -0.06244617700576782
0.5481677055358887 0.4769344627857208 -0.028878914192318916
0.565869152545929 0.480167031288147 -0.022759031504392624
0.6068086624145508 0.6930186152458191 0.002837482839822769
0.7342427968978882 0.6980120539665222 0.05082282796502113
0.5209818482398987 0.4755996763706207 -0.05607962608337402
0.5770617127418518 0.7953352928161621 0.01749504916369915
0.4966033101081848 0.536384105682373 -0.09635379910469055
0.5348862409591675 0.5800056457519531 -0.08086838573217392
0.5303491950035095 0.8120636940002441 0.009553281590342522
0.6430361270904541 0.7379803657531738 0.031197289004921913
0.5995044708251953 0.6293290257453918 -0.035450831055641174
0.6129228472709656 0.7695993781089783 0.02723892219364643
0.66672283411026 0.6281492710113525 -0.03538835793733597
0.6306006908416748 0.6498491764068604 -0.02649523690342903
0.6933125853538513 0.6603952646255493 -0.011306652799248695
0.5334739089012146 0.836039662361145 0.012609011493623257
0.5543308258056641 0.5892760753631592 -0.06476578861474991
0.6562836170196533 0.7609681487083435 0.04955326020717621
0.619491457939148 0.7901384830474854 0.04263810068368912
0.668344259262085 0.7063556909561157 0.01953473687171936
0.7605857253074646 0.6708675026893616 0.06108136475086212
0.6969026327133179 0.7189657092094421 0.035263776779174805
0.7729146480560303 0.6887686252593994 0.1147678941488266
0.6601102948188782 0.6696900725364685 -0.011404159478843212
0.5376670360565186 0.5593057870864868 -0.06616000831127167
0.5211642980575562 0.6289663314819336 -0.11216429620981216
0.5447023510932922 0.6295474171638489 -0.08653208613395691
0.5054162740707397 0.6154463887214661 -0.12846896052360535
0.5682346820831299 0.4561704397201538 -0.04101118817925453
0.6094180941581726 0.44109249114990234 -0.05135827884078026
0.6472397446632385 0.43770015239715576 -0.054426100105047226
0.6800084114074707 0.44216492772102356 -0.049372125416994095
0.7036347389221191 0.45304256677627563 -0.038189031183719635
0.7195899486541748 0.49250438809394836 -0.0013383200857788324
0.8015233874320984 0.5464134216308594 0.09654451906681061
0.695560097694397 0.5221278667449951 -0.014062255620956421
0.665133535861969 0.5285242795944214 -0.02306092530488968
0.6295334100723267 0.5289020538330078 -0.027150949463248253
0.5974424481391907 0.5246235132217407 -0.027110755443572998
0.5736904144287109 0.5185204148292542 -0.02408364787697792
0.5571112036705017 0.5121166706085205 -0.023929953575134277
0.814476490020752 0.5410333275794983 0.17962989211082458
0.5477939248085022 0.6324672698974609 -0.07394414395093918
0.5117884874343872 0.5681004524230957 -0.09887297451496124
0.4972153604030609 0.6324350237846375 -0.12623822689056396
0.4870901107788086 0.6417297124862671 -0.11234723776578903
0.5006103515625 0.6349237561225891 -0.1146891862154007
0.5443887710571289 0.6374032497406006 -0.06265171617269516
0.4806694984436035 0.6442418098449707 -0.11768998950719833
0.48248955607414246 0.6469610333442688 -0.08809065818786621
0.5600931644439697 0.49573177099227905 -0.015936553478240967
0.5442125797271729 0.5002913475036621 -0.026621287688612938
0.5326594710350037 0.5045498013496399 -0.041197992861270905
0.6879423260688782 0.48185300827026367 -0.021947156637907028
0.7025852799415588 0.4728803038597107 -0.023569267243146896
