ply
format ascii 1.0
element vertex 468
property float x
property float y
property float z
end_header
0.5147138237953186 0.695422887802124 -0.0719832107424736
0.5209395289421082 0.6111039519309998 -0.1253463625907898
0.5145445466041565 0.6359639167785645 -0.06804399192333221
0.49578285217285156 0.5345908403396606 -0.09453080594539642
0.5215165615081787 0.5871533155441284 -0.13225992023944855
0.51922208070755 0.5562475919723511 -0.1220114454627037
0.5108089447021484 0.4825827479362488 -0.0579666793346405
0.33688884973526 0.4754886031150818 0.011990119703114033
0.5076286792755127 0.4367366433143616 -0.041586048901081085
0.5079507231712341 0.40840011835098267 -0.044179242104291916
0.5058659315109253 0.2948686182498932 -0.011393108405172825
0.5143219232559204 0.7075313925743103 -0.0699709951877594
0.5131174325942993 0.7170187830924988 -0.06303021311759949
0.5113791823387146 0.7215346097946167 -0.05321681499481201
0.5124769806861877 0.7724099159240723 -0.036469098180532455
0.5131063461303711 0.7850548028945923 -0.040069643408060074
0.5131810903549194 0.7997926473617554 -0.04297838360071182
0.5121971368789673 0.8141926527023315 -0.03500545397400856
0.5086499452590942 0.8301414251327515 -0.008906466886401176
0.518993079662323 0.6234562397003174 -0.11428844928741455
0.493934690952301 0.6220770478248596 -0.08515242487192154
0.23658359050750732 0.3967190384864807 0.10975361615419388
0.4041453003883362 0.49378740787506104 -0.0032063517719507217
0.3820987343788147 0.49633824825286865 -0.004824472591280937
0.3593997359275818 0.4967992901802063 -0.0022216271609067917
0.3260694146156311 0.4848862290382385 0.012896898202598095
0.4223342537879944 0.48757264018058777 0.0014410038711503148
0.374114066362381 0.4389720559120178 -0.013585208915174007
0.39854273200035095 0.4397100508213043 -0.00910203717648983
0.35063275694847107 0.4427841603755951 -0.010045332834124565
0.3341050148010254 0.4507434070110321 -0.0026858823839575052
0.3063271641731262 0.5029971599578857 0.020745038986206055
0.4120291471481323 0.8473668694496155 0.003638200694695115
0.3270573914051056 0.4701582193374634 0.01761632412672043
0.22396215796470642 0.49570441246032715 0.11228389292955399
0.276614785194397 0.4902889132499695 0.0403977707028389
0.3907777965068817 0.5966860055923462 -0.029068365693092346
0.484368234872818 0.6922399401664734 -0.07195964455604553
0.4880279004573822 0.7179517149925232 -0.06302192807197571
0.45296555757522583 0.7024437785148621 -0.06273011118173599
0.4339650273323059 0.7158653140068054 -0.046956952661275864
0.46615633368492126 0.721863865852356 -0.05656164884567261
0.44982919096946716 0.7275897860527039 -0.041505999863147736
0.39805519580841064 0.7661157846450806 -0.007758793421089649
0.5008484721183777 0.6104989647865295 -0.1253526657819748
0.4982251524925232 0.5875968337059021 -0.13187339901924133
0.29803991317749023 0.43590912222862244 -0.002436502603814006
0.4361204504966736 0.5350633859634399 -0.027299759909510612
0.4393776059150696 0.6050679683685303 -0.07512640953063965
0.43602636456489563 0.5932457447052002 -0.06761300563812256
0.31998705863952637 0.5961592197418213 -0.012413824908435345
0.4973297119140625 0.5589240193367004 -0.11758984625339508
0.36087214946746826 0.41291552782058716 -0.032654762268066406
0.32500511407852173 0.4205840229988098 -0.020962640643119812
0.26642581820487976 0.3562219440937042 0.07083848863840103
0.46290355920791626 0.4309200644493103 -0.03954210877418518
0.41919445991516113 0.44635874032974243 0.0002239197783637792
0.38341906666755676 0.7372902631759644 -0.007507125847041607
0.238686665892601 0.7231783866882324 0.16398994624614716
0.4565828740596771 0.6177111864089966 -0.06396158039569855
0.4756464958190918 0.6255931854248047 -0.06475983560085297
0.41038843989372253 0.7432066202163696 -0.009492292068898678
0.42274606227874756 0.7422868609428406 -0.014171178452670574
0.3108016550540924 0.40712234377861023 -0.01023103203624487
0.43724557757377625 0.6161901950836182 -0.06261219084262848
0.40702924132347107 0.4147636294364929 -0.03887680172920227
0.40281689167022705 0.39705026149749756 -0.042998626828193665
0.37176513671875 0.3035874366760254 0.00019347097259014845
0.28996986150741577 0.38065969944000244 0.025417456403374672
0.39008229970932007 0.34756383299827576 -0.022182075306773186
0.28190720081329346 0.42694902420043945 0.016358787193894386
0.2598455250263214 0.41271403431892395 0.06146397814154625
0.48603400588035583 0.7070938944816589 -0.07023970782756805
0.46043598651885986 0.7142115235328674 -0.060769662261009216
0.4419567584991455 0.7220935821533203 -0.04615916684269905
0.4618907868862152 0.6224281191825867 -0.059117645025253296
0.41688042879104614 0.7435687780380249 -0.012102586217224598
0.42563164234161377 0.7569432258605957 -0.02041463740170002
0.4255319833755493 0.7401732206344604 -0.014490636996924877
0.47205284237861633 0.6095115542411804 -0.09542827308177948
0.4538014531135559 0.7263332605361938 -0.037892501801252365
0.469804584980011 0.7231288552284241 -0.04771445691585541
0.48942357301712036 0.7217237949371338 -0.053769927471876144
0.47277259826660156 0.8273584842681885 -0.012159597128629684
0.4778198301792145 0.8104395270347595 -0.037843186408281326
0.4816485047340393 0.7960579991340637 -0.04380355030298233
0.48500511050224304 0.7810589075088501 -0.04061078652739525
0.48737600445747375 0.7706975936889648 -0.03724577650427818
0.4498594403266907 0.7597496509552002 -0.02528238296508789
0.4449971616268158 0.7635126113891602 -0.02813105098903179
0.4374244213104248 0.77010178565979 -0.03026215173304081
0.4303097128868103 0.7771894931793213 -0.026631565764546394
0.41255393624305725 0.6871849298477173 -0.04044808819890022
0.21250200271606445 0.6018123030662537 0.1984918713569641
0.5168360471725464 0.6283148527145386 -0.08428115397691727
0.438581645488739 0.753149151802063 -0.01807069405913353
0.43248817324638367 0.7546504139900208 -0.020098265260457993
0.4836377501487732 0.6366796493530273 -0.06498885154724121
0.44409334659576416 0.6318057775497437 -0.04431481286883354
0.47979605197906494 0.6313044428825378 -0.06566490232944489
0.411699503660202 0.5490401983261108 -0.023127393797039986
0.37441185116767883 0.5661088228225708 -0.02212432213127613
0.4310048520565033 0.6046252846717834 -0.05511009693145752
0.309822142124176 0.32434195280075073 0.031145958229899406
0.33181703090667725 0.35799863934516907 -0.001022346317768097
0.3522716760635376 0.39587724208831787 -0.027718864381313324
0.4152466058731079 0.78858482837677 -0.012170174159109592
0.45635080337524414 0.40203428268432617 -0.04757697507739067
0.4462987780570984 0.34589603543281555 -0.031084416434168816
0.4347861707210541 0.2948766052722931 -0.013694806024432182
0.33868932723999023 0.4931637644767761 0.005192953161895275
0.2795692980289459 0.5211672186851501 0.029793595895171165
0.4340515732765198 0.4811050295829773 0.006058936007320881
0.3061639070510864 0.4608076214790344 0.012217992916703224
0.45339977741241455 0.5197359323501587 -0.033735405653715134
0.4562146067619324 0.595842719078064 -0.09558335691690445
0.25119906663894653 0.53844153881073 0.04931169003248215
0.2986833453178406 0.536760151386261 0.0108363451436162
0.3314821124076843 0.5446603894233704 -0.005537602584809065
0.37717270851135254 0.5396026372909546 -0.011153529398143291
0.40962639451026917 0.5287140607833862 -0.011060467921197414
0.43366697430610657 0.5173680782318115 -0.014062055386602879
0.4876484274864197 0.48841649293899536 -0.052112091332674026
0.2569526731967926 0.588460385799408 0.04122054949402809
0.2854304313659668 0.46044421195983887 0.020204193890094757
0.5068801641464233 0.6225932836532593 -0.11438210308551788
0.4393397867679596 0.5580912828445435 -0.03700786083936691
0.20923390984535217 0.4955903887748718 0.18531249463558197
0.4519129991531372 0.5046934485435486 -0.014914385974407196
0.4268866181373596 0.6068798899650574 -0.031167995184659958
0.3179416060447693 0.472196489572525 0.020223090425133705
0.45325660705566406 0.5812641978263855 -0.08621085435152054
0.2192433625459671 0.6598365902900696 0.18659010529518127
0.4323868751525879 0.4725337028503418 0.012438533827662468
0.47492197155952454 0.567570149898529 -0.10628839582204819
0.3037344217300415 0.7837985754013062 0.06215181201696396
0.29649150371551514 0.8122904896736145 0.0965677946805954
0.22275403141975403 0.5961858630180359 0.11887959390878677
0.27396976947784424 0.7488570809364319 0.08172652125358582
0.24103236198425293 0.4502112865447998 0.09301164001226425
0.40369537472724915 0.8726064562797546 0.013861008919775486
0.5073919296264648 0.6273408532142639 -0.08366674184799194
0.4178682565689087 0.5762678980827332 -0.030694924294948578
0.25348758697509766 0.4954212009906769 0.06030745804309845
0.36246731877326965 0.48107442259788513 0.0017323154024779797
0.3823472261428833 0.4821448028087616 -0.0016195953357964754
0.4181644022464752 0.7595366835594177 -0.017833055928349495
0.26161548495292664 0.6376115679740906 0.04804859310388565
0.44643881916999817 0.9114440679550171 0.02370130829513073
0.36636725068092346 0.8714401125907898 0.05398230999708176
0.33292558789253235 0.8464151620864868 0.07210227847099304
0.5074666142463684 0.3488292098045349 -0.028550639748573303
0.5013161301612854 0.9170045852661133 0.023749442771077156
0.40031591057777405 0.48036307096481323 -5.125261304783635e-05
0.4170434772968292 0.47654759883880615 0.004872501362115145
0.42735469341278076 0.4743015170097351 0.01084096822887659
0.2657918334007263 0.45681232213974 0.041414856910705566
0.41378968954086304 0.45931774377822876 0.0028519139159470797
0.3950260877609253 0.45435845851898193 -0.0036125925835222006
0.37625524401664734 0.45319563150405884 -0.004989240318536758
0.35595983266830444 0.4568256437778473 -0.002518255030736327
0.34255528450012207 0.46262699365615845 0.0034255878999829292
0.21864131093025208 0.4401710033416748 0.15244115889072418
0.3480023443698883 0.4786268472671509 0.006970877759158611
0.5139439702033997 0.6554172039031982 -0.06301920115947723
0.4330264925956726 0.6698952317237854 -0.04994625598192215
0.4570910334587097 0.6135749220848083 -0.07237263768911362
0.4804428815841675 0.6588805913925171 -0.06442312151193619
0.5078784227371216 0.4586849808692932 -0.040021706372499466
0.33467650413513184 0.8176939487457275 0.048185430467128754
0.3670515716075897 0.8448643088340759 0.03245329111814499
0.44955524802207947 0.8930946588516235 -0.0004074543830938637
0.2665517330169678 0.7746284604072571 0.12960749864578247
0.4266001284122467 0.4671087861061096 0.00831855833530426
0.47343501448631287 0.5255258679389954 -0.06204251945018768
0.5048102140426636 0.8989264965057373 0.0008832205203361809
0.40308406949043274 0.8943172693252563 0.03455127775669098
0.22977972030639648 0.6504412889480591 0.1151086613535881
0.4667392373085022 0.7659304738044739 -0.03234301134943962
0.4621794819831848 0.7733207941055298 -0.03552352637052536
0.4561220407485962 0.7842850089073181 -0.03740149736404419
0.45029446482658386 0.7967900037765503 -0.03319643810391426
0.43904563784599304 0.8107562065124512 -0.015855299308896065
0.4347074031829834 0.7337552309036255 -0.027821462601423264
0.42690712213516235 0.7316937446594238 -0.028677308931946754
0.4194997549057007 0.727841854095459 -0.029273098334670067
0.39580631256103516 0.710136890411377 -0.025324083864688873
0.3010193705558777 0.6498494744300842 0.008855907246470451
0.47092026472091675 0.5025390982627869 -0.04115111008286476
0.455025315284729 0.4600642919540405 -7.574811024824157e-05
0.43826326727867126 0.4611668586730957 0.005817641504108906
0.43965423107147217 0.7302281260490417 -0.02497488632798195
0.2931411862373352 0.7116506695747375 0.042730946093797684
0.47763052582740784 0.46129828691482544 -0.027175066992640495
0.4248190224170685 0.8258088827133179 -0.0031067710369825363
0.5163655281066895 0.530784547328949 -0.09946026653051376
0.4915023744106293 0.512458324432373 -0.07492103427648544
0.5136364102363586 0.5072007179260254 -0.07749970257282257
0.457185834646225 0.5621578693389893 -0.06436115503311157
0.5066131949424744 0.8738858699798584 -0.009127801284193993
0.5076180100440979 0.8482722043991089 -0.00725586200132966
0.46484389901161194 0.8443413376808167 -0.0076195900328457355
0.3719392716884613 0.7715667486190796 0.004726818297058344
0.4079551100730896 0.628164529800415 -0.02802938222885132
0.3940988779067993 0.8014549612998962 0.0015046667540445924
0.35628312826156616 0.6274373531341553 -0.02378544770181179
0.38828185200691223 0.6550818085670471 -0.026802418753504753
0.337178111076355 0.6683796644210815 -0.007922163233160973
0.4558824598789215 0.8685802221298218 -0.00941047165542841
0.44114556908607483 0.5757521390914917 -0.05003085359930992
0.34767836332321167 0.7899012565612793 0.023470623418688774
0.37813839316368103 0.819703996181488 0.0172355268150568
0.35735461115837097 0.7378489971160889 0.0014912316109985113
0.2670413553714752 0.6803847551345825 0.05752774327993393
0.3239554762840271 0.7412897944450378 0.020239919424057007
0.24460650980472565 0.7014118432998657 0.10565198212862015
0.37124478816986084 0.6895989179611206 -0.018702708184719086
0.4565527141094208 0.541553258895874 -0.04859045147895813
0.4647635817527771 0.6058335900306702 -0.10023775696754456
0.447131872177124 0.6122215390205383 -0.07676395028829575
0.4762570858001709 0.5904684066772461 -0.11578432470560074
0.4394182562828064 0.4427282512187958 -0.008538284339010715
0.40338456630706787 0.43126988410949707 -0.01756329834461212
0.36999082565307617 0.42920565605163574 -0.021300436928868294
0.3407841920852661 0.43371790647506714 -0.016662489622831345
0.3190966248512268 0.4437014162540436 -0.005567521788179874
0.3002745807170868 0.4816961884498596 0.02686712145805359
0.2199113368988037 0.5449001789093018 0.11579512804746628
0.32081133127212524 0.5119642019271851 0.011013991199433804
0.3463662266731262 0.5182081460952759 0.0003703736583702266
0.3781423568725586 0.5164865255355835 -0.005309554748237133
0.4070606827735901 0.5101946592330933 -0.004363293293863535
0.42900508642196655 0.5019950866699219 -0.0029991469345986843
0.4444277286529541 0.4944092035293579 -0.00200683088041842
0.209834486246109 0.5482592582702637 0.19941076636314392
0.4467335045337677 0.6191129088401794 -0.06536994874477386
0.4761471152305603 0.5460314750671387 -0.08098654448986053
0.48308172821998596 0.606992781162262 -0.11610208451747894
0.4941256046295166 0.6187818050384521 -0.10573964565992355
0.48198288679122925 0.6109350919723511 -0.10511719435453415
0.45245906710624695 0.6270235776901245 -0.05659160390496254
0.49911463260650635 0.6210290789604187 -0.11157513409852982
0.49939700961112976 0.6259005665779114 -0.0843479111790657
0.44195452332496643 0.47416818141937256 0.01034117303788662
0.45698994398117065 0.481950581073761 -0.002305289264768362
0.46620362997055054 0.48678213357925415 -0.018626084551215172
0.33413082361221313 0.46697455644607544 0.009410485625267029
0.32071012258529663 0.45995813608169556 0.008624543435871601
0.5346912741661072 0.5349831581115723 -0.0887393206357956
0.6508550047874451 0.4813472330570221 0.05346030741930008
0.5367631912231445 0.6219379305839539 -0.08042808622121811
0.7217862606048584 0.40767398476600647 0.17377778887748718
0.5910476446151733 0.49688756465911865 0.023514525964856148
0.6117256283760071 0.49977409839630127 0.027057502418756485
0.632246732711792 0.5003796815872192 0.03512867912650108
0.6586681604385376 0.4908123016357422 0.056830063462257385
0.5740702748298645 0.4904078543186188 0.022235780954360962
0.6213854551315308 0.4469161033630371 0.019911417737603188
0.598975419998169 0.44601088762283325 0.017247777432203293
0.641689121723175 0.4521245062351227 0.02861923910677433
0.6547815799713135 0.4602873623371124 0.03908006474375725
0.675869345664978 0.5080441832542419 0.06776157766580582
0.5882745981216431 0.844491183757782 0.023329323157668114
0.6585031747817993 0.47751951217651367 0.06127972900867462
0.732323169708252 0.503423810005188 0.17738430202007294
0.6990363001823425 0.4969866871833801 0.09351958334445953
0.6137210130691528 0.5964827537536621 -0.0020329097751528025
0.542685329914093 0.6910866498947144 -0.06424508988857269
0.5352310538291931 0.7169186472892761 -0.055936992168426514
0.5678631067276001 0.6997323036193848 -0.04657270014286041
0.5807780027389526 0.7125471234321594 -0.02564900740981102
0.5524998903274536 0.7195578813552856 -0.042954497039318085
0.5640259981155396 0.7248409390449524 -0.023373909294605255
0.6037238240242004 0.7631047964096069 0.018483847379684448
0.539183497428894 0.6106137633323669 -0.12137609720230103
0.5424944162368774 0.5877944231033325 -0.12721505761146545
0.6862889528274536 0.4481455981731415 0.04762406647205353
0.5705575346946716 0.535955548286438 -0.009270635433495045
0.5824598670005798 0.6048049926757812 -0.05710263177752495
0.582701563835144 0.5929100513458252 -0.04924721643328667
0.6708087921142578 0.5966986417770386 0.031990986317396164
0.5391454696655273 0.5589969158172607 -0.11168219894170761
0.6381661891937256 0.424375057220459 0.0008318549953401089
0.6667003631591797 0.43318045139312744 0.021503323689103127
0.7042155265808105 0.3677654266357422 0.12801511585712433
0.5482737421989441 0.43433403968811035 -0.02875344455242157
0.5790093541145325 0.450749933719635 0.02165956050157547
0.6164833903312683 0.7340995073318481 0.023606842383742332
0.7018988132476807 0.7240736484527588 0.22458449006080627
0.5658566355705261 0.6174118518829346 -0.05063259229063988
0.5491053462028503 0.6252275705337524 -0.05804949998855591
0.5940855145454407 0.7398490309715271 0.017819015309214592
0.5818480253219604 0.7389799952507019 0.009878840297460556
0.6774652004241943 0.4208238124847412 0.035598110407590866
0.5812576413154602 0.6157099008560181 -0.04509945586323738
0.5989515781402588 0.4228361248970032 -0.015891823917627335
0.6041109561920166 0.4056144952774048 -0.018838245421648026
0.6265688538551331 0.3111916482448578 0.032485321164131165
0.6910262703895569 0.39240944385528564 0.0759652704000473
0.6140778064727783 0.3554949462413788 0.005927664693444967
0.697856068611145 0.43933531641960144 0.0700325146317482
0.7106085419654846 0.42401668429374695 0.11935531347990036
0.5398295521736145 0.7058351635932922 -0.0626034066081047
0.559973418712616 0.7114999294281006 -0.04583563655614853
0.5729519128799438 0.7189348936080933 -0.026633916422724724
0.560103714466095 0.6219457387924194 -0.04824195057153702
0.5881142616271973 0.7401195168495178 0.013286895118653774
0.583292543888092 0.7542518377304077 0.0016553689492866397
0.5781664848327637 0.7370506525039673 0.008865228854119778
0.5577775835990906 0.6095976829528809 -0.08330602943897247
0.5576866865158081 0.7238932847976685 -0.020821712911128998
0.5460367202758789 0.7213633060455322 -0.03505225107073784
0.5304046273231506 0.720813512802124 -0.046786751598119736
0.5409253835678101 0.8263279795646667 -0.005361858289688826
0.5431007146835327 0.8095552921295166 -0.030244193971157074
0.541721761226654 0.7952529191970825 -0.03586238622665405
0.5385552644729614 0.7801519632339478 -0.032573651522397995
0.5347630381584167 0.7697460651397705 -0.029465755447745323
0.5628613233566284 0.7572997808456421 -0.007877261377871037
0.5681774616241455 0.7613025903701782 -0.01104029081761837
0.5756893754005432 0.7680305242538452 -0.012664604932069778
0.5816397666931152 0.7750654220581055 -0.007551318965852261
0.598202645778656 0.684601366519928 -0.016009796410799026
0.7235904932022095 0.6068174839019775 0.2655133605003357
0.5695415735244751 0.7505783438682556 0.002897445810958743
0.5765408277511597 0.752084493637085 0.000997828901745379
0.542325496673584 0.6361373662948608 -0.05868327245116234
0.5727510452270508 0.6306926608085632 -0.030331650748848915
0.545535147190094 0.6309698820114136 -0.05923421308398247
0.5918082594871521 0.5498276352882385 0.0005400481168180704
0.6253045201301575 0.5669843554496765 0.00928226113319397
0.5847931504249573 0.6040558815002441 -0.03639558330178261
0.6744379997253418 0.3346436619758606 0.0774696096777916
0.6601395606994629 0.36914944648742676 0.03947050869464874
0.6457700133323669 0.40787750482559204 0.00823925994336605
0.5897519588470459 0.7860296964645386 0.009409652091562748
0.5564389228820801 0.4068230092525482 -0.03573894128203392
0.5652958154678345 0.3497907519340515 -0.016382085159420967
0.5729334950447083 0.29901671409606934 0.0024785997811704874
0.6490812301635742 0.4977884292602539 0.04659705609083176
0.698543906211853 0.5254479646682739 0.08225874602794647
0.5634672045707703 0.48380792140960693 0.024676280096173286
0.6770111918449402 0.4700762629508972 0.05997510626912117
0.5564144849777222 0.5205947160720825 -0.019230863079428673
0.5716387033462524 0.5961195230484009 -0.08111202716827393
0.7192598581314087 0.5428004264831543 0.10893083363771439
0.6851989030838013 0.5397478938102722 0.060157354921102524
0.6596741080284119 0.5467989444732666 0.036049533635377884
0.6198512315750122 0.5411725044250488 0.02057003043591976
0.5903503894805908 0.5301811695098877 0.013068756088614464
0.5689172148704529 0.518612802028656 0.00427586492151022
0.5311266779899597 0.4891285300254822 -0.046281129121780396
0.7156245112419128 0.5908206105232239 0.10056737065315247
0.6940905451774597 0.46972015500068665 0.07319021970033646
0.530125617980957 0.6226125955581665 -0.11119799315929413
0.5716674327850342 0.558465301990509 -0.01915152370929718
0.7312170267105103 0.5039910078048706 0.25423508882522583
0.5534201264381409 0.505858302116394 -0.0007004476501606405
0.5846132636070251 0.6060848832130432 -0.012571251019835472
0.6655004024505615 0.48011332750320435 0.06572000682353973
0.5709003806114197 0.5815033912658691 -0.07169145345687866
0.717711329460144 0.6635079979896545 0.2511962652206421
0.5637360215187073 0.47535961866378784 0.03206899017095566
0.5558825135231018 0.5678695440292358 -0.09594446420669556
0.6673361659049988 0.7808825373649597 0.10648331791162491
0.6635022759437561 0.809492826461792 0.14200899004936218
0.7320139408111572 0.6003074645996094 0.18401144444942474
0.6891923546791077 0.7476441860198975 0.1342681348323822
0.7220914959907532 0.4595525860786438 0.15556715428829193
0.5928376317024231 0.8693335652351379 0.03558700904250145
0.5258373022079468 0.6273693442344666 -0.08183135837316513
0.5894134044647217 0.5763176083564758 -0.009267144836485386
0.715984046459198 0.5024139881134033 0.11916837841272354
0.6298772096633911 0.48566919565200806 0.03824099525809288
0.6115270256996155 0.4863024950027466 0.030682476237416267
0.5894922614097595 0.7568322420120239 0.005355279427021742
0.7095168828964233 0.6384889483451843 0.10560643672943115
0.5523264408111572 0.9094992876052856 0.035658098757267
0.6148605346679688 0.8674721717834473 0.08384671062231064
0.6383402347564697 0.8423739671707153 0.1093776747584343
0.5944429039955139 0.48426422476768494 0.027042293921113014
0.5783855319023132 0.47983598709106445 0.028088988736271858
0.5684812664985657 0.4773334264755249 0.0316319540143013
0.7080252766609192 0.46633824706077576 0.09840169548988342
0.5810906887054443 0.46313297748565674 0.026869477704167366
0.598529040813446 0.4595088064670563 0.024103505536913872
0.6167542934417725 0.4594801068305969 0.027462277561426163
0.6349875330924988 0.4640052318572998 0.03455854207277298
0.6464595794677734 0.4700135588645935 0.0430995374917984
0.7302509546279907 0.45004910230636597 0.21976889669895172
0.6421065330505371 0.4836636185646057 0.04660789296030998
0.5828120112419128 0.6677695512771606 -0.031180977821350098
0.5671719312667847 0.6135169863700867 -0.05973705276846886
0.5448575615882874 0.6578080654144287 -0.05647324025630951
0.6442278623580933 0.8137814402580261 0.08418697118759155
0.6196902394294739 0.8408710956573486 0.06127813458442688
0.5552388429641724 0.8911377191543579 0.011093275621533394
0.6828094720840454 0.7735406160354614 0.1837896853685379
0.5695022940635681 0.470065176486969 0.029583923518657684
0.5466328859329224 0.5260989665985107 -0.05242183804512024
0.5879698991775513 0.8911685943603516 0.0562923364341259
0.72453773021698 0.652722179889679 0.17786094546318054
0.5511565208435059 0.7641197443008423 -0.019236044958233833
0.5563262701034546 0.7716259360313416 -0.02170427143573761
0.5622472167015076 0.7826992273330688 -0.023226289078593254
0.5666793584823608 0.7952954173088074 -0.018430553376674652
0.5702224373817444 0.8088473081588745 -9.6258801931981e-05
0.5738710165023804 0.7305745482444763 -0.005875925999134779
0.5820016860961914 0.728259265422821 -0.004776750225573778
0.5891680121421814 0.724236249923706 -0.003784352447837591
0.6096169948577881 0.7070115804672241 0.0040562995709478855
0.6823816299438477 0.6494535207748413 0.05692676454782486
0.5432518124580383 0.5034196376800537 -0.03130076453089714
0.5480597615242004 0.4623250365257263 0.012849457561969757
0.5605513453483582 0.4639030992984772 0.023961689323186874
0.5675746202468872 0.727362871170044 -0.004245724994689226
0.6820291876792908 0.7102522850036621 0.09173747152090073
0.533275842666626 0.4625662565231323 -0.019685860723257065
0.5786037445068359 0.8232715725898743 0.014241650700569153
0.5334841012954712 0.5129197835922241 -0.06948287785053253
0.5620133876800537 0.5624303221702576 -0.05128493532538414
0.54559725522995 0.8428812026977539 0.0006898141000419855
0.6224600076675415 0.768361508846283 0.034616537392139435
0.6003478765487671 0.6271160244941711 -0.004825624171644449
0.6034609079360962 0.7983583211898804 0.02560749277472496
0.6427292823791504 0.6269636750221252 0.010498415678739548
0.6164248585700989 0.6536275744438171 0.0017237765714526176
0.6553966403007507 0.667067289352417 0.03131403401494026
0.5525137186050415 0.8669997453689575 0.0014774573501199484
0.5732787251472473 0.5757604837417603 -0.03352788835763931
0.6389851570129395 0.7860873937606812 0.05759891867637634
0.6147254109382629 0.8160927295684814 0.04363466426730156
0.636235237121582 0.7347136735916138 0.0369904562830925
0.7018643617630005 0.680208146572113 0.11266116052865982
0.6596577167510986 0.7384450435638428 0.06129801645874977
0.711219847202301 0.7020621299743652 0.16568221151828766
0.6284246444702148 0.6874139308929443 0.014550626277923584
0.5584815740585327 0.5419439673423767 -0.03463327884674072
0.5650630593299866 0.6058654189109802 -0.08708348125219345
0.576168954372406 0.6121158003807068 -0.06154751777648926
0.5586889386177063 0.5907282829284668 -0.10538490861654282
0.5638142824172974 0.44640108942985535 0.008903375826776028
0.5979161262512207 0.4379073977470398 0.007186566013842821
0.6281550526618958 0.43852728605270386 0.01108110137283802
0.6527392268180847 0.4441903233528137 0.023059871047735214
0.6690821647644043 0.45458346605300903 0.03921359032392502
0.6797950267791748 0.4887668490409851 0.07513441890478134
0.7348881959915161 0.5508526563644409 0.18246781826019287
0.6648687720298767 0.516059398651123 0.055629223585128784
0.6444092988967896 0.5209193229675293 0.03876085951924324
0.6165729761123657 0.5191339254379272 0.02627059444785118
0.5900136232376099 0.5124547481536865 0.02073744311928749
0.5700498223304749 0.5039646625518799 0.016054030507802963
0.5563822984695435 0.49613213539123535 0.013645721599459648
0.7264472246170044 0.5550163388252258 0.2680709958076477
0.5739756226539612 0.6185911297798157 -0.050530947744846344
0.5495131015777588 0.5463080406188965 -0.07074005901813507
0.5528770089149475 0.6071066856384277 -0.10771309584379196
0.539311408996582 0.6186447143554688 -0.10107377171516418
0.5507619380950928 0.6109764575958252 -0.09664582461118698
0.5673253536224365 0.6262606382369995 -0.04402623325586319
0.5364831686019897 0.6209362745285034 -0.10765692591667175
0.5325080752372742 0.6258093118667603 -0.08102843910455704
0.5565360188484192 0.47668272256851196 0.02646724507212639
0.5457520484924316 0.48353421688079834 0.009960435330867767
0.5417286157608032 0.4879441261291504 -0.008723374456167221
0.6534116268157959 0.4744526147842407 0.05101347342133522
0.664777398109436 0.46906331181526184 0.052752699702978134
