ply
format ascii 1.0
element vertex 468
property float x
property float y
property float z
end_header
0.5134161114692688 0.7187085151672363 -0.07496228814125061
0.5178650617599487 0.6253284215927124 -0.13113468885421753
0.513480007648468 0.6546444296836853 -0.07196133583784103
0.4906197488307953 0.5441027283668518 -0.09558722376823425
0.5172973871231079 0.5990263819694519 -0.13819776475429535
0.5146090984344482 0.565986692905426 -0.12696312367916107
0.5059758424758911 0.48824581503868103 -0.05607326701283455
0.3275665044784546 0.4900974631309509 0.027966072782874107
0.5021997094154358 0.42964231967926025 -0.03575556352734566
0.5013103485107422 0.3964509069919586 -0.03832150250673294
0.4946709871292114 0.2815953493118286 -0.0031881150789558887
0.5132833123207092 0.7322362661361694 -0.07180817425251007
0.512638509273529 0.7422550916671753 -0.06409046798944473
0.5117435455322266 0.7462056875228882 -0.05370784178376198
0.5133408904075623 0.7525905966758728 -0.054149381816387177
0.5139336585998535 0.7632551789283752 -0.05892959237098694
0.5144774317741394 0.7770368456840515 -0.06552202999591827
0.5145756006240845 0.7921401858329773 -0.06407236307859421
0.5141961574554443 0.8178945183753967 -0.04401182383298874
0.5167809128761292 0.6393415331840515 -0.1192006841301918
0.4912662208080292 0.6394915580749512 -0.0875040590763092
0.22992680966854095 0.40738117694854736 0.14197687804698944
0.39867350459098816 0.5098766684532166 0.0069890329614281654
0.3747669458389282 0.5128029584884644 0.006868552882224321
0.3511858284473419 0.5127037167549133 0.01179952546954155
0.31804025173187256 0.5002694725990295 0.030198130756616592
0.4186244606971741 0.5026846528053284 0.011426689103245735
0.36599811911582947 0.44827818870544434 -0.0014458628138527274
0.39155256748199463 0.44894009828567505 0.0013887407258152962
0.34152042865753174 0.45276162028312683 0.00447023706510663
0.32477882504463196 0.4621707797050476 0.013220259919762611
0.2986404299736023 0.5187974572181702 0.04059651866555214
0.421550989151001 0.8606934547424316 -0.01960553601384163
0.3181970715522766 0.4843274652957916 0.03536433354020119
0.22070248425006866 0.5150408744812012 0.1436334103345871
0.2696412205696106 0.5044068694114685 0.06404992192983627
0.38384711742401123 0.6144410371780396 -0.023776842281222343
0.48108741641044617 0.7149875164031982 -0.07369877398014069
0.48414182662963867 0.7425894737243652 -0.06220724433660507
0.4466665983200073 0.7242844104766846 -0.061329588294029236
0.42390912771224976 0.7355766892433167 -0.04410679265856743
0.45890313386917114 0.7446181178092957 -0.05378828942775726
0.4387955367565155 0.7476243376731873 -0.037677522748708725
0.392383337020874 0.7766262292861938 -0.011237889528274536
0.497016042470932 0.6252583861351013 -0.12991021573543549
0.4930909276008606 0.6003755927085876 -0.13665986061096191
0.28604933619499207 0.4387502670288086 0.018905159085989
0.4319465458393097 0.5491144061088562 -0.020268743857741356
0.432460218667984 0.6233676671981812 -0.0732836052775383
0.4292941093444824 0.6104889512062073 -0.06539527326822281
0.30986154079437256 0.615330159664154 0.002521272050216794
0.4918650686740875 0.5695131421089172 -0.1207432970404625
0.3456403613090515 0.4086169898509979 -0.01719539240002632
0.3109264373779297 0.41895636916160583 -0.0015331523027271032
0.2557419538497925 0.3603648841381073 0.09881460666656494
0.4520723521709442 0.4251765012741089 -0.03161870315670967
0.4138045012950897 0.45629075169563293 0.0099079180508852
0.3723812401294708 0.7521833181381226 -0.005458775907754898
0.24611878395080566 0.7558914422988892 0.19403450191020966
0.45060086250305176 0.6368704438209534 -0.06309709697961807
0.4716525673866272 0.6444978713989258 -0.06522062420845032
0.39716994762420654 0.7524544596672058 -0.005831013899296522
0.40856537222862244 0.7506772875785828 -0.011454787105321884
0.29617926478385925 0.40385210514068604 0.010350403375923634
0.4302145540714264 0.6355071067810059 -0.06046432629227638
0.39197054505348206 0.4086618423461914 -0.027449188753962517
0.3869682252407074 0.38853776454925537 -0.03151433914899826
0.3568642735481262 0.2971833348274231 0.01682494580745697
0.2764591574668884 0.3811503052711487 0.04882822185754776
0.37447428703308105 0.3408886790275574 -0.008305360563099384
0.2698827385902405 0.42942965030670166 0.03949116915464401
0.250140517950058 0.41961151361465454 0.08813787251710892
0.48233217000961304 0.7311341166496277 -0.07079452276229858
0.4538465738296509 0.736852765083313 -0.0585140697658062
0.43161365389823914 0.7421061396598816 -0.042922645807266235
0.4564826786518097 0.6418240666389465 -0.05830010026693344
0.40318161249160767 0.7519301772117615 -0.00865135807543993
0.41569387912750244 0.7567271590232849 -0.024284807965159416
0.41145798563957214 0.7494292855262756 -0.01228907611221075
0.4672130048274994 0.6264484524726868 -0.09629825502634048
0.442792147397995 0.7461631894111633 -0.033571742475032806
0.46294674277305603 0.7459458708763123 -0.044221773743629456
0.4861758351325989 0.7460487484931946 -0.052218466997146606
0.4798956513404846 0.8183209896087646 -0.044227484613657
0.48188790678977966 0.7911739945411682 -0.06374353915452957
0.48330557346343994 0.7751153111457825 -0.06466548889875412
0.48494526743888855 0.7613752484321594 -0.05757708474993706
0.48640215396881104 0.7526446580886841 -0.0527711883187294
0.4406602084636688 0.7521342039108276 -0.033854320645332336
0.43720757961273193 0.7552168965339661 -0.03859884664416313
0.4317864775657654 0.7624157667160034 -0.04292815178632736
0.42707473039627075 0.7716994881629944 -0.03940828889608383
0.4035603106021881 0.7061430215835571 -0.036264773458242416
0.21681013703346252 0.6309270858764648 0.23536711931228638
0.5152730941772461 0.6454581618309021 -0.08790608495473862
0.42699187994003296 0.7519205808639526 -0.0211102943867445
0.4218188524246216 0.7531929016113281 -0.024107584729790688
0.4806917607784271 0.655975878238678 -0.06747805327177048
0.4380766749382019 0.6517533659934998 -0.043392572551965714
0.47640201449394226 0.6503434777259827 -0.06681571900844574
0.4061078429222107 0.5649936199188232 -0.014671691693365574
0.3669787347316742 0.5832985639572144 -0.011095663532614708
0.4243313670158386 0.6227158904075623 -0.05236642435193062
0.2960207760334015 0.3228054940700531 0.05409959331154823
0.31588122248649597 0.3538454473018646 0.017729897052049637
0.3360351324081421 0.38926219940185547 -0.01179539691656828
0.41578248143196106 0.7933433055877686 -0.024434542283415794
0.4437766671180725 0.3924880623817444 -0.03957359120249748
0.43307119607925415 0.33796215057373047 -0.021516770124435425
0.42097008228302 0.28498661518096924 -0.002469161059707403
0.33034050464630127 0.5089790225028992 0.021127665415406227
0.27216145396232605 0.5386281609535217 0.05162660777568817
0.4312573969364166 0.4953806400299072 0.015805279836058617
0.2970312535762787 0.47128191590309143 0.031642623245716095
0.4495401978492737 0.5316518545150757 -0.027427025139331818
0.4501607418060303 0.6120893955230713 -0.09580064564943314
0.24487996101379395 0.55833899974823 0.07478602230548859
0.29081231355667114 0.554545521736145 0.02944963052868843
0.32358452677726746 0.5618773698806763 0.00901754293590784
0.3705201745033264 0.5560045838356018 0.0009157597669400275
0.40432974696159363 0.5441965460777283 -0.001355885062366724
0.42974838614463806 0.5311675071716309 -0.005663731135427952
0.482732355594635 0.49581408500671387 -0.048559047281742096
0.24990804493427277 0.6108566522598267 0.06535164266824722
0.2761540412902832 0.4692445397377014 0.04227348417043686
0.5042593479156494 0.63860023021698 -0.11867190152406693
0.4348852336406708 0.572982668876648 -0.03178589791059494
0.20976242423057556 0.5172810554504395 0.2230573296546936
0.44855785369873047 0.5165372490882874 -0.007154779974371195
0.42064961791038513 0.6253111958503723 -0.02797454409301281
0.31009674072265625 0.4866971969604492 0.0391114316880703
0.4469705820083618 0.5966868996620178 -0.08573396503925323
0.22588713467121124 0.692259669303894 0.2212781012058258
0.43026843667030334 0.48603135347366333 0.022482886910438538
0.4693300724029541 0.5803003311157227 -0.1079382449388504
0.30798226594924927 0.8091732859611511 0.0680839940905571
0.30839627981185913 0.8406046628952026 0.10824611037969589
0.22223851084709167 0.6224010586738586 0.1499028205871582
0.2747027277946472 0.7767699956893921 0.09738299995660782
0.23465822637081146 0.46364277601242065 0.1228933110833168
0.4170570373535156 0.8874020576477051 -0.008030148223042488
0.5052791237831116 0.6446715593338013 -0.08662953227758408
0.41249650716781616 0.5930998921394348 -0.0252546314150095
0.24743704497814178 0.5112618803977966 0.0865878313779831
0.35306549072265625 0.49663612246513367 0.015092727728188038
0.3743041753768921 0.49803975224494934 0.01035540271550417
0.4094066023826599 0.7620651125907898 -0.020479347556829453
0.2547498345375061 0.6624650359153748 0.07064066082239151
0.4635268747806549 0.9209844470024109 -0.0020993747748434544
0.38449907302856445 0.8919134140014648 0.044890645891427994
0.34933704137802124 0.8713604807853699 0.07280992716550827
0.49814605712890625 0.3381500542163849 -0.022141126915812492
0.5155811309814453 0.9232838153839111 -0.006251384504139423
0.3943256139755249 0.49615126848220825 0.010979387909173965
0.41279569268226624 0.49161601066589355 0.01555599458515644
0.4244198501110077 0.4886578619480133 0.021532999351620674
0.2570040822029114 0.4660046100616455 0.06597855687141418
0.4094598889350891 0.47012341022491455 0.013323048129677773
0.3890293836593628 0.46443578600883484 0.007970794104039669
0.3684113025665283 0.4634324908256531 0.0074118757620453835
0.3470642864704132 0.4678784906864166 0.011723563075065613
0.3332887887954712 0.4747579097747803 0.018450669944286346
0.21565639972686768 0.45659393072128296 0.18814212083816528
0.33816516399383545 0.49359673261642456 0.021950041875243187
0.5130971074104309 0.6752228736877441 -0.06743267923593521
0.4268515110015869 0.689781665802002 -0.04829687252640724
0.4512038826942444 0.6322681307792664 -0.0715821161866188
0.4776180684566498 0.6790057420730591 -0.0678420439362526
0.5031523704528809 0.45911917090415955 -0.03645424544811249
0.3442361056804657 0.8405389785766602 0.0446573942899704
0.37908393144607544 0.8645313382148743 0.019388779997825623
0.4630061089992523 0.9026234745979309 -0.030852101743221283
0.27543315291404724 0.8052197694778442 0.15257741510868073
0.42391473054885864 0.47944337129592896 0.018718097358942032
0.46859174966812134 0.5358706712722778 -0.05942165106534958
0.5167120099067688 0.9042040109634399 -0.033698223531246185
0.4215744733810425 0.9092504382133484 0.01612655073404312
0.23096051812171936 0.6789305210113525 0.14344923198223114
0.46205225586891174 0.7520103454589844 -0.0446428619325161
0.4587571322917938 0.7584370970726013 -0.04989107325673103
0.4551263153553009 0.7691278457641602 -0.05501475930213928
0.4522111713886261 0.7833335399627686 -0.05293671786785126
0.44433853030204773 0.808160126209259 -0.0376376137137413
0.42039573192596436 0.7494094967842102 -0.02364945039153099
0.41308844089508057 0.7475622892379761 -0.024071229621767998
0.40591391921043396 0.7439401149749756 -0.024635298177599907
0.3832697570323944 0.7275543808937073 -0.02059965580701828
0.2898406982421875 0.6728187203407288 0.023894378915429115
0.46664100885391235 0.5121136903762817 -0.035986319184303284
0.45035648345947266 0.4677507281303406 0.008358906954526901
0.43471279740333557 0.47242796421051025 0.015695443376898766
0.42576998472213745 0.7463412284851074 -0.021164273843169212
0.28641456365585327 0.7368533611297607 0.05591432377696037
0.47222134470939636 0.46460896730422974 -0.021529294550418854
0.432192862033844 0.8338116407394409 -0.027124298736453056
0.5116604566574097 0.5392647385597229 -0.10228891670703888
0.48624008893966675 0.521166205406189 -0.07398374378681183
0.5088804960250854 0.514711320400238 -0.07801812142133713
0.4521624743938446 0.5760955214500427 -0.06213511526584625
0.5164737701416016 0.8774495124816895 -0.04599328339099884
0.515360414981842 0.8454128503799438 -0.04479113593697548
0.47318658232688904 0.8458889722824097 -0.04167249798774719
0.3710729479789734 0.7885789275169373 0.00030820854590274394
0.40070000290870667 0.6474280953407288 -0.024692535400390625
0.39884713292121887 0.8151237368583679 -0.012610412202775478
0.3454882502555847 0.6463485956192017 -0.018287746235728264
0.3787122964859009 0.6742415428161621 -0.022780725732445717
0.3241197466850281 0.6894693970680237 -0.0018310588784515858
0.4662938416004181 0.8767529726028442 -0.04206053167581558
0.4358837902545929 0.591654360294342 -0.046792514622211456
0.3516021966934204 0.8098783493041992 0.01982980966567993
0.38600245118141174 0.8370649218559265 0.003012194065377116
0.34975099563598633 0.7566884160041809 0.0036843635607510805
0.26157665252685547 0.7070508003234863 0.07734754681587219
0.31916606426239014 0.7630013227462769 0.025118518620729446
0.24608607590198517 0.7308062314987183 0.1302844136953354
0.3585203289985657 0.7089369297027588 -0.01384464930742979
0.4521751403808594 0.5542071461677551 -0.04451192542910576
0.4592736065387726 0.6226961612701416 -0.10112367570400238
0.4407039284706116 0.631159245967865 -0.07578416913747787
0.47074490785598755 0.6048511862754822 -0.11728561669588089
0.43152037262916565 0.4470507502555847 0.0006295114289969206
0.39277416467666626 0.43481093645095825 -0.006169455125927925
0.35843396186828613 0.4335273206233978 -0.007493029348552227
0.32926517724990845 0.4387018084526062 -0.00032620131969451904
0.3083609640598297 0.45082032680511475 0.01273816917091608
0.29276466369628906 0.49539241194725037 0.047957196831703186
0.21789702773094177 0.5680817365646362 0.1474950909614563
0.31325763463974 0.5283156633377075 0.028371572494506836
0.3390430808067322 0.5344690084457397 0.01515388023108244
0.3715655505657196 0.5327717661857605 0.007075014058500528
0.401924729347229 0.5259055495262146 0.00526441028341651
0.42537838220596313 0.516364574432373 0.00645030802115798
0.4415750503540039 0.5071413516998291 0.006430501118302345
0.21250659227371216 0.5738479495048523 0.2374068796634674
0.44012168049812317 0.6384936571121216 -0.06390165537595749
0.4708418548107147 0.5574473142623901 -0.08012425899505615
0.478475958108902 0.6223685145378113 -0.11920181661844254
0.4911457300186157 0.6351598501205444 -0.10898082703351974
0.47780969738960266 0.6269806623458862 -0.10752157121896744
0.44663071632385254 0.6467418074607849 -0.05572221428155899
0.49623262882232666 0.637208878993988 -0.11534947156906128
0.49700862169265747 0.6432833671569824 -0.08698326349258423
0.43945568799972534 0.4873255491256714 0.01961837336421013
0.4541572630405426 0.4927564263343811 0.005518384277820587
0.4626341164112091 0.4959909915924072 -0.011546705849468708
0.3249858617782593 0.48000457882881165 0.025505460798740387
0.31179165840148926 0.472362220287323 0.025952380150556564
0.5317353010177612 0.5434622764587402 -0.09233608841896057
0.6647487878799438 0.48425763845443726 0.05265005677938461
0.537076473236084 0.6385539770126343 -0.08481091260910034
0.7305862903594971 0.3990686237812042 0.18064378201961517
0.5998206734657288 0.5075316429138184 0.022927721962332726
0.623104989528656 0.5092358589172363 0.02577233500778675
0.6450724601745605 0.5077155828475952 0.03388135880231857
0.6723588109016418 0.4939672350883484 0.05635444074869156
0.5798208713531494 0.5012118816375732 0.023735009133815765
0.6287011504173279 0.4439430236816406 0.018839780241250992
0.6040644645690918 0.4459938704967499 0.01726355403661728
0.6515967845916748 0.44757264852523804 0.027644723653793335
0.6667956709861755 0.4562336802482605 0.03810322657227516
0.690611720085144 0.5114637613296509 0.06875602900981903
0.6032440662384033 0.8544864058494568 -0.007752245757728815
0.6721471548080444 0.47815150022506714 0.0613802894949913
0.7468985319137573 0.5042911767959595 0.18306617438793182
0.7130676507949829 0.49554961919784546 0.09613896906375885
0.6256874799728394 0.6094543933868408 -0.0077240061946213245
0.5438156127929688 0.7135653495788574 -0.06928018480539322
0.5390864014625549 0.741317093372345 -0.05823550000786781
0.5745278000831604 0.7214273810386658 -0.05241503566503525
0.5933589339256287 0.7316617369651794 -0.032186973839998245
0.5613529682159424 0.7422296404838562 -0.045980650931596756
0.5782020092010498 0.7445253133773804 -0.027518484741449356
0.6217342615127563 0.7712967395782471 0.00419776001945138
0.5375739932060242 0.6244680285453796 -0.12765784561634064
0.5398940443992615 0.5995453596115112 -0.1340426206588745
0.6998283267021179 0.43021485209465027 0.049142103642225266
0.5751227140426636 0.5467920303344727 -0.00985737331211567
0.5888733863830566 0.620371401309967 -0.063506118953228
0.589079737663269 0.6073548793792725 -0.05538983643054962
0.6907838582992554 0.606932520866394 0.029849445447325706
0.5362828969955444 0.568798303604126 -0.11740656942129135
0.6482521295547485 0.40276461839675903 0.004314927384257317
0.6789959073066711 0.4116002917289734 0.024953216314315796
0.7106741666793823 0.3537267744541168 0.13341087102890015
0.550261378288269 0.4234626889228821 -0.02428356371819973
0.5824230909347534 0.4542003273963928 0.022622879594564438
0.6385712623596191 0.7460736036300659 0.01337746437638998
0.7306491732597351 0.7414157390594482 0.23078131675720215
0.5717043876647949 0.6345888376235962 -0.056316304951906204
0.5523791313171387 0.6429393291473389 -0.06165697053074837
0.6143889427185059 0.7480098009109497 0.010159743949770927
0.6032743453979492 0.7466560006141663 0.002618483966216445
0.6897928714752197 0.39586782455444336 0.038561299443244934
0.5893695950508118 0.6324576735496521 -0.050902094691991806
0.606428861618042 0.40473005175590515 -0.012845555320382118
0.6103065609931946 0.3844263553619385 -0.01637325808405876
0.6242927312850952 0.2939964234828949 0.03675202280282974
0.7002114057540894 0.37384873628616333 0.07944490015506744
0.6154335737228394 0.33742010593414307 0.00898518692702055
0.7113896608352661 0.4202510416507721 0.0718427374958992
0.7214130163192749 0.4107596278190613 0.12320142984390259
0.5421754121780396 0.7298066020011902 -0.06630536913871765
0.5671745538711548 0.7340012192726135 -0.0502731017768383
0.58575040102005 0.7383904457092285 -0.031978171318769455
0.5655437707901001 0.6396985650062561 -0.05229804292321205
0.6087565422058105 0.7475301623344421 0.0059855361469089985
0.5994353294372559 0.7527592778205872 -0.011776282452046871
0.6000230312347412 0.7453778982162476 0.001358711626380682
0.560097336769104 0.6244851350784302 -0.08956517279148102
0.5727071166038513 0.7432155609130859 -0.024144865572452545
0.5555396676063538 0.7438676357269287 -0.03723011165857315
0.5352377891540527 0.7449073791503906 -0.048360325396060944
0.5472196340560913 0.8162727952003479 -0.040026817470788956
0.5456420183181763 0.7893370389938354 -0.05939248576760292
0.5438008308410645 0.7736527919769287 -0.06033246964216232
0.5413547158241272 0.760046660900116 -0.05328120291233063
0.5384161472320557 0.7513309717178345 -0.04857196286320686
0.5775426030158997 0.7488626837730408 -0.02439740113914013
0.5813806056976318 0.7520309686660767 -0.02901017665863037
0.5871908664703369 0.7588778734207153 -0.033036548644304276
0.5922581553459167 0.7677897214889526 -0.028291115537285805
0.6123504042625427 0.701231062412262 -0.022774003446102142
0.7460153102874756 0.6178354024887085 0.276121586561203
0.5880561470985413 0.7483645677566528 -0.009451871737837791
0.5934047698974609 0.7495965361595154 -0.012200701981782913
0.5446358919143677 0.65451580286026 -0.06392262130975723
0.5808129906654358 0.6489583849906921 -0.0356515534222126
0.5484079122543335 0.648949921131134 -0.06341243535280228
0.6000763773918152 0.5615493655204773 -0.0005985376774333417
0.637881338596344 0.5779405832290649 0.007988103665411472
0.5927395820617676 0.6192976832389832 -0.0420403778553009
0.6773630380630493 0.3177967965602875 0.08198735117912292
0.6667331457138062 0.34828469157218933 0.04246904328465462
0.6555178165435791 0.383142352104187 0.01065952330827713
0.6028185486793518 0.7883166670799255 -0.0117398826405406
0.557245671749115 0.39061105251312256 -0.03170257806777954
0.5610408186912537 0.33635127544403076 -0.012408437207341194
0.56565260887146 0.2834332585334778 0.007595702074468136
0.6628366112709045 0.5032306909561157 0.04560384154319763
0.7145944237709045 0.5298603773117065 0.08326222747564316
0.5672000646591187 0.49426957964897156 0.0268457792699337
0.6899738311767578 0.46373412013053894 0.06057842820882797
0.5585147142410278 0.5299164652824402 -0.01909087598323822
0.5749505162239075 0.6098138093948364 -0.0878099650144577
0.7375386953353882 0.5479475855827332 0.11093125492334366
0.7015454769134521 0.5465459823608398 0.059170812368392944
0.6743670701980591 0.5551340579986572 0.03422180935740471
0.6312249898910522 0.551329493522644 0.02028011344373226
0.5986721515655518 0.5411544442176819 0.013104422017931938
0.5739116668701172 0.5291443467140198 0.005168079864233732
0.5280889868736267 0.49512922763824463 -0.04487975686788559
0.7380273342132568 0.5997335910797119 0.10127852857112885
0.7073626518249512 0.4605432450771332 0.07406968623399734
0.5286461710929871 0.6381098031997681 -0.11674177646636963
0.5763722658157349 0.5705243349075317 -0.021957065910100937
0.7463908195495605 0.5064746141433716 0.26528120040893555
0.5555521249771118 0.5151622295379639 0.0012874712701886892
0.5935738682746887 0.621845006942749 -0.0174909345805645
0.6786606907844543 0.4802555441856384 0.06656928360462189
0.5743933916091919 0.5942678451538086 -0.07770337164402008
0.7428255081176758 0.6784635186195374 0.2602093517780304
0.5667182803153992 0.4848106801509857 0.034145671874284744
0.5558347702026367 0.5786639451980591 -0.10206147283315659
0.6944566965103149 0.79715895652771 0.09529558569192886
0.6899961233139038 0.8275513648986816 0.1358945667743683
0.7534839510917664 0.6096084117889404 0.18917417526245117
0.7192525267601013 0.7634268403053284 0.12923918664455414
0.7340112924575806 0.4540083706378937 0.16053853929042816
0.6081432700157166 0.8802248239517212 0.0050315530970692635
0.5247316956520081 0.6442779898643494 -0.08565760403871536
0.5975691080093384 0.5895759463310242 -0.012975144200026989
0.7304246425628662 0.5012800097465515 0.1220216229557991
0.6431422233581543 0.492371529340744 0.03696642443537712
0.6231546401977539 0.49484747648239136 0.029676564037799835
0.6054159998893738 0.7576974630355835 -0.007243734318763018
0.735786497592926 0.6506028175354004 0.10535284876823425
0.565717875957489 0.9169406294822693 0.005364581476897001
0.6323999762535095 0.8823873996734619 0.0633087232708931
0.6594656705856323 0.8599298596382141 0.09548500180244446
0.6032288074493408 0.4939716160297394 0.027284445241093636
0.5845194458961487 0.4900645613670349 0.029474498704075813
0.5726435780525208 0.4874575138092041 0.03395644575357437
0.7214713096618652 0.45653462409973145 0.10032538324594498
0.5862951874732971 0.46786409616470337 0.02732178010046482
0.6060004234313965 0.461323618888855 0.02440178021788597
0.6263788938522339 0.4594947099685669 0.02703290432691574
0.6467633247375488 0.46294665336608887 0.03383416682481766
0.6594125032424927 0.4692233204841614 0.04232163727283478
0.741563081741333 0.4470093250274658 0.22910946607589722
0.6561201810836792 0.4883907437324524 0.04554140567779541
0.5922770500183105 0.6859447956085205 -0.03796425461769104
0.5723415613174438 0.6300080418586731 -0.06484624743461609
0.5467231869697571 0.6774000525474548 -0.06349476426839828
0.6664491295814514 0.8300013542175293 0.06648584455251694
0.6383661031723022 0.8553253412246704 0.03697431460022926
0.568209707736969 0.8986698389053345 -0.0236371997743845
0.7121523022651672 0.791258692741394 0.1852722316980362
0.5728537440299988 0.47771814465522766 0.031161470338702202
0.5462719202041626 0.5344323515892029 -0.05392871052026749
0.6025717258453369 0.902058482170105 0.029284823685884476
0.748732328414917 0.6651816368103027 0.18126893043518066
0.5600521564483643 0.7497231960296631 -0.03751126304268837
0.5642029047012329 0.7559148669242859 -0.04223843663930893
0.5684607028961182 0.7664167284965515 -0.047152020037174225
0.5719457864761353 0.780289351940155 -0.04445994645357132
0.5787782073020935 0.8043301701545715 -0.028185004368424416
0.5932077765464783 0.745684027671814 -0.011143561452627182
0.600674033164978 0.7434782981872559 -0.010669639334082603
0.6076310276985168 0.739639163017273 -0.010043761692941189
0.6295344829559326 0.7218168377876282 -0.0035974669735878706
0.7092827558517456 0.6624975204467773 0.0529380664229393
0.542616605758667 0.5109042525291443 -0.030206728726625443
0.5491265654563904 0.4666229486465454 0.015586654655635357
0.5624905824661255 0.471080482006073 0.026385901495814323
0.5869278311729431 0.7428054809570312 -0.009150481782853603
0.7120150923728943 0.7252070307731628 0.08567216992378235
0.5316917300224304 0.4637206792831421 -0.017327656969428062
0.5912358164787292 0.8287299871444702 -0.016718527302145958
0.530613124370575 0.5203410983085632 -0.07086145877838135
0.564812421798706 0.5738664269447327 -0.05489496886730194
0.5551880598068237 0.8430017232894897 -0.03648955374956131
0.6421008110046387 0.781253457069397 0.018359363079071045
0.6124440431594849 0.6428968906402588 -0.011609073728322983
0.619043231010437 0.8087456822395325 0.0016646385192871094
0.662161111831665 0.6391460299491882 0.002753536682575941
0.6332499384880066 0.6684167385101318 -0.006382767576724291
0.6818289756774902 0.6806578636169434 0.022225655615329742
0.5644981861114502 0.8731856942176819 -0.03514334186911583
0.5786941051483154 0.5889952778816223 -0.03773130476474762
0.6603989005088806 0.8006461262702942 0.040538955479860306
0.6320457458496094 0.8291156888008118 0.018998300656676292
0.6599868535995483 0.7486847639083862 0.025202365592122078
0.7307520508766174 0.6945413947105408 0.11058411002159119
0.6864660978317261 0.7528111338615417 0.05015769228339195
0.7392094135284424 0.716844379901886 0.16626568138599396
0.6513574123382568 0.7020916938781738 0.005933957640081644
0.5606583952903748 0.5522236824035645 -0.03673739358782768
0.5677605867385864 0.6204532980918884 -0.09379196166992188
0.5821422338485718 0.628279447555542 -0.06750886887311935
0.5589245557785034 0.603101909160614 -0.1118127629160881
0.5672051906585693 0.4452030062675476 0.01045843306928873
0.6043016314506531 0.4314776659011841 0.008993832394480705
0.6365209817886353 0.42891210317611694 0.012758650816977024
0.6632190942764282 0.43282845616340637 0.0241682268679142
0.6813419461250305 0.4439448118209839 0.04006212577223778
0.693498432636261 0.48780179023742676 0.0772869661450386
0.7533645629882812 0.5563951134681702 0.18793906271457672
0.6796591281890869 0.5216185450553894 0.05498339980840683
0.6575486063957214 0.5284923315048218 0.03831949084997177
0.6277689337730408 0.5287337303161621 0.026088479906320572
0.5983411073684692 0.5231932401657104 0.020272690802812576
0.5752400159835815 0.5146349668502808 0.017749816179275513
0.5593703985214233 0.5059854984283447 0.015568969771265984
0.7456247210502625 0.56204754114151 0.2794124484062195
0.5809098482131958 0.6357862949371338 -0.05588379129767418
0.5492614507675171 0.5557770729064941 -0.07443992793560028
0.5530369281768799 0.6208258867263794 -0.11445274204015732
0.5390276908874512 0.6340130567550659 -0.10638042539358139
0.5516675710678101 0.6253441572189331 -0.10267797112464905
0.5740222334861755 0.6442959904670715 -0.04892151430249214
0.5356719493865967 0.6363390684127808 -0.11315786838531494
0.5322858691215515 0.6426543593406677 -0.08515284955501556
0.5588371157646179 0.48634427785873413 0.029092397540807724
0.5467515587806702 0.4920036494731903 0.012737208977341652
0.5414813756942749 0.4951831102371216 -0.00556421373039484
0.666711688041687 0.47401583194732666 0.0507492870092392
0.6776784658432007 0.46576201915740967 0.05213601142168045
