ply
format ascii 1.0
element vertex 468
property float x
property float y
property float z
end_header
0.4974641501903534 0.7199035882949829 -0.036109715700149536
0.49145907163619995 0.6692630052566528 -0.12965713441371918
0.4945920407772064 0.6827200651168823 -0.05871637910604477
0.47256556153297424 0.5754663348197937 -0.11647091805934906
0.49114805459976196 0.6434780359268188 -0.14311738312244415
0.491730272769928 0.6053718328475952 -0.14144331216812134
0.49412429332733154 0.509209930896759 -0.09962450712919235
0.3269641399383545 0.4826773703098297 0.000725621241144836
0.49440765380859375 0.4410393536090851 -0.09843060374259949
0.49458256363868713 0.4059860110282898 -0.11317309737205505
0.49690237641334534 0.2677367031574249 -0.12780198454856873
0.4981847405433655 0.729628324508667 -0.030343350023031235
0.4987209737300873 0.7344532608985901 -0.02210000343620777
0.49928104877471924 0.7330631017684937 -0.011220833286643028
0.5003365874290466 0.7739584445953369 0.006161654368042946
0.5001596212387085 0.7841532826423645 0.004145962186157703
0.4999944269657135 0.7958940267562866 0.0020766346715390682
0.49996909499168396 0.8091984987258911 0.009229475632309914
0.4991188645362854 0.8280757665634155 0.03574506193399429
0.4920572340488434 0.6800075173377991 -0.11453530937433243
0.46912911534309387 0.6717228889465332 -0.0796828418970108
0.2521509826183319 0.3708912134170532 0.08233249187469482
0.40018153190612793 0.5059714913368225 -0.02101002261042595
0.37649786472320557 0.507144033908844 -0.018145911395549774
0.3528197407722473 0.5055343508720398 -0.011170118115842342
0.31863874197006226 0.4893417954444885 0.007714661303907633
0.41838541626930237 0.5017664432525635 -0.02038169652223587
0.35978615283966064 0.4454403817653656 -0.04041018709540367
0.3865119218826294 0.44827789068222046 -0.042095161974430084
0.3355962038040161 0.44831836223602295 -0.030377646908164024
0.3201620578765869 0.4561018943786621 -0.018945183604955673
0.3026188611984253 0.503396213054657 0.02427726984024048
0.411722868680954 0.8483546376228333 0.08397926390171051
0.3167935907840729 0.4755377769470215 0.0077407946810126305
0.24368593096733093 0.48029690980911255 0.12727701663970947
0.2785249352455139 0.48540398478507996 0.04373389855027199
0.37106573581695557 0.6107251644134521 -0.015078820288181305
0.4598807096481323 0.7136939167976379 -0.033026840537786484
0.4639321565628052 0.7309460639953613 -0.016541339457035065
0.4233412444591522 0.710504949092865 -0.013668765313923359
0.40169817209243774 0.7080138325691223 0.0143318185582757
0.43676841259002686 0.7251299619674683 -0.0020034140907227993
0.4170253574848175 0.719984769821167 0.022545361891388893
0.37939929962158203 0.7419012784957886 0.07607486099004745
0.4710966646671295 0.6672548055648804 -0.12729859352111816
0.4684417247772217 0.6415479779243469 -0.1400783210992813
0.2875259518623352 0.42855823040008545 -0.02081768587231636
0.4235808253288269 0.5530611872673035 -0.0364958830177784
0.41369107365608215 0.6394063234329224 -0.06763684749603271
0.41346487402915955 0.6232163310050964 -0.06285704672336578
0.29972320795059204 0.5967227816581726 0.018185457214713097
0.47023501992225647 0.6063812375068665 -0.13300946354866028
0.3394354581832886 0.4086359739303589 -0.06962750107049942
0.30782362818717957 0.4134911894798279 -0.04815082624554634
0.2704530954360962 0.33090606331825256 0.02281867153942585
0.44275015592575073 0.43542563915252686 -0.09025529026985168
0.4095507264137268 0.4572984576225281 -0.03454762324690819
0.3584362864494324 0.7102435827255249 0.0718688890337944
0.2795078158378601 0.6980079412460327 0.263237327337265
0.4305013418197632 0.6542033553123474 -0.05552612990140915
0.4516858458518982 0.6655633449554443 -0.05496539920568466
0.37448644638061523 0.7092708349227905 0.07282079011201859
0.3863072991371155 0.713312029838562 0.0665038600564003
0.29607146978378296 0.3945971727371216 -0.041833292692899704
0.41222989559173584 0.6446543335914612 -0.051244914531707764
0.38312649726867676 0.41418078541755676 -0.08485473692417145
0.3788667321205139 0.39240729808807373 -0.09660108387470245
0.35755810141563416 0.27899643778800964 -0.08753864467144012
0.28383296728134155 0.36272644996643066 -0.0140994843095541
0.3710002303123474 0.334663987159729 -0.09404343366622925
0.27497267723083496 0.41394445300102234 -0.004415344912558794
0.2637002468109131 0.39439958333969116 0.03609801456332207
0.46144384145736694 0.7248530387878418 -0.0267803855240345
0.43076345324516296 0.7200474739074707 -0.007432086858898401
0.40940409898757935 0.7141443490982056 0.017443232238292694
0.43612921237945557 0.6579787135124207 -0.049651723355054855
0.3798474669456482 0.7107579112052917 0.06926523894071579
0.39496392011642456 0.7333424091339111 0.059482891112565994
0.3908596932888031 0.7147117257118225 0.06587142497301102
0.4440174996852875 0.6571452617645264 -0.09240520745515823
0.4216229021549225 0.7171778678894043 0.026072151958942413
0.4419831335544586 0.723374605178833 0.00800708681344986
0.46731460094451904 0.7297742962837219 -0.0056785461492836475
0.46116846799850464 0.8236358165740967 0.04033254086971283
0.46287524700164795 0.8034615516662598 0.014383340254426003
0.4638797342777252 0.7903032302856445 0.008145739324390888
0.4657778739929199 0.7786762714385986 0.010531346313655376
0.46841830015182495 0.7699674367904663 0.012114017270505428
0.4213709235191345 0.7470003366470337 0.04039172828197479
0.4170735776424408 0.749373197555542 0.03882300853729248
0.41176730394363403 0.754328727722168 0.03890353441238403
0.4079524874687195 0.7609632015228271 0.04614861682057381
0.38397639989852905 0.6893728971481323 0.01423574984073639
0.2534710466861725 0.5767565369606018 0.2579260468482971
0.49297890067100525 0.6817141175270081 -0.07938361167907715
0.4078337550163269 0.7348272800445557 0.05759960412979126
0.4009026288986206 0.7334911227226257 0.057028159499168396
0.46087586879730225 0.6775531768798828 -0.05096842348575592
0.419142484664917 0.656439483165741 -0.02892657183110714
0.4564518332481384 0.6721060276031494 -0.054296549409627914
0.3987511992454529 0.5628333687782288 -0.022853419184684753
0.35799115896224976 0.5749213695526123 -0.011304576881229877
0.4090677797794342 0.6298148036003113 -0.046094778925180435
0.3028913736343384 0.2993966042995453 -0.035069435834884644
0.3174840807914734 0.3415430784225464 -0.05661006271839142
0.3314184546470642 0.3865823447704315 -0.07228820025920868
0.400310218334198 0.7743469476699829 0.0667322650551796
0.4348749816417694 0.4012652635574341 -0.10867846757173538
0.4285176992416382 0.334749698638916 -0.11511919647455215
0.4200706481933594 0.26929140090942383 -0.11785787343978882
0.3311442732810974 0.4995660185813904 -0.0009903755271807313
0.279005765914917 0.517937421798706 0.042655639350414276
0.4293781518936157 0.49731120467185974 -0.0196053609251976
0.2989678382873535 0.46076905727386475 0.0023617057595402002
0.44030529260635376 0.5409625768661499 -0.04957406967878342
0.42902952432632446 0.6387026906013489 -0.0943426713347435
0.25653064250946045 0.5311208963394165 0.0758778303861618
0.29341310262680054 0.5353618264198303 0.02614768221974373
0.3223874568939209 0.5464760065078735 0.005963480100035667
0.3674086928367615 0.546916127204895 -0.007180273998528719
0.4010811746120453 0.5403358340263367 -0.016296403482556343
0.424430251121521 0.5321174263954163 -0.02731800638139248
0.47176966071128845 0.5144770741462708 -0.08780324459075928
0.2546940743923187 0.5802214741706848 0.08407754451036453
0.28190213441848755 0.4547627866268158 0.011372930370271206
0.47954440116882324 0.6781277060508728 -0.11275114119052887
0.42340853810310364 0.5803105235099792 -0.04090491309762001
0.24297019839286804 0.468604177236557 0.20362350344657898
0.44153645634651184 0.5221884846687317 -0.03594934567809105
0.4065994918346405 0.6265783905982971 -0.020505540072917938
0.3104565143585205 0.4763086438179016 0.013484209775924683
0.42898908257484436 0.618523120880127 -0.0888473317027092
0.262472927570343 0.6354898810386658 0.2658890187740326
0.42749157547950745 0.4887014627456665 -0.01670004241168499
0.4494648575782776 0.6107807755470276 -0.11615276336669922
0.32084572315216064 0.7690454125404358 0.15905983746051788
0.3307264447212219 0.7926528453826904 0.20625174045562744
0.24276623129844666 0.5818459391593933 0.17129704356193542
0.290005087852478 0.7334722280502319 0.17588971555233002
0.2528969943523407 0.4336034655570984 0.08685518801212311
0.41187557578086853 0.8712171316146851 0.10362149029970169
0.48280811309814453 0.6802216172218323 -0.07764164358377457
0.40130144357681274 0.5934770703315735 -0.026594828814268112
0.26117104291915894 0.4871681332588196 0.06841889768838882
0.3538445234298706 0.4918321371078491 -0.012637718580663204
0.37569376826286316 0.49367740750312805 -0.018757442012429237
0.3895089030265808 0.7343616485595703 0.0645359605550766
0.2567289471626282 0.628882646560669 0.10800709575414658
0.4528769254684448 0.9054957628250122 0.11484340578317642
0.3916049599647522 0.8600337505340576 0.1568933129310608
0.3651033043861389 0.8309770822525024 0.17958129942417145
0.49573659896850586 0.3362153470516205 -0.12311773002147675
0.4971148371696472 0.9127978086471558 0.1069914698600769
0.39558088779449463 0.49247750639915466 -0.02106281742453575
0.4137612283229828 0.48980727791786194 -0.019223706796765327
0.4238879084587097 0.48919931054115295 -0.016085956245660782
0.2670850157737732 0.44587835669517517 0.03376214951276779
0.4055261015892029 0.4688834249973297 -0.027377409860491753
0.384293794631958 0.4601203203201294 -0.03177123889327049
0.3626454472541809 0.45802611112594604 -0.02981823869049549
0.3411743640899658 0.4615604281425476 -0.022533336654305458
0.32851091027259827 0.4680960178375244 -0.012931659817695618
0.24341168999671936 0.41412895917892456 0.14655068516731262
0.3382696807384491 0.487564355134964 -0.005164526868611574
0.4958434998989105 0.6938220262527466 -0.04534066095948219
0.406913697719574 0.6844254732131958 -0.010899367742240429
0.42989271879196167 0.6535601019859314 -0.06720313429832458
0.45798057317733765 0.6909050941467285 -0.040260761976242065
0.4945722818374634 0.47222989797592163 -0.09073042869567871
0.35469600558280945 0.8057678937911987 0.14760933816432953
0.38308876752853394 0.837605893611908 0.12824709713459015
0.4500782787799835 0.8949527740478516 0.08203563839197159
0.30327874422073364 0.7512664794921875 0.23791390657424927
0.42036527395248413 0.481384813785553 -0.021364383399486542
0.45508092641830444 0.5565898418426514 -0.08329503983259201
0.4974035918712616 0.9025478363037109 0.07595427334308624
0.419159471988678 0.8867126703262329 0.1318294107913971
0.2503405213356018 0.6355172991752625 0.18467091023921967
0.4424227774143219 0.760278582572937 0.024765288457274437
0.43802011013031006 0.7659419775009155 0.023364068940281868
0.43453606963157654 0.7748209238052368 0.023594563826918602
0.43212419748306274 0.7868032455444336 0.03067048266530037
0.4261232912540436 0.8033168911933899 0.05289624631404877
0.39779555797576904 0.7143323421478271 0.04574922099709511
0.3903788626194 0.710131049156189 0.046532291918992996
0.3838110566139221 0.7054392695426941 0.04474981129169464
0.36503586173057556 0.6965412497520447 0.042810410261154175
0.28110024333000183 0.6466311812400818 0.06214635446667671
0.45656242966651917 0.526833713054657 -0.06708016246557236
0.4443182945251465 0.4733961820602417 -0.039190225303173065
0.4300772249698639 0.47568458318710327 -0.02848437987267971
0.40433600544929504 0.7128146886825562 0.04783369600772858
0.286983460187912 0.7016040086746216 0.11946330219507217
0.46395713090896606 0.4749003052711487 -0.07190794497728348
0.41851741075515747 0.8235063552856445 0.0692133903503418
0.49249908328056335 0.5730941295623779 -0.12610866129398346
0.4719582796096802 0.5469797849655151 -0.10523484647274017
0.49333858489990234 0.5429336428642273 -0.1124168112874031
0.43705880641937256 0.5937605500221252 -0.07300280779600143
0.4978635013103485 0.8813837766647339 0.05678806081414223
0.49855169653892517 0.8524011969566345 0.046710286289453506
0.45623862743377686 0.8466637134552002 0.054115839302539825
0.36720705032348633 0.7544875741004944 0.09030596911907196
0.38764825463294983 0.6424494981765747 -0.006104389205574989
0.39135897159576416 0.791393518447876 0.083534836769104
0.33018797636032104 0.6352187395095825 0.006035752594470978
0.36454859375953674 0.6623528003692627 0.01244360115379095
0.31162765622138977 0.6677370071411133 0.041742946952581406
0.45079004764556885 0.8743607401847839 0.06396924704313278
0.42259877920150757 0.6016971468925476 -0.05105751007795334
0.35446178913116455 0.7774202227592468 0.11516633629798889
0.384154349565506 0.8132266402244568 0.10478904843330383
0.3440170884132385 0.7191677689552307 0.08017101883888245
0.26579511165618896 0.6700333952903748 0.13058686256408691
0.31835460662841797 0.7281510233879089 0.1009451299905777
0.2653675675392151 0.6859503984451294 0.1921638399362564
0.34478509426116943 0.6817470788955688 0.03820039704442024
0.4397662878036499 0.5684886574745178 -0.06027897819876671
0.43609070777893066 0.6526802778244019 -0.0984092652797699
0.4203411638736725 0.649574875831604 -0.06890632957220078
0.4477337896823883 0.640475869178772 -0.11855675280094147
0.4247710704803467 0.45299893617630005 -0.05020815134048462
0.38584795594215393 0.4382607340812683 -0.055233102291822433
0.35181254148483276 0.43396660685539246 -0.05119992420077324
0.32429349422454834 0.435797780752182 -0.0385182686150074
0.3062834143638611 0.44429752230644226 -0.02131602354347706
0.29768726229667664 0.4810295104980469 0.0245733130723238
0.24094158411026 0.5309452414512634 0.15132196247577667
0.3153591752052307 0.5143391489982605 0.014562307856976986
0.3408152759075165 0.5232507586479187 0.0013945073587819934
0.3726998567581177 0.5251039862632751 -0.009128370322287083
0.4018591642379761 0.5215460658073425 -0.016143502667546272
0.4229429364204407 0.5157307982444763 -0.020696764811873436
0.4369826316833496 0.509995698928833 -0.02501295693218708
0.24841240048408508 0.5216151475906372 0.23827163875102997
0.4208154082298279 0.6517136693000793 -0.05537525564432144
0.4540413022041321 0.5831025242805481 -0.09633740037679672
0.45402422547340393 0.6604819893836975 -0.1166277602314949
0.46741819381713867 0.6710003614425659 -0.10346196591854095
0.4537293016910553 0.6618379950523376 -0.10412506014108658
0.42655158042907715 0.6571889519691467 -0.04486487805843353
0.47196483612060547 0.6752217411994934 -0.10940646380186081
0.4748379588127136 0.6769625544548035 -0.078573077917099
0.4354325830936432 0.4914267659187317 -0.020624829456210136
0.4480030834674835 0.49830421805381775 -0.03384619578719139
0.4547789692878723 0.5050025582313538 -0.04938918352127075
0.3214980363845825 0.472605437040329 -0.003596921917051077
0.3102625012397766 0.46409693360328674 -0.0030166718643158674
0.5130517482757568 0.5757140517234802 -0.11822453886270523
0.6708886623382568 0.48460811376571655 -0.011735684238374233
0.5174354910850525 0.6722073554992676 -0.08093763142824173
0.7597976922988892 0.3718326687812805 0.06268122792243958
0.5957183837890625 0.5076730251312256 -0.029181350022554398
0.6200233697891235 0.5089446902275085 -0.027777710929512978
0.6444833278656006 0.507325291633606 -0.022811951115727425
0.6801348328590393 0.49141770601272583 -0.005472318269312382
0.5764956474304199 0.5031995177268982 -0.027056854218244553
0.6362007856369019 0.4467615485191345 -0.05103912204504013
0.6087865233421326 0.4490850269794464 -0.05067857727408409
0.6611804962158203 0.4501601457595825 -0.04253777116537094
0.6774116158485413 0.4583388566970825 -0.03204848989844322
0.6977243423461914 0.5053660869598389 0.009809555485844612
0.5873302817344666 0.8509327173233032 0.07759708166122437
0.6817233562469482 0.4778543710708618 -0.005250845570117235
0.7669320106506348 0.48235857486724854 0.10798139125108719
0.7242346405982971 0.4875625967979431 0.028009455651044846
0.6244293451309204 0.6115936636924744 -0.023945286870002747
0.536614716053009 0.7139033079147339 -0.0358138382434845
0.5354586839675903 0.7311755418777466 -0.01948947086930275
0.5767703056335449 0.7110348343849182 -0.019009124487638474
0.6024079322814941 0.7084518671035767 0.0071462420746684074
0.5649438500404358 0.7254125475883484 -0.007288728840649128
0.5875564217567444 0.7199433445930481 0.015681900084018707
0.6277704238891602 0.7429247498512268 0.06660668551921844
0.5123069882392883 0.6675788760185242 -0.1282484084367752
0.5145570039749146 0.6418400406837463 -0.14120835065841675
0.71235191822052 0.4313724637031555 -0.03595902398228645
0.569678783416748 0.5538594722747803 -0.04214567691087723
0.5756285786628723 0.6402437090873718 -0.07251264154911041
0.576835036277771 0.6238424181938171 -0.0680728405714035
0.6990042328834534 0.5982934236526489 0.0037457935977727175
0.5137657523155212 0.6067109704017639 -0.13466419279575348
0.6554125547409058 0.41015249490737915 -0.08026399463415146
0.68944251537323 0.41586238145828247 -0.061712656170129776
0.7381879687309265 0.3311936855316162 0.005227995105087757
0.5474552512168884 0.4356168210506439 -0.09402777999639511
0.5855875611305237 0.4580119252204895 -0.04129667207598686
0.6494176387786865 0.711057186126709 0.0610010027885437
0.7327348589897156 0.7032604813575745 0.24555456638336182
0.5590166449546814 0.65516197681427 -0.0595647469162941
0.5374664068222046 0.6657912135124207 -0.05697234347462654
0.6352386474609375 0.7091867923736572 0.0629514753818512
0.6231862902641296 0.712944746017456 0.057538002729415894
0.702935516834259 0.39707547426223755 -0.056343987584114075
0.5786543488502502 0.6452207565307617 -0.0561719685792923
0.6090171933174133 0.4149664044380188 -0.09232030808925629
0.613520622253418 0.3929004967212677 -0.10401716828346252
0.6409221887588501 0.27832114696502686 -0.09726453572511673
0.7197862863540649 0.36399024724960327 -0.030019540339708328
0.6239491701126099 0.3347644507884979 -0.10262622684240341
0.726946234703064 0.41668349504470825 -0.02063828520476818
0.7431430220603943 0.3963521718978882 0.018283981829881668
0.5367551445960999 0.7251336574554443 -0.029413660988211632
0.5704143643379211 0.7204325199127197 -0.013053642585873604
0.595142126083374 0.7145169973373413 0.01024005375802517
0.5536792278289795 0.6585843563079834 -0.05268068611621857
0.6296698451042175 0.710508406162262 0.06010673940181732
0.613443911075592 0.7334050536155701 0.051403336226940155
0.6185176372528076 0.7143165469169617 0.056934379041194916
0.542328953742981 0.6585248708724976 -0.0957367941737175
0.5835171937942505 0.7167954444885254 0.019734390079975128
0.56048583984375 0.7233223915100098 0.0028539395425468683
0.5331541895866394 0.7298945188522339 -0.00878881849348545
0.5384054780006409 0.8241814374923706 0.03728528693318367
0.5385696291923523 0.8037000298500061 0.010741027072072029
0.5376701354980469 0.7906741499900818 0.004559642169624567
0.5360608100891113 0.7790497541427612 0.007054273039102554
0.5335903763771057 0.7704128623008728 0.008806606754660606
0.5851796865463257 0.7469919919967651 0.0339638851583004
0.5893990993499756 0.7493302822113037 0.03191714361310005
0.5946093797683716 0.7545636892318726 0.03209562599658966
0.5983355045318604 0.7612417936325073 0.03901613503694534
0.6166105270385742 0.6898477077484131 0.0063795712776482105
0.7620017528533936 0.5804515480995178 0.2381950318813324
0.6002360582351685 0.7345675230026245 0.049820564687252045
0.6072691679000854 0.7332483530044556 0.04910997301340103
0.5288642048835754 0.6775313019752502 -0.0528242364525795
0.5729723572731018 0.6564484238624573 -0.03291616961359978
0.5327930450439453 0.6721850633621216 -0.05630389600992203
0.5956560969352722 0.5636728405952454 -0.03065919317305088
0.6378671526908875 0.5759410858154297 -0.021784238517284393
0.58256596326828 0.6302656531333923 -0.05149901658296585
0.7006658315658569 0.2990105152130127 -0.049672890454530716
0.6819940209388733 0.342171311378479 -0.06942124664783478
0.6639617085456848 0.3879051208496094 -0.08382601290941238
0.6046242713928223 0.775458037853241 0.05869795009493828
0.5557153820991516 0.4012121260166168 -0.11235690116882324
0.5642615556716919 0.3347797095775604 -0.11919025331735611
0.5750740766525269 0.26878684759140015 -0.12275641411542892
0.6669623851776123 0.5014375448226929 -0.01361724454909563
0.7231320738792419 0.5200234055519104 0.02683151699602604
0.5650113224983215 0.4986342787742615 -0.025451354682445526
0.7010686993598938 0.46324998140335083 -0.012097269296646118
0.5518218874931335 0.5415056943893433 -0.054203812032938004
0.5577539205551147 0.6397693157196045 -0.09836055338382721
0.7481045722961426 0.5335839986801147 0.05793358385562897
0.7066149115562439 0.5372206568717957 0.01132381334900856
0.6759048104286194 0.5479254126548767 -0.007155351806432009
0.6289011836051941 0.5481425523757935 -0.01744850166141987
0.5939260721206665 0.5413831472396851 -0.023989912122488022
0.5696420073509216 0.5330153703689575 -0.033147525042295456
0.5176222324371338 0.5147270560264587 -0.08988667279481888
0.7485332489013672 0.582800567150116 0.06638284772634506
0.7197489738464355 0.45709723234176636 -0.004403066821396351
0.504869818687439 0.6784209609031677 -0.11353641748428345
0.5690063238143921 0.5809401869773865 -0.04618581011891365
0.7729594707489014 0.4703909158706665 0.1827409565448761
0.5514819622039795 0.522924542427063 -0.04050910845398903
0.5864338278770447 0.6268645524978638 -0.02588961459696293
0.6886864900588989 0.47863343358039856 -0.00028225252754054964
0.5589142441749573 0.6192641854286194 -0.09281295537948608
0.7518076300621033 0.6403509378433228 0.24735945463180542
0.5673003196716309 0.49018168449401855 -0.022645223885774612
0.5361641049385071 0.6112842559814453 -0.11898372322320938
0.6850441694259644 0.7741380333900452 0.14538715779781342
0.6763207316398621 0.7985191345214844 0.19300250709056854
0.7662625312805176 0.5852875113487244 0.15203425288200378
0.7173588871955872 0.7386022806167603 0.16023971140384674
0.7560331225395203 0.43530336022377014 0.06830231845378876
0.5862845182418823 0.8743470907211304 0.09727337211370468
0.5030965805053711 0.6803258657455444 -0.07815875858068466
0.5925238728523254 0.5940176844596863 -0.03323440998792648
0.7443166971206665 0.48941564559936523 0.051198169589042664
0.64263916015625 0.4937700927257538 -0.023494169116020203
0.6203123331069946 0.49566376209259033 -0.02835026942193508
0.619001567363739 0.7344777584075928 0.05587374046444893
0.7471001744270325 0.6320053339004517 0.09023632109165192
0.5424348711967468 0.9073904156684875 0.11104799807071686
0.6090059280395508 0.8645575642585754 0.14812861382961273
0.6387543678283691 0.8365808129310608 0.16862720251083374
0.600123405456543 0.4944130480289459 -0.02941027656197548
0.5813897252082825 0.491376668214798 -0.026396874338388443
0.5709884166717529 0.49073880910873413 -0.022617744281888008
0.7370468378067017 0.4481149911880493 0.016625838354229927
0.5902389287948608 0.47000807523727417 -0.03509986400604248
0.6121385097503662 0.4611641466617584 -0.040705129504203796
0.6339255571365356 0.4593691825866699 -0.040414657443761826
0.6555787324905396 0.4632496237754822 -0.03394542634487152
0.6689406633377075 0.46998023986816406 -0.025552934035658836
0.7705968022346497 0.415255069732666 0.12595264613628387
0.6588937044143677 0.48962026834487915 -0.017265602946281433
0.5892420411109924 0.684573769569397 -0.016766004264354706
0.5586471557617188 0.654744029045105 -0.07064754515886307
0.5349841713905334 0.691017210483551 -0.04272117465734482
0.6492117047309875 0.810555100440979 0.13646896183490753
0.6180661916732788 0.8418564200401306 0.11934066563844681
0.5456504821777344 0.8967430591583252 0.07824661582708359
0.7061718702316284 0.756807267665863 0.22181899845600128
0.5745522975921631 0.4827306866645813 -0.028132738545536995
0.5339874029159546 0.5570470690727234 -0.08621662855148315
0.5782415270805359 0.889877200126648 0.12506689131259918
0.7583540081977844 0.6396086812019348 0.16614121198654175
0.5615828633308411 0.7606965899467468 0.019275428727269173
0.5659763216972351 0.7663251161575317 0.017800619825720787
0.5693209171295166 0.7751354575157166 0.017716098576784134
0.5714260339736938 0.7870701551437378 0.024703143164515495
0.5760515928268433 0.8040663599967957 0.04653891548514366
0.6101359128952026 0.7141504883766174 0.037507303059101105
0.6173287034034729 0.7102200984954834 0.03741632029414177
0.6238221526145935 0.7058072686195374 0.03583206236362457
0.639880895614624 0.6969554424285889 0.03311993554234505
0.7205343246459961 0.6492807269096375 0.04613016918301582
0.5341973304748535 0.5272344350814819 -0.07058706879615784
0.5487834215164185 0.4739528298377991 -0.04313524812459946
0.5642073750495911 0.4766290783882141 -0.03379249945282936
0.6037550568580627 0.7122753858566284 0.03984532132744789
0.7183095812797546 0.7052966952323914 0.10401857644319534
0.5268317461013794 0.47511738538742065 -0.07434273511171341
0.5823380947113037 0.8250739574432373 0.06308362632989883
0.5155987739562988 0.5472774505615234 -0.10678649693727493
0.5525058507919312 0.5941031575202942 -0.07696851342916489
0.5421764254570007 0.8476663827896118 0.05091768503189087
0.6380937695503235 0.7569496035575867 0.07985438406467438
0.6079273223876953 0.6427781581878662 -0.01351362094283104
0.612055242061615 0.7937922477722168 0.07513748109340668
0.6679500937461853 0.6366453170776367 -0.005739426705986261
0.6347572207450867 0.6632629036903381 0.00324029172770679
0.6896608471870422 0.6697723269462585 0.028297478333115578
0.5460803508758545 0.8757134675979614 0.060227103531360626
0.5687443614006042 0.602211594581604 -0.05583919957280159
0.6496282815933228 0.7809966802597046 0.10385085642337799
0.618049681186676 0.816547691822052 0.09624162316322327
0.6617047190666199 0.7211838960647583 0.067506343126297
0.7396661043167114 0.6737954020500183 0.11365716904401779
0.6865698099136353 0.7317039966583252 0.08704518526792526
0.7431476712226868 0.6906073093414307 0.17417214810848236
0.6584813594818115 0.6829414963722229 0.026422319933772087
0.550905704498291 0.5689738392829895 -0.06480768322944641
0.550175130367279 0.6539955735206604 -0.10208091884851456
0.5687592029571533 0.6505650281906128 -0.0729832574725151
0.5369765162467957 0.6413412690162659 -0.12176699936389923
0.5682297348976135 0.45357730984687805 -0.05581581965088844
0.6080137491226196 0.4393593668937683 -0.06324714422225952
0.6431821584701538 0.43535929918289185 -0.06156354770064354
0.6722701787948608 0.43786439299583435 -0.05100059136748314
0.6919924020767212 0.4467375874519348 -0.035090718418359756
0.7034521102905273 0.4833402931690216 0.00990893505513668
0.7689523100852966 0.5337656140327454 0.13162903487682343
0.6836434602737427 0.5162066221237183 0.0008116685203276575
0.6571038961410522 0.5249119997024536 -0.010717936791479588
0.6241810917854309 0.5267555713653564 -0.019085152074694633
0.593853235244751 0.5228520631790161 -0.023999566212296486
0.5718873143196106 0.5168419480323792 -0.026597682386636734
0.5570021867752075 0.5109182596206665 -0.029803715646266937
0.7677783966064453 0.5242063999176025 0.21740198135375977
0.5693119764328003 0.652572751045227 -0.05949915573000908
0.5333094596862793 0.5834757685661316 -0.09928643703460693
0.5304890275001526 0.6615289449691772 -0.118792325258255
0.5177919864654541 0.671669065952301 -0.10488327592611313
0.531629204750061 0.6629553437232971 -0.1063656434416771
0.5641160011291504 0.6576434373855591 -0.048295341432094574
0.5128962993621826 0.6756677031517029 -0.11049630492925644
0.5115214586257935 0.6772530674934387 -0.07949594408273697
0.5586402416229248 0.4925270676612854 -0.025387657806277275
0.5453737378120422 0.4990523159503937 -0.03743908554315567
0.5376352667808533 0.5053994655609131 -0.05239104852080345
0.6765003800392151 0.4746682643890381 -0.0165169145911932
0.6884114146232605 0.46642327308654785 -0.01690373755991459
