ply
format ascii 1.0
element vertex 468
property float x
property float y
property float z
end_header
0.54114830493927 0.7253434658050537 -0.054352983832359314
0.5652143359184265 0.6417078971862793 -0.11708307266235352
0.5399913191795349 0.6660293936729431 -0.05624599754810333
0.5321890115737915 0.5552201271057129 -0.10576124489307404
0.5684595108032227 0.6153944730758667 -0.12714599072933197
0.5619487166404724 0.5802844762802124 -0.12115668505430222
0.5373644828796387 0.4920805096626282 -0.0709875226020813
0.32255661487579346 0.48126715421676636 -0.05703238770365715
0.5321466326713562 0.4164755940437317 -0.06360035389661789
0.5358216166496277 0.3779163956642151 -0.07330556213855743
0.5283421277999878 0.2398255467414856 -0.0659538060426712
0.5395832061767578 0.7379701733589172 -0.050572652369737625
0.535577654838562 0.7471926212310791 -0.04160602390766144
0.5301487445831299 0.750835120677948 -0.030469302088022232
0.5307702422142029 0.756987452507019 -0.023958910256624222
0.5323063135147095 0.7681326270103455 -0.02597794309258461
0.5321487188339233 0.7821216583251953 -0.02813815139234066
0.5287235379219055 0.7961412668228149 -0.021460363641381264
0.5152972340583801 0.8153916001319885 0.005093875806778669
0.5575839877128601 0.6543525457382202 -0.1043926328420639
0.5272895097732544 0.6539145112037659 -0.08100572228431702
0.16624033451080322 0.3551698923110962 0.0009801960550248623
0.4032478332519531 0.5071035623550415 -0.0536838062107563
0.3764159679412842 0.5099712610244751 -0.06067861244082451
0.348979651927948 0.5078539252281189 -0.06264551728963852
0.3076108396053314 0.489055871963501 -0.05582473799586296
0.4257102310657501 0.4990289807319641 -0.04096595570445061
0.3712882399559021 0.4273236393928528 -0.08009409159421921
0.3999897241592407 0.43025273084640503 -0.06835711747407913
0.34231820702552795 0.43092459440231323 -0.07980217039585114
0.320854127407074 0.44116783142089844 -0.07513629645109177
0.2815784811973572 0.5064005851745605 -0.04790402203798294
0.415327787399292 0.8586200475692749 -0.00041928989230655134
0.31016266345977783 0.4723024368286133 -0.05290219187736511
0.15840749442577362 0.481928288936615 0.022644110023975372
0.24254640936851501 0.4831148684024811 -0.036898113787174225
0.39702996611595154 0.6183788180351257 -0.059165794402360916
0.5140360593795776 0.7236444354057312 -0.06269162148237228
0.5115458965301514 0.7487335801124573 -0.04868006333708763
0.4802429676055908 0.7339276075363159 -0.061594340950250626
0.45457133650779724 0.7440187931060791 -0.05413459241390228
0.48703935742378235 0.7520765662193298 -0.05055145546793938
0.46564847230911255 0.7546975016593933 -0.042581215500831604
0.40602943301200867 0.7816677093505859 -0.02279610000550747
0.5452781319618225 0.6418547630310059 -0.12172065675258636
0.5449464917182922 0.6166275143623352 -0.13196435570716858
0.27572157979011536 0.40759387612342834 -0.08390530943870544
0.446245402097702 0.5494691133499146 -0.054217249155044556
0.46827590465545654 0.6350594758987427 -0.08906415104866028
0.4619390368461609 0.6198678016662598 -0.08441562950611115
0.30316540598869324 0.6166998147964478 -0.061486225575208664
0.5394766330718994 0.5834990739822388 -0.12375383824110031
0.3575076162815094 0.37725794315338135 -0.0998661071062088
0.3127705156803131 0.3863181471824646 -0.0952734425663948
0.21526280045509338 0.30622392892837524 -0.03941735997796059
0.4773388206958771 0.4082725942134857 -0.0780508816242218
0.4235578775405884 0.4411083459854126 -0.052409566938877106
0.38844385743141174 0.7597553730010986 -0.029924670234322548
0.157194584608078 0.7357381582260132 0.12581950426101685
0.48489853739738464 0.649458646774292 -0.07185825705528259
0.5051921010017395 0.657212495803833 -0.06097128614783287
0.420803427696228 0.7583273649215698 -0.02679218165576458
0.43084150552749634 0.7565217614173889 -0.027947653084993362
0.29258283972740173 0.3654487729072571 -0.09221060574054718
0.46224525570869446 0.6457560658454895 -0.07442682236433029
0.4120882451534271 0.38339826464653015 -0.09465710073709488
0.4095526337623596 0.3592885136604309 -0.10342724621295929
0.366519570350647 0.2473103106021881 -0.0938781127333641
0.2561693787574768 0.33646920323371887 -0.07138518989086151
0.39364945888519287 0.3031248152256012 -0.10048336535692215
0.250497967004776 0.39304739236831665 -0.07194054126739502
0.20976699888706207 0.37652385234832764 -0.03897784277796745
0.5134841799736023 0.7386530637741089 -0.05905619263648987
0.48555484414100647 0.7451266646385193 -0.05741223692893982
0.46151626110076904 0.7497731447219849 -0.050198331475257874
0.48971492052078247 0.6540021896362305 -0.06197507306933403
0.4267411231994629 0.7577729225158691 -0.02695615030825138
0.43955665826797485 0.7618246674537659 -0.03242431953549385
0.43172702193260193 0.7550268173217773 -0.027416370809078217
0.5068309307098389 0.6417924165725708 -0.10237281024456024
0.46588099002838135 0.7524165511131287 -0.03704466670751572
0.48651501536369324 0.7521417140960693 -0.03958632051944733
0.508658230304718 0.7516486644744873 -0.038478441536426544
0.4855678379535675 0.8172718286514282 -0.0042798868380486965
0.50071781873703 0.7960895299911499 -0.03183417767286301
0.5055314898490906 0.7812703251838684 -0.03737051784992218
0.5074805021286011 0.7673788070678711 -0.03519408032298088
0.5078245401382446 0.7579129934310913 -0.03210302069783211
0.4622705280780792 0.757431149482727 -0.03294143080711365
0.46001410484313965 0.7608612775802612 -0.036023978143930435
0.4553351402282715 0.7679355144500732 -0.03893392160534859
0.449209064245224 0.7765506505966187 -0.03633182495832443
0.42912378907203674 0.7153044939041138 -0.0538405105471611
0.12125319242477417 0.5983479022979736 0.13226957619190216
0.5487498641014099 0.6592258214950562 -0.07363370060920715
0.4473097622394562 0.7569109201431274 -0.02983490563929081
0.44471120834350586 0.7585378885269165 -0.03197663649916649
0.512465238571167 0.6680334806442261 -0.06021568179130554
0.46646058559417725 0.6612563729286194 -0.04978524520993233
0.5091814994812012 0.6629377603530884 -0.06066613644361496
0.4169280529022217 0.5649079084396362 -0.05459140986204147
0.37351033091545105 0.5841050148010254 -0.059405431151390076
0.4536430835723877 0.6308839321136475 -0.0710800290107727
0.2806296646595001 0.2692592144012451 -0.07320313900709152
0.31512707471847534 0.3099885880947113 -0.09145325422286987
0.3468431532382965 0.35322174429893494 -0.10315822809934616
0.42732638120651245 0.7966874837875366 -0.022649671882390976
0.47408920526504517 0.3702846169471741 -0.09326700866222382
0.46355000138282776 0.3064885437488556 -0.09442626684904099
0.4462881088256836 0.2390553057193756 -0.09027855843305588
0.3230881690979004 0.5013145208358765 -0.06020394712686539
0.24758830666542053 0.525532603263855 -0.04214715212583542
0.4404296875 0.49127376079559326 -0.03523658215999603
0.28414079546928406 0.44943779706954956 -0.0654970183968544
0.46751078963279724 0.5326714515686035 -0.05809169262647629
0.490937203168869 0.6258457899093628 -0.10701362788677216
0.2073846012353897 0.542549729347229 -0.026006806641817093
0.27485597133636475 0.5473849773406982 -0.055597223341464996
0.3184256851673126 0.5587576627731323 -0.062894307076931
0.37371140718460083 0.5539019107818604 -0.05526932328939438
0.4109683334827423 0.5418958067893982 -0.04859442636370659
0.4393666386604309 0.5291240811347961 -0.04555827006697655
0.51237952709198 0.498722642660141 -0.07241591811180115
0.2140766829252243 0.6027243733406067 -0.025459442287683487
0.25576865673065186 0.4427865743637085 -0.06323278695344925
0.5458962917327881 0.6540526747703552 -0.1082836464047432
0.4548090398311615 0.5765983462333679 -0.060008615255355835
0.11875644326210022 0.472597599029541 0.09509742259979248
0.46203428506851196 0.5149409770965576 -0.04393978789448738
0.44428545236587524 0.6316115260124207 -0.04816124215722084
0.2977209985256195 0.47113704681396484 -0.05180003494024277
0.4839562773704529 0.6075060367584229 -0.10034734010696411
0.1314631700515747 0.6659155488014221 0.13429488241672516
0.4384572505950928 0.48184871673583984 -0.033066947013139725
0.512397289276123 0.5928148031234741 -0.11684583127498627
0.27007585763931274 0.807335615158081 0.032597094774246216
0.24952928721904755 0.8319227695465088 0.0782737284898758
0.15652738511562347 0.6030105352401733 0.04909873753786087
0.22223973274230957 0.7714585065841675 0.04521811380982399
0.18070873618125916 0.4251067638397217 -0.0034116702154278755
0.4030144214630127 0.8816888332366943 0.013772985897958279
0.5402210354804993 0.6585926413536072 -0.07525279372930527
0.42888695001602173 0.5960384607315063 -0.05615021660923958
0.20890220999717712 0.4864733815193176 -0.022852394729852676
0.35391274094581604 0.4931725263595581 -0.061894167214632034
0.3782401382923126 0.49589934945106506 -0.06012566387653351
0.431980162858963 0.7668886780738831 -0.030926711857318878
0.21577492356300354 0.657542884349823 -0.007575945928692818
0.44017988443374634 0.9084851741790771 0.0421423465013504
0.3512563705444336 0.8835740089416504 0.05087367445230484
0.30617591738700867 0.8639845252037048 0.06130431592464447
0.5343589782714844 0.31003624200820923 -0.07280316203832626
0.4874270558357239 0.9076535105705261 0.056050121784210205
0.39992931485176086 0.4934455454349518 -0.05300622805953026
0.41996511816978455 0.48775461316108704 -0.04358641058206558
0.432403564453125 0.4843214154243469 -0.03531678020954132
0.22548359632492065 0.4345311224460602 -0.04715217649936676
0.4165768027305603 0.46417492628097534 -0.05163012072443962
0.3930032551288605 0.45691585540771484 -0.0620565302670002
0.37079477310180664 0.4558757543563843 -0.06884140521287918
0.34706273674964905 0.45948725938796997 -0.06973260641098022
0.33084848523139954 0.4649541974067688 -0.06642097979784012
0.1357991099357605 0.407456636428833 0.05131262168288231
0.3362281024456024 0.4877158999443054 -0.05998346954584122
0.5386252999305725 0.6850617527961731 -0.04974200576543808
0.4552680253982544 0.6994738578796387 -0.05613319203257561
0.4874781370162964 0.6458004117012024 -0.07993966341018677
0.5086714625358582 0.6898317933082581 -0.059437163174152374
0.5296117067337036 0.4534290134906769 -0.059289466589689255
0.31635570526123047 0.8388775587081909 0.028860025107860565
0.35829511284828186 0.8613291382789612 0.023083215579390526
0.4512549340724945 0.8952243328094482 0.011179294437170029
0.1994628608226776 0.7918239831924438 0.10408315807580948
0.43237921595573425 0.47499653697013855 -0.040805522352457047
0.49935048818588257 0.5419986248016357 -0.08084384351968765
0.500083327293396 0.8939486742019653 0.02550138346850872
0.3965362012386322 0.8992127180099487 0.03996731713414192
0.1636146754026413 0.6639981865882874 0.05740092322230339
0.48436373472213745 0.7576934099197388 -0.03431173041462898
0.48196882009506226 0.7645907402038574 -0.03822304308414459
0.47854459285736084 0.775162935256958 -0.04179159551858902
0.4735528230667114 0.7886287569999695 -0.03786144033074379
0.45406800508499146 0.8093019723892212 -0.018805691972374916
0.445317804813385 0.7559980154037476 -0.035745684057474136
0.4397781193256378 0.7543509006500244 -0.039671391248703
0.4328571856021881 0.7508333325386047 -0.04276684299111366
0.4055366516113281 0.7361394166946411 -0.04666488617658615
0.2708079218864441 0.6742465496063232 -0.03693237155675888
0.49033623933792114 0.5139356255531311 -0.06358800083398819
0.4637511670589447 0.4589555859565735 -0.039153218269348145
0.4449760913848877 0.46350669860839844 -0.03964139521121979
0.44760623574256897 0.7524219155311584 -0.03183586895465851
0.25536972284317017 0.736844539642334 0.002225235104560852
0.4936886429786682 0.4575100243091583 -0.05815159156918526
0.43215212225914 0.8340562582015991 -0.007021368946880102
0.5535149574279785 0.5508610606193542 -0.10370180010795593
0.5222986936569214 0.5289157629013062 -0.09033512324094772
0.5458784699440002 0.5230766534805298 -0.087046317756176
0.48179900646209717 0.583756148815155 -0.08137676864862442
0.5079237818717957 0.8710026144981384 0.010063407942652702
0.5115424394607544 0.8415184020996094 0.007377805188298225
0.47340118885040283 0.8439190983772278 -0.0023271730169653893
0.37241441011428833 0.7939647436141968 -0.014433509670197964
0.4203985929489136 0.6533626317977905 -0.04790220037102699
0.3988919258117676 0.8176621198654175 -0.010053127072751522
0.35180234909057617 0.6518120169639587 -0.05977090448141098
0.39482593536376953 0.6814805269241333 -0.051476478576660156
0.3212084472179413 0.6953813433647156 -0.047235917299985886
0.4620940685272217 0.8729325532913208 -0.0025326190516352654
0.46078285574913025 0.5977164506912231 -0.06870751827955246
0.33862361311912537 0.8127301931381226 0.0023512616753578186
0.3765172064304352 0.837503969669342 0.005509485956281424
0.3528144359588623 0.7640038728713989 -0.026313671842217445
0.21942265331745148 0.7032245397567749 0.009813865646719933
0.30396661162376404 0.7672368288040161 -0.012650890275835991
0.1811094433069229 0.7199507355690002 0.05932942405343056
0.3702954053878784 0.7175776958465576 -0.04631885141134262
0.47681304812431335 0.5588263869285583 -0.06967618316411972
0.5005685091018677 0.6377995610237122 -0.10888590663671494
0.4772382974624634 0.6439127922058105 -0.0864129364490509
0.5178020596504211 0.6201451420783997 -0.12123072892427444
0.4461625814437866 0.4324007034301758 -0.057397808879613876
0.40562278032302856 0.41430866718292236 -0.07566940039396286
0.3680414855480194 0.40952128171920776 -0.08643407374620438
0.3329920172691345 0.41347479820251465 -0.08758167922496796
0.3039887845516205 0.42626655101776123 -0.08060412853956223
0.2739771604537964 0.4770854413509369 -0.04675953835248947
0.15410250425338745 0.5425166487693787 0.03495592996478081
0.30120617151260376 0.5197539329528809 -0.05403923615813255
0.3341194689273834 0.529045581817627 -0.05690056458115578
0.3726719319820404 0.5294615030288696 -0.054030466824769974
0.4065743684768677 0.5226662158966064 -0.0482235923409462
0.43264779448509216 0.5128390192985535 -0.03873031213879585
0.4511304199695587 0.5038853287696838 -0.035540930926799774
0.11746445298194885 0.5349273085594177 0.12018013000488281
0.47392940521240234 0.650212287902832 -0.07369066029787064
0.5073339939117432 0.5669164061546326 -0.09601316601037979
0.5246147513389587 0.6390421986579895 -0.11837004870176315
0.5308573246002197 0.6507278680801392 -0.10230212658643723
0.5195168256759644 0.6429215669631958 -0.10737871378660202
0.47793617844581604 0.6575930118560791 -0.060923390090465546
0.5374325513839722 0.6527599692344666 -0.10645799338817596
0.5326711535453796 0.6575132608413696 -0.078171506524086
0.4497643709182739 0.4824284315109253 -0.03006335347890854
0.46615633368492126 0.4885559678077698 -0.03528266027569771
0.4795118570327759 0.4935738444328308 -0.04546600952744484
0.32031092047691345 0.4689103364944458 -0.06083926931023598
0.30291837453842163 0.4530564546585083 -0.0650707334280014
0.5691578388214111 0.5541137456893921 -0.08570266515016556
0.6577867269515991 0.47658291459083557 0.09135553240776062
0.564142107963562 0.6510499715805054 -0.06559666991233826
0.6942119598388672 0.36235421895980835 0.2290676087141037
0.596388578414917 0.5049411058425903 0.040752023458480835
0.6190077066421509 0.5064589381217957 0.053155332803726196
0.6389970183372498 0.502884566783905 0.06917595118284225
0.6593179702758789 0.483672559261322 0.10089030116796494
0.5793161988258362 0.49794408679008484 0.03320593759417534
0.6337013840675354 0.4291074872016907 0.03970279544591904
0.6093123555183411 0.4331212043762207 0.025603927671909332
0.6540631055831909 0.43161314725875854 0.058771323412656784
0.6648072004318237 0.44077742099761963 0.07513952255249023
0.6715424060821533 0.49937903881073 0.12048709392547607
0.5691441297531128 0.8414590358734131 0.06597121804952621
0.6620534658432007 0.4683545231819153 0.10234395414590836
0.6876152753829956 0.47624528408050537 0.25566336512565613
0.6831789016723633 0.4763641655445099 0.1530846208333969
0.6217499375343323 0.6100505590438843 0.03352450951933861
0.5632167458534241 0.7202680110931396 -0.03993083909153938
0.5531588196754456 0.7454938888549805 -0.028549328446388245
0.5800697803497314 0.7254851460456848 -0.014201092533767223
0.5879025459289551 0.7337486743927002 0.010835577733814716
0.5647749304771423 0.7454549670219421 -0.010479810647666454
0.5728607177734375 0.7463839054107666 0.011127777397632599
0.5940052270889282 0.7669411301612854 0.061298616230487823
0.5800741314888 0.6399044990539551 -0.10854754596948624
0.5854239463806152 0.6149824857711792 -0.11665745824575424
0.6951543092727661 0.40741315484046936 0.09491215646266937
0.5812055468559265 0.5462556481361389 0.006617330480366945
0.5992690324783325 0.6279782056808472 -0.03140860050916672
0.5967557430267334 0.6135234832763672 -0.025054246187210083
0.6734546422958374 0.603369951248169 0.09399020671844482
0.5784285068511963 0.5821868181228638 -0.10419784486293793
0.6673212051391602 0.3813169598579407 0.023468228057026863
0.6872904300689697 0.3886803388595581 0.059606242924928665
0.6948117017745972 0.31585466861724854 0.16550292074680328
0.5800879597663879 0.4095606207847595 -0.03752953186631203
0.5875202417373657 0.4438862204551697 0.023791929706931114
0.6106454730033875 0.7441430687904358 0.07252413779497147
0.6229493618011475 0.7082307934761047 0.3373381793498993
0.5827338695526123 0.6430021524429321 -0.02933662384748459
0.567141592502594 0.652778148651123 -0.0399862565100193
0.5905312299728394 0.7466980218887329 0.06106547638773918
0.5809201598167419 0.7460163831710815 0.04840103164315224
0.6958547830581665 0.36870819330215454 0.07336042821407318
0.5929750204086304 0.6385418772697449 -0.01829717494547367
0.63397216796875 0.3862091898918152 -0.010007256641983986
0.6406396627426147 0.3628767430782318 -0.016070613637566566
0.64662766456604 0.2555796504020691 0.024035152047872543
0.6973082423210144 0.3421664834022522 0.11203230172395706
0.6439931392669678 0.30880457162857056 0.00125257414765656
0.7015596628189087 0.3940083980560303 0.11946215480566025
0.6998681426048279 0.3801880478858948 0.16932235658168793
0.5596565008163452 0.7350775003433228 -0.036587826907634735
0.5730547904968262 0.7376779317855835 -0.013467589393258095
0.5814731121063232 0.7404783964157104 0.008441406302154064
0.5758995413780212 0.6480041146278381 -0.026981869712471962
0.5858659148216248 0.7467942833900452 0.053602445870637894
0.5820516347885132 0.7516813278198242 0.035009048879146576
0.577739417552948 0.7445454597473145 0.04684276506304741
0.5861626863479614 0.6360016465187073 -0.0629744827747345
0.565019965171814 0.7453069090843201 0.013612128794193268
0.5561585426330566 0.7468673586845398 -0.0024537399876862764
0.5452081561088562 0.7489410638809204 -0.018109049648046494
0.5395910143852234 0.8120090961456299 0.015218458138406277
0.5513095259666443 0.7914916276931763 -0.010534103959798813
0.5534483790397644 0.777092695236206 -0.01573174074292183
0.5517294406890869 0.7639309763908386 -0.013305015861988068
0.5479183197021484 0.7549958229064941 -0.011410596780478954
0.5685182213783264 0.749737024307251 0.018011968582868576
0.5724557638168335 0.7526017427444458 0.014965430833399296
0.577060341835022 0.7585285902023315 0.013696852140128613
0.5797342658042908 0.766165554523468 0.02124590054154396
0.6048480272293091 0.7043660879135132 0.022295640781521797
0.6451603174209595 0.583257794380188 0.3689011335372925
0.5723170638084412 0.7483702898025513 0.034574929624795914
0.5772747993469238 0.7492290735244751 0.0330502949655056
0.5610819458961487 0.66434246301651 -0.03955043479800224
0.5821516513824463 0.6542930006980896 -0.005767702125012875
0.5641028881072998 0.6589716076850891 -0.040617670863866806
0.5994406938552856 0.5601251125335693 0.027142103761434555
0.6331110596656799 0.5763230323791504 0.050751008093357086
0.5945922136306763 0.6240712404251099 -0.010177930817008018
0.6812705993652344 0.27938082814216614 0.0939541608095169
0.6803591251373291 0.31679195165634155 0.056573234498500824
0.6754250526428223 0.35783955454826355 0.027939001098275185
0.5804706811904907 0.7833321690559387 0.0458623543381691
0.5927116870880127 0.37282001972198486 -0.0485769659280777
0.5964601039886475 0.3093537390232086 -0.0410039983689785
0.5973768830299377 0.24395126104354858 -0.030688071623444557
0.6530927419662476 0.4955953061580658 0.08728285878896713
0.6862813830375671 0.5163167715072632 0.14490868151187897
0.569188117980957 0.49071747064590454 0.03112015873193741
0.6784894466400146 0.44627323746681213 0.10721412301063538
0.5709394216537476 0.5305863618850708 -0.009258762001991272
0.5980545282363892 0.6203725337982178 -0.06006379798054695
0.6959248781204224 0.5312196016311646 0.18631137907505035
0.681833028793335 0.5375947952270508 0.11956479400396347
0.6628921627998352 0.5500220656394958 0.08479370176792145
0.6259657144546509 0.5479754209518433 0.05661837384104729
0.5972318053245544 0.5380221009254456 0.036419577896595
0.5775979161262512 0.5265973210334778 0.018332507461309433
0.554648220539093 0.49829477071762085 -0.05149393156170845
0.6959229111671448 0.5867789387702942 0.1849300116300583
0.6893270611763 0.4392244219779968 0.1260930746793747
0.5666969418525696 0.6528959274291992 -0.09800376743078232
0.5825756192207336 0.5727388858795166 -0.0010364055633544922
0.6661112904548645 0.4700382649898529 0.3394728899002075
0.5648449659347534 0.5134689211845398 0.00603147316724062
0.5894955396652222 0.62473064661026 0.01205279491841793
0.6655998229980469 0.46720439195632935 0.11143246293067932
0.5932989120483398 0.6027775406837463 -0.05292167142033577
0.6361854672431946 0.6442064642906189 0.3610897958278656
0.5677070021629333 0.4809574484825134 0.03676823899149895
0.587908923625946 0.5899903774261475 -0.08229351788759232
0.6229903101921082 0.7780213356018066 0.18812896311283112
0.6003568172454834 0.8007677793502808 0.2374056726694107
0.6813691854476929 0.5864839553833008 0.28040555119514465
0.6411137580871582 0.7425402402877808 0.22902105748653412
0.6939424872398376 0.4250422418117523 0.21940061450004578
0.5645768046379089 0.8624410033226013 0.08688918501138687
0.5560126304626465 0.6577767729759216 -0.06898695975542068
0.5959534645080566 0.5903659462928772 0.016335677355527878
0.6899340152740479 0.4791390299797058 0.18665921688079834
0.6407657861709595 0.48928067088127136 0.06808144599199295
0.6213006973266602 0.4933364987373352 0.054519474506378174
0.5856406688690186 0.7557159066200256 0.04235539957880974
0.6852316856384277 0.6376765370368958 0.19362346827983856
0.525970995426178 0.8974895477294922 0.08227291703224182
0.5655879974365234 0.8582233190536499 0.15337598323822021
0.5809373259544373 0.8346419334411621 0.19030378758907318
0.601256251335144 0.49194422364234924 0.04434426501393318
0.5837805271148682 0.48687857389450073 0.039822280406951904
0.573009192943573 0.48362061381340027 0.03980641067028046
0.6952436566352844 0.4319498538970947 0.15627555549144745
0.5854820013046265 0.46398550271987915 0.0341358482837677
0.604148268699646 0.45686060190200806 0.03755524381995201
0.625095009803772 0.45402956008911133 0.04774373397231102
0.6442059278488159 0.4563078284263611 0.06260848790407181
0.654242217540741 0.4614562392234802 0.07596200704574585
0.6845525503158569 0.410805344581604 0.2907177805900574
0.6516714692115784 0.48294976353645325 0.08131282776594162
0.5916002988815308 0.6907070279121399 0.0017955295043066144
0.5872421860694885 0.6392763257026672 -0.03927617520093918
0.5637914538383484 0.6859250068664551 -0.03569584712386131
0.6010589003562927 0.8105239868164062 0.15420588850975037
0.5821310877799988 0.8359697461128235 0.12190068513154984
0.5393329858779907 0.8843240737915039 0.0502321794629097
0.6115217208862305 0.7613091468811035 0.2923555076122284
0.5736923813819885 0.47384876012802124 0.03572409227490425
0.5708601474761963 0.540385901927948 -0.04729503393173218
0.5495726466178894 0.8798508644104004 0.11535947024822235
0.67039555311203 0.6420061588287354 0.2781636714935303
0.5607835650444031 0.7522076964378357 0.0034026510547846556
0.5648260116577148 0.7581213712692261 0.0006761855911463499
0.5681576132774353 0.7678267955780029 -0.000831390090752393
0.5686401128768921 0.7803335189819336 0.005275113042443991
0.562663197517395 0.7992547750473022 0.029636530205607414
0.5782293081283569 0.7465157508850098 0.03173881769180298
0.5855638980865479 0.7441468238830566 0.034702323377132416
0.591732919216156 0.7397496700286865 0.037239763885736465
0.6123821139335632 0.7227856516838074 0.048472363501787186
0.6748650074005127 0.6557276248931885 0.13022956252098083
0.5625640749931335 0.5128535628318787 -0.02924877032637596
0.5606609582901001 0.4593363404273987 0.005652278661727905
0.5678420066833496 0.46412038803100586 0.024396630004048347
0.5717043876647949 0.7438336610794067 0.0324619822204113
0.6561822295188904 0.712683379650116 0.17286860942840576
0.5525110960006714 0.45756107568740845 -0.031886059790849686
0.5653061866760254 0.8199318051338196 0.04863723739981651
0.5626739263534546 0.5280909538269043 -0.07244832068681717
0.5823080539703369 0.5802050828933716 -0.03744352608919144
0.5409930348396301 0.8364953994750977 0.024890050292015076
0.6058657169342041 0.7742133140563965 0.08447065949440002
0.6048426628112793 0.6446244716644287 0.026973314583301544
0.5854820609092712 0.79951411485672 0.06795193254947662
0.6505440473556519 0.6388345956802368 0.058823246508836746
0.623573362827301 0.6700907945632935 0.04206078127026558
0.6568237543106079 0.6781083941459656 0.08834328502416611
0.5441797971725464 0.8634085059165955 0.03355797007679939
0.5854193568229675 0.5931096076965332 -0.014174298383295536
0.6108080744743347 0.7879629135131836 0.11887818574905396
0.5880051851272583 0.8152816891670227 0.09495291858911514
0.6259059906005859 0.7445542812347412 0.09345656633377075
0.670928418636322 0.6798928380012512 0.20168891549110413
0.6385207176208496 0.7432065606117249 0.1288028359413147
0.6568036079406738 0.6936234831809998 0.2681432366371155
0.6321759223937988 0.7026076316833496 0.06331364810466766
0.5760282278060913 0.5561420917510986 -0.022487400099635124
0.5931663513183594 0.6319007873535156 -0.06627970933914185
0.5948165655136108 0.6368898749351501 -0.037693485617637634
0.5938489437103271 0.6162606477737427 -0.08733572065830231
0.5825174450874329 0.43309760093688965 0.004469761624932289
0.619455873966217 0.4157649278640747 0.015053103677928448
0.6490751504898071 0.4116398096084595 0.03246762603521347
0.6698857545852661 0.4151128828525543 0.05706751346588135
0.6796403527259827 0.42616069316864014 0.08157378435134888
0.6735105514526367 0.4714721739292145 0.12749320268630981
0.6867244243621826 0.531417965888977 0.2721503973007202
0.6653847694396973 0.5127362012863159 0.10369672626256943
0.6485308408737183 0.5227534770965576 0.08000846207141876
0.6220155358314514 0.5247930288314819 0.058020010590553284
0.5952422618865967 0.5196791887283325 0.03997214138507843
0.5760849118232727 0.5111274123191833 0.02781520038843155
0.5642938613891602 0.5027667880058289 0.018597235903143883
0.6521847248077393 0.5261116623878479 0.3626835346221924
0.5886867046356201 0.6432383060455322 -0.026314670220017433
0.5783030986785889 0.5646975636482239 -0.06163410469889641
0.5887197256088257 0.634693443775177 -0.09101847559213638
0.5713499188423157 0.647333025932312 -0.08636067807674408
0.5830103158950806 0.6380894780158997 -0.07941322028636932
0.5801441669464111 0.6511780619621277 -0.0216521043330431
0.5710313320159912 0.6504883766174316 -0.09357620030641556
0.5610737204551697 0.6554321646690369 -0.0672360360622406
0.5625256896018982 0.4821023941040039 0.027825605124235153
0.5553551316261292 0.48839813470840454 0.00747676333412528
0.5554021000862122 0.49319225549697876 -0.010013476014137268
0.659231424331665 0.465223103761673 0.08818721026182175
0.6696122884750366 0.4507632553577423 0.09412910789251328
