ply
format ascii 1.0
element vertex 468
property float x
property float y
property float z
end_header
0.5186929106712341 0.6970099210739136 -0.02281435765326023
0.5261766314506531 0.6560596823692322 -0.11545366793870926
0.5181027054786682 0.662204921245575 -0.045717280358076096
0.4988088011741638 0.5734642744064331 -0.11526794731616974
0.5269977450370789 0.6353145837783813 -0.13009727001190186
0.523902416229248 0.6014619469642639 -0.1312299519777298
0.5122783184051514 0.510839581489563 -0.1031203493475914
0.3203744888305664 0.48133400082588196 -0.03798041492700577
0.5088393688201904 0.4487391710281372 -0.10909728705883026
0.5090943574905396 0.418140709400177 -0.12651506066322327
0.5024794340133667 0.28137561678886414 -0.14977118372917175
0.5181638598442078 0.7046607732772827 -0.016629692167043686
0.5166765451431274 0.7097784876823425 -0.007381030358374119
0.5147053003311157 0.710326611995697 0.0037320000119507313
0.5142738819122314 0.7405343055725098 0.024445202201604843
0.5152711272239685 0.7503442764282227 0.023872774094343185
0.5156312584877014 0.7615140676498413 0.022887537255883217
0.514643132686615 0.7729453444480896 0.03205755352973938
0.5101422667503357 0.789816677570343 0.06031299754977226
0.5239513516426086 0.6632654666900635 -0.10036816447973251
0.4967043399810791 0.6561055779457092 -0.07015735656023026
0.1956261396408081 0.3609119653701782 0.01575627736747265
0.3999609351158142 0.49841463565826416 -0.04708976298570633
0.3744855523109436 0.5010809302330017 -0.04758768156170845
0.34788942337036133 0.5007444620132446 -0.044519226998090744
0.3074796199798584 0.48541152477264404 -0.03273533657193184
0.4194456934928894 0.4939616918563843 -0.04295510798692703
0.35451656579971313 0.44449201226234436 -0.07559260725975037
0.3830677270889282 0.4461347162723541 -0.07289125770330429
0.3286147713661194 0.44726866483688354 -0.06944014132022858
0.31134283542633057 0.45386528968811035 -0.05984875559806824
0.2845713496208191 0.4978575110435486 -0.01877334527671337
0.4161575436592102 0.8138912320137024 0.09178957343101501
0.3072049915790558 0.47466450929641724 -0.033384185284376144
0.18603283166885376 0.4652408957481384 0.0666484609246254
0.24954020977020264 0.47819313406944275 -0.006337908562272787
0.379963755607605 0.6004013419151306 -0.02821837179362774
0.48519736528396606 0.6944482922554016 -0.0247100330889225
0.4872433543205261 0.7095730304718018 -0.007412375882267952
0.4496377408504486 0.6953484416007996 -0.013305138796567917
0.42763808369636536 0.6958076357841492 0.005376381333917379
0.46187624335289 0.7071837186813354 -0.0007506019319407642
0.44291532039642334 0.704993724822998 0.015576116740703583
0.3939913213253021 0.722983717918396 0.05987977609038353
0.5060458183288574 0.6553571820259094 -0.11592807620763779
0.5032967329025269 0.6345711350440979 -0.12996149063110352
0.27095985412597656 0.42922157049179077 -0.0698419064283371
0.43026989698410034 0.5446176528930664 -0.050278857350349426
0.4381559193134308 0.6289179921150208 -0.06828808784484863
0.4349079728126526 0.6138362884521484 -0.06545881927013397
0.29576581716537476 0.589866578578949 -0.012481939978897572
0.5014234185218811 0.602902889251709 -0.12716083228588104
0.33732718229293823 0.4148006737232208 -0.10797815024852753
0.2990071177482605 0.4178781807422638 -0.09274127334356308
0.22815260291099548 0.328925222158432 -0.04100898653268814
0.45292928814888 0.44292059540748596 -0.10947222262620926
0.4076315760612488 0.4534647762775421 -0.06141466647386551
0.3736025393009186 0.7008218765258789 0.052102357149124146
0.20845429599285126 0.6682348847389221 0.22323745489120483
0.45640790462493896 0.6409309506416321 -0.05376309156417847
0.4771571457386017 0.6498088240623474 -0.04772432520985603
0.400713711977005 0.6996947526931763 0.05123603343963623
0.413921058177948 0.7018250226974487 0.04667694494128227
0.28235310316085815 0.39892035722732544 -0.08968526870012283
0.4359470009803772 0.6325645446777344 -0.05153525620698929
0.3878650963306427 0.4222211241722107 -0.11420350521802902
0.38331830501556396 0.402595579624176 -0.12726441025733948
0.3459823727607727 0.2906133234500885 -0.13278640806674957
0.2564983367919922 0.364533007144928 -0.06994683295488358
0.36900264024734497 0.346721887588501 -0.1325640082359314
0.25088948011398315 0.41362446546554565 -0.05757806822657585
0.22378398478031158 0.389403760433197 -0.02430219203233719
0.48601728677749634 0.7039530873298645 -0.01841810531914234
0.4565296769142151 0.7031687498092651 -0.007171028759330511
0.4354603588581085 0.7007595300674438 0.009092999622225761
0.46174919605255127 0.6438756585121155 -0.04565931111574173
0.407488614320755 0.700670599937439 0.048839133232831955
0.4203905463218689 0.7153344750404358 0.04335104674100876
0.4164970815181732 0.7016711831092834 0.046345677226781845
0.47310370206832886 0.6452341079711914 -0.08811673521995544
0.4464484751224518 0.7022745609283447 0.02042587846517563
0.46527594327926636 0.7059223651885986 0.009936729446053505
0.4883851408958435 0.7094588875770569 0.0035025884862989187
0.47602611780166626 0.7861126661300659 0.05831165984272957
0.4818112850189209 0.7695804238319397 0.030054105445742607
0.48449575901031494 0.7583580613136292 0.021903108805418015
0.4862155318260193 0.7472025156021118 0.022743839770555496
0.487835168838501 0.739162266254425 0.023235199972987175
0.44525375962257385 0.7232826948165894 0.034291353076696396
0.4413243234157562 0.7260425686836243 0.03301273658871651
0.4355599582195282 0.7309191823005676 0.03348302096128464
0.429715633392334 0.7365745902061462 0.039169132709503174
0.404460072517395 0.6777515411376953 0.0016285079764202237
0.1751142144203186 0.5482479333877563 0.20314271748065948
0.5211199522018433 0.6628550887107849 -0.06650101393461227
0.4323892295360565 0.7144004702568054 0.042041484266519547
0.4271261692047119 0.7146496176719666 0.04219786450266838
0.4857901632785797 0.6594580411911011 -0.04228717461228371
0.44152742624282837 0.642263650894165 -0.026621699333190918
0.4816451370716095 0.6552290916442871 -0.046330299228429794
0.4047051966190338 0.5537436008453369 -0.039617422968149185
0.3617965281009674 0.5674403309822083 -0.032675039023160934
0.42961692810058594 0.6187130808830261 -0.04877085983753204
0.27580732107162476 0.30478793382644653 -0.09164462983608246
0.3021821677684784 0.3487163186073303 -0.10468471050262451
0.3267688751220703 0.39416512846946716 -0.11308473348617554
0.41481491923332214 0.7481266856193542 0.05823874473571777
0.4454367160797119 0.41335177421569824 -0.13024869561195374
0.43460360169410706 0.34895095229148865 -0.14308975636959076
0.4190853536128998 0.2838718295097351 -0.15094444155693054
0.32299232482910156 0.49535587430000305 -0.03877990320324898
0.25329113006591797 0.5113075971603394 -0.003367871278896928
0.43102386593818665 0.49026304483413696 -0.04132560268044472
0.2821308374404907 0.45755863189697266 -0.04438377544283867
0.4487897753715515 0.5345997214317322 -0.061671119183301926
0.45650583505630493 0.6301002502441406 -0.09249396622180939
0.2199219912290573 0.521704912185669 0.025119608268141747
0.27627289295196533 0.5301516652107239 -0.015253021381795406
0.3146876394748688 0.5416086316108704 -0.02810349129140377
0.3671988248825073 0.5398088693618774 -0.033508412539958954
0.4030359387397766 0.531441867351532 -0.03730535879731178
0.427524596452713 0.5238049030303955 -0.044586069881916046
0.4874180257320404 0.5149303674697876 -0.09522005170583725
0.2244754582643509 0.5704411864280701 0.03813022002577782
0.2578681707382202 0.4505426287651062 -0.04014956206083298
0.5113800168037415 0.6624605655670166 -0.10071465373039246
0.4349750876426697 0.5711593627929688 -0.05002246052026749
0.16858208179473877 0.44598305225372314 0.13947856426239014
0.4467884302139282 0.5159769654273987 -0.051264047622680664
0.42439571022987366 0.6143409609794617 -0.024215318262577057
0.2964402437210083 0.472233384847641 -0.030046764761209488
0.4528328776359558 0.610815167427063 -0.08877451717853546
0.18473029136657715 0.6063019633293152 0.21824190020561218
0.4275136888027191 0.48344552516937256 -0.04007165506482124
0.4771037697792053 0.6056534051895142 -0.1131027489900589
0.28895100951194763 0.7467379570007324 0.13657188415527344
0.2823846638202667 0.7659116983413696 0.1847522258758545
0.18563002347946167 0.5637871026992798 0.11912242323160172
0.24819828569889069 0.7110590934753418 0.14531047642230988
0.2030271291732788 0.4230121970176697 0.025303540751338005
0.40789595246315 0.8390004634857178 0.11354473233222961
0.5113785266876221 0.6621763110160828 -0.06602099537849426
0.41216883063316345 0.5832173228263855 -0.036876704543828964
0.22181910276412964 0.4776206612586975 0.014194832183420658
0.3516887426376343 0.48926594853401184 -0.04651836305856705
0.3753804862499237 0.4898149073123932 -0.049354612827301025
0.4131314754486084 0.7161270976066589 0.047127220779657364
0.2271973192691803 0.6154093742370605 0.06738726794719696
0.450314462184906 0.8729578852653503 0.13572591543197632
0.3679349422454834 0.8305485248565674 0.15545915067195892
0.3293282687664032 0.803384006023407 0.16799946129322052
0.506751537322998 0.34904035925865173 -0.14109395444393158
0.501929759979248 0.876643180847168 0.13719689846038818
0.3957073390483856 0.4870985448360443 -0.048761215060949326
0.41409918665885925 0.48351427912712097 -0.044784724712371826
0.42424437403678894 0.48281365633010864 -0.040739208459854126
0.23376759886741638 0.43980202078819275 -0.02198207564651966
0.4035269021987915 0.47170692682266235 -0.05581728741526604
0.3798297643661499 0.46736061573028564 -0.06301995366811752
0.35786163806915283 0.4674827456474304 -0.06428523361682892
0.3365081548690796 0.4700249135494232 -0.05958893150091171
0.32275524735450745 0.4731200337409973 -0.052073556929826736
0.17662984132766724 0.3975368142127991 0.08000501245260239
0.33414360880851746 0.48587536811828613 -0.04204891622066498
0.517677903175354 0.6721326112747192 -0.032468512654304504
0.42867565155029297 0.6707583069801331 -0.015123091638088226
0.4567992091178894 0.6411598324775696 -0.06476502865552902
0.4819198548793793 0.6726059913635254 -0.03252732381224632
0.5085479617118835 0.47530603408813477 -0.09850012511014938
0.3307774066925049 0.7805191874504089 0.13398602604866028
0.3681505620479584 0.8096300363540649 0.125970721244812
0.4542173147201538 0.8584545850753784 0.10296691954135895
0.24306224286556244 0.7227885127067566 0.2061741203069687
0.41993221640586853 0.4793263077735901 -0.047179993242025375
0.47285401821136475 0.5531326532363892 -0.08915812522172928
0.5058213472366333 0.8638753890991211 0.1056152954697609
0.40734001994132996 0.8557538986206055 0.1415717899799347
0.1938747763633728 0.6149458289146423 0.1386767327785492
0.46457353234291077 0.7325994968414307 0.02739943377673626
0.4610171318054199 0.7383143901824951 0.026301627978682518
0.45710211992263794 0.7463503479957581 0.026266969740390778
0.4531313180923462 0.757002592086792 0.0332808755338192
0.44153735041618347 0.7708101272583008 0.055367738008499146
0.42536869645118713 0.7020915150642395 0.0304834246635437
0.4174743890762329 0.6993480920791626 0.0291775893419981
0.409773588180542 0.6954201459884644 0.027206359431147575
0.3844887316226959 0.6870944499969482 0.02350027859210968
0.26978954672813416 0.6346007585525513 0.031233597546815872
0.46838492155075073 0.5238902568817139 -0.07736438512802124
0.4481411278247833 0.47087961435317993 -0.05937837436795235
0.43105125427246094 0.470794141292572 -0.052286505699157715
0.4301309287548065 0.6999521255493164 0.03384053707122803
0.26507487893104553 0.68354332447052 0.09036639332771301
0.47354623675346375 0.4761490821838379 -0.0857720598578453
0.4276454746723175 0.789473295211792 0.07445239275693893
0.5201429724693298 0.5711727738380432 -0.12093250453472137
0.49301576614379883 0.5462210178375244 -0.10831715911626816
0.516481876373291 0.542534589767456 -0.11205130815505981
0.455644816160202 0.5863509774208069 -0.07681017369031906
0.5080598592758179 0.840426504611969 0.08534085005521774
0.5087177753448486 0.8119472861289978 0.07423709332942963
0.4690389037132263 0.8073450922966003 0.07375957071781158
0.368507981300354 0.7349514961242676 0.07536765187978745
0.4018332064151764 0.6292586922645569 -0.01422848366200924
0.39514192938804626 0.7637079358100891 0.0775037556886673
0.3364371061325073 0.6251363754272461 -0.011332998983561993
0.3765689432621002 0.649825930595398 -0.0019535161554813385
0.31250908970832825 0.655713677406311 0.0201841089874506
0.4608917236328125 0.8345348834991455 0.08382570743560791
0.4386703670024872 0.5920312404632568 -0.05601278319954872
0.3436098098754883 0.7553390264511108 0.10032140463590622
0.37915655970573425 0.7858585119247437 0.10164528340101242
0.3463919162750244 0.706339955329895 0.06001577526330948
0.2344217151403427 0.65278160572052 0.09433813393115997
0.30683404207229614 0.7117860913276672 0.07826068252325058
0.21274767816066742 0.6634583473205566 0.15263108909130096
0.3555665612220764 0.6713531017303467 0.019045937806367874
0.45377907156944275 0.5617278218269348 -0.06832966953516006
0.4656970202922821 0.6422821283340454 -0.09462764859199524
0.4465177357196808 0.6380833387374878 -0.06707483530044556
0.4793314039707184 0.632885754108429 -0.11355379968881607
0.42828369140625 0.4522871971130371 -0.07525473833084106
0.3863394260406494 0.4388255774974823 -0.08630666136741638
0.34926852583885193 0.4350019693374634 -0.08751312643289566
0.31789493560791016 0.43648895621299744 -0.07954098284244537
0.29510486125946045 0.4438433051109314 -0.06573229283094406
0.27670198678970337 0.4754113554954529 -0.022029533982276917
0.1828102469444275 0.5142905712127686 0.09354494512081146
0.30226022005081177 0.5094341039657593 -0.024781599640846252
0.3328531086444855 0.5179489850997925 -0.033147651702165604
0.369832307100296 0.5181732773780823 -0.037433039397001266
0.4016702175140381 0.51301509141922 -0.03958437219262123
0.4242385923862457 0.5072914361953735 -0.04049062728881836
0.4397972822189331 0.5028640031814575 -0.04255285859107971
0.17097154259681702 0.49552011489868164 0.1774377077817917
0.4459514021873474 0.6390976309776306 -0.05376686155796051
0.4767417311668396 0.5788886547088623 -0.09813930094242096
0.4869690239429474 0.649783194065094 -0.1086968332529068
0.4972507953643799 0.6566784977912903 -0.09316696971654892
0.4844152331352234 0.6497353911399841 -0.09685507416725159
0.4509323537349701 0.6430627107620239 -0.04154716804623604
0.5030297636985779 0.6605431437492371 -0.09796249866485596
0.5026817917823792 0.6600295305252075 -0.06810913980007172
0.43754956126213074 0.4851725101470947 -0.04133804887533188
0.45206090807914734 0.4930296540260315 -0.0505518801510334
0.461772620677948 0.5014604926109314 -0.06281737983226776
0.3142441213130951 0.4747373163700104 -0.04432706534862518
0.29825127124786377 0.46093684434890747 -0.04594668373465538
0.5389358401298523 0.5715885758399963 -0.10934630781412125
0.661159098148346 0.4679405987262726 0.005209731869399548
0.5426740646362305 0.6527739763259888 -0.0656408742070198
0.7311391830444336 0.344603955745697 0.08411327004432678
0.5907326936721802 0.4905894696712494 -0.01958201639354229
0.614530086517334 0.49071431159973145 -0.014277840033173561
0.6383664608001709 0.4884825348854065 -0.0060014487244188786
0.6695117354393005 0.4712718725204468 0.013787653297185898
0.5731961727142334 0.4878561496734619 -0.02179964818060398
0.6345688104629517 0.4389564096927643 -0.04114176705479622
0.6083945035934448 0.44205665588378906 -0.0454193577170372
0.6570215225219727 0.4394049346446991 -0.02896062098443508
0.6700698137283325 0.4440878927707672 -0.015855683013796806
0.6880728006362915 0.4807842969894409 0.031062835827469826
0.5856461524963379 0.8009641170501709 0.11019986122846603
0.6704691648483276 0.46169304847717285 0.011935398913919926
0.7415117025375366 0.443952739238739 0.13635003566741943
0.7115257978439331 0.4600491523742676 0.05064575374126434
0.625499963760376 0.5880229473114014 -0.0013677662936970592
0.5491258502006531 0.6905446648597717 -0.017921878024935722
0.542660117149353 0.7063797116279602 -0.0012349499156698585
0.5766417980194092 0.6870116591453552 0.0007167629664763808
0.5910293459892273 0.6853536367416382 0.024094685912132263
0.562252938747406 0.7009791731834412 0.011109871789813042
0.5755316019058228 0.6972601413726807 0.031253963708877563
0.6100926995277405 0.7091658115386963 0.08306223899126053
0.5447162389755249 0.6525924205780029 -0.11214087158441544
0.5477776527404785 0.6321009993553162 -0.12541794776916504
0.7040761113166809 0.4179440140724182 -0.01682569459080696
0.5758336782455444 0.5379780530929565 -0.032039280980825424
0.5889690518379211 0.6203334927558899 -0.051172319799661636
0.5877563953399658 0.6055498719215393 -0.047832321375608444
0.6926839351654053 0.5699222683906555 0.03278566524386406
0.544063925743103 0.6007686257362366 -0.12168004363775253
0.6590240001678467 0.4120388627052307 -0.07371348887681961
0.6872967481613159 0.41093724966049194 -0.04816068708896637
0.7170913219451904 0.31523725390434265 0.021079055964946747
0.5599610209465027 0.4429352283477783 -0.09938093274831772
0.5851547718048096 0.4500306248664856 -0.039455823600292206
0.6290926933288574 0.6849375367164612 0.07998711615800858
0.7050521373748779 0.6392717361450195 0.2862003743648529
0.5726905465126038 0.6333961486816406 -0.040163908153772354
0.554581880569458 0.6452437043190002 -0.040816809982061386
0.6069581508636475 0.688083827495575 0.07562822103500366
0.594684898853302 0.6919348239898682 0.06762256473302841
0.6980171203613281 0.3914848864078522 -0.041355084627866745
0.5875148773193359 0.623818576335907 -0.03501873463392258
0.6180665493011475 0.4210893511772156 -0.09066984057426453
0.6234444975852966 0.40129929780960083 -0.10274174809455872
0.6408014297485352 0.2830826938152313 -0.09855519235134125
0.7074116468429565 0.3533439636230469 -0.015262221917510033
0.63020920753479 0.3421434164047241 -0.10304027050733566
0.7155181169509888 0.400743305683136 -0.0003820311394520104
0.7240245342254639 0.37442687153816223 0.038365837186574936
0.5468415021896362 0.6999827027320862 -0.01178738009184599
0.5693515539169312 0.6960116624832153 0.005898079834878445
0.5837489366531372 0.6918216943740845 0.02632284350693226
0.5669784545898438 0.6370214819908142 -0.03557094186544418
0.601043164730072 0.6899629235267639 0.07105553895235062
0.5915447473526001 0.705784022808075 0.06235363706946373
0.590865969657898 0.6922503709793091 0.06690380722284317
0.5654528737068176 0.6385423541069031 -0.07643517106771469
0.5693285465240479 0.6957542300224304 0.034892939031124115
0.5558469295501709 0.7009336948394775 0.02096870169043541
0.5375899076461792 0.706840455532074 0.009503264911472797
0.5409060716629028 0.7819826006889343 0.06396017223596573
0.5443267226219177 0.7658674716949463 0.03593810647726059
0.5439261198043823 0.7550215125083923 0.02832619659602642
0.5413354635238647 0.7441897392272949 0.029171137139201164
0.5382646918296814 0.7363386154174805 0.029705338180065155
0.5704537630081177 0.7161407470703125 0.048654329031705856
0.5750769376754761 0.7183562517166138 0.047972146421670914
0.5810486078262329 0.722471296787262 0.048411473631858826
0.5859228372573853 0.7273979783058167 0.054741766303777695
0.6102958917617798 0.6656750440597534 0.023810748010873795
0.7257322669029236 0.523544430732727 0.27475079894065857
0.5787661671638489 0.7064019441604614 0.060100406408309937
0.5852329134941101 0.705925703048706 0.0603463239967823
0.5470288395881653 0.6559210419654846 -0.03599020838737488
0.5799347758293152 0.6345664262771606 -0.014146795496344566
0.5508794188499451 0.6510823965072632 -0.03975972533226013
0.5976605415344238 0.544669508934021 -0.0159464068710804
0.6374759674072266 0.5541013479232788 -0.0007152874022722244
0.5895864963531494 0.6101345419883728 -0.030879441648721695
0.6902718544006348 0.2939072847366333 -0.04201479256153107
0.6786304116249084 0.3413143754005432 -0.06163495033979416
0.6672937870025635 0.3906238079071045 -0.07588602602481842
0.5928220152854919 0.7364835739135742 0.07710069417953491
0.5694228410720825 0.4141896963119507 -0.118473120033741
0.5746162533760071 0.34603381156921387 -0.12832675874233246
0.5804898738861084 0.27946311235427856 -0.1338779181241989
0.6584249138832092 0.48156771063804626 0.005651134066283703
0.7127467393875122 0.4910171926021576 0.052253153175115585
0.5635042190551758 0.4851241707801819 -0.022204335778951645
0.6912297010421753 0.4440585970878601 0.006485490594059229
0.561238169670105 0.5295192003250122 -0.0470675528049469
0.5787474513053894 0.6227366924285889 -0.0784071758389473
0.7342668771743774 0.4984089732170105 0.08863779157400131
0.6999266147613525 0.5105884671211243 0.03710012510418892
0.6726436614990234 0.524605393409729 0.015034654177725315
0.6274369955062866 0.5276294946670532 -0.0009729192242957652
0.5943343639373779 0.5228269696235657 -0.01285242848098278
0.5729150772094727 0.517428994178772 -0.025818994268774986
0.5337831974029541 0.5132095217704773 -0.08954860270023346
0.7356899976730347 0.5453658103942871 0.10126511007547379
0.7087891697883606 0.43558669090270996 0.016594095155596733
0.5354465842247009 0.6609386801719666 -0.09760024398565292
0.5764524340629578 0.5646692514419556 -0.03248707950115204
0.7345004081726074 0.4259742498397827 0.21219892799854279
0.5575135350227356 0.5113688707351685 -0.03703776001930237
0.5892051458358765 0.605683445930481 -0.007633083965629339
0.6781457662582397 0.45854437351226807 0.017728086560964584
0.5769882798194885 0.6042810082435608 -0.07473541796207428
0.7200653553009033 0.57861328125 0.2864193916320801
0.5652287006378174 0.47828710079193115 -0.020324598997831345
0.561249852180481 0.6012359857559204 -0.10285551846027374
0.6742062568664551 0.7202048897743225 0.18151748180389404
0.6645395755767822 0.7387499809265137 0.23161160945892334
0.7435402870178223 0.5369985103607178 0.18899859488010406
0.7008205056190491 0.6825761795043945 0.19979752600193024
0.733412504196167 0.4048198461532593 0.09248773008584976
0.5888888835906982 0.824837327003479 0.13350343704223633
0.5304849147796631 0.6609721183776855 -0.06412624567747116
0.5954242944717407 0.5743686556816101 -0.015559020452201366
0.728101372718811 0.45738446712493896 0.07700233906507492
0.6358253359794617 0.4776943325996399 -0.008710063993930817
0.6142684817314148 0.48013144731521606 -0.01578383520245552
0.5973134636878967 0.7056056261062622 0.06785855442285538
0.7321947813034058 0.5891472697257996 0.1272960752248764
0.5490710139274597 0.8651859760284424 0.14698027074337006
0.6090071201324463 0.8116113543510437 0.1848570853471756
0.6340511441230774 0.7797255516052246 0.20543581247329712
0.5947080850601196 0.4789773225784302 -0.020521046593785286
0.5771889686584473 0.4769749641418457 -0.02073412388563156
0.5679714679718018 0.4773362874984741 -0.018846169114112854
0.7225678563117981 0.4233793020248413 0.03950468823313713
0.5853912234306335 0.46630871295928955 -0.030575469136238098
0.6061055660247803 0.46137678623199463 -0.03444964066147804
0.6269950270652771 0.45972567796707153 -0.030486920848488808
0.6467379331588745 0.4603935480117798 -0.020761389285326004
0.658780574798584 0.46198105812072754 -0.01051981933414936
0.7373453378677368 0.3795239329338074 0.15149347484111786
0.6505199670791626 0.4730404019355774 -0.0008648813818581402
0.5920456051826477 0.6610935926437378 0.0019624889828264713
0.5748005509376526 0.6332247257232666 -0.05247355252504349
0.5501448512077332 0.6683894395828247 -0.025260671973228455
0.6433467864990234 0.7569725513458252 0.17010194063186646
0.6163240671157837 0.7899142503738403 0.1543947458267212
0.5524874329566956 0.8508052825927734 0.11426229774951935
0.686068594455719 0.6942004561424255 0.26297426223754883
0.5720607042312622 0.47381719946861267 -0.024918075650930405
0.5510510802268982 0.5496543049812317 -0.07887817919254303
0.5827322602272034 0.8419073820114136 0.16314825415611267
0.7372689247131348 0.5864964723587036 0.2054833322763443
0.5567676424980164 0.727384090423584 0.038395997136831284
0.5612025260925293 0.7323411107063293 0.03784796968102455
0.5657616257667542 0.7402130961418152 0.03815138712525368
0.5683588981628418 0.750339150428772 0.04492483288049698
0.5707807540893555 0.7624919414520264 0.06883354485034943
0.5872398018836975 0.6934016346931458 0.04985658451914787
0.5951424241065979 0.6894612908363342 0.050453733652830124
0.6022560596466064 0.6842682361602783 0.04990633949637413
0.62424236536026 0.672922670841217 0.05003855377435684
0.7082438468933105 0.6113951206207275 0.08094963431358337
0.5473648309707642 0.5205997824668884 -0.06720352172851562
0.5527644753456116 0.4683876931667328 -0.04569002985954285
0.5639427900314331 0.46703049540519714 -0.0335138775408268
0.580756425857544 0.6918551325798035 0.05176912993192673
0.7021640539169312 0.6579477190971375 0.14057809114456177
0.5377604961395264 0.4749261438846588 -0.07850532233715057
0.5776956081390381 0.7785612940788269 0.0898657739162445
0.5366783738136292 0.5442361831665039 -0.10314348340034485
0.56760174036026 0.5807967185974121 -0.06340615451335907
0.5442072749137878 0.801932692527771 0.08143666386604309
0.6272974610328674 0.7170506119728088 0.10212662070989609
0.6081900596618652 0.6180422902107239 0.0072657084092497826
0.6045114994049072 0.7486833930015564 0.0987217053771019
0.6636950969696045 0.6080601215362549 0.02250564843416214
0.630388617515564 0.6357070803642273 0.024653425440192223
0.6795530915260315 0.6354468464851379 0.05854988098144531
0.5499635934829712 0.8275245428085327 0.0939299613237381
0.578079342842102 0.5851625800132751 -0.03987972065806389
0.6422265768051147 0.7338149547576904 0.133025124669075
0.6135716438293457 0.7678244709968567 0.12698854506015778
0.6484001874923706 0.6871623396873474 0.09373903274536133
0.7228427529335022 0.6259571313858032 0.15162216126918793
0.6741987466812134 0.6883264780044556 0.1187557727098465
0.7234292030334473 0.6341899633407593 0.2152528464794159
0.6465200185775757 0.6548123955726624 0.05027967691421509
0.56367027759552 0.5567085146903992 -0.054235007613897324
0.5729204416275024 0.6348299980163574 -0.08213728666305542
0.5833703279495239 0.6294416785240173 -0.05255422741174698
0.5647127628326416 0.627840518951416 -0.10269228368997574
0.5729258060455322 0.4499935507774353 -0.056794896721839905
0.6121684908866882 0.43514519929885864 -0.0604395754635334
0.6450176239013672 0.42952752113342285 -0.05423731356859207
0.6703431010246277 0.4290434718132019 -0.0380452498793602
0.6855356693267822 0.4335963726043701 -0.01849864237010479
0.6921753883361816 0.459713876247406 0.029875772073864937
0.7445859313011169 0.49000877141952515 0.16497473418712616
0.6764554977416992 0.49306121468544006 0.021732792258262634
0.6530821323394775 0.5033880472183228 0.007206249050796032
0.620846688747406 0.5070284605026245 -0.004783185664564371
0.5912830829620361 0.5046946406364441 -0.014162628911435604
0.571449339389801 0.5010433197021484 -0.021306460723280907
0.5586383938789368 0.49795201420783997 -0.027515601366758347
0.7281802892684937 0.4731355309486389 0.2508811950683594
0.5806191563606262 0.6308469772338867 -0.03959181159734726
0.5548343062400818 0.57529217004776 -0.08784709125757217
0.5591883063316345 0.6446636915206909 -0.10086021572351456
0.545713484287262 0.653049111366272 -0.08862141519784927
0.5577747225761414 0.6443107724189758 -0.08858731389045715
0.574431300163269 0.6359699964523315 -0.02989277057349682
0.5423340797424316 0.6577171683311462 -0.0942126214504242
0.5378356575965881 0.6577094793319702 -0.06485513597726822
0.5579649806022644 0.4809979200363159 -0.024389104917645454
0.5489223003387451 0.4898805022239685 -0.03831169009208679
0.5454855561256409 0.49859750270843506 -0.052791547030210495
0.6657311916351318 0.4624871015548706 -0.0006302648689597845
0.678839385509491 0.448999285697937 0.0008700625621713698
