ply
format ascii 1.0
element vertex 468
property float x
property float y
property float z
end_header
0.5017866492271423 0.6884902119636536 -0.05373735725879669
0.4968529939651489 0.635514497756958 -0.12788026034832
0.4993422329425812 0.6509494185447693 -0.06270135939121246
0.48027369379997253 0.5547423362731934 -0.10480213910341263
0.4968762695789337 0.6121333837509155 -0.13809140026569366
0.4975527822971344 0.57950758934021 -0.1319391280412674
0.5006819367408752 0.49910464882850647 -0.08089957386255264
0.3430570662021637 0.47596269845962524 0.01666247472167015
0.5019375085830688 0.4479409456253052 -0.07349143177270889
0.5024386048316956 0.41901955008506775 -0.08310399949550629
0.506522536277771 0.29095855355262756 -0.07500328868627548
0.5022117495536804 0.6981996893882751 -0.05073241516947746
0.5026392936706543 0.7050935626029968 -0.0435461550951004
0.5029714703559875 0.7069306373596191 -0.033196721225976944
0.5032640695571899 0.7604946494102478 -0.011397325433790684
0.5032764673233032 0.7719790935516357 -0.013869719579815865
0.5030223727226257 0.7850520014762878 -0.015360062941908836
0.5031418800354004 0.7980495095252991 -0.0055684191174805164
0.5028179287910461 0.8133227825164795 0.0239142756909132
0.4973396360874176 0.6459804177284241 -0.11469145119190216
0.4789372980594635 0.6407470107078552 -0.08139645308256149
0.2664995789527893 0.384577214717865 0.11089380085468292
0.409773588180542 0.4993869662284851 -0.0063304961659014225
0.38732945919036865 0.4999365508556366 -0.00461945217102766
0.3653576374053955 0.4984140992164612 0.0017317254096269608
0.33503657579421997 0.4840198755264282 0.020951099693775177
0.4277082085609436 0.49560412764549255 -0.005615361966192722
0.3758891820907593 0.44253623485565186 -0.01864815317094326
0.40154963731765747 0.44512128829956055 -0.01999220810830593
0.35272645950317383 0.4454193115234375 -0.010736758820712566
0.33775877952575684 0.4524126946926117 -0.0006661343504674733
0.3176465332508087 0.4995481073856354 0.034045927226543427
0.4184328317642212 0.8255400061607361 0.05593765154480934
0.33399349451065063 0.4696028530597687 0.023830724880099297
0.2554187774658203 0.4835652709007263 0.13620413839817047
0.29303377866744995 0.4854387938976288 0.0551721565425396
0.3884657621383667 0.5966658592224121 -0.015624390915036201
0.4706302583217621 0.6843488216400146 -0.05029501020908356
0.47549790143966675 0.7038623094558716 -0.03907788544893265
0.44044190645217896 0.6878236532211304 -0.034601230174303055
0.4232131838798523 0.6935527920722961 -0.011884280480444431
0.45439663529396057 0.7034890651702881 -0.027258623391389847
0.4390873610973358 0.7045872807502747 -0.0065408265218138695
0.39859795570373535 0.7362178564071655 0.04231901839375496
0.47893640398979187 0.6341243982315063 -0.12559786438941956
0.47641506791114807 0.6110783219337463 -0.13515841960906982
0.3059253692626953 0.4359084367752075 0.0003614485030993819
0.43550610542297363 0.5420851111412048 -0.028759758919477463
0.4317359924316406 0.6171593070030212 -0.06727401912212372
0.4309729039669037 0.603463351726532 -0.06119435280561447
0.3210163116455078 0.5883507132530212 0.012998105958104134
0.4782567024230957 0.5808762907981873 -0.12423152476549149
0.3591238558292389 0.4196621775627136 -0.04479615390300751
0.3273072838783264 0.4233587980270386 -0.025774717330932617
0.2871912717819214 0.3476015329360962 0.059244927018880844
0.4563717246055603 0.44356539845466614 -0.06475961208343506
0.42302513122558594 0.4536423683166504 -0.013002315536141396
0.38254237174987793 0.7060359716415405 0.040100205689668655
0.28492966294288635 0.6916625499725342 0.22992032766342163
0.44784292578697205 0.630303144454956 -0.05628190562129021
0.4656294882297516 0.6383727788925171 -0.0583619587123394
0.40223661065101624 0.709053099155426 0.03803534805774689
0.41459640860557556 0.7105090618133545 0.031814150512218475
0.3157816529273987 0.4080517590045929 -0.016125721856951714
0.43145501613616943 0.6241167187690735 -0.05280139669775963
0.4016472399234772 0.4251885414123535 -0.05846048519015312
0.39745497703552246 0.4065452218055725 -0.06668046861886978
0.37443429231643677 0.29966965317726135 -0.039294447749853134
0.30259817838668823 0.3771512508392334 0.016129881143569946
0.38845258951187134 0.3507942855358124 -0.05528073012828827
0.2932736277580261 0.4244314432144165 0.019138719886541367
0.2802397310733795 0.4055541753768921 0.06250505149364471
0.4724592864513397 0.6959684491157532 -0.046906281262636185
0.44786593317985535 0.6974837779998779 -0.031581368297338486
0.43088775873184204 0.6992353200912476 -0.010782134719192982
0.453125536441803 0.6337621212005615 -0.05196186155080795
0.4080139398574829 0.7099446058273315 0.03437160328030586
0.4177784323692322 0.7297109365463257 0.026149146258831024
0.41846203804016113 0.7098240256309509 0.031174011528491974
0.457468181848526 0.6289474368095398 -0.09117632359266281
0.44396036863327026 0.7027961611747742 -0.0033746431581676006
0.4593809247016907 0.7035451531410217 -0.018396353349089622
0.4787277281284332 0.7054717540740967 -0.029441192746162415
0.4682333469390869 0.808712899684906 0.02568816766142845
0.4696653485298157 0.7926566004753113 -0.0032329342793673277
0.4716033935546875 0.779836118221283 -0.010778685100376606
0.4742279052734375 0.7669764757156372 -0.009331629611551762
0.47727981209754944 0.757391631603241 -0.007235284894704819
0.4411637783050537 0.7389682531356812 0.01403570082038641
0.43619924783706665 0.7422401905059814 0.012205838225781918
0.4296189546585083 0.747802734375 0.011956525035202503
0.4243585765361786 0.7540616989135742 0.018014781177043915
0.40550845861434937 0.6734505891799927 -0.007427196949720383
0.2598833739757538 0.5770108699798584 0.24520480632781982
0.4981876313686371 0.6483503580093384 -0.08199610561132431
0.4310939610004425 0.7284688353538513 0.026159189641475677
0.42419105768203735 0.728775143623352 0.025076569989323616
0.4722955822944641 0.6483557224273682 -0.055597029626369476
0.4379921853542328 0.6358387470245361 -0.03275087848305702
0.46900853514671326 0.6438026428222656 -0.058261264115571976
0.41250935196876526 0.5525314211845398 -0.01844455860555172
0.37424618005752563 0.565182089805603 -0.01011708565056324
0.4273666739463806 0.6113141179084778 -0.04626426473259926
0.32070958614349365 0.3186120092868805 0.006837010849267244
0.3366500735282898 0.3576637804508209 -0.021816788241267204
0.3516446352005005 0.4010411500930786 -0.04348710551857948
0.4146236479282379 0.7641066908836365 0.03674434497952461
0.44883450865745544 0.414455771446228 -0.07856888324022293
0.44226816296577454 0.3499693274497986 -0.07433044165372849
0.43414050340652466 0.29141512513160706 -0.06644044816493988
0.34610629081726074 0.4932052493095398 0.011680927127599716
0.29376843571662903 0.5150220394134521 0.049247343093156815
0.43907296657562256 0.49112796783447266 -0.0033463547006249428
0.31571507453918457 0.4603285789489746 0.01933594048023224
0.45083534717559814 0.5295270681381226 -0.03933047130703926
0.4438422918319702 0.6132883429527283 -0.09171132743358612
0.271091103553772 0.5286825299263 0.07756742089986801
0.3085528612136841 0.530979573726654 0.030531050637364388
0.33715885877609253 0.5406067967414856 0.00999393966048956
0.3805992007255554 0.5393646359443665 -0.002237185137346387
0.4127044975757599 0.5321803092956543 -0.00874636135995388
0.43518948554992676 0.5236599445343018 -0.01765487901866436
0.4795125424861908 0.503892183303833 -0.07040681689977646
0.27291011810302734 0.575392484664917 0.0771026685833931
0.2982464134693146 0.45815205574035645 0.028983132913708687
0.48657000064849854 0.6446194052696228 -0.113024041056633
0.43724948167800903 0.5660423636436462 -0.03564343973994255
0.2516576647758484 0.47657525539398193 0.2121567577123642
0.451603502035141 0.5135119557380676 -0.02356165088713169
0.42530784010887146 0.6103041172027588 -0.021425209939479828
0.3271831274032593 0.4719502925872803 0.028234466910362244
0.4438555836677551 0.596441388130188 -0.08444032073020935
0.26776832342147827 0.6323186159133911 0.24309007823467255
0.43831849098205566 0.4822864234447479 0.001789482543244958
0.46018728613853455 0.586603581905365 -0.10889479517936707
0.32972705364227295 0.755677342414856 0.12458404153585434
0.3327708840370178 0.7795484066009521 0.16596142947673798
0.2551857531070709 0.5782824754714966 0.16138605773448944
0.3018836975097656 0.7221860885620117 0.14361931383609772
0.2669662833213806 0.44068580865859985 0.10520588606595993
0.4155611991882324 0.8476476669311523 0.07103308290243149
0.48990777134895325 0.6471962332725525 -0.08018474280834198
0.41712498664855957 0.5798483490943909 -0.024159124121069908
0.2747657299041748 0.4881253242492676 0.07896403223276138
0.36696356534957886 0.48453617095947266 0.0031430902890861034
0.3867182731628418 0.48701632022857666 -0.002839090069755912
0.41173499822616577 0.7310080528259277 0.030187971889972687
0.27699679136276245 0.6210666298866272 0.09184220433235168
0.4551464319229126 0.8829277753829956 0.07983750849962234
0.39145174622535706 0.8400112390518188 0.11853497475385666
0.3646441102027893 0.8140660524368286 0.13970798254013062
0.5044621825218201 0.3518177270889282 -0.08123167604207993
0.5016029477119446 0.8906087875366211 0.07340802997350693
0.40549084544181824 0.4866071343421936 -0.00456690089777112
0.42319801449775696 0.48446521162986755 -0.002225506352260709
0.4340854287147522 0.4837104082107544 0.0015924061881378293
0.28289949893951416 0.4518594741821289 0.05182141065597534
0.418340802192688 0.4620599150657654 -0.0068933069705963135
0.39888307452201843 0.4524816572666168 -0.01095898263156414
0.3783980906009674 0.44973552227020264 -0.00949507299810648
0.3579977750778198 0.45337629318237305 -0.003109497483819723
0.3458847999572754 0.46031349897384644 0.005470107775181532
0.25505825877189636 0.425014853477478 0.16604724526405334
0.3530172109603882 0.48052576184272766 0.010319145396351814
0.500379204750061 0.6625490188598633 -0.052699558436870575
0.4258452355861664 0.6640185117721558 -0.02517830580472946
0.44686219096183777 0.6286184787750244 -0.06707768142223358
0.46866339445114136 0.6623018383979797 -0.048965975642204285
0.5016754269599915 0.4708055853843689 -0.06791368871927261
0.3591298460960388 0.7891937494277954 0.11099975556135178
0.3865683078765869 0.8174454569816589 0.09312820434570312
0.4536132216453552 0.8700652718544006 0.05180378258228302
0.3077274560928345 0.7418861389160156 0.1990879476070404
0.4319213628768921 0.4747304916381836 -0.0021203996147960424
0.46468305587768555 0.5405974984169006 -0.07148188352584839
0.5015465021133423 0.8781044483184814 0.04678625240921974
0.4200315773487091 0.8646578192710876 0.09546244889497757
0.262820303440094 0.6289082765579224 0.16589988768100739
0.45709672570228577 0.7495940327644348 0.002231706166639924
0.45229700207710266 0.7560923099517822 0.0004717739939223975
0.44734835624694824 0.7659002542495728 0.000959624710958451
0.4434291422367096 0.7772348523139954 0.007605550345033407
0.4367229640483856 0.7900306582450867 0.029115993529558182
0.424683153629303 0.7056663632392883 0.013071190565824509
0.4167519807815552 0.702914834022522 0.013484752736985683
0.40990200638771057 0.6988912224769592 0.012804515659809113
0.3899122178554535 0.6869364976882935 0.015241662040352821
0.30553025007247925 0.6362524628639221 0.046654701232910156
0.4655497968196869 0.5154655575752258 -0.053240250796079636
0.45528653264045715 0.47068682312965393 -0.01843324489891529
0.4414544701576233 0.47072145342826843 -0.008316480554640293
0.4304925203323364 0.7030100226402283 0.01536285039037466
0.3070114254951477 0.6902828216552734 0.09384376555681229
0.47343993186950684 0.4729371964931488 -0.04976276680827141
0.42708805203437805 0.8048433661460876 0.04482415318489075
0.49849191308021545 0.5522810816764832 -0.11361485719680786
0.47965651750564575 0.5307642221450806 -0.09002997726202011
0.49962472915649414 0.5267001986503601 -0.0964084193110466
0.4497988820075989 0.5750331282615662 -0.06648149341344833
0.5018407702445984 0.8572187423706055 0.032848428934812546
0.5024670958518982 0.8322713375091553 0.02970084734261036
0.46256810426712036 0.8262202143669128 0.034887515008449554
0.3809030055999756 0.7436055541038513 0.057320598512887955
0.4067917764186859 0.6264449954032898 -0.01124504953622818
0.40138620138168335 0.7766538858413696 0.05354584380984306
0.35267508029937744 0.6217256784439087 -0.00017716952424962074
0.38528645038604736 0.6472492218017578 -8.863240509526804e-05
0.3368297219276428 0.6550102233886719 0.026735728606581688
0.45604318380355835 0.8495137095451355 0.038780488073825836
0.43806320428848267 0.5847555994987488 -0.04720190167427063
0.3639664053916931 0.7629479765892029 0.08101429045200348
0.3910242021083832 0.7946693301200867 0.07289883494377136
0.3636999726295471 0.7105264663696289 0.05020209029316902
0.28517472743988037 0.6601922512054443 0.10750500857830048
0.3363083004951477 0.716768741607666 0.07169466465711594
0.27740171551704407 0.6768149137496948 0.16467255353927612
0.36887818574905396 0.6708452701568604 0.017641548067331314
0.45134058594703674 0.5531942248344421 -0.05225208029150963
0.45041993260383606 0.6249822974205017 -0.0963602066040039
0.4381325840950012 0.6256645321846008 -0.0692104771733284
0.4588439166545868 0.6117923259735107 -0.11516688764095306
0.43873703479766846 0.45370280742645264 -0.02716977335512638
0.4024011492729187 0.44032078981399536 -0.03219487890601158
0.3695005476474762 0.4363554120063782 -0.029573358595371246
0.34247493743896484 0.4382312595844269 -0.018765725195407867
0.3242006301879883 0.4457048773765564 -0.0031802665907889605
0.3130810260772705 0.4791111946105957 0.03802549093961716
0.25273650884628296 0.5303399562835693 0.15030133724212646
0.32986965775489807 0.5091041326522827 0.023592032492160797
0.353618323802948 0.5170269012451172 0.009824280627071857
0.38390016555786133 0.5181460976600647 -0.0002201867027906701
0.41206496953964233 0.5145072937011719 -0.004799369256943464
0.4327888488769531 0.5086954832077026 -0.008668379858136177
0.4467545747756958 0.5029155611991882 -0.011069116182625294
0.2555498480796814 0.5261471271514893 0.23651832342147827
0.4392375946044922 0.6292474865913391 -0.056912630796432495
0.4638732671737671 0.563030481338501 -0.08690396696329117
0.46468526124954224 0.6293660402297974 -0.11457742005586624
0.4767427146434784 0.6392163634300232 -0.10374779999256134
0.46518808603286743 0.6316518187522888 -0.1027747169137001
0.4447299838066101 0.6346259117126465 -0.04754987359046936
0.48014751076698303 0.6423397064208984 -0.10991952568292618
0.48335936665534973 0.6448698043823242 -0.08080232888460159
0.4459953308105469 0.48508918285369873 -0.0023848123382776976
0.4577600061893463 0.49204221367836 -0.016752097755670547
0.46408915519714355 0.4976411461830139 -0.03351382538676262
0.3390672504901886 0.46555331349372864 0.013432728126645088
0.32753273844718933 0.46056753396987915 0.01370234228670597
0.5174803733825684 0.5554084777832031 -0.10584366321563721
0.6673696637153625 0.48293817043304443 0.008717216551303864
0.5179204940795898 0.6414702534675598 -0.08225807547569275
0.7596271634101868 0.39379870891571045 0.09915699064731598
0.598738968372345 0.5032151341438293 -0.011773835867643356
0.6216239333152771 0.5044913291931152 -0.010890019126236439
0.644271194934845 0.5037499070167542 -0.005776337347924709
0.6763542890548706 0.49112001061439514 0.012553263455629349
0.579964816570282 0.4987944960594177 -0.009832357987761497
0.6345077753067017 0.44864267110824585 -0.025593025609850883
0.6083379983901978 0.44957655668258667 -0.02564847655594349
0.6580789089202881 0.45284876227378845 -0.018429739400744438
0.6734185814857483 0.4605296850204468 -0.008944960311055183
0.6946847438812256 0.506547212600708 0.02469444088637829
0.5867026448249817 0.8288080096244812 0.052657607942819595
0.6772440671920776 0.4774637222290039 0.015386802144348621
0.7652908563613892 0.49246644973754883 0.1245642900466919
0.7217186689376831 0.4934263527393341 0.04526576027274132
0.6173441410064697 0.5999341011047363 -0.02109432965517044
0.533575713634491 0.6845930814743042 -0.05155954137444496
0.5306363701820374 0.7040250301361084 -0.04035134240984917
0.565481424331665 0.6881613731384277 -0.03707585483789444
0.585043728351593 0.6937602162361145 -0.015337447635829449
0.5527676343917847 0.7036348581314087 -0.029928188771009445
0.5694988369941711 0.7044366598129272 -0.009712538681924343
0.6114543080329895 0.7378038763999939 0.03780246153473854
0.5152930617332458 0.6346519589424133 -0.12632210552692413
0.5178323984146118 0.6116767525672913 -0.13581974804401398
0.707512617111206 0.4452625513076782 -0.009163297712802887
0.5701266527175903 0.5443571209907532 -0.03246517851948738
0.567826509475708 0.6190248131752014 -0.06996585428714752
0.5698351263999939 0.6054440140724182 -0.06408896297216415
0.6877737045288086 0.5940788388252258 0.003970779944211245
0.5174519419670105 0.5815645456314087 -0.12514345347881317
0.6503499746322632 0.4267127215862274 -0.05212820693850517
0.6840144991874695 0.4320088326931 -0.03447089344263077
0.7369513511657715 0.3559003174304962 0.04875626042485237
0.5487094521522522 0.44566404819488525 -0.06738442182540894
0.5862023234367371 0.456987202167511 -0.01737389899790287
0.6274775266647339 0.7077572345733643 0.03451304882764816
0.7301153540611267 0.7002118825912476 0.22000856697559357
0.5516106486320496 0.6317722797393799 -0.058685053139925
0.533586859703064 0.639322817325592 -0.05945202335715294
0.6088890433311462 0.7091296315193176 0.0329970046877861
0.5961703658103943 0.7103363871574402 0.02750777266919613
0.6976054906845093 0.41724708676338196 -0.02538974955677986
0.5691640377044678 0.6257665753364563 -0.05557764694094658
0.6053857803344727 0.42998677492141724 -0.06345148384571075
0.6100931763648987 0.41139763593673706 -0.0714484304189682
0.6421825289726257 0.30428725481033325 -0.04540104418992996
0.7163277864456177 0.38563722372055054 0.006383499130606651
0.623461127281189 0.3553880453109741 -0.06071452051401138
0.7222965955734253 0.4342304468154907 0.00925359595566988
0.7406293153762817 0.41516995429992676 0.05155129358172417
0.5327408313751221 0.6962070465087891 -0.0481947660446167
0.558805525302887 0.6976330280303955 -0.03409368917346001
0.5776157975196838 0.6993116140365601 -0.014262349344789982
0.546543300151825 0.6349489092826843 -0.05368043854832649
0.6027973294258118 0.7098839282989502 0.030002716928720474
0.5924265384674072 0.7299667596817017 0.022518619894981384
0.592099130153656 0.7098945379257202 0.026976659893989563
0.5393017530441284 0.6304920315742493 -0.0931198000907898
0.5649238228797913 0.7024484276771545 -0.0064497943967580795
0.5484233498573303 0.7034997344017029 -0.02063976414501667
0.5280614495277405 0.7055560350418091 -0.03080691024661064
0.537982165813446 0.8097826242446899 0.024174069985747337
0.5368862748146057 0.7934501767158508 -0.004750457592308521
0.5352882742881775 0.7805798649787903 -0.012374509125947952
0.5325871109962463 0.7673530578613281 -0.010685844346880913
0.5298231244087219 0.7577890157699585 -0.008524719625711441
0.5680297017097473 0.7391388416290283 0.011279009282588959
0.5729656219482422 0.7426595687866211 0.009187953546643257
0.5796617865562439 0.7486074566841125 0.008983492851257324
0.5848504900932312 0.7552416324615479 0.014705220237374306
0.6004335880279541 0.6749788522720337 -0.011189003475010395
0.761152982711792 0.5861396193504333 0.23369130492210388
0.5787465572357178 0.7286484837532043 0.022696031257510185
0.5857800245285034 0.7288946509361267 0.02153416909277439
0.5269731879234314 0.6488943696022034 -0.05660856142640114
0.563191294670105 0.6371058225631714 -0.034901008009910583
0.530003547668457 0.6444103717803955 -0.05933491885662079
0.5940781235694885 0.5553097128868103 -0.023522570729255676
0.6330859661102295 0.569067656993866 -0.01681589148938656
0.5742614269256592 0.6130920648574829 -0.049400657415390015
0.6998350024223328 0.32512375712394714 -0.0018279623473063111
0.6789723634719849 0.3646113872528076 -0.029759174212813377
0.658812940120697 0.4081786870956421 -0.05084404721856117
0.5939271450042725 0.766040027141571 0.03278762847185135
0.5568968653678894 0.4168582856655121 -0.08074328303337097
0.5678035020828247 0.3523111045360565 -0.07693343609571457
0.5800549983978271 0.2937558591365814 -0.06938474625349045
0.6644898653030396 0.4993996024131775 0.0036670207045972347
0.719477653503418 0.5223250985145569 0.03932680934667587
0.5681989192962646 0.4939471483230591 -0.007158227730542421
0.697321891784668 0.46872881054878235 0.009997202083468437
0.5538797378540039 0.5314432382583618 -0.04239511489868164
0.5538144111633301 0.6150856018066406 -0.09400968253612518
0.7436453104019165 0.5367981791496277 0.06651589274406433
0.7025117874145508 0.5375428199768066 0.02124529518187046
0.6724074482917786 0.5459204912185669 0.0017886138521134853
0.6277406215667725 0.5433049201965332 -0.008886201307177544
0.5947856903076172 0.5351287722587585 -0.01385470014065504
0.571529746055603 0.526043176651001 -0.021653741598129272
0.52273029088974 0.5046913623809814 -0.0718286857008934
0.7391895651817322 0.5832227468490601 0.06629589945077896
0.716399610042572 0.4667981266975403 0.019143398851156235
0.5084784626960754 0.6450423002243042 -0.11359506845474243
0.5668067336082458 0.5680349469184875 -0.03890456631779671
0.7735582590103149 0.4857759177684784 0.19996416568756104
0.554289698600769 0.5155474543571472 -0.026694756001234055
0.577702522277832 0.6121033430099487 -0.024436237290501595
0.6847245693206787 0.4797740578651428 0.019574524834752083
0.5551658272743225 0.5982077121734619 -0.08678610622882843
0.7503311634063721 0.6413721442222595 0.23260101675987244
0.5692513585090637 0.4854014813899994 -0.0021662400104105473
0.5369017124176025 0.5879027843475342 -0.11068852990865707
0.6791749000549316 0.7620503306388855 0.11697258800268173
0.6766747832298279 0.7861328125 0.15832436084747314
0.7607755661010742 0.5873636603355408 0.1500343382358551
0.7082871198654175 0.7295215725898743 0.13505683839321136
0.7541894316673279 0.4498535394668579 0.093961700797081
0.5891025066375732 0.8511518239974976 0.06782925873994827
0.5067076086997986 0.6474674344062805 -0.0806661993265152
0.5880993604660034 0.5821130275726318 -0.028223630040884018
0.7418975830078125 0.49660104513168335 0.06835192441940308
0.6422311067581177 0.4901553988456726 -0.003921447787433863
0.6220220923423767 0.4917757511138916 -0.009148722514510155
0.5988832116127014 0.7316382527351379 0.026220474392175674
0.7340129613876343 0.6287534832954407 0.08142849802970886
0.5484338998794556 0.8850151300430298 0.07778280228376389
0.614763081073761 0.8448924422264099 0.11366686969995499
0.6431853175163269 0.8196519613265991 0.13373124599456787
0.6029142141342163 0.4906492531299591 -0.010072898119688034
0.5849313735961914 0.4879080653190613 -0.006800862494856119
0.57383793592453 0.48688817024230957 -0.002802054863423109
0.7337151169776917 0.46085619926452637 0.04128837212920189
0.5907092690467834 0.4660617709159851 -0.012009267695248127
0.6111489534378052 0.4575495719909668 -0.016786612570285797
0.6317802667617798 0.45603060722351074 -0.016374632716178894
0.652364194393158 0.4605799615383148 -0.010727795772254467
0.6647038459777832 0.4679605960845947 -0.002576684346422553
0.7711043357849121 0.4343244731426239 0.15412834286689758
0.6567801237106323 0.4869289994239807 0.0026803978253155947
0.5775648355484009 0.6652321219444275 -0.02802014909684658
0.5519853234291077 0.6301773190498352 -0.06895019114017487
0.5329901576042175 0.6628164052963257 -0.05009322240948677
0.6484358310699463 0.7946570515632629 0.10496838390827179
0.6194811463356018 0.8220677375793457 0.088450588285923
0.549501895904541 0.8719879388809204 0.049782946705818176
0.7040191292762756 0.7493381500244141 0.19006484746932983
0.5759581923484802 0.4781281352043152 -0.0065746912732720375
0.5366055369377136 0.5419889092445374 -0.07340900599956512
0.5844839215278625 0.8682817220687866 0.09196129441261292
0.7510995268821716 0.6377577185630798 0.15487782657146454
0.5509381294250488 0.7500399351119995 1.156468783847231e-06
0.5557106733322144 0.7566960453987122 -0.0018561662873253226
0.5605807304382324 0.7668108940124512 -0.0015653048176318407
0.5642409324645996 0.77854323387146 0.00516583351418376
0.5704192519187927 0.7917618751525879 0.026329558342695236
0.5854294300079346 0.7054909467697144 0.009111798368394375
0.5932624340057373 0.7029425501823425 0.009226256981492043
0.6002618670463562 0.6990518569946289 0.008687938563525677
0.6184394955635071 0.6884146928787231 0.010438201949000359
0.7036032676696777 0.6425952911376953 0.037106674164533615
0.5379552841186523 0.5168855786323547 -0.05559704080224037
0.5515768527984619 0.47277355194091797 -0.020919203758239746
0.5662044286727905 0.4735006093978882 -0.011886504478752613
0.5795103907585144 0.7028075456619263 0.011537071317434311
0.7025622129440308 0.6968402862548828 0.08498051762580872
0.5314701795578003 0.47420620918273926 -0.05140579119324684
0.5791023969650269 0.807257354259491 0.04191821813583374
0.5201515555381775 0.5315107107162476 -0.09093926101922989
0.5511327981948853 0.5766558051109314 -0.06867057830095291
0.542684018611908 0.8276048302650452 0.03318643197417259
0.6276605129241943 0.7470618486404419 0.0519510954618454
0.597663938999176 0.6287440061569214 -0.015404206700623035
0.6062713861465454 0.7796013355255127 0.04953400045633316
0.6541680097579956 0.6262220144271851 -0.007387481164187193
0.6209587454795837 0.6502870917320251 -0.005207078531384468
0.6711934208869934 0.6600918173789978 0.01899898238480091
0.5478605031967163 0.8513391017913818 0.03681546449661255
0.564589262008667 0.5866236686706543 -0.04995742067694664
0.6439750790596008 0.7677196860313416 0.0750655010342598
0.615584671497345 0.7987567782402039 0.06832372397184372
0.6452376842498779 0.7140672206878662 0.04349244758486748
0.7254956960678101 0.667780876159668 0.09781084209680557
0.6724591851234436 0.7221072316169739 0.06423778831958771
0.7348668575286865 0.6851499080657959 0.1545495092868805
0.639026939868927 0.6739400625228882 0.011461500078439713
0.5512880086898804 0.5548367500305176 -0.05490163341164589
0.5463630557060242 0.6266827583312988 -0.09850020706653595
0.5610494613647461 0.6274662613868713 -0.07164373993873596
0.5367943644523621 0.6131817102432251 -0.11708090454339981
0.568655788898468 0.4564683437347412 -0.03063814528286457
0.6059925556182861 0.44496822357177734 -0.0373845137655735
0.63995760679245 0.44270652532577515 -0.03620823845267296
0.6680814027786255 0.44600480794906616 -0.026862390339374542
0.6876428723335266 0.45429056882858276 -0.01201256737112999
0.7003525495529175 0.4869847595691681 0.028429731726646423
0.7658559083938599 0.5393704771995544 0.13865424692630768
0.6810437440872192 0.5154827833175659 0.014903536066412926
0.6561934947967529 0.522374153137207 0.001992484088987112
0.624976396560669 0.5223618745803833 -0.006800873205065727
0.5960243344306946 0.517776608467102 -0.010010302066802979
0.5745705962181091 0.5115770101547241 -0.012650877237319946
0.5599815249443054 0.5052804946899414 -0.014306270517408848
0.7679857611656189 0.5350750088691711 0.22448769211769104
0.5606622695922852 0.6307817697525024 -0.05911101773381233
0.5351986885070801 0.5643041133880615 -0.08874381333589554
0.5305312275886536 0.6305639743804932 -0.11608856916427612
0.5192223787307739 0.6400441527366638 -0.10450125485658646
0.5307199954986572 0.6329603791236877 -0.10404667258262634
0.5555086135864258 0.6360278129577637 -0.0495203360915184
0.5152721405029297 0.6429637670516968 -0.11045600473880768
0.5133981108665466 0.645359218120575 -0.08133254945278168
0.5609957575798035 0.4877229332923889 -0.005664660129696131
0.5485769510269165 0.4941183030605316 -0.01933463290333748
0.5413016080856323 0.49918439984321594 -0.0356464758515358
0.6717690825462341 0.47333091497421265 0.005222721956670284
0.6841437816619873 0.4688172936439514 0.004990420304238796
