ply
format ascii 1.0
element vertex 468
property float x
property float y
property float z
end_header
0.47615712881088257 0.6933087110519409 -0.06143270805478096
0.4624160826206207 0.6359232664108276 -0.13666494190692902
0.4729979634284973 0.6555525064468384 -0.07303018122911453
0.4531227946281433 0.5508836507797241 -0.10294011235237122
0.4622943699359894 0.6104916334152222 -0.14614887535572052
0.4664972424507141 0.5760995745658875 -0.13769204914569855
0.4813651442527771 0.4929218590259552 -0.07476459443569183
0.33288419246673584 0.48058196902275085 0.054059550166130066
0.4863099753856659 0.4279389977455139 -0.058390624821186066
0.48640769720077515 0.3938790559768677 -0.0644771009683609
0.49415940046310425 0.2764306962490082 -0.04899062216281891
0.4773300886154175 0.7031121850013733 -0.05746164172887802
0.479597806930542 0.7085631489753723 -0.05052138864994049
0.48224905133247375 0.7080391645431519 -0.04057929664850235
0.4809871017932892 0.7454958558082581 -0.028948472812771797
0.4797219932079315 0.7536167502403259 -0.033291541039943695
0.4792594909667969 0.7636600136756897 -0.039035677909851074
0.47951990365982056 0.7761421799659729 -0.03664904460310936
0.4818170666694641 0.7984589338302612 -0.017333757132291794
0.46482720971107483 0.6485934853553772 -0.12372856587171555
0.44749927520751953 0.6430869102478027 -0.0870806947350502
0.27816474437713623 0.38811609148979187 0.1792723536491394
0.3999388813972473 0.5032899379730225 0.018900606781244278
0.37629932165145874 0.5037075877189636 0.024738753214478493
0.3540833294391632 0.5011442303657532 0.03524811565876007
0.32575345039367676 0.4875478744506836 0.06082255020737648
0.4187770485877991 0.4988864064216614 0.0170646533370018
0.36534374952316284 0.44243115186691284 0.01334420032799244
0.390449583530426 0.44536566734313965 0.008179047144949436
0.3425431251525879 0.44512754678726196 0.02591206133365631
0.32817935943603516 0.45322781801223755 0.03849365934729576
0.3097071647644043 0.5004329085350037 0.07695956528186798
0.3998412787914276 0.8243363499641418 0.035078518092632294
0.3255336284637451 0.4751322269439697 0.06388157606124878
0.26777538657188416 0.4893486499786377 0.19774895906448364
0.29129236936569214 0.48494967818260193 0.10517127066850662
0.3636125922203064 0.593643844127655 -0.0007482905639335513
0.43991756439208984 0.6868113875389099 -0.05300894379615784
0.4462772309780121 0.704556405544281 -0.04038619622588158
0.4061782956123352 0.6846216917037964 -0.02943381294608116
0.3874287009239197 0.6846513748168945 0.0006026296759955585
0.42123812437057495 0.6996687054634094 -0.021593373268842697
0.4038654565811157 0.6962238550186157 0.005131125915795565
0.3716461658477783 0.7219136357307434 0.05322800576686859
0.44334155321121216 0.6341755986213684 -0.13201379776000977
0.4412318170070648 0.6092357039451599 -0.13998858630657196
0.29724782705307007 0.42471492290496826 0.05087359994649887
0.41799095273017883 0.5409060716629028 -0.012548700906336308
0.3978707194328308 0.6147946715354919 -0.0626714751124382
0.3997116684913635 0.6006530523300171 -0.05518908053636551
0.297483891248703 0.5825328826904297 0.0461999885737896
0.4463857412338257 0.5777444839477539 -0.12599654495716095
0.3409006595611572 0.4002436399459839 -0.0038763934280723333
0.31389009952545166 0.4071269631385803 0.0225747711956501
0.2918558418750763 0.3459968566894531 0.12438648194074631
0.4365070164203644 0.42305922508239746 -0.04298946633934975
0.41234901547431946 0.4543797969818115 0.011644718237221241
0.3520638346672058 0.6915866136550903 0.05845872685313225
0.30027949810028076 0.7049384117126465 0.2722999155521393
0.4145049750804901 0.6291813850402832 -0.05580565333366394
0.4340728521347046 0.6397308707237244 -0.061929140239953995
0.3669058084487915 0.6896814107894897 0.05765748396515846
0.3789743185043335 0.6929259896278381 0.04976355656981468
0.30403774976730347 0.3904985785484314 0.03535962104797363
0.3980809152126312 0.6216263175010681 -0.04869028553366661
0.3800043761730194 0.40364593267440796 -0.02669142186641693
0.37543755769729614 0.382895290851593 -0.03297805413603783
0.36495208740234375 0.28938189148902893 0.008288020268082619
0.2973795533180237 0.368124783039093 0.07422582060098648
0.3716818392276764 0.33504393696784973 -0.013914922252297401
0.28765544295310974 0.41328662633895874 0.07340036332607269
0.2822973430156708 0.4025408625602722 0.12321874499320984
0.4419803321361542 0.6980609893798828 -0.048397764563560486
0.41402846574783325 0.6940665245056152 -0.025379598140716553
0.3953823447227478 0.6904599666595459 0.0014274928253144026
0.42036744952201843 0.6331846714019775 -0.052230946719646454
0.37231096625328064 0.6906040906906128 0.05332851782441139
0.38434910774230957 0.7102998495101929 0.037663526833057404
0.3840905427932739 0.6947415471076965 0.04873525723814964
0.42358922958374023 0.6287497282028198 -0.09137029200792313
0.41006043553352356 0.694038987159729 0.007669790647923946
0.4280129075050354 0.6985050439834595 -0.01286210399121046
0.4516371786594391 0.7042920589447021 -0.03037131205201149
0.4455045759677887 0.7939423322677612 -0.008093023672699928
0.444731205701828 0.7702383399009705 -0.025711217895150185
0.445096492767334 0.7573939561843872 -0.02744111977517605
0.44703757762908936 0.7478291988372803 -0.021306216716766357
0.4504680037498474 0.7410374879837036 -0.017592716962099075
0.40814611315727234 0.7218164801597595 0.017664192244410515
0.4037083685398102 0.7233906388282776 0.014264581725001335
0.3983529508113861 0.7276443243026733 0.011722889728844166
0.3948422074317932 0.7343624234199524 0.017675962299108505
0.37223899364471436 0.6675860285758972 0.006864498369395733
0.2826760411262512 0.5909866690635681 0.30293041467666626
0.4683413803577423 0.6524128317832947 -0.09113327413797379
0.39742743968963623 0.7121109962463379 0.037692733108997345
0.3901822865009308 0.710172712802887 0.03600618243217468
0.4418451189994812 0.6511150002479553 -0.061757493764162064
0.40587109327316284 0.6339299082756042 -0.03186163678765297
0.43808162212371826 0.6459651589393616 -0.06277427822351456
0.3932274281978607 0.5508918166160583 0.0007406699005514383
0.3529478907585144 0.5614598393440247 0.014647061936557293
0.39664706587791443 0.6083340048789978 -0.040088947862386703
0.317979097366333 0.31203964352607727 0.06501998752355576
0.324950635433197 0.34424299001693726 0.028811894357204437
0.33361712098121643 0.3798085153102875 6.481519085355103e-05
0.38957229256629944 0.7503944635391235 0.03579169511795044
0.42793309688568115 0.390021413564682 -0.053370315581560135
0.42482322454452515 0.3342714309692383 -0.042482178658246994
0.4216998517513275 0.2789054811000824 -0.030667759478092194
0.33554601669311523 0.49588602781295776 0.049152716994285583
0.28794240951538086 0.5145149230957031 0.09535975009202957
0.430183082818985 0.49374520778656006 0.017894642427563667
0.30862411856651306 0.45899155735969543 0.06512453407049179
0.43391674757003784 0.5281027555465698 -0.025071987882256508
0.40981507301330566 0.6115180253982544 -0.08974089473485947
0.2688134014606476 0.5297902226448059 0.12928864359855652
0.29796338081359863 0.5284446477890015 0.07174820452928543
0.3222992420196533 0.5367353558540344 0.04438868910074234
0.36425209045410156 0.5374817252159119 0.025336338207125664
0.397658109664917 0.5320903062820435 0.013516842387616634
0.42157605290412903 0.523678183555603 0.001449345494620502
0.46103882789611816 0.4990168511867523 -0.060219720005989075
0.26257961988449097 0.5745786428451538 0.12529216706752777
0.29376986622810364 0.4534202814102173 0.07957915216684341
0.4534199833869934 0.6465968489646912 -0.12025044858455658
0.41498106718063354 0.5643349885940552 -0.023837074637413025
0.27496105432510376 0.4868749678134918 0.2786492705345154
0.4383707046508789 0.5128018856048584 -0.006605600006878376
0.3966994881629944 0.6072670817375183 -0.014774272218346596
0.3196171224117279 0.47564077377319336 0.07076171785593033
0.4126265048980713 0.5940541625022888 -0.08080283552408218
0.2879939675331116 0.6466285586357117 0.29371753334999084
0.43048539757728577 0.4856501519680023 0.023954784497618675
0.42925921082496643 0.583964467048645 -0.10794827342033386
0.3231004476547241 0.7576872706413269 0.14182092249393463
0.33786123991012573 0.7872153520584106 0.18407712876796722
0.2612561285495758 0.585496723651886 0.21602778136730194
0.29689377546310425 0.7270758152008057 0.17253220081329346
0.2747630178928375 0.4430960416793823 0.16745750606060028
0.4004989266395569 0.8483723402023315 0.04949905723333359
0.4589459300041199 0.650831937789917 -0.08823193609714508
0.3937256336212158 0.577556848526001 -0.011398937553167343
0.27749398350715637 0.48894935846328735 0.1336059272289276
0.35515451431274414 0.48855894804000854 0.03572385013103485
0.37586086988449097 0.49143528938293457 0.026681365445256233
0.37959444522857666 0.7122148871421814 0.04279521480202675
0.2628575563430786 0.6216334104537964 0.1350313425064087
0.44120466709136963 0.8834388256072998 0.046646848320961
0.3870219886302948 0.8447598218917847 0.11086859554052353
0.36559829115867615 0.8200976848602295 0.14465099573135376
0.4895494282245636 0.3351971507072449 -0.05901547521352768
0.48555129766464233 0.8918731808662415 0.030011218041181564
0.39603328704833984 0.49096110463142395 0.02209995687007904
0.4146140515804291 0.48852744698524475 0.02238774485886097
0.4256410002708435 0.48707476258277893 0.02512267790734768
0.2827397882938385 0.4474629759788513 0.10674730688333511
0.41051289439201355 0.4691528081893921 0.017980176955461502
0.39054596424102783 0.46229296922683716 0.016989026218652725
0.3698652386665344 0.4601551592350006 0.021556289866566658
0.34970980882644653 0.46288514137268066 0.031187130138278008
0.33713966608047485 0.46822941303253174 0.04137121140956879
0.27247434854507446 0.4322810173034668 0.23489487171173096
0.3417341113090515 0.48456650972366333 0.045865435153245926
0.47524476051330566 0.6677676439285278 -0.06352865695953369
0.3932921290397644 0.6611148715019226 -0.019134072586894035
0.41296735405921936 0.6276661157608032 -0.06596558541059494
0.43935781717300415 0.6648992896080017 -0.05443732440471649
0.48589015007019043 0.4598231911659241 -0.0580708310008049
0.35216832160949707 0.7908607125282288 0.11610063910484314
0.3767065405845642 0.8189936280250549 0.08493603765964508
0.43556010723114014 0.8695594072341919 0.017091037705540657
0.3171398639678955 0.7522865533828735 0.23075155913829803
0.42410948872566223 0.4790133237838745 0.021747253835201263
0.4424762725830078 0.5376388430595398 -0.0632794201374054
0.48212558031082153 0.8772498965263367 0.002255466300994158
0.41000062227249146 0.8671295642852783 0.07472801208496094
0.26627445220947266 0.6369591355323792 0.21358153223991394
0.42634469270706177 0.7323530912399292 -0.0007816068828105927
0.4217103123664856 0.7368036508560181 -0.004073500167578459
0.4183250367641449 0.7444137930870056 -0.007146125193685293
0.4162784814834595 0.7557840347290039 -0.0030111095402389765
0.41277533769607544 0.7756906747817993 0.014181514270603657
0.3879714608192444 0.6924456357955933 0.02983282320201397
0.38000836968421936 0.6887148022651672 0.03190167248249054
0.37326619029045105 0.6844323873519897 0.03182503208518028
0.35571643710136414 0.6761794686317444 0.035229090601205826
0.2802885174751282 0.6332389116287231 0.07979736477136612
0.4481860399246216 0.512534499168396 -0.04095840826630592
0.4436940550804138 0.46690529584884644 0.000712584878783673
0.4325030446052551 0.4717269837856293 0.014618459157645702
0.3955024182796478 0.6909732818603516 0.030907010659575462
0.2886143624782562 0.6902568340301514 0.12274728715419769
0.45835375785827637 0.46437758207321167 -0.035678453743457794
0.406771183013916 0.7982670068740845 0.024593351408839226
0.47173258662223816 0.5480868220329285 -0.11555499583482742
0.4566122591495514 0.5265974402427673 -0.08448249846696854
0.4764121174812317 0.5220441222190857 -0.09421880543231964
0.4239234924316406 0.572906494140625 -0.06003700941801071
0.4808192849159241 0.8538079261779785 -0.011242503300309181
0.4814928472042084 0.8238110542297363 -0.014304195530712605
0.44093847274780273 0.8186522126197815 -0.0011698852758854628
0.3612183928489685 0.7361560463905334 0.06683142483234406
0.37882429361343384 0.6233982443809509 -0.001430641976185143
0.3828315734863281 0.7701183557510376 0.0484631285071373
0.3235807418823242 0.6168217062950134 0.018143223598599434
0.3558647930622101 0.6428466439247131 0.014453529380261898
0.30630427598953247 0.6502001285552979 0.048292726278305054
0.43519124388694763 0.8474235534667969 0.0038166127633303404
0.41183048486709595 0.5826402306556702 -0.039275020360946655
0.34992724657058716 0.7599091529846191 0.0892554372549057
0.37649330496788025 0.7926679849624634 0.06561010330915451
0.3389185965061188 0.7019248604774475 0.06868365406990051
0.271467000246048 0.6624302864074707 0.14525142312049866
0.31590890884399414 0.7126380205154419 0.0925627127289772
0.27807772159576416 0.684781551361084 0.20550155639648438
0.33770686388015747 0.6630664467811584 0.037285033613443375
0.42967838048934937 0.5511972904205322 -0.04189261049032211
0.415767103433609 0.6240350008010864 -0.09576000273227692
0.4037065804004669 0.6240545511245728 -0.06713319569826126
0.42409250140190125 0.610115647315979 -0.11515524238348007
0.4240488111972809 0.4455435872077942 -0.003183850785717368
0.3865247964859009 0.4310923218727112 -0.0011182987364009023
0.35496920347213745 0.4272405207157135 0.007102693431079388
0.32981592416763306 0.4301965832710266 0.02314712665975094
0.31407976150512695 0.4404614567756653 0.04238960146903992
0.3078416883945465 0.48026660084724426 0.0836218073964119
0.2624746263027191 0.5372346043586731 0.20952339470386505
0.3197104334831238 0.509661078453064 0.06279338896274567
0.34162554144859314 0.5168067216873169 0.044111352413892746
0.37132543325424194 0.5192746520042419 0.028856320306658745
0.40029847621917725 0.5165373086929321 0.018337246030569077
0.42225322127342224 0.5105199813842773 0.012314977124333382
0.43645501136779785 0.5037813782691956 0.007180493324995041
0.28003427386283875 0.5385102033615112 0.2995869219303131
0.4055817723274231 0.6274492144584656 -0.05475183203816414
0.4373455345630646 0.5601873397827148 -0.08221486210823059
0.4294036328792572 0.6289945244789124 -0.11766855418682098
0.44424140453338623 0.6408551931381226 -0.10943446308374405
0.43124091625213623 0.6318989992141724 -0.1056111678481102
0.41177836060523987 0.6333760619163513 -0.047422144562006
0.4470173418521881 0.6442331075668335 -0.11631745100021362
0.45216140151023865 0.6478582620620728 -0.0875265970826149
0.43743276596069336 0.4870609641075134 0.017534606158733368
0.4473845064640045 0.4914342164993286 0.00014536123489961028
0.4509682059288025 0.49512702226638794 -0.01834220625460148
0.3301714360713959 0.47209954261779785 0.051490068435668945
0.3191092014312744 0.4623798429965973 0.05494966357946396
0.49288734793663025 0.5516819953918457 -0.11138684302568436
0.6769567131996155 0.4852747917175293 -0.0074090007692575455
0.49403780698776245 0.6455368399620056 -0.09364733099937439
0.790849506855011 0.39138996601104736 0.08325297385454178
0.5991663336753845 0.505621075630188 -0.020764168351888657
0.6248152256011963 0.5071741342544556 -0.022691888734698296
0.6503181457519531 0.5058518648147583 -0.019996201619505882
0.6886250972747803 0.4929490089416504 -0.004461985547095537
0.5782867670059204 0.5004448890686035 -0.013714421540498734
0.6360940337181091 0.4421391487121582 -0.036667753010988235
0.6085625290870667 0.4446881413459778 -0.031205851584672928
0.6628119349479675 0.44593366980552673 -0.032028961926698685
0.6814847588539124 0.45533865690231323 -0.023893853649497032
0.708904504776001 0.5072243809700012 0.006705037318170071
0.5815373063087463 0.8352643847465515 0.0052606831304728985
0.688102126121521 0.4794502258300781 -0.0002887454757001251
0.7977592349052429 0.4981122314929962 0.10087447613477707
0.7399415373802185 0.4916446805000305 0.02631298266351223
0.6195287108421326 0.6007583737373352 -0.041708655655384064
0.5177100896835327 0.6905914545059204 -0.06519638746976852
0.5194069147109985 0.7081695199012756 -0.051984257996082306
0.5634846687316895 0.6929627656936646 -0.054223474115133286
0.5952544808387756 0.695288896560669 -0.03281576931476593
0.5531024932861328 0.7067400217056274 -0.04377962648868561
0.5808396339416504 0.7049251794815063 -0.024313200265169144
0.62724769115448 0.7340729236602783 0.011646788567304611
0.48386257886886597 0.6357768774032593 -0.1373111605644226
0.4865066409111023 0.6105307936668396 -0.14644889533519745
0.7222444415092468 0.4260443449020386 -0.023230502381920815
0.563157320022583 0.5439894795417786 -0.03938387706875801
0.5589014291763306 0.6201258897781372 -0.08797416090965271
0.5619426965713501 0.6056091785430908 -0.08127691596746445
0.7052462100982666 0.5936145782470703 -0.021063730120658875
0.4892624020576477 0.5786944627761841 -0.1343846619129181
0.6561888456344604 0.3967673182487488 -0.053556330502033234
0.6944138407707214 0.4059407413005829 -0.04062123969197273
0.7600228786468506 0.34610193967819214 0.038518086075782776
0.5416286587715149 0.4211021065711975 -0.05868156999349594
0.5852281451225281 0.45409417152404785 -0.020161783322691917
0.6519036293029785 0.7049226760864258 0.009620243683457375
0.7759065628051758 0.7243557572364807 0.18281812965869904
0.541314423084259 0.6342353820800781 -0.07493682950735092
0.5181869864463806 0.6430969834327698 -0.07147125154733658
0.6351506114006042 0.702279269695282 0.014246886596083641
0.6233530640602112 0.7040125131607056 0.010520055890083313
0.7111842632293701 0.388718843460083 -0.03288092464208603
0.5643239617347717 0.627299964427948 -0.07365453243255615
0.6061421632766724 0.4001449644565582 -0.060790397226810455
0.6104540824890137 0.37877967953681946 -0.06828039139509201
0.6431493759155273 0.28726473450660706 -0.039852067828178406
0.7343906164169312 0.36771783232688904 -0.0020179939456284046
0.6228640079498291 0.3321807086467743 -0.05505363643169403
0.7408680319786072 0.414829820394516 -0.006339561194181442
0.7650794982910156 0.4053916037082672 0.036345791071653366
0.5188246965408325 0.7020540833473206 -0.06068922579288483
0.5574829578399658 0.7018664479255676 -0.049214355647563934
0.5876697301864624 0.7003085017204285 -0.02998853102326393
0.5361320972442627 0.637832522392273 -0.06724581867456436
0.6296170949935913 0.7026455402374268 0.012704889290034771
0.6097868084907532 0.7208905220031738 0.0020825183019042015
0.6194765567779541 0.7052498459815979 0.010387464426457882
0.5197335481643677 0.633070170879364 -0.1084011048078537
0.578148365020752 0.7015858888626099 -0.02015857957303524
0.5503721833229065 0.7045283913612366 -0.03392596170306206
0.5192140340805054 0.7074036598205566 -0.042314231395721436
0.5231727957725525 0.7979400157928467 -0.019706938415765762
0.5200851559638977 0.7740861177444458 -0.03936871141195297
0.5186998844146729 0.7613839507102966 -0.041720569133758545
0.5177896618843079 0.7518895864486694 -0.035296909511089325
0.5165833830833435 0.7448339462280273 -0.03105296939611435
0.5776066780090332 0.7300276160240173 -0.010837925598025322
0.5813291072845459 0.7318005561828613 -0.014496191404759884
0.586082398891449 0.7364901304244995 -0.017696266993880272
0.5899500846862793 0.7435672283172607 -0.01310864556580782
0.6106038689613342 0.6773669123649597 -0.029914328828454018
0.8072803020477295 0.6048527359962463 0.20408347249031067
0.5969115495681763 0.7213795781135559 0.003551741596311331
0.6034727692604065 0.7199972867965698 0.0015502014430239797
0.5090715289115906 0.653959333896637 -0.07087060809135437
0.5597295165061951 0.639432966709137 -0.051869455724954605
0.5131783485412598 0.648945152759552 -0.07196138054132462
0.5919510722160339 0.5553568601608276 -0.034806542098522186
0.6371712684631348 0.5683496594429016 -0.03330137953162193
0.5701117515563965 0.6137992143630981 -0.06721284985542297
0.7125794887542725 0.3103080093860626 -0.004576589446514845
0.6895302534103394 0.3416508734226227 -0.03190144896507263
0.6665180921554565 0.37600791454315186 -0.05340518057346344
0.5996756553649902 0.7607296705245972 0.0009576953598298132
0.5488826036453247 0.3869350850582123 -0.0702192559838295
0.558721125125885 0.3329537510871887 -0.06341903656721115
0.5726129412651062 0.27767041325569153 -0.05476236715912819
0.6742322444915771 0.5013504028320312 -0.012563854455947876
0.7376101613044739 0.5233750939369202 0.0171881765127182
0.5653666853904724 0.494981974363327 -0.009554746560752392
0.7102707624435425 0.4627304673194885 -0.006143930368125439
0.5435706377029419 0.530013918876648 -0.04624015837907791
0.5364215970039368 0.6159598231315613 -0.11002343893051147
0.7687001824378967 0.5406018495559692 0.04058566689491272
0.7172735929489136 0.5372003316879272 -0.0017968701431527734
0.6815077066421509 0.5443581342697144 -0.018635785207152367
0.6306949853897095 0.5430803298950195 -0.02255353145301342
0.5932470560073853 0.5358220934867859 -0.022865958511829376
0.5662621259689331 0.5261887907981873 -0.025886476039886475
0.5055611729621887 0.49938634037971497 -0.06905210763216019
0.7686529159545898 0.587989330291748 0.03682103008031845
0.7326709628105164 0.4575580358505249 0.0010010561672970653
0.4778379201889038 0.6478623747825623 -0.12452138215303421
0.5594356060028076 0.5678110718727112 -0.050075314939022064
0.815269947052002 0.49535584449768066 0.17595358192920685
0.5460643768310547 0.5142544507980347 -0.02730623446404934
0.5768139958381653 0.6128544211387634 -0.04171235114336014
0.6974465250968933 0.4801735579967499 0.0034594291355460882
0.5402130484580994 0.5978128910064697 -0.10155842453241348
0.7971543073654175 0.6637145280838013 0.19907110929489136
0.5675497651100159 0.4868634045124054 -0.004586442373692989
0.5141392350196838 0.5863544344902039 -0.12277708947658539
0.706200122833252 0.7777893543243408 0.07599450647830963
0.704575777053833 0.808331310749054 0.11687641590833664
0.7992697358131409 0.6002203822135925 0.11953973770141602
0.7460734844207764 0.7475377321243286 0.09468454867601395
0.7825607061386108 0.44867053627967834 0.07455179840326309
0.5829108953475952 0.8605502843856812 0.01793544553220272
0.47841373085975647 0.6516498327255249 -0.0908835306763649
0.5855093002319336 0.5825366377830505 -0.043383754789829254
0.7647989392280579 0.4968130588531494 0.04621428623795509
0.6477768421173096 0.4925805926322937 -0.01790844276547432
0.6247193217277527 0.4942919611930847 -0.020696129649877548
0.6158037781715393 0.7233735918998718 0.005229851230978966
0.7694941163063049 0.6377612352371216 0.048900675028562546
0.5350521206855774 0.8905553817749023 0.02857932262122631
0.6175658702850342 0.8608016967773438 0.06697253882884979
0.6566665768623352 0.8393402695655823 0.08970753103494644
0.6036806702613831 0.4929264783859253 -0.018353089690208435
0.5843412280082703 0.4898602366447449 -0.012175925076007843
0.5726593136787415 0.48840367794036865 -0.005688021890819073
0.7548165321350098 0.45216572284698486 0.02187918871641159
0.5907282829284668 0.4702610373497009 -0.01757686771452427
0.6131385564804077 0.4632996618747711 -0.024796033278107643
0.6342839002609253 0.4618159532546997 -0.027347631752490997
0.6564470529556274 0.4652950167655945 -0.024133596569299698
0.6714398860931396 0.4714233875274658 -0.017884384840726852
0.8079930543899536 0.4380868673324585 0.13409557938575745
0.6646386981010437 0.4893147945404053 -0.01280108280479908
0.5780743360519409 0.6685500144958496 -0.047104764729738235
0.5394603610038757 0.632770299911499 -0.08380798250436783
0.5165494084358215 0.6682860255241394 -0.06618121266365051
0.6623832583427429 0.809201717376709 0.06237464025616646
0.6235672831535339 0.8349658250808716 0.04212768003344536
0.5346572995185852 0.8763777017593384 -0.0005081335548311472
0.7431211471557617 0.7727329730987549 0.15057674050331116
0.5745115876197815 0.48049196600914 -0.009994099847972393
0.5195818543434143 0.5391417741775513 -0.0773901492357254
0.578028678894043 0.8790799379348755 0.0421997494995594
0.7925492525100708 0.6543526649475098 0.12080611288547516
0.5489475727081299 0.738946795463562 -0.023224372416734695
0.5523488521575928 0.7435839176177979 -0.027251992374658585
0.5550169348716736 0.7512786984443665 -0.0313202328979969
0.5572547912597656 0.7625133991241455 -0.027713702991604805
0.5656447410583496 0.7834282517433167 -0.012135468423366547
0.6080517172813416 0.7027358412742615 -0.0060561164282262325
0.6150261759757996 0.700142502784729 -0.006622251123189926
0.6215961575508118 0.696493923664093 -0.008325443603098392
0.6389771699905396 0.6880213022232056 -0.010268379002809525
0.7336872220039368 0.6480859518051147 0.006128249224275351
0.5239283442497253 0.5136055946350098 -0.05585300549864769
0.5457456707954407 0.4667316675186157 -0.018134577199816704
0.5628619194030762 0.4721110165119171 -0.01189233548939228
0.6027029156684875 0.700218915939331 -0.003510367125272751
0.7383416891098022 0.7082967758178711 0.04894433170557022
0.5201519131660461 0.4641096591949463 -0.04684222489595413
0.5748447775840759 0.8077067136764526 -0.00252715521492064
0.4992201030254364 0.5273258686065674 -0.0920022502541542
0.5372825860977173 0.5757439136505127 -0.07915044575929642
0.528418242931366 0.8237316608428955 -0.014300614595413208
0.6413722634315491 0.749807596206665 0.020215163007378578
0.6008310914039612 0.6303900480270386 -0.03599216043949127
0.6104864478111267 0.7823064923286438 0.011312185786664486
0.6678140163421631 0.6274002194404602 -0.03461605682969093
0.6313761472702026 0.652377724647522 -0.028286296874284744
0.6957682371139526 0.6638187766075134 -0.012321249581873417
0.5330747365951538 0.853323757648468 -0.012585962191224098
0.5567774176597595 0.5865050554275513 -0.06341394037008286
0.6575253009796143 0.7759950757026672 0.03736431524157524
0.6195318698883057 0.8069092035293579 0.02541574276983738
0.6675963401794434 0.7161760330200195 0.012860612943768501
0.764435350894928 0.6804859638214111 0.0625867173075676
0.6990969777107239 0.7297205924987793 0.029437534511089325
0.7769531011581421 0.7040189504623413 0.11651592701673508
0.6607881188392639 0.6750653982162476 -0.014461738057434559
0.5388983488082886 0.5536036491394043 -0.062431272119283676
0.5274403691291809 0.6286852359771729 -0.11413222551345825
0.550513505935669 0.6295862793922424 -0.08843716233968735
0.5117987394332886 0.6133889555931091 -0.13007603585720062
0.5658743381500244 0.44492530822753906 -0.02910917066037655
0.6065137386322021 0.42977744340896606 -0.038252271711826324
0.6427209377288818 0.4261178970336914 -0.04123740270733833
0.6743203401565552 0.43059444427490234 -0.03582095354795456
0.6977443099021912 0.44225072860717773 -0.023967156186699867
0.7151687741279602 0.4857863783836365 0.011735271662473679
0.8010648488998413 0.5491023063659668 0.11067983508110046
0.692734956741333 0.5163521766662598 -0.0036559971049427986
0.6635695695877075 0.5228108763694763 -0.013531407341361046
0.6282389163970947 0.523692786693573 -0.01845552772283554
0.5957786440849304 0.5195350050926208 -0.01887708157300949
0.57151859998703 0.5125809907913208 -0.015533034689724445
0.5548033118247986 0.5051231384277344 -0.015548564493656158
0.8123608827590942 0.5496109127998352 0.19728831946849823
0.5530304312705994 0.6330165863037109 -0.07588249444961548
0.5151874423027039 0.5620120167732239 -0.09697933495044708
0.5042695999145508 0.6323167681694031 -0.1291171908378601
0.49269580841064453 0.643419623374939 -0.11606354266405106
0.5069600343704224 0.6356017589569092 -0.1174006536602974
0.5486475825309753 0.6385201811790466 -0.06524495035409927
0.4866698384284973 0.6461967825889587 -0.12175235152244568
0.48747074604034424 0.6496582627296448 -0.09226658195257187
0.557442843914032 0.4878441393375397 -0.0062312656082212925
0.5417943000793457 0.49196481704711914 -0.01747158169746399
0.5312325954437256 0.4956997036933899 -0.032800640910863876
0.680659294128418 0.47602468729019165 -0.010329412296414375
0.6953809261322021 0.4656117856502533 -0.010976282879710197
