ply
format ascii 1.0
element vertex 468
property float x
property float y
property float z
end_header
0.4628646969795227 0.6943886280059814 -0.08372962474822998
0.45059043169021606 0.6071058511734009 -0.1112787052989006
0.46690237522125244 0.6387172341346741 -0.06885110586881638
0.44380176067352295 0.5338255167007446 -0.059206318110227585
0.4491724967956543 0.5820422172546387 -0.1133759394288063
0.4539893865585327 0.5522369146347046 -0.09842026233673096
0.4718460142612457 0.4838109016418457 -0.024019908159971237
0.36058706045150757 0.4987708330154419 0.1078554019331932
0.476945161819458 0.4382110834121704 0.003972476813942194
0.4756975769996643 0.41063860058784485 0.00929227564483881
0.48295289278030396 0.3147542476654053 0.06677905470132828
0.4635505676269531 0.7068814039230347 -0.08300188928842545
0.4660731852054596 0.7182595729827881 -0.07748636603355408
0.4693194329738617 0.7247887849807739 -0.06945884227752686
0.47015106678009033 0.732024073600769 -0.0716264620423317
0.46860700845718384 0.7416465878486633 -0.07685073465108871
0.4680998623371124 0.7542939186096191 -0.08445791900157928
0.46961745619773865 0.7686986327171326 -0.085785873234272
0.47670939564704895 0.7957518696784973 -0.07298535108566284
0.4562501013278961 0.6216309070587158 -0.10345535725355148
0.4444926977157593 0.624934732913971 -0.07183383405208588
0.32638195157051086 0.4424246549606323 0.25586095452308655
0.4106346070766449 0.5095547437667847 0.0671939104795456
0.39205771684646606 0.5135360956192017 0.0737939178943634
0.37502235174179077 0.5156919956207275 0.08476375788450241
0.35584989190101624 0.5095116496086121 0.1104099228978157
0.42591750621795654 0.502086341381073 0.06276331096887589
0.38298285007476807 0.4619550406932831 0.07688061147928238
0.4026374816894531 0.4606064558029175 0.07006675750017166
0.3660537004470825 0.467288613319397 0.08784422278404236
0.356051504611969 0.4761348366737366 0.09859006106853485
0.3418462872505188 0.5285332798957825 0.12048905342817307
0.40559953451156616 0.8401578664779663 -0.0366663858294487
0.3556264638900757 0.49616190791130066 0.11745364964008331
0.3130043148994446 0.5343790054321289 0.23541590571403503
0.3261629641056061 0.5187026262283325 0.15209078788757324
0.38500910997390747 0.6085371971130371 0.01917087472975254
0.43972542881965637 0.69329833984375 -0.07217130810022354
0.4478883147239685 0.7208341360092163 -0.067525714635849
0.418992817401886 0.706911563873291 -0.053476836532354355
0.4082109332084656 0.7236059308052063 -0.035512328147888184
0.4338304400444031 0.7262940406799316 -0.05329350382089615
0.42382144927978516 0.7338631749153137 -0.036730729043483734
0.39105507731437683 0.767320454120636 -0.012575165368616581
0.4345802664756775 0.6085352897644043 -0.10483866930007935
0.42988383769989014 0.5849087834358215 -0.10528596490621567
0.33048200607299805 0.46258145570755005 0.12011480331420898
0.4237538278102875 0.5448711514472961 0.02037232555449009
0.4036445617675781 0.6134822964668274 -0.03779107704758644
0.40531912446022034 0.6014096140861511 -0.02843403071165085
0.33855682611465454 0.615149974822998 0.06546392291784286
0.4360696077346802 0.5569444894790649 -0.08535010367631912
0.36395764350891113 0.4320131540298462 0.07174330949783325
0.3421756625175476 0.44394028186798096 0.09603838622570038
0.3332649767398834 0.3998548984527588 0.219235360622406
0.4405628442764282 0.4374164640903473 0.0252165999263525
0.4210924506187439 0.4639173150062561 0.0697505995631218
0.37697654962539673 0.7476412653923035 0.00560691487044096
0.3352116346359253 0.7566680908203125 0.21544784307479858
0.4204140901565552 0.6262297034263611 -0.03823108971118927
0.43664443492889404 0.6316863894462585 -0.052236899733543396
0.39965546131134033 0.7489004135131836 -0.002023153705522418
0.4103614091873169 0.7454841136932373 -0.011562219820916653
0.3353312015533447 0.4331939220428467 0.11448939889669418
0.40785789489746094 0.6257975697517395 -0.030055014416575432
0.3962469696998596 0.4285076856613159 0.04806216433644295
0.3913867473602295 0.412182480096817 0.05047464743256569
0.38589656352996826 0.3386756181716919 0.12790125608444214
0.3336283266544342 0.4150627553462982 0.1610136479139328
0.38891321420669556 0.3726024627685547 0.08881910890340805
0.32454556226730347 0.45711156725883484 0.14605802297592163
0.3249017000198364 0.4504343867301941 0.1987273395061493
0.4424676299095154 0.7087613344192505 -0.07199936360120773
0.4262380599975586 0.7185136079788208 -0.05464526638388634
0.4152878522872925 0.729263186454773 -0.03859337419271469
0.4268600642681122 0.6304050087928772 -0.03854413703083992
0.40501660108566284 0.7477369904518127 -0.007357032038271427
0.4098505973815918 0.7475211024284363 -0.027833223342895508
0.4135243892669678 0.743198573589325 -0.013297967612743378
0.42368561029434204 0.613940954208374 -0.06478805840015411
0.4308684468269348 0.7331789135932922 -0.035003963857889175
0.44122743606567383 0.7287444472312927 -0.04732907935976982
0.45404520630836487 0.7262470126152039 -0.05985488370060921
0.45088106393814087 0.7962057590484619 -0.06559114903211594
0.4457395076751709 0.7684240937232971 -0.07685327529907227
0.4459332823753357 0.7537214756011963 -0.07512477785348892
0.44838204979896545 0.7409685254096985 -0.06679444760084152
0.45156121253967285 0.7331928014755249 -0.06183580681681633
0.42613375186920166 0.7384780645370483 -0.037266165018081665
0.4222886562347412 0.7416121959686279 -0.04246021807193756
0.4171072840690613 0.7484229207038879 -0.04731280729174614
0.4125474989414215 0.7572122812271118 -0.04407941550016403
0.3935783803462982 0.6957667469978333 -0.02013806812465191
0.32932230830192566 0.6425950527191162 0.28809046745300293
0.4621940851211548 0.6290616393089294 -0.0799754187464714
0.4205290675163269 0.7412869930267334 -0.02413753792643547
0.41526585817337036 0.7433785796165466 -0.02729884162545204
0.44280436635017395 0.6418316960334778 -0.05679910629987717
0.4183783233165741 0.6411842703819275 -0.023682786151766777
0.4397547245025635 0.6370292901992798 -0.05492248758673668
0.4061764180660248 0.5617704391479492 0.030104655772447586
0.37696313858032227 0.581516444683075 0.041370000690221786
0.406013548374176 0.6138627529144287 -0.019077196717262268
0.3514784574508667 0.36460307240486145 0.17321471869945526
0.3541252017021179 0.388391375541687 0.12516933679580688
0.3580576479434967 0.4170689582824707 0.08468716591596603
0.40614211559295654 0.7783122062683105 -0.03117489442229271
0.4324691891670227 0.4109196364879608 0.02656264416873455
0.4287775158882141 0.36531466245651245 0.05976605787873268
0.42769569158554077 0.32376110553741455 0.09080459922552109
0.36225926876068115 0.5147389769554138 0.09839390218257904
0.3235097825527191 0.5486052632331848 0.1344536989927292
0.43554747104644775 0.49469029903411865 0.06472423672676086
0.3403221368789673 0.48720628023147583 0.12264735251665115
0.43527358770370483 0.5270267128944397 0.011918650940060616
0.41025736927986145 0.6008135080337524 -0.059288207441568375
0.3085215985774994 0.5690810084342957 0.1596071422100067
0.3305127024650574 0.5615436434745789 0.10765721648931503
0.34942156076431274 0.5655932426452637 0.07805278152227402
0.38325440883636475 0.5561649799346924 0.05740973725914955
0.4087982177734375 0.5424356460571289 0.04664156585931778
0.4274907112121582 0.5284632444381714 0.03681768476963043
0.4545517861843109 0.491628497838974 -0.01003966387361288
0.3081018030643463 0.6167091727256775 0.1405886709690094
0.32812759280204773 0.48831823468208313 0.13967078924179077
0.44601601362228394 0.6217791438102722 -0.09880496561527252
0.4209437072277069 0.566765546798706 0.005534702911973
0.3279659152030945 0.5407881140708923 0.30700427293777466
0.44079363346099854 0.5136675834655762 0.03315708041191101
0.409417062997818 0.6173055768013 0.0011685051722452044
0.3503800630569458 0.498890221118927 0.12298237532377243
0.4129352569580078 0.5866272449493408 -0.04798959940671921
0.3291540741920471 0.698612630367279 0.2586366534233093
0.4363868832588196 0.4868752062320709 0.07391654700040817
0.423112154006958 0.5687929391860962 -0.06981309503316879
0.3392811417579651 0.8006754517555237 0.078924760222435
0.35094118118286133 0.8330676555633545 0.10701550543308258
0.30745476484298706 0.6307047605514526 0.2171137034893036
0.32645612955093384 0.7713388204574585 0.12172532826662064
0.3201652467250824 0.48895806074142456 0.22457405924797058
0.4007066488265991 0.8698106408119202 -0.030213089659810066
0.4542683959007263 0.6289487481117249 -0.07632125169038773
0.4069927930831909 0.587644636631012 0.013329267501831055
0.3160480558872223 0.5273771286010742 0.17850124835968018
0.3762831687927246 0.500522255897522 0.08957070857286453
0.3918900489807129 0.5000950694084167 0.07986524701118469
0.4048272967338562 0.7530026435852051 -0.023121709004044533
0.3124636709690094 0.6638290286064148 0.13012859225273132
0.4405911862850189 0.9086053371429443 -0.04522862657904625
0.3865860104560852 0.8794358372688293 0.024735497310757637
0.36768609285354614 0.8607667684555054 0.061196111142635345
0.4779784083366394 0.3609141707420349 0.03798820823431015
0.48950719833374023 0.9132446050643921 -0.06576159596443176
0.4074099659919739 0.4971708059310913 0.07337283343076706
0.4221928119659424 0.4922155737876892 0.07241298258304596
0.4313749074935913 0.4890559911727905 0.07433133572340012
0.3213145434856415 0.4887472987174988 0.1667751967906952
0.4201958477497101 0.4790927767753601 0.07452500611543655
0.4039163589477539 0.47842270135879517 0.07579989731311798
0.3879311680793762 0.4794599413871765 0.08180329948663712
0.3730083703994751 0.4839193820953369 0.09092354029417038
0.36407262086868286 0.48940539360046387 0.09957507997751236
0.3250686824321747 0.48611509799957275 0.28857436776161194
0.36681804060935974 0.499765008687973 0.09976541996002197
0.46671971678733826 0.6558708548545837 -0.06921820342540741
0.4076778292655945 0.6770443916320801 -0.03257918730378151
0.4176315665245056 0.6215560436248779 -0.04448971152305603
0.4394912123680115 0.6617518663406372 -0.060059741139411926
0.47768911719322205 0.4610949158668518 -0.0011828357819467783
0.35683673620224 0.8285363912582397 0.040482278913259506
0.3773919939994812 0.8493635058403015 0.005568928550928831
0.4337337613105774 0.8840076923370361 -0.06513234227895737
0.3425745368003845 0.8016355037689209 0.16210594773292542
0.43109577894210815 0.48287492990493774 0.07435311377048492
0.4382431209087372 0.5285882949829102 -0.02152986079454422
0.4810905158519745 0.8879435062408447 -0.08471164107322693
0.4088650941848755 0.8958892226219177 -0.013067846186459064
0.3109505772590637 0.6821536421775818 0.19541792571544647
0.4368385076522827 0.7350509762763977 -0.049226220697164536
0.4328919053077698 0.7410095930099487 -0.054717667400836945
0.4288025498390198 0.7507225275039673 -0.06042313203215599
0.4261013865470886 0.7636845111846924 -0.06027979031205177
0.425371378660202 0.788570761680603 -0.050044234842061996
0.4157180190086365 0.7408888936042786 -0.022786183282732964
0.4080592393875122 0.7401776909828186 -0.02019972912967205
0.4013424813747406 0.7372063398361206 -0.017038507387042046
0.3821946978569031 0.7208686470985413 -0.003941936418414116
0.32880157232284546 0.6699458360671997 0.07625114172697067
0.44530192017555237 0.507641077041626 0.0022588828578591347
0.44809210300445557 0.4704514741897583 0.0541568286716938
0.43869084119796753 0.4749559760093689 0.06817152351140976
0.4221143424510956 0.737437903881073 -0.022017495706677437
0.3281041383743286 0.7314558029174805 0.09051285684108734
0.4569503664970398 0.4671432673931122 0.02147221565246582
0.41640210151672363 0.8134012222290039 -0.04246106743812561
0.4601713716983795 0.5283668637275696 -0.07271888107061386
0.4482698142528534 0.5135337710380554 -0.03703290596604347
0.46572643518447876 0.5064182281494141 -0.047120384871959686
0.42437130212783813 0.567186176776886 -0.026315486058592796
0.4773375988006592 0.8563802242279053 -0.08918150514364243
0.4768884778022766 0.8229538202285767 -0.08076539635658264
0.44484591484069824 0.8225904703140259 -0.0672033503651619
0.37262892723083496 0.7776912450790405 0.002317589009180665
0.3953222632408142 0.6388829946517944 0.005036937538534403
0.392389714717865 0.7991366386413574 -0.02075982838869095
0.3587651252746582 0.6400946974754333 0.027881745249032974
0.3789120316505432 0.6652849912643433 0.006520224269479513
0.34590545296669006 0.6829617023468018 0.03953130915760994
0.4361351430416107 0.8541012406349182 -0.06973375380039215
0.41727888584136963 0.5837693810462952 -0.011768392287194729
0.3590216636657715 0.7978758215904236 0.022292600944638252
0.38153570890426636 0.820941150188446 -0.007270584814250469
0.3587774336338043 0.7501285672187805 0.02038225345313549
0.3165220022201538 0.705166220664978 0.12277156859636307
0.34161970019340515 0.755424439907074 0.04755477234721184
0.3164032995700836 0.7297151684761047 0.1678554266691208
0.365999698638916 0.7023522853851318 0.013324094004929066
0.43040865659713745 0.5473334193229675 -0.006862611044198275
0.4162141978740692 0.6104699969291687 -0.06662848591804504
0.4092855155467987 0.620505154132843 -0.04499906301498413
0.41821131110191345 0.5916033387184143 -0.08286590874195099
0.43257594108581543 0.4550032913684845 0.05786064267158508
0.40108785033226013 0.4483238458633423 0.06419352442026138
0.37511926889419556 0.4502829909324646 0.07334999740123749
0.3549005091190338 0.45714524388313293 0.08815215528011322
0.3437539339065552 0.4692334532737732 0.10532618314027786
0.33982932567596436 0.5084569454193115 0.13346292078495026
0.3072535991668701 0.5817909240722656 0.22913184762001038
0.348549485206604 0.5353314876556396 0.1049201637506485
0.3639187812805176 0.5380151271820068 0.08435329049825668
0.387159526348114 0.5336806774139404 0.0677536204457283
0.41073372960090637 0.5248294472694397 0.05854561924934387
0.4286637008190155 0.514677882194519 0.052232638001441956
0.44079557061195374 0.5054829120635986 0.04895724728703499
0.3311849534511566 0.5916441679000854 0.30616989731788635
0.4133493900299072 0.6282688975334167 -0.03699538856744766
0.4322746694087982 0.5478464365005493 -0.04257427901029587
0.42407819628715515 0.6077516078948975 -0.08866541087627411
0.4398570656776428 0.6200193762779236 -0.0880563035607338
0.42842990159988403 0.6132338047027588 -0.07955534011125565
0.4216582179069519 0.6355491876602173 -0.03476133942604065
0.44122791290283203 0.6212871074676514 -0.09500312060117722
0.44818150997161865 0.6280655860900879 -0.07407970726490021
0.44226351380348206 0.48686015605926514 0.06591589003801346
0.4502996802330017 0.49161988496780396 0.04663434997200966
0.4511847496032715 0.49415266513824463 0.027025384828448296
0.3589198589324951 0.4931609034538269 0.10745453834533691
0.349335253238678 0.4860590100288391 0.11203736811876297
0.48018065094947815 0.531088650226593 -0.07312951236963272
0.6489171981811523 0.4722375273704529 0.009851530194282532
0.48566001653671265 0.6221247315406799 -0.082269087433815
0.7644999027252197 0.39968758821487427 0.10746052861213684
0.5849477648735046 0.49344080686569214 0.003254359820857644
0.6064926981925964 0.49413734674453735 -0.002797782653942704
0.6289958357810974 0.49385586380958557 -0.0032722323667258024
0.662296712398529 0.48206448554992676 0.0064972820691764355
0.5673282742500305 0.48897498846054077 0.012286175042390823
0.6077390313148499 0.4381207227706909 -0.0017242421163246036
0.5855849981307983 0.4408746361732483 0.007857619784772396
0.630966305732727 0.43962228298187256 -0.0033641818445175886
0.6486019492149353 0.4462922215461731 -0.00025568640558049083
0.6853459477424622 0.5000125765800476 0.008214104920625687
0.5767210721969604 0.8382607698440552 -0.08183590322732925
0.6585009098052979 0.46737611293792725 0.014621890150010586
0.7837321162223816 0.4969211220741272 0.08139913529157639
0.7173360586166382 0.4865933656692505 0.025560930371284485
0.5936915278434753 0.5945425033569336 -0.04382451996207237
0.4900106191635132 0.6896293759346008 -0.08774175494909286
0.4880444407463074 0.7183464169502258 -0.08134887367486954
0.5223312973976135 0.7006429433822632 -0.08663022518157959
0.543251633644104 0.715143620967865 -0.08065009862184525
0.5114116072654724 0.7218830585479736 -0.08108555525541306
0.5300586223602295 0.7277467846870422 -0.07427255064249039
0.5860186219215393 0.7588579654693604 -0.07004347443580627
0.4709293842315674 0.6056627631187439 -0.11363716423511505
0.47237199544906616 0.5816871523857117 -0.11599738895893097
0.685632586479187 0.4285803735256195 0.002248812234029174
0.5503531098365784 0.5352054834365845 -0.021187061443924904
0.5424405336380005 0.6039443016052246 -0.0773548111319542
0.5462525486946106 0.5921845436096191 -0.06905738264322281
0.6689696907997131 0.5928611159324646 -0.04018481448292732
0.4758753478527069 0.5541704297065735 -0.09896717220544815
0.6181958317756653 0.40556836128234863 -0.010490067303180695
0.6553415656089783 0.4123244285583496 -0.006414127070456743
0.7248053550720215 0.35872942209243774 0.08612215518951416
0.5198078751564026 0.4292626976966858 -0.001988730626180768
0.5672276020050049 0.4483591914176941 0.018878890201449394
0.6021004319190979 0.7362629771232605 -0.06497365236282349
0.7999639511108398 0.7363216280937195 0.07519324868917465
0.5269326567649841 0.6186546683311462 -0.06707970052957535
0.5072985291481018 0.6272355914115906 -0.06647007167339325
0.57013338804245 0.7395663857460022 -0.06255356967449188
0.5604462623596191 0.7377376556396484 -0.06395383924245834
0.6700419187545776 0.3995912969112396 0.005851208698004484
0.5474756360054016 0.6171717047691345 -0.06848617643117905
0.5730602145195007 0.40962788462638855 -0.00817569624632597
0.5759283900260925 0.39207106828689575 -0.007475121878087521
0.609667181968689 0.3123020827770233 0.050893623381853104
0.6955633759498596 0.37805241346359253 0.041315723210573196
0.589336097240448 0.34977927803993225 0.02189280465245247
0.7042996883392334 0.4209744334220886 0.02006923407316208
0.7334128618240356 0.4112262725830078 0.0623970627784729
0.4884101152420044 0.7056758999824524 -0.08761116117238998
0.5150008797645569 0.7132483720779419 -0.08532927930355072
0.535386860370636 0.7218471765518188 -0.07947099953889847
0.5224283337593079 0.6240507960319519 -0.06256715208292007
0.5644056797027588 0.7391544580459595 -0.06323640048503876
0.5538246631622314 0.739763617515564 -0.07419051975011826
0.5595414638519287 0.7358407378196716 -0.06431952118873596
0.5068368911743164 0.6073734164237976 -0.09197626262903214
0.5284122228622437 0.7279208898544312 -0.07042622566223145
0.5099825859069824 0.7248853445053101 -0.07311216741800308
0.4889160692691803 0.7239672541618347 -0.07425697147846222
0.5072563886642456 0.7945642471313477 -0.07910262793302536
0.4976814389228821 0.7664160132408142 -0.09166484326124191
0.49396002292633057 0.75129634141922 -0.09027525782585144
0.492184579372406 0.7387638688087463 -0.08216887712478638
0.49165594577789307 0.7309725284576416 -0.07621459662914276
0.5325886011123657 0.732755184173584 -0.07274798303842545
0.5350804924964905 0.7358501553535461 -0.07747574150562286
0.540002703666687 0.7423361539840698 -0.08382099866867065
0.5458434820175171 0.7509300708770752 -0.0838974192738533
0.5681878328323364 0.6859251260757446 -0.07314033806324005
0.8208982944488525 0.6111000180244446 0.13086041808128357
0.5458585619926453 0.7348958253860474 -0.06829065084457397
0.5484911799430847 0.736430823802948 -0.07215476036071777
0.49836862087249756 0.6387816071510315 -0.07101195305585861
0.5418598055839539 0.6345241665840149 -0.05443792790174484
0.5027478933334351 0.633208692073822 -0.06873390823602676
0.5753211975097656 0.5491848587989807 -0.02520054765045643
0.6112954020500183 0.5645678043365479 -0.033427681773900986
0.5529124736785889 0.6045011878013611 -0.06102382019162178
0.6748064756393433 0.32864853739738464 0.06406443566083908
0.6495506763458252 0.35646602511405945 0.028517913073301315
0.6265643835067749 0.38875094056129456 -0.0019251822959631681
0.5655893683433533 0.7726414203643799 -0.07870367914438248
0.5241348147392273 0.4008207321166992 -0.003430747427046299
0.534653902053833 0.35289880633354187 0.02465842477977276
0.5479642152786255 0.30926045775413513 0.05189719423651695
0.6497801542282104 0.4898863732814789 0.0006839890847913921
0.7146610021591187 0.5182621479034424 0.009361131116747856
0.5557743310928345 0.4835411310195923 0.019499046728014946
0.6806837320327759 0.455439031124115 0.008217114955186844
0.5318999886512756 0.5194928050041199 -0.021537838503718376
0.521644651889801 0.5926997661590576 -0.09150396287441254
0.749042809009552 0.5362746715545654 0.017847852781414986
0.6925228238105774 0.5340740084648132 -0.009796833619475365
0.6566793918609619 0.5425035953521729 -0.021376218646764755
0.610339343547821 0.5386101603507996 -0.018365073949098587
0.5789297223091125 0.5287626385688782 -0.010908528231084347
0.5547668933868408 0.5180774927139282 -0.0063707358203828335
0.49443528056144714 0.48840680718421936 -0.02422446757555008
0.7447505593299866 0.5873321294784546 -0.0006599412299692631
0.7039867639541626 0.4548377990722656 0.014616329222917557
0.4679744839668274 0.6199766397476196 -0.10570687055587769
0.5456244945526123 0.5579578280448914 -0.03456113114953041
0.81139075756073 0.5026702880859375 0.14596402645111084
0.5353351831436157 0.5057538747787476 -0.001046704943291843
0.5591211915016174 0.6083570122718811 -0.041090067476034164
0.6695189476013184 0.46893495321273804 0.014273555018007755
0.5262693762779236 0.5785945057868958 -0.08053923398256302
0.8179632425308228 0.6715299487113953 0.10798831284046173
0.5577692985534668 0.4755706787109375 0.026923155412077904
0.5001853704452515 0.5632778406143188 -0.09353867173194885
0.7099527716636658 0.7887831926345825 -0.025423014536499977
0.7282731533050537 0.8240516185760498 0.0006396294920705259
0.7937965989112854 0.5986911654472351 0.06341664493083954
0.7467018961906433 0.7541600465774536 -0.0013915806775912642
0.7599599361419678 0.45016002655029297 0.07844389230012894
0.5897377133369446 0.8691072463989258 -0.0799732506275177
0.4714745879173279 0.6276657581329346 -0.08056151121854782
0.5679675340652466 0.5764795541763306 -0.03591466695070267
0.7446185350418091 0.49246731400489807 0.039412155747413635
0.624186098575592 0.47787123918533325 0.003049513092264533
0.6050585508346558 0.47987085580825806 0.0028377261478453875
0.5608145594596863 0.7449011206626892 -0.07348731905221939
0.7443087100982666 0.637525200843811 -0.005284673534333706
0.5458352565765381 0.90938401222229 -0.07257386296987534
0.6397992372512817 0.878461480140686 -0.04415561631321907
0.681474506855011 0.8565155863761902 -0.02522571198642254
0.5879345536231995 0.4797174334526062 0.008187288418412209
0.5725820064544678 0.47801563143730164 0.016061242669820786
0.5627809762954712 0.47685086727142334 0.02398882433772087
0.7271011471748352 0.4526682496070862 0.032364170998334885
0.5733025670051575 0.4641227126121521 0.017463546246290207
0.5904708504676819 0.4594994783401489 0.00954294390976429
0.6074649095535278 0.4573506712913513 0.004540572874248028
0.6268128752708435 0.45846664905548096 0.003250543028116226
0.6409364342689514 0.4619133472442627 0.005652787629514933
0.7924565076828003 0.4446520209312439 0.1319420337677002
0.6383470892906189 0.4751524329185486 0.005655552726238966
0.5483705401420593 0.6695742011070251 -0.07291286438703537
0.5251368284225464 0.613370418548584 -0.07218916714191437
0.4982396960258484 0.658054769039154 -0.07667306810617447
0.6723858118057251 0.8215224146842957 -0.04355914518237114
0.6340209245681763 0.8466500043869019 -0.061191659420728683
0.5378713607788086 0.8840680122375488 -0.09165632724761963
0.767204761505127 0.7871251106262207 0.037209801375865936
0.5620999336242676 0.47065573930740356 0.023197432979941368
0.507014274597168 0.5234502553939819 -0.044305309653282166
0.5945900678634644 0.8966346979141235 -0.06404919922351837
0.7908316850662231 0.6544144749641418 0.04848127067089081
0.5131798982620239 0.730819821357727 -0.0757291167974472
0.5157022476196289 0.7366304993629456 -0.08163057267665863
0.5192097425460815 0.7465192079544067 -0.08870724588632584
0.5237644910812378 0.7597458958625793 -0.09018972516059875
0.5393821001052856 0.7850595712661743 -0.08364026993513107
0.5474861860275269 0.7336758971214294 -0.06890294700860977
0.5533044934272766 0.7317982912063599 -0.07154252380132675
0.5603528618812561 0.7277613282203674 -0.07228492945432663
0.5870997905731201 0.7096408009529114 -0.06993705034255981
0.696652352809906 0.6476904153823853 -0.036803800612688065
0.512784481048584 0.5023120641708374 -0.02090683951973915
0.5326583981513977 0.46244221925735474 0.02490723878145218
0.550055742263794 0.46380385756492615 0.025327827781438828
0.5446475744247437 0.7311534285545349 -0.06618819385766983
0.7141963839530945 0.7122132778167725 -0.024071423336863518
0.5076677799224854 0.46270424127578735 0.003932598978281021
0.5597155094146729 0.8109170198440552 -0.08104689419269562
0.4876019358634949 0.5105729103088379 -0.04909776896238327
0.5237078666687012 0.5600572228431702 -0.05599348992109299
0.5174599885940552 0.8218808174133301 -0.0855393260717392
0.6191610097885132 0.7685176730155945 -0.06536363065242767
0.578222930431366 0.6281946897506714 -0.04689205065369606
0.5935583114624023 0.7938947081565857 -0.07420360296964645
0.6297863721847534 0.6229156851768494 -0.05310492590069771
0.5965730547904968 0.6526250243186951 -0.05772646516561508
0.655849039554596 0.6652947664260864 -0.0525805689394474
0.5281103253364563 0.8531920909881592 -0.0943930521607399
0.5430006980895996 0.5752265453338623 -0.04882540553808212
0.6507121324539185 0.7891038656234741 -0.0565323568880558
0.6156032681465149 0.8166345357894897 -0.06780537217855453
0.635133683681488 0.7371832132339478 -0.06130893528461456
0.743089497089386 0.6820153594017029 -0.006519979331642389
0.6767736077308655 0.740815281867981 -0.04823485389351845
0.7789161205291748 0.7067398428916931 0.02875485271215439
0.616054892539978 0.6888098120689392 -0.06139402836561203
0.5262647271156311 0.540172815322876 -0.038848474621772766
0.5134744048118591 0.6029927134513855 -0.09571696817874908
0.5346078276634216 0.611617386341095 -0.07841293513774872
0.4974835515022278 0.5856766104698181 -0.10562887787818909
0.5463891625404358 0.44354966282844543 0.017240921035408974
0.5799030065536499 0.42944639921188354 0.0047644334845244884
0.6108823418617249 0.42500829696655273 -0.005342438817024231
0.6399912238121033 0.42763036489486694 -0.007620606105774641
0.6638650298118591 0.43734532594680786 -0.0025184794794768095
0.6904482245445251 0.47780418395996094 0.017514165490865707
0.7923954129219055 0.546253502368927 0.07115154713392258
0.6696219444274902 0.508898138999939 -0.0004858825705014169
0.6427538394927979 0.5155907869338989 -0.007628885563462973
0.6105649471282959 0.514999508857727 -0.007954925298690796
0.58226078748703 0.5099974870681763 -0.0013227887684479356
0.5606986284255981 0.5033539533615112 0.006443841382861137
0.5447658896446228 0.496432900428772 0.011334048584103584
0.8178391456604004 0.5570539832115173 0.1455625593662262
0.537186861038208 0.6200931072235107 -0.06943231076002121
0.5015674829483032 0.5427201986312866 -0.06600198894739151
0.49105674028396606 0.6026313900947571 -0.10738746076822281
0.4828071594238281 0.6168074011802673 -0.09867402166128159
0.4945544898509979 0.6079821586608887 -0.09849506616592407
0.5326594114303589 0.6291698813438416 -0.06244758144021034
0.4763491153717041 0.6184567809104919 -0.10369386523962021
0.47977712750434875 0.6259617209434509 -0.08158477395772934
0.5475366711616516 0.47704023122787476 0.026900900527834892
0.5317162871360779 0.48458290100097656 0.017492327839136124
0.5203791856765747 0.48834168910980225 0.0028755494859069586
0.6500388979911804 0.4649454355239868 0.008823320269584656
0.6644955277442932 0.45541298389434814 0.006957809906452894
