ply
format ascii 1.0
element vertex 468
property float x
property float y
property float z
end_header
0.508226215839386 0.7165583372116089 -0.05163562297821045
0.51580810546875 0.6595359444618225 -0.14009743928909302
0.5108896493911743 0.6759299039840698 -0.06998346745967865
0.49327772855758667 0.5686326026916504 -0.11811244487762451
0.5165331363677979 0.633499026298523 -0.1514509916305542
0.5155435800552368 0.5965206027030945 -0.14568674564361572
0.511235237121582 0.5057603716850281 -0.08974667638540268
0.3283613622188568 0.4827025532722473 -0.0011234184494242072
0.510028064250946 0.44654613733291626 -0.079820916056633
0.5105404257774353 0.4138062000274658 -0.08989951014518738
0.5105329751968384 0.27913373708724976 -0.08583294600248337
0.5075863003730774 0.7263592481613159 -0.04694671928882599
0.5067804455757141 0.7306195497512817 -0.039664845913648605
0.505843997001648 0.7284729480743408 -0.029367193579673767
0.5077306628227234 0.7764402627944946 -0.012592089362442493
0.5077913403511047 0.7851338386535645 -0.016573594883084297
0.5074276924133301 0.7955405712127686 -0.021233106032013893
0.5070187449455261 0.8080915808677673 -0.01656976528465748
0.505267858505249 0.8318791389465332 0.0059727998450398445
0.5143266916275024 0.6713116765022278 -0.12554332613945007
0.48762357234954834 0.6643174886703491 -0.09149055182933807
0.23371592164039612 0.3851237893104553 0.08793707937002182
0.40522319078445435 0.5065062046051025 -0.019015252590179443
0.37977856397628784 0.5072629451751709 -0.019111748784780502
0.3544968366622925 0.505764901638031 -0.01461248379200697
0.3178114891052246 0.4910234808921814 0.0028922560159116983
0.4254924952983856 0.5027494430541992 -0.0154343880712986
0.3668122887611389 0.44798505306243896 -0.035349104553461075
0.39457955956459045 0.45012983679771423 -0.033306121826171875
0.3410821259021759 0.45142847299575806 -0.02909623272716999
0.32379457354545593 0.45929548144340515 -0.019608216360211372
0.297999769449234 0.506866991519928 0.016521800309419632
0.4069182574748993 0.8614764213562012 0.042696427553892136
0.3171248435974121 0.4762224853038788 0.0055070361122488976
0.2181592583656311 0.4944518804550171 0.11863918602466583
0.2691844701766968 0.49305295944213867 0.036563124507665634
0.37424436211586 0.6090268492698669 -0.03084512986242771
0.46668142080307007 0.7109752297401428 -0.05183717980980873
0.4672374725341797 0.7275970578193665 -0.037181127816438675
0.4232748746871948 0.7086623907089233 -0.03583020716905594
0.3947330713272095 0.707288920879364 -0.008734636940062046
0.4352414309978485 0.7228129506111145 -0.024436064064502716
0.4100220203399658 0.7183099985122681 -0.0004292176745366305
0.3669649064540863 0.7463911771774292 0.046839553862810135
0.4945339560508728 0.6580418348312378 -0.13902772963047028
0.4927477538585663 0.6319864392280579 -0.1500338762998581
0.2890324592590332 0.4379488527774811 -0.023121919482946396
0.43330177664756775 0.5514802932739258 -0.038959991186857224
0.42742592096328735 0.6334951519966125 -0.0815778598189354
0.42615923285484314 0.6178795695304871 -0.07516976445913315
0.29313093423843384 0.5976405739784241 -0.0040925126522779465
0.4933549463748932 0.5980029702186584 -0.13929931819438934
0.35160893201828003 0.4174196720123291 -0.06400173902511597
0.3151874244213104 0.42277997732162476 -0.0475519634783268
0.2616446316242218 0.3432357609272003 0.03508919104933739
0.45970481634140015 0.44197046756744385 -0.0756446048617363
0.4182126820087433 0.45872312784194946 -0.023572847247123718
0.343485951423645 0.7127183675765991 0.043402206152677536
0.2330520749092102 0.7285561561584473 0.22477178275585175
0.44415679574012756 0.6484588980674744 -0.06822748482227325
0.4662257730960846 0.6589232087135315 -0.06751061230897903
0.35844749212265015 0.7110200524330139 0.04735208675265312
0.37097108364105225 0.7144100069999695 0.04262518510222435
0.3014606237411499 0.405537486076355 -0.039405182003974915
0.42280012369155884 0.6394152641296387 -0.06574324518442154
0.3991936147212982 0.42226576805114746 -0.07410888373851776
0.395087867975235 0.40130239725112915 -0.08381956815719604
0.3664613962173462 0.28934141993522644 -0.060555703938007355
0.28282737731933594 0.37389296293258667 -0.006954384036362171
0.38400208950042725 0.3432827293872833 -0.07363628596067429
0.2731340825557709 0.42526501417160034 -0.005238232668489218
0.25409120321273804 0.40692704916000366 0.039679575711488724
0.4664038121700287 0.7224469184875488 -0.04638908803462982
0.4301680624485016 0.7180503606796265 -0.02982543408870697
0.40275266766548157 0.7130231261253357 -0.0058136130683124065
0.4491995573043823 0.6521414518356323 -0.062169939279556274
0.3640114963054657 0.7120187878608704 0.044597119092941284
0.383220374584198 0.7361408472061157 0.03445786237716675
0.3756863474845886 0.716172456741333 0.04214532673358917
0.4629904627799988 0.650465726852417 -0.10530667006969452
0.4134637415409088 0.7150377035140991 0.00330811133608222
0.439066618680954 0.7202397584915161 -0.014399087987840176
0.4691350758075714 0.7256630659103394 -0.026840515434741974
0.46329057216644287 0.8282764554023743 0.007580401375889778
0.46657198667526245 0.8032507300376892 -0.014488390646874905
0.46819785237312317 0.7904112935066223 -0.01835472136735916
0.469819575548172 0.7805924415588379 -0.01325105782598257
0.472101628780365 0.7732489109039307 -0.009843051433563232
0.415019690990448 0.750800371170044 0.017163598909974098
0.4107409417629242 0.7527080774307251 0.014445205219089985
0.4053780436515808 0.7570396661758423 0.012855853885412216
0.4012550115585327 0.7636300325393677 0.019106252118945122
0.3802497386932373 0.6887339949607849 -0.00792204774916172
0.20953726768493652 0.6011520028114319 0.23559163510799408
0.5126897692680359 0.6739429235458374 -0.09018993377685547
0.397109717130661 0.7382832765579224 0.03420127183198929
0.38974103331565857 0.7362948060035706 0.03290940076112747
0.47503557801246643 0.6710689663887024 -0.06511413305997849
0.4276561737060547 0.6515450477600098 -0.043038055300712585
0.47092095017433167 0.6654404997825623 -0.06752977520227432
0.4056518077850342 0.561477541923523 -0.030502576380968094
0.3604763448238373 0.5736437439918518 -0.025433236733078957
0.418914258480072 0.6250768303871155 -0.05933312326669693
0.3034570515155792 0.310443639755249 -0.016200339421629906
0.3240193724632263 0.35147181153297424 -0.043328285217285156
0.34323635697364807 0.3963894844055176 -0.0641549676656723
0.3920449912548065 0.7798482775688171 0.03599965572357178
0.4523991048336029 0.4091467261314392 -0.09063360095024109
0.44385552406311035 0.3423351049423218 -0.08818227052688599
0.43305519223213196 0.27996331453323364 -0.08322125673294067
0.33146631717681885 0.5005285739898682 -0.005855856463313103
0.26936644315719604 0.52318274974823 0.031053118407726288
0.43786463141441345 0.4983149766921997 -0.012258094735443592
0.2981868386268616 0.46683216094970703 -0.0008792041335254908
0.4523386061191559 0.5389384031295776 -0.049165111035108566
0.4473896622657776 0.6320376992225647 -0.106882743537426
0.23952777683734894 0.539635419845581 0.05958643928170204
0.2875795364379883 0.5376737117767334 0.012539091520011425
0.32117778062820435 0.546489417552948 -0.006302161142230034
0.37044766545295715 0.5464847683906555 -0.015569864772260189
0.4074729084968567 0.5400800704956055 -0.019523102790117264
0.43332579731941223 0.5317602157592773 -0.02684696577489376
0.4878186583518982 0.5114881992340088 -0.08064793050289154
0.23537376523017883 0.5882918238639832 0.06040510535240173
0.2777852714061737 0.46331554651260376 0.007195274345576763
0.5011658072471619 0.6697055697441101 -0.12495504319667816
0.4338356554508209 0.5774802565574646 -0.046750906854867935
0.2073160707950592 0.4880131483078003 0.195995032787323
0.4525933861732483 0.5214270353317261 -0.03171088173985481
0.41397470235824585 0.6229475736618042 -0.03234238177537918
0.3097289800643921 0.4792878031730652 0.009802944958209991
0.44617170095443726 0.612528383731842 -0.0992712453007698
0.21562165021896362 0.6632980108261108 0.2354263812303543
0.4357839524745941 0.48961424827575684 -0.00751362694427371
0.4701542556285858 0.6035646200180054 -0.12463269382715225
0.2919025123119354 0.7901411652565002 0.118132084608078
0.29595810174942017 0.8221880197525024 0.16112719476222992
0.21006309986114502 0.5989668369293213 0.1481579840183258
0.25508832931518555 0.7561827898025513 0.13535115122795105
0.23545467853546143 0.4464443325996399 0.08495490252971649
0.40509673953056335 0.8891576528549194 0.05762003734707832
0.5023424029350281 0.672450602054596 -0.0890251100063324
0.4082796275615692 0.5910573601722717 -0.03657194972038269
0.2459568828344345 0.4972849190235138 0.05982428044080734
0.35708433389663696 0.4912436902523041 -0.013167697004973888
0.37984851002693176 0.4934650659561157 -0.017620069906115532
0.37733685970306396 0.7373862266540527 0.038586653769016266
0.23210564255714417 0.6402405500411987 0.07812155783176422
0.45096099376678467 0.925955593585968 0.06702105700969696
0.37436559796333313 0.8853969573974609 0.11007265001535416
0.3391578793525696 0.8585332036018372 0.1339738965034485
0.5107061862945557 0.3438054025173187 -0.08986087888479233
0.5012583136558533 0.9312806129455566 0.063678078353405
0.4008738100528717 0.4928305447101593 -0.017353907227516174
0.42049095034599304 0.4907798171043396 -0.013019632548093796
0.4316924810409546 0.49050554633140564 -0.008115879260003567
0.2582635283470154 0.4566442668437958 0.02969655953347683
0.41203638911247253 0.46680575609207153 -0.0183853879570961
0.3894837498664856 0.45634400844573975 -0.024421723559498787
0.36717724800109863 0.4539089798927307 -0.025078346952795982
0.34460514783859253 0.4583016037940979 -0.020472045987844467
0.33072730898857117 0.4661305546760559 -0.012399602681398392
0.21645140647888184 0.4303321838378906 0.14621511101722717
0.3405706286430359 0.48722684383392334 -0.006905796471983194
0.5097067356109619 0.6887287497520447 -0.05792532488703728
0.4099832773208618 0.6818457245826721 -0.031165510416030884
0.44525259733200073 0.6476374864578247 -0.07929529249668121
0.4686027467250824 0.6863247156143188 -0.056847840547561646
0.5097488164901733 0.4735674560070038 -0.07543759047985077
0.33270058035850525 0.8263031840324402 0.1052449494600296
0.3682544231414795 0.8572649955749512 0.08412428200244904
0.4506978988647461 0.9103226661682129 0.03639520704746246
0.26184141635894775 0.7821223735809326 0.19415873289108276
0.42827358841896057 0.4811258912086487 -0.012235376983880997
0.4715569019317627 0.5521994829177856 -0.08280336111783981
0.5034237504005432 0.915789008140564 0.03429051488637924
0.4100770950317383 0.9095052480697632 0.08368919789791107
0.21361219882965088 0.6558099389076233 0.15436887741088867
0.44138431549072266 0.7638964056968689 0.001673914841376245
0.4372110366821289 0.7687227129936218 -0.0010162526741623878
0.4339977502822876 0.7764365673065186 -0.0029432056471705437
0.4313609302043915 0.7880313396453857 0.002501990180462599
0.422943115234375 0.8087459802627563 0.02021762914955616
0.38507553935050964 0.7135888338088989 0.022107411175966263
0.3777448534965515 0.7100256681442261 0.02238309755921364
0.37108898162841797 0.7057692408561707 0.020690256729722023
0.35445642471313477 0.6973080635070801 0.01819903403520584
0.2641221880912781 0.6531446576118469 0.032203346490859985
0.47091400623321533 0.5242279171943665 -0.06297887116670609
0.4559718370437622 0.4755406975746155 -0.025555899366736412
0.43954378366470337 0.477053701877594 -0.0171058289706707
0.39139819145202637 0.7117733955383301 0.024380909278988838
0.2604355812072754 0.7154725790023804 0.08384992182254791
0.4780561923980713 0.4766940474510193 -0.05873583257198334
0.4144377112388611 0.8326146602630615 0.032304879277944565
0.5139121413230896 0.5658034086227417 -0.12530037760734558
0.4905160367488861 0.5417580604553223 -0.10171546787023544
0.5126298069953918 0.5371674299240112 -0.10652381926774979
0.4523673951625824 0.5890094041824341 -0.07870086282491684
0.5045626759529114 0.8901320099830627 0.018312208354473114
0.5049715042114258 0.8578718900680542 0.012676496990025043
0.45837488770484924 0.8541522026062012 0.017045635730028152
0.3537518382072449 0.7622310519218445 0.05764016509056091
0.39115428924560547 0.6402585506439209 -0.022517481818795204
0.3818185329437256 0.8008117079734802 0.04850262776017189
0.3262947201728821 0.6355926394462585 -0.01701599732041359
0.3621366024017334 0.6622982621192932 -0.008880365639925003
0.29987218976020813 0.6714010238647461 0.013652266003191471
0.4526869058609009 0.8853654265403748 0.02176411636173725
0.4344021677970886 0.5978623628616333 -0.05919777229428291
0.3373924493789673 0.7908120155334473 0.07729183882474899
0.37262409925460815 0.8269667625427246 0.0650174468755722
0.32883429527282715 0.7247811555862427 0.04822535067796707
0.23650357127189636 0.6849881410598755 0.0964282751083374
0.2974405884742737 0.7393957376480103 0.06577146798372269
0.22730150818824768 0.7088216543197632 0.1552741825580597
0.33482131361961365 0.6832583546638489 0.01226361095905304
0.45341023802757263 0.5650092363357544 -0.06318686157464981
0.45518988370895386 0.6458420753479004 -0.11135514080524445
0.4348335862159729 0.6436755061149597 -0.08270329982042313
0.4695134162902832 0.6323688626289368 -0.13060390949249268
0.43747976422309875 0.4569874405860901 -0.03671933710575104
0.3976386487483978 0.44319289922714233 -0.045694634318351746
0.36181309819221497 0.43910157680511475 -0.04630259796977043
0.3315025568008423 0.44147199392318726 -0.037852536886930466
0.30985304713249207 0.4502444863319397 -0.023406483232975006
0.2933124601840973 0.4865165948867798 0.01966189779341221
0.21182090044021606 0.5462009906768799 0.13475072383880615
0.31312286853790283 0.516177773475647 0.0063618808053433895
0.3411020040512085 0.5240603685379028 -0.005866537801921368
0.37563374638557434 0.5254455208778381 -0.013626514002680779
0.40735793113708496 0.5220818519592285 -0.016220996156334877
0.43080034852027893 0.5163769125938416 -0.017429400235414505
0.44648247957229614 0.5104937553405762 -0.01888701692223549
0.20800217986106873 0.543700635433197 0.2237805873155594
0.4331149756908417 0.6461564898490906 -0.06923005729913712
0.47272273898124695 0.5771971344947815 -0.10005752742290497
0.47574251890182495 0.6523219347000122 -0.12906524538993835
0.48759129643440247 0.6632693409919739 -0.1155986413359642
0.47402313351631165 0.6543979644775391 -0.11644146591424942
0.4374740719795227 0.65165776014328 -0.058365486562252045
0.4929302930831909 0.6669870615005493 -0.1218382865190506
0.49386361241340637 0.6693993210792542 -0.09021181613206863
0.4448404908180237 0.49253392219543457 -0.010464748367667198
0.45883509516716003 0.49897369742393494 -0.023707762360572815
0.46710461378097534 0.5046297311782837 -0.04123307019472122
0.3229994773864746 0.47205883264541626 -0.004653198178857565
0.3114403784275055 0.4677537679672241 -0.005402090959250927
0.5333089828491211 0.5687904953956604 -0.11459353566169739
0.6732681393623352 0.4833322763442993 0.024234673008322716
0.536085307598114 0.664605438709259 -0.08874347060918808
0.7507940530776978 0.3877522349357605 0.1268124133348465
0.6012705564498901 0.5080664157867432 -0.0026566830929368734
0.6256064176559448 0.5084665417671204 0.0006067278445698321
0.6492602825164795 0.5066977739334106 0.007944219745695591
0.6816391348838806 0.49170005321502686 0.02988915517926216
0.5818096399307251 0.5041777491569519 -0.002635466167703271
0.6398663520812988 0.4486544728279114 -0.014602533541619778
0.6130396723747253 0.45093220472335815 -0.017200876027345657
0.6639761924743652 0.4521463215351105 -0.004903239198029041
0.6793895959854126 0.4602847993373871 0.006191303487867117
0.6998522281646729 0.5075923800468445 0.045386359095573425
0.5966740250587463 0.8595674633979797 0.05505625158548355
0.6830006837844849 0.4770236611366272 0.03219568356871605
0.7622489929199219 0.4947150945663452 0.15787357091903687
0.7244776487350464 0.49373847246170044 0.06910857558250427
0.6349874138832092 0.6093672513961792 -0.014087077230215073
0.5488186478614807 0.7106629610061646 -0.04725658893585205
0.5447272658348083 0.7272306680679321 -0.032974839210510254
0.5882699489593506 0.7080124020576477 -0.02643381804227829
0.6123260855674744 0.7067261934280396 0.0041049388237297535
0.5739074945449829 0.7222863435745239 -0.01630324497818947
0.5959357619285583 0.7177627682685852 0.010434994474053383
0.6345887184143066 0.7456592917442322 0.06337040662765503
0.5362613797187805 0.6580433249473572 -0.13681301474571228
0.5386652946472168 0.6321753263473511 -0.14724591374397278
0.7125236392021179 0.43908512592315674 0.00788045208901167
0.5789543986320496 0.5523523092269897 -0.028274457901716232
0.5917553901672363 0.6342347264289856 -0.07121160626411438
0.5916330814361572 0.6185796856880188 -0.06468285620212555
0.7077735066413879 0.597355306148529 0.023462843149900436
0.536342978477478 0.5983103513717651 -0.13595673441886902
0.6597000360488892 0.4179469048976898 -0.04227834939956665
0.6916264891624451 0.42353981733322144 -0.02049029991030693
0.7318984866142273 0.3465029299259186 0.06990575045347214
0.5578914880752563 0.44189023971557617 -0.0683652013540268
0.5898906588554382 0.45956951379776 -0.010220818221569061
0.6567803025245667 0.7120752334594727 0.06346888840198517
0.7348233461380005 0.7248294949531555 0.2610792815685272
0.5747064352035522 0.6489476561546326 -0.060844093561172485
0.5538010597229004 0.6593736410140991 -0.06359852105379105
0.6427278518676758 0.7103511691093445 0.0646401196718216
0.6303873658180237 0.7138963341712952 0.057725876569747925
0.7037899494171143 0.40677639842033386 -0.010650154203176498
0.5937674641609192 0.6399994492530823 -0.055782534182071686
0.6158100366592407 0.4225531220436096 -0.05926194414496422
0.6210653185844421 0.4016801118850708 -0.06835370510816574
0.6455931663513184 0.2921030521392822 -0.04055541381239891
0.7174344062805176 0.3760344386100769 0.024402841925621033
0.6310415267944336 0.3448731005191803 -0.05647603049874306
0.725557804107666 0.4268312454223633 0.02772383578121662
0.7381248474121094 0.40905654430389404 0.07482433319091797
0.5475874543190002 0.7220718860626221 -0.04186331480741501
0.5804888010025024 0.717497706413269 -0.021138634532690048
0.6042998433113098 0.7125735878944397 0.005814771167933941
0.5692954659461975 0.6526646018028259 -0.05605977028608322
0.637233316898346 0.7115644812583923 0.061000607907772064
0.6211885809898376 0.7357019186019897 0.047969721257686615
0.6250851154327393 0.7157649397850037 0.056897666305303574
0.560937225818634 0.6510359048843384 -0.09843763709068298
0.5910078883171082 0.7142991423606873 0.013645107857882977
0.5685814619064331 0.7195716500282288 -0.006789247505366802
0.5410769581794739 0.7253251671791077 -0.022677378728985786
0.5462595224380493 0.8276538848876953 0.01149989664554596
0.5462756156921387 0.8029202222824097 -0.010336663573980331
0.5458171367645264 0.790104866027832 -0.013832537457346916
0.5445113182067871 0.7803512215614319 -0.008739832788705826
0.5419336557388306 0.7729748487472534 -0.0056228176690638065
0.592851459980011 0.7502825856208801 0.02743191458284855
0.5972367525100708 0.752114474773407 0.02442898042500019
0.6024284362792969 0.7566447854042053 0.023494184017181396
0.6060593128204346 0.7631045579910278 0.030125673860311508
0.6277967691421509 0.68827885389328 0.006761291529983282
0.7568288445472717 0.5995793342590332 0.2755007743835449
0.6074044108390808 0.7377970814704895 0.04710792377591133
0.6151102185249329 0.7357520461082458 0.04583301395177841
0.5450152158737183 0.6713172197341919 -0.06118905171751976
0.5870945453643799 0.6519875526428223 -0.035351503640413284
0.5491975545883179 0.665892481803894 -0.06371772289276123
0.604508101940155 0.5623355507850647 -0.01613284833729267
0.6468660235404968 0.5742582678794861 -0.0057778735645115376
0.5965925455093384 0.6257921457290649 -0.04843957722187042
0.6991836428642273 0.3136172294616699 0.012143758125603199
0.6836561560630798 0.3535156548023224 -0.018146084621548653
0.6679791212081909 0.39729416370391846 -0.04126925766468048
0.6124677062034607 0.7786617875099182 0.04907605051994324
0.5672668218612671 0.4091731309890747 -0.08277128636837006
0.5758336782455444 0.3432394564151764 -0.07904659956693649
0.5850129127502441 0.2816134989261627 -0.07305219769477844
0.6700310111045837 0.5010998845100403 0.0196341872215271
0.7254087924957275 0.5237135291099548 0.06321661174297333
0.5701343417167664 0.4996410012245178 -0.001044041127897799
0.7013952732086182 0.46768444776535034 0.02841729111969471
0.5620858073234558 0.5396848320960999 -0.040577247738838196
0.5759631991386414 0.6327797174453735 -0.09884675592184067
0.749832034111023 0.5397206544876099 0.0956379771232605
0.7105554342269897 0.5385215282440186 0.042849984019994736
0.6816845536231995 0.5473771095275879 0.0195420254021883
0.635951817035675 0.5474632382392883 0.004089830443263054
0.6009578704833984 0.5410743951797485 -0.004621259402483702
0.5768399834632874 0.5326651930809021 -0.015657374635338783
0.5327364206314087 0.5117027759552002 -0.07702624052762985
0.7538819313049316 0.587502658367157 0.09665697813034058
0.7195544838905334 0.46419984102249146 0.03946305438876152
0.5268557071685791 0.6698048114776611 -0.12302230298519135
0.5802963376045227 0.5782415270805359 -0.03645399212837219
0.7631382942199707 0.48848599195480347 0.23753000795841217
0.5595501065254211 0.5222789645195007 -0.022993624210357666
0.5989959239959717 0.6234952211380005 -0.021572750061750412
0.6890304088592529 0.47999703884124756 0.037962157279253006
0.5754473805427551 0.6133313179016113 -0.09072934091091156
0.7504623532295227 0.6606357097625732 0.2739623785018921
0.5715413093566895 0.49063950777053833 0.004532806109637022
0.5558035373687744 0.6040593981742859 -0.11847516894340515
0.6947103142738342 0.786423921585083 0.1456720381975174
0.6839346289634705 0.8175264596939087 0.18890051543712616
0.7677631378173828 0.5972929000854492 0.18742376565933228
0.7260997295379639 0.752318263053894 0.16781958937644958
0.750544548034668 0.44774511456489563 0.12293855845928192
0.5963685512542725 0.886734127998352 0.07123120129108429
0.5227893590927124 0.6726246476173401 -0.08799243718385696
0.603243887424469 0.5915472507476807 -0.023599816486239433
0.743201732635498 0.4977192282676697 0.09558099508285522
0.6475425362586975 0.4922983646392822 0.009199296124279499
0.6260446906089783 0.49481332302093506 0.002287323120981455
0.6264680624008179 0.7369767427444458 0.0529712550342083
0.7551611661911011 0.6380555033683777 0.11329692602157593
0.5502798557281494 0.9245598912239075 0.07456576079130173
0.6181647777557373 0.8820762038230896 0.1285407692193985
0.6476304531097412 0.8544510006904602 0.15688581764698029
0.605595588684082 0.49450623989105225 -0.00041407046956010163
0.5864995718002319 0.4923449158668518 0.0013285210588946939
0.5755565166473389 0.4918273091316223 0.0046659111976623535
0.7349949479103088 0.4576371908187866 0.06451345980167389
0.5941088199615479 0.46736350655555725 -0.003733982564881444
0.6154945492744446 0.4567546844482422 -0.007074145134538412
0.6372822523117065 0.45396530628204346 -0.005138116888701916
0.6588033437728882 0.45832037925720215 0.0026223023887723684
0.6714263558387756 0.46646037697792053 0.011935267597436905
0.7607232928276062 0.4320921003818512 0.18711093068122864
0.662595272064209 0.48816418647766113 0.017441267147660255
0.6021052002906799 0.6815376281738281 -0.020037982612848282
0.5750788450241089 0.6481587886810303 -0.07204398512840271
0.549210250377655 0.6863120794296265 -0.05211643874645233
0.6586994528770447 0.8227722644805908 0.1279044896364212
0.6276852488517761 0.8541978001594543 0.10169128328561783
0.5544308423995972 0.9091370105743408 0.04342095926403999
0.7112939357757568 0.7776702642440796 0.227103590965271
0.5787194967269897 0.48196783661842346 0.0007900659111328423
0.5490619540214539 0.5527008175849915 -0.0768933966755867
0.5877889394760132 0.9069014191627502 0.09723352640867233
0.7628567218780518 0.6528295278549194 0.19224996864795685
0.5698991417884827 0.7634462118148804 0.00924786739051342
0.5742974281311035 0.7683193683624268 0.006379236001521349
0.5774456858634949 0.7760828137397766 0.005056878086179495
0.5794707536697388 0.78751140832901 0.010893285274505615
0.5845140814781189 0.80776447057724 0.029794132336974144
0.6177261471748352 0.7131087779998779 0.03569531813263893
0.6254475712776184 0.7095235586166382 0.037000857293605804
0.63227379322052 0.7054290175437927 0.036387499421834946
0.6494387984275818 0.6965652704238892 0.036742933094501495
0.7304614782333374 0.6514705419540405 0.062078770250082016
0.546586275100708 0.5248081684112549 -0.05682602897286415
0.555499255657196 0.47594159841537476 -0.01786462403833866
0.5692523121833801 0.4777073860168457 -0.005842692218720913
0.6105417013168335 0.7111552357673645 0.0374833308160305
0.7281556725502014 0.712605893611908 0.11428242176771164
0.5384906530380249 0.4769458472728729 -0.054279595613479614
0.5907484292984009 0.8308925628662109 0.043171826750040054
0.5332431793212891 0.5419405698776245 -0.0984422117471695
0.5667706727981567 0.589557409286499 -0.07104980200529099
0.5501559972763062 0.8531128168106079 0.022011473774909973
0.6455150246620178 0.7610348463058472 0.07637201249599457
0.6189828515052795 0.6406249403953552 -0.008772855624556541
0.6198533177375793 0.799263060092926 0.06337407976388931
0.6784945726394653 0.634982168674469 0.0045698173344135284
0.6450711488723755 0.6620998382568359 0.008589946664869785
0.6997146606445312 0.6700624227523804 0.03868953883647919
0.5549073219299316 0.8842703700065613 0.028510959818959236
0.5813981890678406 0.5984914302825928 -0.04960859566926956
0.6583515405654907 0.7881280183792114 0.09872083365917206
0.6267933249473572 0.8247085809707642 0.0815151259303093
0.6696178317070007 0.7235918641090393 0.07079146802425385
0.7486048340797424 0.682073175907135 0.13001632690429688
0.6961202025413513 0.7368864417076111 0.09177689999341965
0.749701201915741 0.7052209377288818 0.19125229120254517
0.6675527095794678 0.6825001239776611 0.033053651452064514
0.5636547803878784 0.5655691027641296 -0.054971400648355484
0.5690394639968872 0.6463186144828796 -0.10385087877511978
0.585198163986206 0.6442877054214478 -0.07385971397161484
0.5585245490074158 0.6328744292259216 -0.12465229630470276
0.5741727352142334 0.45725592970848083 -0.026282425969839096
0.613114058971405 0.44356146454811096 -0.03003080002963543
0.6473768949508667 0.43987926840782166 -0.025641949847340584
0.6750746369361877 0.4424816966056824 -0.012974671088159084
0.6933327913284302 0.4512891471385956 0.004148057196289301
0.7036733627319336 0.4873313903808594 0.04917266592383385
0.7670551538467407 0.5455617904663086 0.1751381754875183
0.6867378354072571 0.5170146822929382 0.03354637697339058
0.661975622177124 0.5250164270401001 0.0179191455245018
0.6299131512641907 0.5266411304473877 0.005965863354504108
0.5997864007949829 0.5233091711997986 -0.0008338199113495648
0.577599287033081 0.5175954103469849 -0.005848956294357777
0.5631141662597656 0.5114482641220093 -0.009422900155186653
0.7596747875213623 0.5431355834007263 0.264818400144577
0.5849186778068542 0.6466754078865051 -0.06074150651693344
0.550882875919342 0.5777055025100708 -0.09406739473342896
0.5524057745933533 0.6525102257728577 -0.12427219748497009
0.538093090057373 0.6634091734886169 -0.11287245899438858
0.5517733693122864 0.6547650098800659 -0.11140428483486176
0.5792570114135742 0.6521630883216858 -0.051117826253175735
0.53419029712677 0.6671740412712097 -0.11959739774465561
0.5305778980255127 0.6695339679718018 -0.08832773566246033
0.5636054277420044 0.49346625804901123 -0.0006128011737018824
0.5519811511039734 0.4997817873954773 -0.016394464299082756
0.546766459941864 0.5051772594451904 -0.03484056144952774
0.6783022284507751 0.47249144315719604 0.02090386301279068
0.6892139911651611 0.46859484910964966 0.02169492281973362
