ply
format ascii 1.0
element vertex 468
property float x
property float y
property float z
end_header
0.49827083945274353 0.695980966091156 -0.06775475293397903
0.49855321645736694 0.6222758889198303 -0.129194438457489
0.49978068470954895 0.647404134273529 -0.06844282895326614
0.48083189129829407 0.5483078956604004 -0.09622412919998169
0.498526006937027 0.5978615283966064 -0.13749559223651886
0.49931421875953674 0.5676950216293335 -0.12833547592163086
0.5023533701896667 0.49855875968933105 -0.06592370569705963
0.34074193239212036 0.5048235654830933 0.042373012751340866
0.5027478933334351 0.4535166621208191 -0.0519661046564579
0.502533495426178 0.4234195649623871 -0.05659722536802292
0.5040462017059326 0.3005734086036682 -0.03118211217224598
0.498250275850296 0.7066864967346191 -0.06503968685865402
0.49859702587127686 0.714613676071167 -0.057705093175172806
0.4993667006492615 0.7172333002090454 -0.04720237851142883
0.49919137358665466 0.7433526515960693 -0.038731854408979416
0.4987334609031677 0.7523322105407715 -0.042622193694114685
0.49836626648902893 0.7644402980804443 -0.04685826972126961
0.49843907356262207 0.7791012525558472 -0.04184241592884064
0.49975523352622986 0.8085775375366211 -0.017424097284674644
0.4989483058452606 0.6355313062667847 -0.11709535121917725
0.4794054627418518 0.6349545121192932 -0.08327184617519379
0.2508697807788849 0.4234212040901184 0.16143888235092163
0.40855151414871216 0.5191740393638611 0.014411351643502712
0.3849213719367981 0.5218596458435059 0.017863953486084938
0.3616351783275604 0.5213748812675476 0.025729132816195488
0.32977184653282166 0.5131160020828247 0.04694323241710663
0.4276283383369446 0.5123732686042786 0.014822317287325859
0.3767465353012085 0.4720463156700134 0.005497791338711977
0.39995741844177246 0.47166189551353455 0.003893628716468811
0.35471925139427185 0.47584787011146545 0.015026220120489597
0.3394344449043274 0.48295432329177856 0.026361456140875816
0.30902838706970215 0.5267865061759949 0.059690359979867935
0.40967923402786255 0.8495530486106873 0.015413399785757065
0.33199095726013184 0.5023826956748962 0.05044682323932648
0.23886379599571228 0.524914026260376 0.17279084026813507
0.2824539244174957 0.5158441066741943 0.08533495664596558
0.38227224349975586 0.6086962223052979 -0.006697650533169508
0.4667626917362213 0.6921532154083252 -0.06218023598194122
0.4703393578529358 0.7136809825897217 -0.05179307609796524
0.43497657775878906 0.6978758573532104 -0.044735681265592575
0.4145110845565796 0.7060168981552124 -0.022654777392745018
0.447479784488678 0.7144574522972107 -0.03890058025717735
0.42993491888046265 0.7163430452346802 -0.01843104138970375
0.3886178135871887 0.7508857250213623 0.02082555741071701
0.47923755645751953 0.6219244003295898 -0.12600524723529816
0.47663503885269165 0.5986723303794861 -0.13338221609592438
0.300101637840271 0.46164387464523315 0.03339536860585213
0.43363142013549805 0.5523958802223206 -0.01397398766130209
0.4290434420108795 0.6164002418518066 -0.06287574768066406
0.428106427192688 0.6046965718269348 -0.05524718016386032
0.3085159659385681 0.6089313626289368 0.02784438617527485
0.4788057506084442 0.5707999467849731 -0.11906956881284714
0.3579745292663574 0.43657243251800537 -0.014572382904589176
0.32439976930618286 0.44528794288635254 0.007034533657133579
0.275044322013855 0.3797518312931061 0.11115958541631699
0.4579978585243225 0.45155036449432373 -0.04187993332743645
0.421078085899353 0.47573089599609375 0.00993072148412466
0.3692511022090912 0.7245324850082397 0.025438401848077774
0.2625097334384918 0.7558419704437256 0.23607176542282104
0.44655001163482666 0.629374086856842 -0.05488089472055435
0.4650219976902008 0.6369848847389221 -0.059634286910295486
0.39273056387901306 0.7209059596061707 0.023160917684435844
0.40481036901474 0.7207801938056946 0.016063110902905464
0.3103266954421997 0.4300142526626587 0.01999451033771038
0.42878589034080505 0.6255765557289124 -0.049720291048288345
0.40239232778549194 0.4373137950897217 -0.03095509670674801
0.3969026803970337 0.4174122214317322 -0.035265956073999405
0.36890414357185364 0.318065345287323 0.010193601250648499
0.292965829372406 0.40282970666885376 0.059830982238054276
0.38484159111976624 0.3636901080608368 -0.012968800961971283
0.2848780155181885 0.45165514945983887 0.0552547350525856
0.2672021985054016 0.4380236566066742 0.10562274605035782
0.4678700864315033 0.7050052881240845 -0.059389639645814896
0.4418415427207947 0.7079640626907349 -0.04257525876164436
0.42210936546325684 0.7113180160522461 -0.02235628105700016
0.4522300064563751 0.6332384943962097 -0.05085832253098488
0.3987269997596741 0.7207082509994507 0.0191714558750391
0.4099089801311493 0.7312739491462708 0.005141302943229675
0.4084054231643677 0.7209962010383606 0.015194328501820564
0.4571513533592224 0.6227614879608154 -0.08878301084041595
0.43466460704803467 0.715063214302063 -0.015216575004160404
0.45249855518341064 0.7149671316146851 -0.02991279773414135
0.4738309681415558 0.7162458896636963 -0.04184885323047638
0.4653991162776947 0.8058850765228271 -0.01430949941277504
0.4665851593017578 0.7756307125091553 -0.0374755822122097
0.46791231632232666 0.7608112096786499 -0.04112505912780762
0.4701842665672302 0.7489676475524902 -0.03650540113449097
0.47294092178344727 0.7414804697036743 -0.032785601913928986
0.43307310342788696 0.7336122989654541 -0.007665002252906561
0.42894047498703003 0.7359002828598022 -0.011347831226885319
0.4233700633049011 0.7415040135383606 -0.013882686384022236
0.4187183380126953 0.749910295009613 -0.00894977618008852
0.39568549394607544 0.6856617331504822 -0.013909109868109226
0.23967021703720093 0.637656033039093 0.272889643907547
0.49941200017929077 0.6411986351013184 -0.08585665374994278
0.4216901659965515 0.7298418879508972 0.00675404304638505
0.4159965217113495 0.7291847467422485 0.004488915205001831
0.4716324210166931 0.6469508409500122 -0.06015320122241974
0.43583419919013977 0.6391484141349792 -0.032660938799381256
0.4686294496059418 0.6422590613365173 -0.06071709468960762
0.408399760723114 0.5653620958328247 -0.004005944821983576
0.3669974207878113 0.5803400278091431 0.004878526087850332
0.42425471544265747 0.6145539283752441 -0.04115758463740349
0.3125768005847931 0.3437784016132355 0.0577675960958004
0.33068200945854187 0.3771052956581116 0.021147584542632103
0.34897640347480774 0.4174515902996063 -0.008580496534705162
0.40740543603897095 0.7730507850646973 0.008465759456157684
0.44967371225357056 0.42077121138572693 -0.050812479108572006
0.4396854639053345 0.3588738441467285 -0.034631483256816864
0.43021246790885925 0.30493444204330444 -0.019650984555482864
0.3413968086242676 0.5191171765327454 0.03727524355053902
0.28209149837493896 0.5428261756896973 0.07531145215034485
0.4390132427215576 0.5058364868164062 0.016900986433029175
0.3105822801589966 0.4893440008163452 0.04856482520699501
0.45010292530059814 0.5374869108200073 -0.024595994502305984
0.442533016204834 0.6085834503173828 -0.08752710372209549
0.25633370876312256 0.5616987347602844 0.10449910163879395
0.2980862259864807 0.5551246404647827 0.05354313179850578
0.32816678285598755 0.5609162449836731 0.02962503582239151
0.374109148979187 0.5572028756141663 0.015421172603964806
0.4091181755065918 0.5479834675788879 0.007773729972541332
0.43417608737945557 0.5369402766227722 -0.0006640419596806169
0.48009151220321655 0.5055714845657349 -0.05446470528841019
0.25615742802619934 0.6087848544120789 0.09877356141805649
0.28992387652397156 0.48709821701049805 0.06123780831694603
0.4874071776866913 0.6347067356109619 -0.11487450450658798
0.4347737431526184 0.5734137892723083 -0.0237553920596838
0.23406797647476196 0.5283877849578857 0.2540026009082794
0.4517202377319336 0.5241792798042297 -0.0061636134050786495
0.4220072031021118 0.6167265772819519 -0.015913167968392372
0.3233053684234619 0.5033697485923767 0.0553828701376915
0.4421342611312866 0.5941794514656067 -0.0783424824476242
0.24672916531562805 0.6959968209266663 0.26104989647865295
0.437962144613266 0.4988575577735901 0.02292090281844139
0.45975714921951294 0.5802997946739197 -0.10323593020439148
0.308048814535141 0.7992181777954102 0.10879405587911606
0.3130234479904175 0.834077000617981 0.1496533304452896
0.23582938313484192 0.6252548098564148 0.18663588166236877
0.27770403027534485 0.7702244520187378 0.13898764550685883
0.2521856725215912 0.4777711033821106 0.14638496935367584
0.4056192934513092 0.8787311911582947 0.028491834178566933
0.4905624985694885 0.6402405500411987 -0.08372373133897781
0.4132835865020752 0.589898407459259 -0.013562268577516079
0.2615101933479309 0.5217899680137634 0.11156852543354034
0.36520665884017944 0.5078542828559875 0.026839161291718483
0.38592293858528137 0.508639395236969 0.0197609830647707
0.40395987033843994 0.7353574633598328 0.009387059137225151
0.25765737891197205 0.6581363081932068 0.10638555139303207
0.4505978226661682 0.9168744087219238 0.030570093542337418
0.3799164295196533 0.8840485215187073 0.08347001671791077
0.3493794798851013 0.8632029891014099 0.11285560578107834
0.503011167049408 0.35812780261039734 -0.04492195323109627
0.5022528171539307 0.9223171472549438 0.02036808803677559
0.4049311876296997 0.506757915019989 0.01697261445224285
0.4223783612251282 0.5025104284286499 0.018879495561122894
0.4330010414123535 0.5000929236412048 0.022882549092173576
0.2719053030014038 0.48300498723983765 0.086616151034832
0.4188932180404663 0.4921124577522278 0.015029494650661945
0.39955374598503113 0.4915827512741089 0.011441503651440144
0.3809683918952942 0.4920352101325989 0.014021436683833599
0.3615553379058838 0.4949021339416504 0.021533215418457985
0.3478259742259979 0.4986284673213959 0.030356358736753464
0.23793426156044006 0.469908207654953 0.21343177556991577
0.3510105609893799 0.5064074397087097 0.035141441971063614
0.49943363666534424 0.6637866497039795 -0.061894167214632034
0.42029887437820435 0.671961784362793 -0.03055926226079464
0.4456692636013031 0.6262356042861938 -0.06424254179000854
0.466579407453537 0.6648896336555481 -0.05716341733932495
0.5033146142959595 0.47560179233551025 -0.049202729016542435
0.34201788902282715 0.8292350769042969 0.08426976948976517
0.3729691207408905 0.8540387749671936 0.05796492472290993
0.44782906770706177 0.8956341743469238 0.00214150152169168
0.285672128200531 0.8018910884857178 0.1949300318956375
0.4319208860397339 0.49527204036712646 0.019709166139364243
0.46443626284599304 0.5412240624427795 -0.059006232768297195
0.5004675984382629 0.9011141061782837 -0.006913376972079277
0.41194674372673035 0.9028208255767822 0.05276430770754814
0.24147281050682068 0.6790940761566162 0.18239502608776093
0.4509350061416626 0.7376318573951721 -0.021040234714746475
0.4466877579689026 0.7429525852203369 -0.025038093328475952
0.44273537397384644 0.7520800232887268 -0.02769673429429531
0.43944936990737915 0.7654653191566467 -0.023344149813055992
0.4322952628135681 0.7921247482299805 -0.0047747232019901276
0.41448649764060974 0.717894971370697 5.8645902754506096e-05
0.4069305956363678 0.7155545949935913 0.0009076637797988951
0.3997718393802643 0.7122828960418701 0.0011627919739112258
0.376498818397522 0.7023913264274597 0.006561401765793562
0.2869398593902588 0.6645500063896179 0.05575013533234596
0.4657055139541626 0.5202319622039795 -0.037856608629226685
0.45592862367630005 0.48264777660369873 0.0035502903629094362
0.44195714592933655 0.48707184195518494 0.014399496838450432
0.42008519172668457 0.7157921195030212 0.00184440182056278
0.2853522300720215 0.7274759411811829 0.09298623353242874
0.4742681086063385 0.4807373285293579 -0.030156617984175682
0.42046183347702026 0.820142388343811 0.006832457147538662
0.5004866719245911 0.544103741645813 -0.10630223900079727
0.48016810417175293 0.527838408946991 -0.07774979621171951
0.501349151134491 0.5220237374305725 -0.08502285182476044
0.44837385416030884 0.5764158964157104 -0.05705997347831726
0.4997338354587555 0.8723089694976807 -0.01985350251197815
0.4996767044067383 0.8381182551383972 -0.019056981429457664
0.45790165662765503 0.8348857164382935 -0.011208455078303814
0.368080735206604 0.7678362131118774 0.03465375304222107
0.4010729193687439 0.6364325284957886 -0.007462251465767622
0.3922979235649109 0.7975571155548096 0.022547615692019463
0.340129554271698 0.6375128030776978 0.0057337358593940735
0.37429600954055786 0.6609016060829163 0.0005212321411818266
0.3188847303390503 0.6776595711708069 0.027928780764341354
0.45036780834198 0.8675954341888428 -0.009911314584314823
0.43537992238998413 0.5893799066543579 -0.038504742085933685
0.34883278608322144 0.7943081855773926 0.057319846004247665
0.37935179471969604 0.8236616849899292 0.039380814880132675
0.3472985625267029 0.7354122996330261 0.03701136261224747
0.26356005668640137 0.7010292410850525 0.11475864052772522
0.31694304943084717 0.7482455968856812 0.06149446591734886
0.2537553310394287 0.7282136678695679 0.1716272085905075
0.3526761531829834 0.690162181854248 0.014029820449650288
0.4502209722995758 0.5572211146354675 -0.039996735751628876
0.4496942162513733 0.6188226938247681 -0.09321963042020798
0.43595612049102783 0.6240488886833191 -0.06655648350715637
0.458434134721756 0.6027079224586487 -0.11129017919301987
0.43864455819129944 0.46746838092803955 -0.002482868265360594
0.4020140469074249 0.45826956629753113 -0.005590234883129597
0.36985236406326294 0.4572145938873291 -0.002778047462925315
0.3421546220779419 0.46198582649230957 0.009798634797334671
0.3219623565673828 0.4723607003688812 0.027100276201963425
0.3053884506225586 0.5090739727020264 0.06596170365810394
0.23457181453704834 0.5744080543518066 0.1815454363822937
0.3222934603691101 0.5346584916114807 0.04745328798890114
0.34669703245162964 0.539004921913147 0.03165305033326149
0.3788193166255951 0.5385072827339172 0.02004741132259369
0.4095253348350525 0.5329014658927917 0.013755734078586102
0.43249237537384033 0.5244832634925842 0.010355327278375626
0.44721049070358276 0.5161211490631104 0.007380537688732147
0.23717361688613892 0.5828168392181396 0.27205055952072144
0.43724265694618225 0.6292993426322937 -0.054598335176706314
0.46353867650032043 0.5601779818534851 -0.0774642750620842
0.4642486274242401 0.6193245649337769 -0.11322306841611862
0.4773278832435608 0.6314363479614258 -0.10463538765907288
0.4650767743587494 0.6237561702728271 -0.10143473744392395
0.44328898191452026 0.6358715891838074 -0.04709330573678017
0.4805474281311035 0.6331673860549927 -0.111211396753788
0.4837764799594879 0.6386160254478455 -0.08340513706207275
0.4463793933391571 0.4988930821418762 0.018288196995854378
0.4586414396762848 0.5034219622612 0.0026076515205204487
0.46473151445388794 0.5064032673835754 -0.01551034301519394
0.3390296697616577 0.5011295080184937 0.038832325488328934
0.3257545530796051 0.49143362045288086 0.041301582008600235
0.5204723477363586 0.5478442907333374 -0.09982414543628693
0.6778316497802734 0.4985498785972595 0.017544502392411232
0.5211211442947388 0.6350347399711609 -0.08595073223114014
0.7838211059570312 0.4155347943305969 0.12218078225851059
0.6067371368408203 0.51576828956604 -0.0015023666201159358
0.6309502124786377 0.5178283452987671 -0.001321764080785215
0.6553853154182434 0.517123818397522 0.0034219673834741116
0.689821183681488 0.5070305466651917 0.02028430812060833
0.5872402787208557 0.5096237659454346 0.002090569818392396
0.6378368735313416 0.4654136002063751 -0.014886810444295406
0.6137466430664062 0.46630623936653137 -0.011954018846154213
0.6614518165588379 0.46821320056915283 -0.00835093017667532
0.6780361533164978 0.47518113255500793 0.0010158662917092443
0.7118344902992249 0.5218307971954346 0.03122674487531185
0.5960957407951355 0.8513743877410889 0.003795780474320054
0.6872425079345703 0.49501562118530273 0.024236014112830162
0.7955559492111206 0.5191993117332458 0.13274523615837097
0.7416051626205444 0.5098695755004883 0.053017135709524155
0.6273021101951599 0.607603907585144 -0.022548027336597443
0.5307596921920776 0.6923224329948425 -0.06681094318628311
0.5279219746589661 0.7142718434333801 -0.055701106786727905
0.5647495985031128 0.6989912986755371 -0.0542733334004879
0.5873210430145264 0.70774245262146 -0.035055361688137054
0.5526257753372192 0.715545117855072 -0.046899519860744476
0.5724789500236511 0.7180098295211792 -0.028891606256365776
0.6175273656845093 0.7532427310943604 0.005593207664787769
0.5184981226921082 0.6218076348304749 -0.12822364270687103
0.5207667350769043 0.5981847047805786 -0.13610580563545227
0.7198172807693481 0.45226532220840454 0.0030546735506504774
0.5762137770652771 0.5508925914764404 -0.024800574406981468
0.5752520561218262 0.6154174208641052 -0.07347477972507477
0.577148973941803 0.6037282347679138 -0.06617048382759094
0.7064091563224792 0.6069334149360657 0.0014389376156032085
0.5205448269844055 0.5704138278961182 -0.12245999276638031
0.6544606685638428 0.4276115894317627 -0.03451893851161003
0.6917499899864197 0.43578508496284485 -0.01849839650094509
0.7532351016998291 0.37102487683296204 0.07623840868473053
0.5491251945495605 0.44864702224731445 -0.04819919541478157
0.5928640961647034 0.47181710600852966 -0.0031548140104860067
0.6384633183479309 0.7267418503761292 0.007519287057220936
0.7788352966308594 0.7558798789978027 0.19884666800498962
0.5576835870742798 0.6289182305335999 -0.06272944808006287
0.5376572608947754 0.6368956565856934 -0.06348669528961182
0.6124250888824463 0.7236051559448242 0.007277234457433224
0.601398766040802 0.7231152057647705 0.0020443974062800407
0.7075155973434448 0.42000359296798706 -0.007605019025504589
0.5769310593605042 0.6249905228614807 -0.05998734384775162
0.6067674160003662 0.43089357018470764 -0.04445299133658409
0.6115657091140747 0.4106895625591278 -0.04975469037890434
0.6446674466133118 0.3119993209838867 -0.009525777772068977
0.7293753027915955 0.3939625918865204 0.028814369812607765
0.6254004240036011 0.35750824213027954 -0.030397610738873482
0.7376634478569031 0.442390501499176 0.022709641605615616
0.7607963681221008 0.42963722348213196 0.06993075460195541
0.5295054912567139 0.7054926753044128 -0.0638936311006546
0.5576618313789368 0.7091350555419922 -0.05166332423686981
0.5795915722846985 0.7130023837089539 -0.03395029529929161
0.5519607067108154 0.6329319477081299 -0.05707770213484764
0.6067705750465393 0.7231943011283875 0.004643218591809273
0.5939491391181946 0.7333927750587463 -0.00747406342998147
0.5989406704902649 0.7231719493865967 0.0016228441381826997
0.5444512367248535 0.6223242282867432 -0.09595877677202225
0.5690960884094238 0.7165161371231079 -0.025131162256002426
0.5489240288734436 0.7160229682922363 -0.037335507571697235
0.5258670449256897 0.7167165279388428 -0.045987047255039215
0.5351136922836304 0.8065502643585205 -0.017943594604730606
0.531208872795105 0.7763653993606567 -0.041688330471515656
0.5295960307121277 0.7614201307296753 -0.04590785875916481
0.52805495262146 0.7495830655097961 -0.04114712402224541
0.5261344909667969 0.742224395275116 -0.037286266684532166
0.5699546337127686 0.7350484728813171 -0.017601262778043747
0.5734851956367493 0.7374278903007507 -0.021438663825392723
0.5784909725189209 0.743102490901947 -0.024252094328403473
0.5833083987236023 0.7514725923538208 -0.019600657746195793
0.609557032585144 0.6864359378814697 -0.027913056313991547
0.805687427520752 0.634631872177124 0.23185864090919495
0.5833756327629089 0.7316080927848816 -0.0053188130259513855
0.5882529616355896 0.731305718421936 -0.007771496195346117
0.5299292802810669 0.6471806764602661 -0.06375119835138321
0.5700008273124695 0.6389937400817871 -0.04083173722028732
0.5336101651191711 0.6422749161720276 -0.06440844386816025
0.6024309396743774 0.5637292265892029 -0.01808338612318039
0.6445695757865906 0.578671395778656 -0.013736101798713207
0.5821266174316406 0.6138857007026672 -0.05240246653556824
0.708179771900177 0.3356597423553467 0.02912658266723156
0.6856938600540161 0.3685012459754944 -0.0036793574690818787
0.6639060974121094 0.40831899642944336 -0.030088692903518677
0.5972143411636353 0.7747257351875305 -0.0038815245497971773
0.5563416481018066 0.4172382354736328 -0.05781302973628044
0.5672736167907715 0.35566869378089905 -0.0434965118765831
0.5792833566665649 0.30162757635116577 -0.029879391193389893
0.6772149205207825 0.5139449834823608 0.012084300629794598
0.7404429316520691 0.5382733941078186 0.04339408874511719
0.575528621673584 0.5033326148986816 0.005562277976423502
0.7099372744560242 0.481778085231781 0.0192896518856287
0.5587564706802368 0.5360439419746399 -0.03327512741088867
0.5594290494918823 0.6076778173446655 -0.09608901292085648
0.7702040672302246 0.5573915243148804 0.06826453655958176
0.7214159965515137 0.5512955784797668 0.023704200983047485
0.687709629535675 0.5580410957336426 0.004440406337380409
0.6393370628356934 0.5548540353775024 -0.0036013119388371706
0.6034099459648132 0.5459314584732056 -0.0069136605598032475
0.5775915384292603 0.5351554155349731 -0.011756223626434803
0.5256299376487732 0.5049076080322266 -0.05794202536344528
0.7685736417770386 0.6058599352836609 0.06281942129135132
0.7325232625007629 0.47947174310684204 0.028872638940811157
0.5108018517494202 0.634671688079834 -0.11660684645175934
0.5734750628471375 0.5721486210823059 -0.03449747711420059
0.8092631697654724 0.5227952003479004 0.21186402440071106
0.559103786945343 0.5225936770439148 -0.014736753888428211
0.5860452651977539 0.6159279346466064 -0.02694253996014595
0.6969638466835022 0.49614453315734863 0.027916841208934784
0.5610883235931396 0.5931898951530457 -0.08712460100650787
0.7978507876396179 0.6944099068641663 0.22145524621009827
0.5771781206130981 0.49620553851127625 0.01112606655806303
0.5411340594291687 0.5795361995697021 -0.1092710867524147
0.7139429450035095 0.8010292053222656 0.0817769318819046
0.7156116962432861 0.8365147113800049 0.12160296738147736
0.7989088296890259 0.6222255825996399 0.14658787846565247
0.7499890327453613 0.7709011435508728 0.10704821348190308
0.7793868184089661 0.4706687331199646 0.10802987962961197
0.6019223928451538 0.880953311920166 0.015674851834774017
0.5086082816123962 0.6401819586753845 -0.08468502014875412
0.5958923101425171 0.5887322425842285 -0.026451602578163147
0.7658067941665649 0.5158053636550903 0.07561534643173218
0.6515492796897888 0.502851665019989 0.005128196906298399
0.6300075054168701 0.5041793584823608 0.0007439067121595144
0.5999138951301575 0.7375219464302063 -0.004043503664433956
0.7673565149307251 0.6564852595329285 0.07172443717718124
0.5557708144187927 0.9181696772575378 0.023558152839541435
0.6360428929328918 0.8869742155075073 0.0652252733707428
0.6725417971611023 0.8662025928497314 0.0900978147983551
0.6104871034622192 0.502741277217865 0.0005432001780718565
0.592735230922699 0.49931710958480835 0.0047844769433140755
0.5822509527206421 0.49733421206474304 0.010207816027104855
0.7536166906356812 0.4753407835960388 0.05190671607851982
0.5964086055755615 0.48825570940971375 0.000499989022500813
0.6159909963607788 0.4864054322242737 -0.005608449224382639
0.6346228718757629 0.4858816862106323 -0.00568400789052248
0.655029296875 0.488044798374176 -0.000845224189106375
0.6695638298988342 0.49133121967315674 0.006432339549064636
0.8014112710952759 0.4630736708641052 0.1723068505525589
0.6666392683982849 0.5007331967353821 0.011442949064075947
0.5837461948394775 0.6722817420959473 -0.041417445987463
0.5579204559326172 0.6255050897598267 -0.07168111950159073
0.5334905385971069 0.6649997234344482 -0.061664480715990067
0.6753836870193481 0.8317311406135559 0.0622987262904644
0.6397948861122131 0.8568013310432434 0.04037287458777428
0.5553815960884094 0.8967708349227905 -0.004626921843737364
0.7498016953468323 0.8033328056335449 0.16146889328956604
0.583167552947998 0.4923616051673889 0.00657227635383606
0.5405614972114563 0.5403278470039368 -0.06490311771631241
0.5983036160469055 0.9050298929214478 0.03935268521308899
0.7930757999420166 0.6774500608444214 0.14412015676498413
0.5497785806655884 0.7387756705284119 -0.028978673741221428
0.553447425365448 0.743972897529602 -0.03300067409873009
0.5566540360450745 0.7530511617660522 -0.03593425080180168
0.5600727796554565 0.7663667798042297 -0.03182722255587578
0.5700623393058777 0.7933748960494995 -0.013866087421774864
0.5902753472328186 0.7200369834899902 -0.012617564760148525
0.5970041155815125 0.7178504467010498 -0.012878887355327606
0.6042033433914185 0.7146767377853394 -0.013635407201945782
0.6297910213470459 0.7038754224777222 -0.01056233886629343
0.7309290766716003 0.6634634733200073 0.026945006102323532
0.5418932437896729 0.5191535353660583 -0.04406221583485603
0.5560497641563416 0.4805361032485962 -0.004444456193596125
0.5719513893127441 0.48444679379463196 0.0032926646526902914
0.5859419107437134 0.7176070213317871 -0.010160482488572598
0.7359201908111572 0.7275210618972778 0.06356394290924072
0.534083366394043 0.4795229434967041 -0.0346783772110939
0.5839980244636536 0.8216976523399353 -0.0029621946159750223
0.523285448551178 0.5272608995437622 -0.08073101192712784
0.5565804243087769 0.5754579901695251 -0.06516481190919876
0.5430775284767151 0.8358513116836548 -0.015925338491797447
0.6418894529342651 0.7698241472244263 0.017225241288542747
0.6077341437339783 0.63596510887146 -0.0209212489426136
0.6151871681213379 0.7996390461921692 0.008847277611494064
0.6705724000930786 0.6366050243377686 -0.014165052212774754
0.6343405842781067 0.6609206199645996 -0.01603584922850132
0.694089949131012 0.6773172616958618 0.004817647859454155
0.5513518452644348 0.8685203194618225 -0.016149505972862244
0.5717424750328064 0.5883626341819763 -0.048650145530700684
0.6646581888198853 0.7963442802429199 0.03704418987035751
0.6304847598075867 0.8259015679359436 0.02380160056054592
0.6635771989822388 0.7369433641433716 0.01613331399857998
0.7621735334396362 0.7003285884857178 0.08163925260305405
0.6988654136657715 0.7493159174919128 0.037117186933755875
0.7791564464569092 0.7276355624198914 0.13510045409202576
0.6569187641143799 0.6909240484237671 -0.005150275304913521
0.5566809773445129 0.5562418699264526 -0.0485064797103405
0.5518897771835327 0.6181574463844299 -0.10092959553003311
0.5678590536117554 0.6232537031173706 -0.07543648034334183
0.5411760807037354 0.6021593809127808 -0.11733993887901306
0.5729612112045288 0.4641689658164978 -0.013301564380526543
0.6099761724472046 0.45263805985450745 -0.020729433745145798
0.6434184312820435 0.44989919662475586 -0.022231442853808403
0.6733840703964233 0.4538807272911072 -0.014272784814238548
0.6960738897323608 0.4639868140220642 -8.147890184773132e-05
0.7164945006370544 0.5024834275245667 0.03630033880472183
0.8003405332565308 0.5701863169670105 0.14061683416366577
0.69685959815979 0.5301153063774109 0.020585421472787857
0.6701558828353882 0.5354870557785034 0.008448433130979538
0.6362903714179993 0.5354498028755188 0.0008365623652935028
0.6046950817108154 0.5301678776741028 -0.0013775125844404101
0.5813118815422058 0.5220919847488403 -0.000957589887548238
0.5657587051391602 0.514207124710083 -0.0019369185902178288
0.8078242540359497 0.5786600708961487 0.23021137714385986
0.5674690008163452 0.6288135051727295 -0.06337445229291916
0.5393224954605103 0.5593463778495789 -0.08374130725860596
0.5349129438400269 0.6189774870872498 -0.11805643141269684
0.5222969055175781 0.6313114166259766 -0.10748004168272018
0.5351806879043579 0.6234169006347656 -0.1064833328127861
0.5616572499275208 0.635766327381134 -0.054496556520462036
0.5181697607040405 0.6331856846809387 -0.11348262429237366
0.5161214470863342 0.6385911107063293 -0.08533243834972382
0.5677811503410339 0.49664613604545593 0.008437315933406353
0.5536394119262695 0.5017421841621399 -0.00486550061032176
0.5453327894210815 0.5050541758537292 -0.021447205916047096
0.6792455911636353 0.4937220513820648 0.013903007842600346
0.6934244632720947 0.48373258113861084 0.01429485809057951
