ply
format ascii 1.0
element vertex 468
property float x
property float y
property float z
end_header
0.49991410970687866 0.7434449791908264 -0.030799804255366325
0.5010977387428284 0.6766171455383301 -0.11360063403844833
0.5000683069229126 0.6904404163360596 -0.04604078829288483
0.4803314208984375 0.5834747552871704 -0.10655726492404938
0.501051127910614 0.6523588299751282 -0.12738244235515594
0.5006894469261169 0.6147902011871338 -0.12710759043693542
0.49964019656181335 0.5136622786521912 -0.09240244328975677
0.3284670114517212 0.4794920086860657 -0.008396166376769543
0.49903398752212524 0.4357025623321533 -0.09514974802732468
0.4989880323410034 0.39798516035079956 -0.11138903349637985
0.49855297803878784 0.2523666024208069 -0.12945307791233063
0.49989238381385803 0.7543865442276001 -0.024592502042651176
0.4998456537723541 0.7609105110168457 -0.014645653776824474
0.49986591935157776 0.761422872543335 -0.0029355224687606096
0.5003228783607483 0.7633174061775208 0.00031987365218810737
0.5003029108047485 0.7742111086845398 -0.0003113225393462926
0.5002537369728088 0.7871384620666504 -0.0010220804251730442
0.5003864765167236 0.7996060848236084 0.006509421393275261
0.500643789768219 0.8136413097381592 0.03540265932679176
0.5006281137466431 0.6856935620307922 -0.09876017272472382
0.4792060852050781 0.6777496933937073 -0.06644587218761444
0.24286887049674988 0.34502726793289185 0.06274715811014175
0.4018845558166504 0.5065199136734009 -0.026751331984996796
0.37801578640937805 0.5082461833953857 -0.02446921169757843
0.35434457659721375 0.5059662461280823 -0.01809157431125641
0.32102781534194946 0.485595166683197 -0.001468595932237804
0.4206107556819916 0.5011159181594849 -0.02489740028977394
0.3619524836540222 0.4374643564224243 -0.04847271367907524
0.3887466788291931 0.44045400619506836 -0.049493853002786636
0.3381238579750061 0.440380722284317 -0.0393231026828289
0.32284900546073914 0.44824743270874023 -0.028703441843390465
0.3038696050643921 0.4994589388370514 0.014119651168584824
0.4212076663970947 0.8365402221679688 0.07627726346254349
0.3185288906097412 0.469910204410553 -0.0023788842372596264
0.2381819188594818 0.4611413776874542 0.109129898250103
0.2773474156856537 0.47507476806640625 0.031092729419469833
0.3832140564918518 0.6197794675827026 -0.01420480478554964
0.4708139896392822 0.7375024557113647 -0.029213232919573784
0.47435858845710754 0.7581713795661926 -0.011742203496396542
0.4417386054992676 0.7379089593887329 -0.014183548279106617
0.42366254329681396 0.7390480637550354 0.004532902035862207
0.4531005024909973 0.754561722278595 -0.0029987022280693054
0.4366028606891632 0.7509495615959167 0.013311322778463364
0.3969256579875946 0.7609863877296448 0.05353306606411934
0.48223093152046204 0.674481213092804 -0.11206325143575668
0.4787205755710602 0.6510486602783203 -0.12517458200454712
0.2870634198188782 0.4173066020011902 -0.03143009915947914
0.4293800890445709 0.5569666624069214 -0.03580961376428604
0.42836904525756836 0.6501179933547974 -0.058052219450473785
0.4268171787261963 0.6339336633682251 -0.05433327704668045
0.3128969073295593 0.6059004664421082 0.0130055146291852
0.47943243384361267 0.6156842708587646 -0.12010917067527771
0.3394589424133301 0.39944303035736084 -0.07651899009943008
0.30792397260665894 0.4034493565559387 -0.05677582696080208
0.2621408998966217 0.3064689338207245 0.0047502839006483555
0.4448106586933136 0.4286084771156311 -0.09075780212879181
0.41207700967788696 0.45072662830352783 -0.04119700938463211
0.37884101271629333 0.7386266589164734 0.05128384754061699
0.2819767892360687 0.6773205995559692 0.25186651945114136
0.44468143582344055 0.6640759110450745 -0.04578093811869621
0.463822603225708 0.6744799613952637 -0.043318405747413635
0.40175920724868774 0.7407242655754089 0.048470113426446915
0.41194477677345276 0.7423035502433777 0.04204442352056503
0.2947229743003845 0.3823698163032532 -0.05237582325935364
0.4280533790588379 0.6568527221679688 -0.042201802134513855
0.3833756446838379 0.4054226875305176 -0.08866477757692337
0.37871336936950684 0.38289353251457214 -0.10015129297971725
0.3540259599685669 0.25998547673225403 -0.09801574796438217
0.27842211723327637 0.3445472717285156 -0.029182882979512215
0.3692256808280945 0.32215458154678345 -0.10182428359985352
0.2725609540939331 0.39984017610549927 -0.016886122524738312
0.25745999813079834 0.37438058853149414 0.019008705392479897
0.4722311496734619 0.7502937316894531 -0.023154785856604576
0.4480336010456085 0.7486955523490906 -0.009186443872749805
0.43019765615463257 0.7455748915672302 0.007514520548284054
0.45049750804901123 0.6682609915733337 -0.03940300643444061
0.40705573558807373 0.7418144941329956 0.04508505016565323
0.4175827205181122 0.7499731779098511 0.03413016349077225
0.4143398106098175 0.7416279315948486 0.04140009358525276
0.45622318983078003 0.6638953685760498 -0.08022364974021912
0.4410300552845001 0.7484498023986816 0.017631329596042633
0.45782703161239624 0.7537801265716553 0.0071111018769443035
0.47746098041534424 0.7586266994476318 -0.0007351841195486486
0.4708232283592224 0.8115823268890381 0.03634507209062576
0.4717065393924713 0.7959527969360352 0.007551020476967096
0.47233250737190247 0.7828984260559082 0.000628692505415529
0.474162757396698 0.770213782787323 0.0014744371874257922
0.47614362835884094 0.7610396146774292 0.0026332512497901917
0.43789833784103394 0.7511529326438904 0.02041839249432087
0.4345478415489197 0.7542004585266113 0.018761761486530304
0.42993658781051636 0.7601120471954346 0.018390240147709846
0.426116406917572 0.767027735710144 0.02496907487511635
0.40420785546302795 0.711207926273346 0.005001182667911053
0.24906176328659058 0.5527452230453491 0.24196292459964752
0.500304102897644 0.6868546605110168 -0.0651966780424118
0.4272339344024658 0.7472749948501587 0.032954879105091095
0.4227118194103241 0.7483044862747192 0.03231466934084892
0.47155508399009705 0.6866724491119385 -0.04010114073753357
0.4353030323982239 0.6699734926223755 -0.021024364978075027
0.46790674328804016 0.6810777187347412 -0.042491331696510315
0.40622708201408386 0.5682075619697571 -0.023050040006637573
0.3675105571746826 0.5829622149467468 -0.012101427651941776
0.42360997200012207 0.6413735747337341 -0.03855235129594803
0.296576589345932 0.2774357795715332 -0.05057431757450104
0.313503623008728 0.3258220851421356 -0.06837624311447144
0.3305546045303345 0.3756570518016815 -0.08039981126785278
0.4167991578578949 0.7806353569030762 0.04691004753112793
0.43644723296165466 0.3929592967033386 -0.10988582670688629
0.42900630831718445 0.3247555196285248 -0.1197533905506134
0.4192947447299957 0.2526610791683197 -0.12381808459758759
0.3331739008426666 0.49836695194244385 -0.009084759280085564
0.2797154486179352 0.5143346190452576 0.031268272548913956
0.43208786845207214 0.49591171741485596 -0.023527199402451515
0.29964596033096313 0.45107364654541016 -0.009359385818243027
0.4451887607574463 0.5440934300422668 -0.047912344336509705
0.4414009749889374 0.647719144821167 -0.0830468088388443
0.25731682777404785 0.5244619250297546 0.06254645437002182
0.2960284352302551 0.5378695130348206 0.016855083405971527
0.3268059194087982 0.5528860092163086 -0.0013629726599901915
0.37255746126174927 0.5522584319114685 -0.01164784375578165
0.40534237027168274 0.5433567762374878 -0.019387057051062584
0.4280448853969574 0.5339785218238831 -0.028723465278744698
0.4768766462802887 0.5182300209999084 -0.08256539702415466
0.26282837986946106 0.5795738697052002 0.07267732173204422
0.28046536445617676 0.4427812099456787 -0.0011677152942866087
0.4892996549606323 0.6840693950653076 -0.09772101044654846
0.43241754174232483 0.5866518020629883 -0.03759486600756645
0.2340780794620514 0.4422738254070282 0.1834125965833664
0.4452645480632782 0.523655354976654 -0.0365784578025341
0.42146235704421997 0.6381982564926147 -0.015878994017839432
0.31231996417045593 0.4694247543811798 0.002640744671225548
0.44027313590049744 0.6276620626449585 -0.07881731539964676
0.2618997395038605 0.6132076978683472 0.25270453095436096
0.4305451810359955 0.4861253499984741 -0.021726012229919434
0.45907750725746155 0.6198018193244934 -0.1042039692401886
0.33003026247024536 0.7627968192100525 0.14490874111652374
0.3360625207424164 0.7767419219017029 0.1967770755290985
0.24581873416900635 0.5681732296943665 0.15668737888336182
0.2998577058315277 0.7242715954780579 0.16380362212657928
0.24639570713043213 0.41323190927505493 0.06888547539710999
0.42036134004592896 0.8535642623901367 0.09893395751714706
0.4913809895515442 0.6852737069129944 -0.06380277127027512
0.41227975487709045 0.6013797521591187 -0.023872695863246918
0.25839877128601074 0.47390294075012207 0.05410776659846306
0.3549646735191345 0.49221643805503845 -0.020220791921019554
0.37705737352371216 0.49482449889183044 -0.02554386854171753
0.41201403737068176 0.7526492476463318 0.039308421313762665
0.27060937881469727 0.6279014348983765 0.09754044562578201
0.4599410593509674 0.880710244178772 0.11686234176158905
0.3994531035423279 0.8402032852172852 0.1504979431629181
0.3716731667518616 0.8142038583755493 0.17030176520347595
0.49867868423461914 0.32690370082855225 -0.12398971617221832
0.5016540288925171 0.8866883516311646 0.11208061873912811
0.397330105304718 0.49285686016082764 -0.02679370902478695
0.4158101975917816 0.48888254165649414 -0.02466905117034912
0.42652884125709534 0.48725616931915283 -0.02105793170630932
0.26367616653442383 0.43095406889915466 0.01951628550887108
0.40874403715133667 0.463542640209198 -0.03410221263766289
0.3869733512401581 0.453216552734375 -0.03857250511646271
0.36445632576942444 0.4511638581752777 -0.03742412105202675
0.3427773118019104 0.45501863956451416 -0.030783215537667274
0.3303065896034241 0.46198177337646484 -0.022353006526827812
0.2338719367980957 0.38778918981552124 0.1261029690504074
0.3394647240638733 0.4863547384738922 -0.013524620793759823
0.5000455975532532 0.706316351890564 -0.03576837107539177
0.42470407485961914 0.702921986579895 -0.011181858368217945
0.4438383877277374 0.6624529957771301 -0.056545648723840714
0.4685373902320862 0.7057033181190491 -0.03342834487557411
0.4993242025375366 0.47127097845077515 -0.08591366559267044
0.3623614013195038 0.7976279854774475 0.1331988275051117
0.39062991738319397 0.8250433802604675 0.11834737658500671
0.45674464106559753 0.8752484321594238 0.08217988163232803
0.3073475956916809 0.7329638004302979 0.22878213226795197
0.4236415922641754 0.4779497981071472 -0.027223821729421616
0.46152251958847046 0.5622169375419617 -0.07764031738042831
0.5016638040542603 0.8806307315826416 0.07873966544866562
0.4277065694332123 0.8638707399368286 0.12941277027130127
0.2574380040168762 0.6223317384719849 0.17213808000087738
0.45515841245651245 0.7565011978149414 0.01035856269299984
0.45176243782043457 0.7626702189445496 0.008479567244648933
0.4486270248889923 0.7722011208534241 0.008145325817167759
0.4466485381126404 0.7841067314147949 0.014754771254956722
0.44104811549186707 0.7985754013061523 0.039181727916002274
0.42182987928390503 0.7462273836135864 0.02824663370847702
0.4152984023094177 0.7431271076202393 0.02769441157579422
0.4088696837425232 0.7384284138679504 0.026215652003884315
0.3870258331298828 0.7233144640922546 0.025669874623417854
0.29862290620803833 0.6524240374565125 0.05430429428815842
0.4612215757369995 0.5299687385559082 -0.06385957449674606
0.4473330080509186 0.4702688455581665 -0.04214230552315712
0.4331356883049011 0.4720243811607361 -0.03343430906534195
0.42683660984039307 0.7437735795974731 0.030924435704946518
0.30327585339546204 0.7021245956420898 0.10791195929050446
0.4679693877696991 0.47302955389022827 -0.07045646756887436
0.4296659231185913 0.8170068264007568 0.05917614325881004
0.5001969337463379 0.5812197327613831 -0.11477304250001907
0.4782598316669464 0.5531562566757202 -0.09776466339826584
0.49987536668777466 0.5493022203445435 -0.10360750555992126
0.44598880410194397 0.6012881398200989 -0.06573271751403809
0.5013638138771057 0.8636115193367004 0.057515066117048264
0.5010613203048706 0.8375139832496643 0.047197770327329636
0.46433448791503906 0.8341639041900635 0.05095086246728897
0.3787477910518646 0.7677011489868164 0.06984366476535797
0.40185606479644775 0.6549556255340576 -0.005079369526356459
0.4023304581642151 0.7944384217262268 0.06682268530130386
0.3458496928215027 0.6455288529396057 0.0035620294511318207
0.3798152208328247 0.6770527362823486 0.006775877438485622
0.3288295865058899 0.6788868308067322 0.03310699760913849
0.4582381844520569 0.8588565587997437 0.061599500477313995
0.43334195017814636 0.6099283695220947 -0.044945430010557175
0.3636415898799896 0.779964804649353 0.09789622575044632
0.3925648331642151 0.8087788820266724 0.09201143682003021
0.3583899736404419 0.7386735081672668 0.06200931966304779
0.28101053833961487 0.6672842502593994 0.11966203898191452
0.3323644995689392 0.7353811860084534 0.08504854887723923
0.2735869288444519 0.6732468605041504 0.18034087121486664
0.36267954111099243 0.7029538154602051 0.026474934071302414
0.44694948196411133 0.5739759802818298 -0.05626973882317543
0.4488304853439331 0.6602585911750793 -0.08628059923648834
0.434889554977417 0.6595759987831116 -0.05842498689889908
0.4590032696723938 0.6490187644958496 -0.10490430891513824
0.42671796679496765 0.4468488097190857 -0.05553717166185379
0.3870176672935486 0.430458128452301 -0.06211677938699722
0.3531178832054138 0.42584800720214844 -0.059402983635663986
0.3258693814277649 0.4273735284805298 -0.04798359423875809
0.30788445472717285 0.43540525436401367 -0.032237209379673004
0.29783135652542114 0.47241637110710144 0.013122521340847015
0.23889103531837463 0.5145198106765747 0.1342492699623108
0.3173721432685852 0.5140110850334167 0.0055555421859025955
0.3427343964576721 0.5253733396530151 -0.006195418536663055
0.3750452697277069 0.5274662971496582 -0.014909472316503525
0.40423843264579773 0.5226276516914368 -0.021119868382811546
0.42557796835899353 0.5159761905670166 -0.023658299818634987
0.44008713960647583 0.5098497867584229 -0.02739863656461239
0.2413647174835205 0.4960399270057678 0.2192058116197586
0.43606430292129517 0.6630380153656006 -0.04536285623908043
0.46193572878837585 0.5905527472496033 -0.08780784904956818
0.46573758125305176 0.6674404740333557 -0.10268675535917282
0.4779665172100067 0.6767866611480713 -0.08917773514986038
0.4654258191585541 0.6680980324745178 -0.09080537408590317
0.44219541549682617 0.6693815588951111 -0.03510044887661934
0.48219195008277893 0.6810533404350281 -0.09452942758798599
0.4843144416809082 0.6826453804969788 -0.06506659090518951
0.4385601878166199 0.4893418848514557 -0.023968124762177467
0.4514920115470886 0.49758997559547424 -0.03527110069990158
0.45873787999153137 0.5056676864624023 -0.04826413840055466
0.3233644366264343 0.46669161319732666 -0.013389606028795242
0.3124438524246216 0.4560966491699219 -0.013810966163873672
0.5200344324111938 0.583766520023346 -0.10611516982316971
0.6700509786605835 0.48041415214538574 -0.0047898017801344395
0.521239697933197 0.6784769296646118 -0.066144198179245
0.7543619871139526 0.3466586768627167 0.06761106848716736
0.5970379114151001 0.5076907873153687 -0.024608490988612175
0.6209471225738525 0.5095757246017456 -0.021687783300876617
0.6444268226623535 0.5073850750923157 -0.015313365496695042
0.6771169304847717 0.48654940724372864 0.0020348483230918646
0.5777015089988708 0.502207338809967 -0.023034317418932915
0.6367931962013245 0.4372478723526001 -0.04572061449289322
0.6096634268760681 0.4403318166732788 -0.04738324135541916
0.6607562303543091 0.44031989574432373 -0.036133043467998505
0.6759194731712341 0.44860199093818665 -0.02548234909772873
0.6942757368087769 0.5011201500892639 0.018094366416335106
0.580898642539978 0.8372182846069336 0.07843789458274841
0.6797511577606201 0.47041091322898865 0.0013284208253026009
0.7581214904785156 0.4625040888786316 0.11422910541296005
0.7204983234405518 0.47623804211616516 0.03556741774082184
0.6161685585975647 0.621687114238739 -0.011778906919062138
0.5288686752319336 0.7381198406219482 -0.02867845818400383
0.5253108143806458 0.7587310075759888 -0.011334645561873913
0.557598888874054 0.7392380237579346 -0.012863135896623135
0.5756067633628845 0.740638792514801 0.006492017302662134
0.5462992787361145 0.7554638981819153 -0.0019644619897007942
0.5626057386398315 0.752142608165741 0.015008061192929745
0.6028384566307068 0.7629473209381104 0.05642850324511528
0.5198078751564026 0.6749462485313416 -0.1117153912782669
0.5229405164718628 0.6513956785202026 -0.124681755900383
0.7120035886764526 0.41661393642425537 -0.027341047301888466
0.5700037479400635 0.5581241250038147 -0.03444785624742508
0.5718271136283875 0.6518707275390625 -0.05664746090769768
0.5733621120452881 0.635491669178009 -0.053132303059101105
0.685614287853241 0.6084757447242737 0.017399320378899574
0.5217574238777161 0.6159870028495789 -0.11958207935094833
0.6594231724739075 0.39752718806266785 -0.07280229032039642
0.6912647485733032 0.4020284414291382 -0.052910905331373215
0.7362209558486938 0.3079206645488739 0.009008617140352726
0.5532152056694031 0.427886962890625 -0.08919520676136017
0.5862542986869812 0.45097142457962036 -0.03957686573266983
0.6203768253326416 0.7407598495483398 0.05483825504779816
0.715160608291626 0.6785634756088257 0.25699442625045776
0.5552584528923035 0.6658812165260315 -0.045244839042425156
0.5362902283668518 0.6756546497344971 -0.04282769933342934
0.5975192785263062 0.7426639199256897 0.0517197847366333
0.5873185992240906 0.7438704967498779 0.04473084583878517
0.7046307921409607 0.380831241607666 -0.048205405473709106
0.5718344449996948 0.6586838960647583 -0.040899477899074554
0.614851713180542 0.4040941298007965 -0.0864308774471283
0.6194432973861694 0.3812830448150635 -0.09788709878921509
0.6429762840270996 0.26096901297569275 -0.09538163244724274
0.7202539443969727 0.3447517156600952 -0.02521398477256298
0.6283440589904785 0.32185816764831543 -0.09957185387611389
0.7261276245117188 0.39935004711151123 -0.012665950693190098
0.7406066656112671 0.3750580847263336 0.023434752598404884
0.5276437401771545 0.7510005831718445 -0.022380780428647995
0.5515116453170776 0.7498913407325745 -0.008176041767001152
0.5692658424377441 0.7471432685852051 0.009235653094947338
0.5494953393936157 0.6698510050773621 -0.038580190390348434
0.5920247435569763 0.7434679269790649 0.04788707196712494
0.582118570804596 0.7514652609825134 0.03636457026004791
0.5850064158439636 0.7431244254112244 0.04392024129629135
0.5441986322402954 0.6652835011482239 -0.07944634556770325
0.5582312345504761 0.7492827773094177 0.01922602951526642
0.5417212247848511 0.7545868158340454 0.008216260932385921
0.5223413109779358 0.7591326236724854 -0.0001383921771775931
0.530551016330719 0.8120516538619995 0.03717958182096481
0.5291935801506042 0.7965021729469299 0.008083014748990536
0.5280794501304626 0.783494234085083 0.0013049456756561995
0.5263767838478088 0.770774781703949 0.0022565643303096294
0.5243781805038452 0.7616257667541504 0.0032297123689204454
0.5621321797370911 0.752263069152832 0.02200707606971264
0.5653339624404907 0.7553530931472778 0.020208625122904778
0.5698952078819275 0.7613849639892578 0.02025158889591694
0.5738657116889954 0.7684980630874634 0.026970000937581062
0.5951377153396606 0.713017463684082 0.00712561933323741
0.7462249994277954 0.5542019605636597 0.2473190873861313
0.5724133253097534 0.7484634518623352 0.03517681732773781
0.5769439935684204 0.7496936321258545 0.034321438521146774
0.5284978151321411 0.6875067353248596 -0.03963661938905716
0.5643136501312256 0.6716205477714539 -0.01975412853062153
0.532092273235321 0.6820076704025269 -0.04221737012267113
0.593284547328949 0.5697466135025024 -0.02116333320736885
0.631584107875824 0.5850483775138855 -0.009193050675094128
0.5762123465538025 0.6431179642677307 -0.037286803126335144
0.7012568712234497 0.2784895598888397 -0.047378089278936386
0.6850448846817017 0.32536783814430237 -0.06520678848028183
0.6683276295661926 0.37375229597091675 -0.07692315429449081
0.5836212038993835 0.7818862199783325 0.04913925379514694
0.5614308714866638 0.39203110337257385 -0.10825059562921524
0.5680913925170898 0.32499322295188904 -0.1183769553899765
0.5773016810417175 0.2532154321670532 -0.12238100171089172
0.665377676486969 0.4997210204601288 -0.005840487312525511
0.7182417511940002 0.5163862705230713 0.03579692915081978
0.5661463141441345 0.4968750476837158 -0.021978285163640976
0.6988793611526489 0.45154160261154175 -0.005401862319558859
0.5540915131568909 0.54491126537323 -0.04709168151021004
0.5591443181037903 0.6491807699203491 -0.0820346400141716
0.7401412129402161 0.5268063545227051 0.06743191182613373
0.7022851705551147 0.5403017401695251 0.02117721177637577
0.6719365119934082 0.5552158355712891 0.002194912638515234
0.6264973878860474 0.554084837436676 -0.008753740228712559
0.593930721282959 0.5447673201560974 -0.017232621088624
0.5710535645484924 0.5351185202598572 -0.02742624655365944
0.5223378539085388 0.5184507966041565 -0.08223627507686615
0.7346237897872925 0.5820935368537903 0.07781015336513519
0.717793881893158 0.44307011365890503 0.002921365201473236
0.5120226144790649 0.6843957901000977 -0.09726612269878387
0.5674219727516174 0.5878398418426514 -0.036264318972826004
0.7610774636268616 0.4436339735984802 0.18906071782112122
0.5536237955093384 0.5245078802108765 -0.03541715443134308
0.5782380700111389 0.6398575305938721 -0.014070387929677963
0.6858581304550171 0.46988290548324585 0.0064889551140367985
0.5601950883865356 0.6290380954742432 -0.07773276418447495
0.7342603802680969 0.6148134469985962 0.25824353098869324
0.5674254894256592 0.4867473244667053 -0.02009742520749569
0.541764497756958 0.620471715927124 -0.10353244096040726
0.6697625517845154 0.7641452550888062 0.14885671436786652
0.6635926961898804 0.7773641347885132 0.20076826214790344
0.7505465745925903 0.5701164603233337 0.16205985844135284
0.6986739039421082 0.725658655166626 0.1684943288564682
0.7504674792289734 0.41439032554626465 0.07351536303758621
0.5823596715927124 0.853858232498169 0.10121100395917892
0.5093021392822266 0.685681939125061 -0.06369420886039734
0.5872900485992432 0.6029260754585266 -0.022168979048728943
0.7389552593231201 0.47529125213623047 0.058901697397232056
0.6437453031539917 0.49352046847343445 -0.017060356214642525
0.6218291521072388 0.4961782693862915 -0.02260410040616989
0.5876368284225464 0.7543390989303589 0.04175184667110443
0.7271474599838257 0.6301488876342773 0.10238710790872574
0.5435061454772949 0.880875825881958 0.11808902770280838
0.6027483344078064 0.8407535552978516 0.15324276685714722
0.6296597123146057 0.8150147199630737 0.17361313104629517
0.601485013961792 0.494121253490448 -0.024426475167274475
0.582615852355957 0.48976296186447144 -0.02243632636964321
0.5716208219528198 0.4880800247192383 -0.01947883889079094
0.7340904474258423 0.43128299713134766 0.023971475660800934
0.58978670835495 0.46376827359199524 -0.032373152673244476
0.612069845199585 0.45324259996414185 -0.03661999851465225
0.6344175934791565 0.4511035680770874 -0.034901212900877
0.6558458805084229 0.45520004630088806 -0.02781771495938301
0.6681936383247375 0.46228891611099243 -0.019124969840049744
0.7621141672134399 0.3895214796066284 0.1316065788269043
0.6591318249702454 0.48759785294532776 -0.010262785479426384
0.5748788714408875 0.7045496702194214 -0.0095700453966856
0.5562141537666321 0.6641972661018372 -0.05568414181470871
0.5315167903900146 0.7063637375831604 -0.03267025575041771
0.6387603878974915 0.7989636063575745 0.1365281343460083
0.6109154224395752 0.825813889503479 0.12106943875551224
0.5465590357780457 0.8754321336746216 0.08347666263580322
0.6910144686698914 0.7338258624076843 0.23320969939231873
0.574409008026123 0.47845232486724854 -0.02553415484726429
0.5382541418075562 0.5627960562705994 -0.07703715562820435
0.5753096342086792 0.8642346858978271 0.13137517869472504
0.7392464876174927 0.624123752117157 0.1772671639919281
0.5450644493103027 0.7573198080062866 0.011464612558484077
0.5483891367912292 0.7636222243309021 0.009570571593940258
0.5516697764396667 0.7731364965438843 0.00936663057655096
0.55380779504776 0.7850126028060913 0.016279106959700584
0.5600679516792297 0.7992600202560425 0.040920794010162354
0.5774375200271606 0.7476415038108826 0.03051217645406723
0.583849310874939 0.7448388338088989 0.029981667175889015
0.590233325958252 0.7404820322990417 0.028765831142663956
0.6119735240936279 0.7252466082572937 0.028871072456240654
0.6995974779129028 0.6547906994819641 0.05903926119208336
0.5380207896232605 0.5304514765739441 -0.06323663890361786
0.5508245229721069 0.4704180657863617 -0.041531965136528015
0.5649597644805908 0.47232747077941895 -0.031975772231817245
0.5721885561943054 0.7449327707290649 0.033083852380514145
0.6953985691070557 0.7040364742279053 0.11257163435220718
0.5305194854736328 0.4731767177581787 -0.06990999728441238
0.5715391635894775 0.8175181150436401 0.061099905520677567
0.5216302871704102 0.5534659028053284 -0.09738999605178833
0.5541453957557678 0.6022354364395142 -0.0650433748960495
0.5379610657691956 0.8345334529876709 0.051829781383275986
0.6212537288665771 0.7695903182029724 0.07333321124315262
0.5977116823196411 0.6568406820297241 -0.003089945064857602
0.5983598232269287 0.7958460450172424 0.06954286247491837
0.652956485748291 0.6476956009864807 0.0068449717946350574
0.619563639163971 0.6790179014205933 0.009501388296484947
0.6699721813201904 0.6810903549194336 0.037103164941072464
0.5448546409606934 0.8592433929443359 0.06298521161079407
0.5666355490684509 0.6112673282623291 -0.04386899992823601
0.6367899179458618 0.7815475463867188 0.10135629028081894
0.6084890365600586 0.8099176287651062 0.0946686863899231
0.6410004496574402 0.740676999092102 0.06594754755496979
0.7170296311378479 0.6693527698516846 0.12449090927839279
0.6666914820671082 0.7374004125595093 0.08920365571975708
0.7239395380020142 0.6748238205909729 0.18514160811901093
0.6363261938095093 0.7050328850746155 0.02967582456767559
0.5528332591056824 0.5748286843299866 -0.05538477748632431
0.5516482591629028 0.66181880235672 -0.0854431614279747
0.5652668476104736 0.6613512635231018 -0.057232726365327835
0.542433500289917 0.6499429941177368 -0.10459183901548386
0.5711419582366943 0.446725070476532 -0.05446243658661842
0.6109930276870728 0.4299562871456146 -0.060087643563747406
0.6452460289001465 0.4254484176635742 -0.05633607506752014
0.6728071570396423 0.4272397756576538 -0.04456034302711487
0.6908644437789917 0.43536174297332764 -0.028448376804590225
0.7005342245101929 0.4732833206653595 0.01708306558430195
0.7574305534362793 0.5163900852203369 0.13976411521434784
0.6811652183532715 0.5157122611999512 0.008984250016510487
0.6559603810310364 0.527217447757721 -0.002920482773333788
0.6240288615226746 0.5291651487350464 -0.012158283032476902
0.5947962403297424 0.5238546133041382 -0.018968282267451286
0.5732769966125488 0.5170220136642456 -0.022128429263830185
0.5585101842880249 0.510703980922699 -0.026101628318428993
0.7538809776306152 0.4973117709159851 0.22499996423721313
0.5637814402580261 0.6648967266082764 -0.04437795653939247
0.538475513458252 0.5911782383918762 -0.08717020601034164
0.5357179641723633 0.6684448719024658 -0.10197222232818604
0.5228523015975952 0.6776478886604309 -0.08898741006851196
0.535510778427124 0.669202983379364 -0.09018954634666443
0.5574426054954529 0.6710834503173828 -0.03427959978580475
0.518886148929596 0.6817364692687988 -0.09431406855583191
0.5163848400115967 0.6831005215644836 -0.06486105918884277
0.5593962073326111 0.489876925945282 -0.02281757816672325
0.5467952489852905 0.49810993671417236 -0.034262556582689285
0.5399519205093384 0.5060771703720093 -0.04727132245898247
0.6749732494354248 0.46710506081581116 -0.009874578565359116
0.6859337687492371 0.45637398958206177 -0.010325930081307888
