ply
format ascii 1.0
element vertex 468
property float x
property float y
property float z
end_header
0.5004140734672546 0.7205600738525391 -0.04811468347907066
0.5054920315742493 0.6388224363327026 -0.13065731525421143
0.5028311610221863 0.6584129333496094 -0.05838998034596443
0.4846479296684265 0.5588654279708862 -0.11531071364879608
0.5063633918762207 0.616304874420166 -0.1438807249069214
0.5066114664077759 0.5839670896530151 -0.14055576920509338
0.5061032772064209 0.5006300806999207 -0.09194415807723999
0.32632386684417725 0.479368656873703 -0.004682760685682297
0.5066463947296143 0.43684595823287964 -0.08952771127223969
0.507631778717041 0.4050160050392151 -0.10372955352067947
0.509196937084198 0.29291874170303345 -0.10904546082019806
0.49978283047676086 0.7318536043167114 -0.042007677257061005
0.4991576671600342 0.7384331226348877 -0.03144127503037453
0.49839311838150024 0.7396546006202698 -0.01848498359322548
0.4983527362346649 0.7479459047317505 -0.010906651616096497
0.49818387627601624 0.7588721513748169 -0.012661522254347801
0.49779272079467773 0.771323025226593 -0.013947179540991783
0.49723339080810547 0.7833673357963562 -0.005813200026750565
0.49604493379592896 0.7968235015869141 0.025593191385269165
0.5046684145927429 0.6484360098838806 -0.11510398238897324
0.48193424940109253 0.6433793306350708 -0.08008865267038345
0.23018014430999756 0.3795791566371918 0.08341500163078308
0.40049487352371216 0.5036090612411499 -0.02357136458158493
0.37488800287246704 0.5050944089889526 -0.022350408136844635
0.350349098443985 0.5033454895019531 -0.016633769497275352
0.31840407848358154 0.4874839186668396 0.001100298948585987
0.4219051003456116 0.49802064895629883 -0.0208281297236681
0.36442333459854126 0.4452430009841919 -0.045215871185064316
0.39211487770080566 0.44674721360206604 -0.04448455199599266
0.3395097255706787 0.448504239320755 -0.036795973777770996
0.32315361499786377 0.45558425784111023 -0.025924481451511383
0.2979584336280823 0.5024594664573669 0.016639642417430878
0.40266966819763184 0.8172879219055176 0.06324604898691177
0.3168725073337555 0.4724026024341583 0.0019335655961185694
0.22357910871505737 0.4779972434043884 0.12228591740131378
0.2691132426261902 0.48287832736968994 0.03673389181494713
0.3794350326061249 0.606001079082489 -0.021357154473662376
0.4700767993927002 0.7153435349464417 -0.046746257692575455
0.47307249903678894 0.7365225553512573 -0.02896820567548275
0.43873703479766846 0.7182589769363403 -0.031021006405353546
0.4179793894290924 0.7229946851730347 -0.01086315419524908
0.4504264295101166 0.7350305914878845 -0.019930541515350342
0.4318334460258484 0.7334133386611938 -0.001951533486135304
0.381590336561203 0.7494447231292725 0.04101016744971275
0.48518356680870056 0.6369483470916748 -0.12915827333927155
0.48211342096328735 0.6158269643783569 -0.14174403250217438
0.2833159863948822 0.42987048625946045 -0.02728693000972271
0.42977532744407654 0.5467400550842285 -0.03771543502807617
0.42749840021133423 0.624401867389679 -0.0700979232788086
0.42575210332870483 0.611208975315094 -0.0651196762919426
0.30651336908340454 0.5987549424171448 0.006065101362764835
0.48338767886161804 0.5856278538703918 -0.13346533477306366
0.3411368131637573 0.4095877408981323 -0.07254928350448608
0.3071725070476532 0.41577720642089844 -0.053429339081048965
0.25422489643096924 0.3433796167373657 0.023823903873562813
0.45168840885162354 0.43008846044540405 -0.08563370257616043
0.4164789617061615 0.45431050658226013 -0.03475707769393921
0.3650040924549103 0.7269715070724487 0.03964216262102127
0.25177001953125 0.6788575649261475 0.256470650434494
0.44472992420196533 0.6365157961845398 -0.05659747123718262
0.46467846632003784 0.6451014876365662 -0.055025529116392136
0.39064592123031616 0.730684757232666 0.03667030856013298
0.4013856053352356 0.7300399541854858 0.02967027574777603
0.2923280596733093 0.39899390935897827 -0.04686744883656502
0.4266306459903717 0.6334922909736633 -0.05355416238307953
0.38794204592704773 0.41218701004981995 -0.0841524749994278
0.38313454389572144 0.39307525753974915 -0.09497879445552826
0.3586398959159851 0.2992883026599884 -0.08092803508043289
0.2733871638774872 0.37098610401153564 -0.017869357019662857
0.37349212169647217 0.34655776619911194 -0.09058079868555069
0.2672138214111328 0.4170498847961426 -0.009915401227772236
0.24863921105861664 0.3999219536781311 0.032771311700344086
0.47110068798065186 0.7286332845687866 -0.04078712314367294
0.4454435706138611 0.7290765047073364 -0.026362914592027664
0.4249841570854187 0.7288671731948853 -0.008333141915500164
0.4508930742740631 0.6409921646118164 -0.050092246383428574
0.39627084136009216 0.730951726436615 0.03285185992717743
0.40642866492271423 0.7383426427841187 0.020925583317875862
0.4040158987045288 0.7281267046928406 0.028941253200173378
0.4585190415382385 0.6305904984474182 -0.09432398527860641
0.4363362193107605 0.7310765981674194 0.002895219950005412
0.4549195468425751 0.7347334623336792 -0.008627749979496002
0.47571682929992676 0.7375707626342773 -0.016978595405817032
0.4618397355079651 0.7952152490615845 0.02502145990729332
0.4644071161746979 0.7800877690315247 -0.006325618363916874
0.4666003882884979 0.7677059769630432 -0.01353716291487217
0.46949970722198486 0.7553821802139282 -0.011673358269035816
0.4722402095794678 0.7461323142051697 -0.009647190570831299
0.42967477440834045 0.7380292415618896 0.008349674753844738
0.42576149106025696 0.741249680519104 0.005722049158066511
0.41986504197120667 0.7472022771835327 0.004864090587943792
0.4145616292953491 0.7540062069892883 0.011275922879576683
0.3988097310066223 0.6927421689033508 -0.008570840582251549
0.22488358616828918 0.5665632486343384 0.25799447298049927
0.5038192868232727 0.6513901948928833 -0.07883473485708237
0.4175921380519867 0.7342993021011353 0.02072611078619957
0.41239190101623535 0.7361409068107605 0.01940625160932541
0.4725697636604309 0.6571513414382935 -0.05258284881711006
0.43444380164146423 0.6473488211631775 -0.030671408399939537
0.4688541889190674 0.6512956023216248 -0.054581861943006516
0.4043595492839813 0.5592125058174133 -0.026552781462669373
0.36355870962142944 0.5746678709983826 -0.017551753669977188
0.42183226346969604 0.6203342080116272 -0.0484142079949379
0.29477229714393616 0.3158058524131775 -0.03362076357007027
0.31276190280914307 0.3519688844680786 -0.05780499428510666
0.33126699924468994 0.38991841673851013 -0.07463691383600235
0.40236592292785645 0.7668280005455017 0.03384683281183243
0.443989098072052 0.399732768535614 -0.10359730571508408
0.4368323087692261 0.34810924530029297 -0.10726817697286606
0.42794543504714966 0.29276466369628906 -0.1057315245270729
0.32976722717285156 0.4975588917732239 -0.00719341728836298
0.27106115221977234 0.518053412437439 0.03335779532790184
0.43548476696014404 0.49250996112823486 -0.018533937633037567
0.2963815927505493 0.4590088427066803 -0.005206653382629156
0.44717922806739807 0.5328547358512878 -0.04944754019379616
0.4425669312477112 0.617640495300293 -0.09664788842201233
0.24520650506019592 0.5296903252601624 0.06506436318159103
0.28809377551078796 0.5380118489265442 0.015569276176393032
0.3201305866241455 0.5499080419540405 -0.004213334061205387
0.36821991205215454 0.5470678806304932 -0.013775178231298923
0.4034311771392822 0.5374988913536072 -0.019672123715281487
0.4288666248321533 0.5273302793502808 -0.028183160349726677
0.4819734990596771 0.5055091381072998 -0.0824536457657814
0.2504342794418335 0.5794273614883423 0.0709339827299118
0.2744830250740051 0.4531645178794861 0.004217126872390509
0.49268442392349243 0.6470457911491394 -0.11426214128732681
0.43246227502822876 0.571617841720581 -0.042312659323215485
0.2150425910949707 0.46788400411605835 0.20596426725387573
0.4483470320701599 0.5160730481147766 -0.03474074602127075
0.41913241147994995 0.6199648380279541 -0.022676119580864906
0.31023579835891724 0.47391730546951294 0.006891701836138964
0.44105926156044006 0.6018435955047607 -0.09037400782108307
0.23392078280448914 0.620944082736969 0.263752281665802
0.4348723292350769 0.4831278324127197 -0.01532784290611744
0.4614797532558441 0.5914786458015442 -0.11721918731927872
0.3033212423324585 0.7506120204925537 0.13786065578460693
0.3047729432582855 0.7667033672332764 0.19169601798057556
0.22738435864448547 0.5739961266517639 0.1637418121099472
0.2747340202331543 0.7156833410263062 0.1593444049358368
0.23509249091148376 0.43495553731918335 0.08340385556221008
0.3980925977230072 0.8348629474639893 0.08514700829982758
0.49456173181533813 0.6500766277313232 -0.07737879455089569
0.41021859645843506 0.5877864360809326 -0.02944144234061241
0.24767260253429413 0.4842207431793213 0.06147301197052002
0.35238325595855713 0.4893180727958679 -0.017199451103806496
0.37465983629226685 0.4921976327896118 -0.022291872650384903
0.4000823199748993 0.7414346933364868 0.026173170655965805
0.2563055157661438 0.6234480142593384 0.09367401152849197
0.44172683358192444 0.8631644248962402 0.10315358638763428
0.37033042311668396 0.8248233199119568 0.14035509526729584
0.33996468782424927 0.8006408214569092 0.16233260929584503
0.5084448456764221 0.3505973815917969 -0.1096128523349762
0.4923025369644165 0.8684424161911011 0.09941158443689346
0.3963223993778229 0.4909009337425232 -0.022922378033399582
0.41694292426109314 0.4870418906211853 -0.019651927053928375
0.4295305907726288 0.4851315915584564 -0.015268397517502308
0.2557210624217987 0.4455069899559021 0.027495576068758965
0.41179707646369934 0.46282756328582764 -0.027908066287636757
0.3888618052005768 0.45429927110671997 -0.03386186435818672
0.3654858469963074 0.4528721868991852 -0.03366682305932045
0.34274616837501526 0.45717257261276245 -0.027500707656145096
0.32947176694869995 0.4638392925262451 -0.018816057592630386
0.2181154489517212 0.4184587299823761 0.14869114756584167
0.337141752243042 0.4844212532043457 -0.010506977327167988
0.5018172264099121 0.6777214407920837 -0.04885036125779152
0.4216623902320862 0.6815915107727051 -0.024653205648064613
0.44445085525512695 0.6332650184631348 -0.06812263280153275
0.46827998757362366 0.6791214942932129 -0.04735242575407028
0.5060520768165588 0.4670250713825226 -0.08141899108886719
0.33411532640457153 0.7829075455665588 0.124110147356987
0.3645303249359131 0.8085305094718933 0.10688947141170502
0.4406282603740692 0.8547611236572266 0.06686374545097351
0.2764613628387451 0.7282617092132568 0.2275042086839676
0.42776408791542053 0.4752689599990845 -0.020985910668969154
0.4644613265991211 0.5440341234207153 -0.08178456127643585
0.49346455931663513 0.8600727319717407 0.06405273079872131
0.40318506956100464 0.8471534252166748 0.11690518260002136
0.23617768287658691 0.6231063008308411 0.17547394335269928
0.4491186738014221 0.7424826622009277 -0.0019825759809464216
0.4448639750480652 0.7487438321113586 -0.004768208600580692
0.440311074256897 0.7579588294029236 -0.005890814121812582
0.4366116523742676 0.7692294120788574 0.0007881896453909576
0.42851805686950684 0.7829523086547852 0.025869617238640785
0.4141960144042969 0.730880081653595 0.01452563889324665
0.4073057770729065 0.7291581034660339 0.013808860443532467
0.40062251687049866 0.7255378365516663 0.012415808625519276
0.3782229423522949 0.7086440920829773 0.013087757863104343
0.28897780179977417 0.6429196000099182 0.04648253694176674
0.4648120105266571 0.5178028345108032 -0.06430087238550186
0.45321664214134216 0.468766450881958 -0.03500095754861832
0.438333123922348 0.4712170958518982 -0.026914699003100395
0.4196392595767975 0.7278919816017151 0.017517738044261932
0.28549230098724365 0.691883385181427 0.10113605111837387
0.47389429807662964 0.4693656265735626 -0.06553024053573608
0.41448965668678284 0.7990239858627319 0.04660244658589363
0.5064210295677185 0.5560026168823242 -0.12340198457241058
0.48255980014801025 0.5338225960731506 -0.10186363011598587
0.5062844157218933 0.5296868085861206 -0.10716307908296585
0.44729557633399963 0.5802411437034607 -0.07323957234621048
0.4945262372493744 0.8423254489898682 0.04320254549384117
0.4953230917453766 0.8178541660308838 0.03504188358783722
0.4533681869506836 0.8147982358932495 0.03816847875714302
0.3592570424079895 0.7536384463310242 0.058389049023389816
0.39745426177978516 0.6378360986709595 -0.013093069195747375
0.38374921679496765 0.7787414193153381 0.05467113107442856
0.3407856225967407 0.6317003965377808 -0.005233257543295622
0.37376198172569275 0.6601999402046204 -0.003061948111280799
0.3205161392688751 0.6651999354362488 0.024030016735196114
0.4445037543773651 0.8375716209411621 0.04687375947833061
0.4329851567745209 0.5911644101142883 -0.05213012546300888
0.3398957848548889 0.7649297118186951 0.08716927468776703
0.37048211693763733 0.7919291257858276 0.08033451437950134
0.34167051315307617 0.7255311012268066 0.05121314898133278
0.2631133794784546 0.6602379679679871 0.11499722301959991
0.3133653402328491 0.7226228713989258 0.0755915641784668
0.24953025579452515 0.6696563959121704 0.17978380620479584
0.3536769151687622 0.6882892847061157 0.015969667583703995
0.44860702753067017 0.5573777556419373 -0.06074707210063934
0.45061710476875305 0.627471387386322 -0.10049425810575485
0.4347319006919861 0.6318559050559998 -0.07087070494890213
0.4610162675380707 0.6154046058654785 -0.12060911953449249
0.4327331781387329 0.448832631111145 -0.048684414476156235
0.39131689071655273 0.43666595220565796 -0.05686509236693382
0.35590341687202454 0.43448406457901 -0.055909715592861176
0.32692810893058777 0.4367772340774536 -0.04541691765189171
0.3068769872188568 0.44430840015411377 -0.029183587059378624
0.29278695583343506 0.47877129912376404 0.017776744440197945
0.22220036387443542 0.5256313681602478 0.14404989778995514
0.31180340051651 0.5141957402229309 0.006395439151674509
0.33707886934280396 0.5232012867927551 -0.006271091289818287
0.3708491027355194 0.5238783955574036 -0.014780387282371521
0.4026377499103546 0.518695056438446 -0.01913740113377571
0.426742821931839 0.5114085674285889 -0.02094944380223751
0.4433501362800598 0.5047706365585327 -0.0236998051404953
0.219824880361557 0.5162098407745361 0.239721417427063
0.4353718161582947 0.6373029351234436 -0.05694811791181564
0.464760959148407 0.5673679113388062 -0.09597055613994598
0.46795785427093506 0.6311349272727966 -0.11867211014032364
0.48095762729644775 0.6410270929336548 -0.10469416528940201
0.468082994222641 0.6328809857368469 -0.1056222915649414
0.4419980049133301 0.6442852020263672 -0.04584244266152382
0.48538148403167725 0.6444225907325745 -0.11077709496021271
0.487102746963501 0.6477196216583252 -0.0786512941122055
0.44361820816993713 0.4859122633934021 -0.017741333693265915
0.4567161202430725 0.49291327595710754 -0.030033087357878685
0.46355733275413513 0.4986429810523987 -0.045021940022706985
0.322180837392807 0.4686332643032074 -0.009740998037159443
0.31125009059906006 0.4622456729412079 -0.010224121622741222
0.527259111404419 0.559197187423706 -0.11297832429409027
0.6788855195045471 0.48209959268569946 0.012279334478080273
0.5249691009521484 0.6439216136932373 -0.07823975384235382
0.7646650075912476 0.38593655824661255 0.10876370966434479
0.6046831011772156 0.5053738355636597 -0.012457255274057388
0.6298362016677856 0.5072436928749084 -0.009198286570608616
0.6537426710128784 0.5060716867446899 -0.0016673291102051735
0.6850984692573547 0.49031758308410645 0.019037118181586266
0.584001362323761 0.4994348883628845 -0.012015772983431816
0.6435157060623169 0.4468337893486023 -0.03137613460421562
0.6154865622520447 0.44829773902893066 -0.03361973538994789
0.6681501269340515 0.4504084289073944 -0.020962001755833626
0.6836879253387451 0.45777928829193115 -0.008952843956649303
0.7028272151947021 0.5058410167694092 0.03613046556711197
0.5842322111129761 0.8161100149154663 0.07110203802585602
0.6880542039871216 0.4748575985431671 0.0196782648563385
0.7666531205177307 0.48288968205451965 0.14856651425361633
0.7297818064689636 0.48668962717056274 0.05831098183989525
0.6209659576416016 0.6079578399658203 -0.009781494736671448
0.529835045337677 0.7154833078384399 -0.0435481034219265
0.5237808227539062 0.7366238832473755 -0.02596384286880493
0.558420717716217 0.7183749675750732 -0.024696482345461845
0.5760944485664368 0.722947359085083 -0.002144771395251155
0.5445204377174377 0.7350524663925171 -0.014049810357391834
0.5609666705131531 0.733488917350769 0.005697015672922134
0.6068570017814636 0.7493628263473511 0.05220184847712517
0.5254576802253723 0.6373828649520874 -0.12763911485671997
0.5298539400100708 0.6164029836654663 -0.14003273844718933
0.7224199771881104 0.43198496103286743 -0.007039704360067844
0.5750861167907715 0.5481275320053101 -0.030434632673859596
0.5774915218353271 0.625912606716156 -0.06326296180486679
0.5790179371833801 0.6126041412353516 -0.05803545191884041
0.6904011964797974 0.601734459400177 0.025044482201337814
0.5289613604545593 0.5860804915428162 -0.13127103447914124
0.6701685190200806 0.4108874201774597 -0.05806306377053261
0.7018396854400635 0.4173225164413452 -0.03568697348237038
0.7472733855247498 0.3497481942176819 0.046637240797281265
0.5609967708587646 0.4305071234703064 -0.0805441290140152
0.5911241769790649 0.4558274745941162 -0.025836555287241936
0.6239509582519531 0.7272821068763733 0.052767541259527206
0.7216553092002869 0.6793437600135803 0.2805033326148987
0.5594543814659119 0.6378494501113892 -0.05190521478652954
0.5400049686431885 0.6461089253425598 -0.0526450052857399
0.5986500382423401 0.7307096123695374 0.048406507819890976
0.5878680944442749 0.730055034160614 0.04016787186264992
0.7162087559700012 0.4008565843105316 -0.02802567183971405
0.5766675472259521 0.6349838376045227 -0.04687044396996498
0.6248348355293274 0.4131183922290802 -0.07437451183795929
0.6308422088623047 0.3940819799900055 -0.08503212034702301
0.6549390554428101 0.3037223517894745 -0.06783713400363922
0.7319656610488892 0.3752313256263733 0.0025246404111385345
0.6407378911972046 0.34938985109329224 -0.07944443076848984
0.7367992401123047 0.4199010133743286 0.011779487133026123
0.7508841753005981 0.4046296179294586 0.05631827563047409
0.5273643136024475 0.728730320930481 -0.0376073457300663
0.5506093502044678 0.7290591597557068 -0.020218024030327797
0.5685715675354004 0.7289215326309204 -3.6554058169713244e-05
0.5530554056167603 0.6423209309577942 -0.046000074595212936
0.5930173397064209 0.730903148651123 0.04368380829691887
0.5835457444190979 0.7383289337158203 0.030344409868121147
0.5851854681968689 0.7281789183616638 0.039236970245838165
0.5485798716545105 0.6316750645637512 -0.08967961370944977
0.5557910203933716 0.7311309576034546 0.010046899318695068
0.5391607880592346 0.7348606586456299 -0.0032531616743654013
0.5199730396270752 0.7376902103424072 -0.013976841233670712
0.5296086072921753 0.7950505614280701 0.02817479521036148
0.5292757749557495 0.7801464796066284 -0.0026070389430969954
0.5280923247337341 0.7676811218261719 -0.009693765081465244
0.5259428024291992 0.7554180026054382 -0.007899589836597443
0.5234010219573975 0.7462027072906494 -0.006005094852298498
0.562106728553772 0.7379202842712402 0.01585397496819496
0.5658961534500122 0.7413146495819092 0.01325228065252304
0.5714547038078308 0.7472215890884399 0.012906975112855434
0.5761619210243225 0.753990650177002 0.019732467830181122
0.5970536470413208 0.6937380433082581 0.0011493073543533683
0.7525568008422852 0.5698664784431458 0.2848666310310364
0.5727784633636475 0.7342682480812073 0.029767224565148354
0.5779448747634888 0.7361251711845398 0.028648564592003822
0.5317665338516235 0.6577567458152771 -0.05016934871673584
0.5674566030502319 0.6488561630249023 -0.02527315355837345
0.5354874134063721 0.652215838432312 -0.0522882379591465
0.5989499092102051 0.5610039830207825 -0.01635619066655636
0.6376469135284424 0.5771420001983643 -0.0038381617050617933
0.5814864039421082 0.6218231916427612 -0.04112403094768524
0.7131319642066956 0.32156604528427124 -0.01504548266530037
0.6976677179336548 0.3557641804218292 -0.0413021519780159
0.6805335879325867 0.3914717435836792 -0.05946929752826691
0.5865349173545837 0.7665837407112122 0.043254170566797256
0.5709292888641357 0.4002661108970642 -0.09810873121023178
0.57927405834198 0.34985947608947754 -0.1014324203133583
0.5888632535934448 0.29525622725486755 -0.09897055476903915
0.6738258600234985 0.5003948211669922 0.009735053405165672
0.7269176840782166 0.5221219062805176 0.054958343505859375
0.5710721611976624 0.49379122257232666 -0.010816100984811783
0.7076674699783325 0.4616677165031433 0.01409855391830206
0.5595032572746277 0.5339951515197754 -0.043562330305576324
0.5649697184562683 0.6189672946929932 -0.09124656021595001
0.7488921880722046 0.5338773131370544 0.08940157294273376
0.7107508182525635 0.5418693423271179 0.035867705941200256
0.6801444888114929 0.5532349944114685 0.013315069489181042
0.6338485479354858 0.5496358871459961 -4.4907672418048605e-05
0.6002407073974609 0.5391948223114014 -0.009149577468633652
0.5761077404022217 0.5287227034568787 -0.02047143690288067
0.5290479063987732 0.5059406757354736 -0.07994349300861359
0.7413978576660156 0.5830743312835693 0.095175601541996
0.7275829315185547 0.45631954073905945 0.025278089568018913
0.5163036584854126 0.6473209261894226 -0.11296692490577698
0.5721339583396912 0.5730680227279663 -0.035035423934459686
0.768925666809082 0.4732634127140045 0.23385661840438843
0.558074951171875 0.5172132849693298 -0.028685281053185463
0.5824911594390869 0.6215089559555054 -0.015015129931271076
0.6938108205795288 0.47651126980781555 0.025517607107758522
0.5660271644592285 0.6032605171203613 -0.08480995893478394
0.741248369216919 0.6227487325668335 0.28944289684295654
0.5717958807945251 0.4842241704463959 -0.007039189338684082
0.5487518310546875 0.592277467250824 -0.11321995407342911
0.6765644550323486 0.7494823932647705 0.15525706112384796
0.6706936955451965 0.7645453810691833 0.20940349996089935
0.7574856281280518 0.5772058963775635 0.18999405205249786
0.7042304277420044 0.7153743505477905 0.18008889257907867
0.7596096992492676 0.44008708000183105 0.10862807184457779
0.5864443182945251 0.8329928517341614 0.0937681645154953
0.5129296183586121 0.650310218334198 -0.07670993357896805
0.5921956896781921 0.5893789529800415 -0.020578263327479362
0.7483738660812378 0.48842671513557434 0.08536112308502197
0.6534191370010376 0.49197709560394287 -0.002243941416963935
0.6313190460205078 0.4944456219673157 -0.008916881866753101
0.5895748138427734 0.7412471175193787 0.03603094071149826
0.7319419384002686 0.6260035037994385 0.11713919788599014
0.5421183705329895 0.8621050119400024 0.10801781713962555
0.609624981880188 0.8222603797912598 0.15192417800426483
0.6377522945404053 0.7978609204292297 0.17680205404758453
0.6096440553665161 0.49274247884750366 -0.011551945470273495
0.5895387530326843 0.48852935433387756 -0.009791336953639984
0.5770747065544128 0.4864179491996765 -0.006506708450615406
0.7438520193099976 0.44937586784362793 0.050651147961616516
0.5949954390525818 0.46412336826324463 -0.018378589302301407
0.6178386211395264 0.45574718713760376 -0.02244086191058159
0.6414551734924316 0.4544432759284973 -0.020287537947297096
0.6639845967292786 0.4589235186576843 -0.012288224883377552
0.6767163276672363 0.4658597409725189 -0.0025400365702807903
0.7712385654449463 0.4247305393218994 0.17583489418029785
0.6684136390686035 0.4873054623603821 0.005800510291010141
0.5772312879562378 0.6824641227722168 -0.01716039702296257
0.5605420470237732 0.6345747113227844 -0.06333664059638977
0.5340006351470947 0.6794520616531372 -0.044429875910282135
0.6470467448234558 0.7812117338180542 0.13819649815559387
0.6176993250846863 0.8061823844909668 0.11806407570838928
0.5458163619041443 0.8540116548538208 0.07151246815919876
0.6972150802612305 0.7272140979766846 0.2486860752105713
0.5790945291519165 0.4764246940612793 -0.012124651111662388
0.5449153780937195 0.5448166728019714 -0.0778995007276535
0.5791499018669128 0.8451187610626221 0.1253272294998169
0.7454376220703125 0.625143826007843 0.20045062899589539
0.5446950197219849 0.7424563765525818 0.003809116780757904
0.5487610101699829 0.748796284198761 0.0013494206359609962
0.5527710914611816 0.7580657005310059 0.0006615323363803327
0.5557960867881775 0.769224226474762 0.007609004620462656
0.5616977214813232 0.7826642990112305 0.03319467604160309
0.5765370726585388 0.7309147715568542 0.023729529231786728
0.5836877822875977 0.7291399240493774 0.02342388406395912
0.5905560255050659 0.7256025075912476 0.022858941927552223
0.6139468550682068 0.7094441056251526 0.025243548676371574
0.7021907567977905 0.6453550457954407 0.06643413752317429
0.5441139340400696 0.5185613036155701 -0.060147181153297424
0.5551087856292725 0.4695607125759125 -0.030011003836989403
0.5689792037010193 0.4723343849182129 -0.01918013207614422
0.5706140398979187 0.7279826402664185 0.026540912687778473
0.6992349028587341 0.6927911639213562 0.12112786620855331
0.5365755558013916 0.46998292207717896 -0.062357496470212936
0.5736595392227173 0.7981173992156982 0.05406379699707031
0.528899073600769 0.5342845916748047 -0.09968650341033936
0.5594872236251831 0.5813146829605103 -0.06804338097572327
0.5367016196250916 0.8142465353012085 0.041444081813097
0.627966582775116 0.7535722851753235 0.07087517529726028
0.6020537614822388 0.6394121646881104 -0.0037450878880918026
0.6033698916435242 0.7780724763870239 0.06468521058559418
0.6562620401382446 0.6339748501777649 0.009352409280836582
0.6227138638496399 0.6618848443031311 0.008628864772617817
0.672157883644104 0.6671155095100403 0.04069367051124573
0.5442125797271729 0.8370087742805481 0.05120094120502472
0.571408212184906 0.5925324559211731 -0.04550052434206009
0.6446651220321655 0.7641322016716003 0.10122788697481155
0.6145457029342651 0.7905286550521851 0.09112653136253357
0.6464782357215881 0.7260148525238037 0.06624966114759445
0.721584677696228 0.6618668437004089 0.13724441826343536
0.6721971035003662 0.7229070663452148 0.09250655025243759
0.7298062443733215 0.6705955266952515 0.20347380638122559
0.6386488676071167 0.6898090243339539 0.02973080612719059
0.5582575798034668 0.5584576725959778 -0.05508371815085411
0.556778073310852 0.6287205219268799 -0.0956781730055809
0.5702592730522156 0.6333276629447937 -0.06506577134132385
0.5491284728050232 0.6163893938064575 -0.11698037385940552
0.5763851404190063 0.4497505724430084 -0.041850004345178604
0.6181108355522156 0.4379814863204956 -0.046605270355939865
0.6534242630004883 0.4360651969909668 -0.04208512231707573
0.6816120743751526 0.43870651721954346 -0.028965014964342117
0.6998809576034546 0.44641798734664917 -0.0110073396936059
0.7090216875076294 0.48177221417427063 0.037599578499794006
0.7652972936630249 0.5298267006874084 0.1710120439529419
0.6896219253540039 0.5174391865730286 0.02498760260641575
0.6648608446121216 0.5260651111602783 0.009844007901847363
0.6323078870773315 0.5261417031288147 -0.0013793186517432332
0.6016745567321777 0.5203449726104736 -0.008400289341807365
0.578502893447876 0.512882649898529 -0.012930302880704403
0.562767505645752 0.5059426426887512 -0.017098253592848778
0.7605953216552734 0.5207196474075317 0.26744917035102844
0.568432092666626 0.6387910842895508 -0.05123097077012062
0.5450869202613831 0.5680999159812927 -0.09195949137210846
0.5414484143257141 0.6320266127586365 -0.1155051440000534
0.5270570516586304 0.6415963172912598 -0.1028805673122406
0.5400258898735046 0.6337432861328125 -0.10239893198013306
0.5609158277511597 0.6457374095916748 -0.041117001324892044
0.523381233215332 0.6449636816978455 -0.1092713475227356
0.5200093984603882 0.6481164693832397 -0.07752765715122223
0.5633874535560608 0.487024188041687 -0.010968957096338272
0.5504430532455444 0.49378204345703125 -0.02479589730501175
0.5444623827934265 0.49943190813064575 -0.04080042615532875
0.6834354400634766 0.4708399772644043 0.007364881224930286
0.6940490007400513 0.46459826827049255 0.007777252234518528
