ply
format ascii 1.0
element vertex 468
property float x
property float y
property float z
end_header
0.49344736337661743 0.7045141458511353 -0.0666196346282959
0.4822773337364197 0.6389273405075073 -0.1401187926530838
0.49048033356666565 0.660670816898346 -0.07492414116859436
0.4667145907878876 0.550485372543335 -0.10484439134597778
0.4813650846481323 0.6119740009307861 -0.1495043933391571
0.4833545684814453 0.5760335922241211 -0.14009225368499756
0.49204155802726746 0.4898499548435211 -0.0742422491312027
0.33331725001335144 0.4792625904083252 0.05182357504963875
0.4943123459815979 0.42699041962623596 -0.057558584958314896
0.4934847056865692 0.3921772837638855 -0.06307438015937805
0.49747347831726074 0.26356270909309387 -0.04169122129678726
0.4944721758365631 0.7155340313911438 -0.06299582868814468
0.4961709678173065 0.7223114967346191 -0.05566917732357979
0.498165100812912 0.722947359085083 -0.0452505461871624
0.4994868338108063 0.762082576751709 -0.03406964987516403
0.49874910712242126 0.7716785073280334 -0.03833764046430588
0.49863696098327637 0.7834722995758057 -0.044194888323545456
0.49917957186698914 0.797199547290802 -0.040619198232889175
0.5017279386520386 0.8205481767654419 -0.019007517024874687
0.48425617814064026 0.6523035168647766 -0.12705622613430023
0.4643948972225189 0.6479356288909912 -0.0898938700556755
0.26051533222198486 0.3875260353088379 0.17989064753055573
0.4025101959705353 0.5010488033294678 0.0185487512499094
0.3784286379814148 0.5022106170654297 0.02347654663026333
0.35514193773269653 0.5008758306503296 0.033106304705142975
0.32425352931022644 0.48802000284194946 0.05775212496519089
0.4218032956123352 0.49598634243011475 0.017435932531952858
0.3674902319908142 0.4407119154930115 0.011492193676531315
0.39322158694267273 0.4427432715892792 0.0077798678539693356
0.34383442997932434 0.44418400526046753 0.02294980362057686
0.32866713404655457 0.4525562822818756 0.035486165434122086
0.30482327938079834 0.5041681528091431 0.07305321097373962
0.41342127323150635 0.8513967394828796 0.02816084399819374
0.32500484585762024 0.47459620237350464 0.06132214516401291
0.24829372763633728 0.4963453710079193 0.19582268595695496
0.28170153498649597 0.48953545093536377 0.10116040706634521
0.37023383378982544 0.6034139394760132 -0.003829548368230462
0.4570710062980652 0.6997986435890198 -0.059363286942243576
0.4632023870944977 0.7205049991607666 -0.04697340726852417
0.42200541496276855 0.7019980549812317 -0.03744477778673172
0.4020160138607025 0.7065123915672302 -0.00883598905056715
0.4376381039619446 0.7186179161071777 -0.02960994467139244
0.41943293809890747 0.7181081771850586 -0.00397208146750927
0.38305777311325073 0.749262809753418 0.043131694197654724
0.46209385991096497 0.6377772688865662 -0.1358947902917862
0.45875149965286255 0.6115207076072693 -0.1438487321138382
0.2925795316696167 0.4266883134841919 0.04598521441221237
0.42458993196487427 0.5433588027954102 -0.01397375762462616
0.4101378321647644 0.6220925450325012 -0.06642457097768784
0.41058558225631714 0.6074818968772888 -0.05834886059165001
0.2983202636241913 0.5962172150611877 0.03995683416724205
0.4621361494064331 0.5784525275230408 -0.12905468046665192
0.3433082103729248 0.4001612067222595 -0.0074804555624723434
0.3127729594707489 0.4082871973514557 0.0174502432346344
0.2787223160266876 0.34208226203918457 0.12499310821294785
0.4445350170135498 0.4219343066215515 -0.04328565672039986
0.4156990349292755 0.45087558031082153 0.012470672838389874
0.3617900013923645 0.7188237905502319 0.048440463840961456
0.284782737493515 0.7321513295173645 0.2675383388996124
0.4282805919647217 0.6368001103401184 -0.058713316917419434
0.44909846782684326 0.646558940410614 -0.06463471055030823
0.3803868293762207 0.7179713249206543 0.047070231288671494
0.3931801915168762 0.7196524143218994 0.03935658931732178
0.30059921741485596 0.39130550622940063 0.030886748805642128
0.4099351167678833 0.6304880976676941 -0.05222883075475693
0.3859149217605591 0.4028298258781433 -0.028440846130251884
0.3804214298725128 0.3813154101371765 -0.03433692455291748
0.3617812991142273 0.27982473373413086 0.011422245763242245
0.28929415345191956 0.36623361706733704 0.07201626151800156
0.37270739674568176 0.3285892605781555 -0.012799222022294998
0.28010693192481995 0.4156361222267151 0.06912823766469955
0.2698823809623718 0.4032943844795227 0.12171586602926254
0.4592110812664032 0.712530791759491 -0.05517127364873886
0.4303778409957886 0.7124412655830383 -0.033830780535936356
0.41052401065826416 0.7124630212783813 -0.008074699901044369
0.43426552414894104 0.6409822106361389 -0.054766345769166946
0.3862524628639221 0.7185066938400269 0.04284436255693436
0.39934098720550537 0.7358945608139038 0.027070438489317894
0.39821529388427734 0.7204484939575195 0.03820258751511574
0.4393899738788605 0.6339734792709351 -0.09506689012050629
0.42548301815986633 0.715779721736908 -0.0009207744733430445
0.4440082013607025 0.7178395986557007 -0.020567670464515686
0.4680088460445404 0.7211686372756958 -0.03655704855918884
0.4639449715614319 0.8178191781044006 -0.01173730380833149
0.4631996154785156 0.7929811477661133 -0.0319795235991478
0.4638326168060303 0.7786428332328796 -0.03432526811957359
0.4657265543937683 0.7672662734985352 -0.028353417292237282
0.4689326882362366 0.7592817544937134 -0.02449635975062847
0.42502838373184204 0.7439128160476685 0.008593807928264141
0.4203895926475525 0.7460946440696716 0.00493677519261837
0.41454505920410156 0.7513972520828247 0.0024356020148843527
0.41046735644340515 0.7588526010513306 0.008347793482244015
0.3837451934814453 0.6859422922134399 -0.00149059621617198
0.2604154050350189 0.6077914834022522 0.30282360315322876
0.4870801866054535 0.6565161347389221 -0.09343358874320984
0.4131883382797241 0.7357675433158875 0.027668992057442665
0.40572839975357056 0.7347890734672546 0.025662008672952652
0.45769625902175903 0.6582144498825073 -0.06453284621238708
0.4181193709373474 0.6442462205886841 -0.03451606258749962
0.45356109738349915 0.6528739333152771 -0.06554149091243744
0.39869359135627747 0.5556972026824951 -0.0015267643611878157
0.3569413423538208 0.5696473121643066 0.010809293948113918
0.4069209098815918 0.6167018413543701 -0.043133337050676346
0.30978068709373474 0.3051378130912781 0.06610509008169174
0.3214524984359741 0.33993393182754517 0.027881139889359474
0.3346444070339203 0.37915921211242676 -0.0026029394939541817
0.4031517207622528 0.7761457562446594 0.026696501299738884
0.43499091267585754 0.3877220153808594 -0.053379304707050323
0.4284064769744873 0.32628339529037476 -0.03931041061878204
0.4222971796989441 0.2675336003303528 -0.025383416563272476
0.3352659344673157 0.4962215721607208 0.046296145766973495
0.2793871760368347 0.5215422511100769 0.09094399213790894
0.433645099401474 0.4901948571205139 0.018795140087604523
0.3046535849571228 0.4598937928676605 0.061088331043720245
0.4413490295410156 0.5284809470176697 -0.026166414842009544
0.4237537980079651 0.6166080832481384 -0.09360986202955246
0.25647756457328796 0.5394823551177979 0.12407101690769196
0.29258325695991516 0.5364393591880798 0.06673187762498856
0.3209382891654968 0.5446133613586426 0.040045350790023804
0.36682969331741333 0.5427052974700928 0.022147342562675476
0.4018082618713379 0.5346568822860718 0.011754754930734634
0.42683786153793335 0.5244362354278564 0.0005893069319427013
0.47031041979789734 0.4965839087963104 -0.060305219143629074
0.2534359097480774 0.589483380317688 0.11876696348190308
0.2865697741508484 0.45643875002861023 0.07528842240571976
0.4720834195613861 0.6506990790367126 -0.12396427243947983
0.42304784059524536 0.5685538649559021 -0.02536340430378914
0.25151097774505615 0.4949100911617279 0.2801383137702942
0.44456392526626587 0.5119006037712097 -0.006721064914017916
0.4060344398021698 0.6165997385978699 -0.01657373644411564
0.3174472451210022 0.47561872005462646 0.0676058828830719
0.4249138832092285 0.598630964756012 -0.08401080220937729
0.2681483328342438 0.6686477661132812 0.2917003631591797
0.4336164593696594 0.48144596815109253 0.025364499539136887
0.4431566596031189 0.5862827897071838 -0.11109078675508499
0.3215365409851074 0.7867612242698669 0.1337859332561493
0.333615779876709 0.8188040256500244 0.1765490025281906
0.2444937527179718 0.6014835238456726 0.2125052809715271
0.29058417677879333 0.7550269961357117 0.1650523990392685
0.25868451595306396 0.4464804530143738 0.1661258190870285
0.4136273264884949 0.8772515058517456 0.04228821396827698
0.4772453308105469 0.6551313400268555 -0.09078038483858109
0.4009401202201843 0.5844669342041016 -0.013422073796391487
0.26393699645996094 0.49497807025909424 0.13006360828876495
0.357149600982666 0.4858388304710388 0.03417658060789108
0.3782655596733093 0.4880763292312622 0.025722501799464226
0.3939349949359894 0.7386689186096191 0.031994786113500595
0.25603896379470825 0.6409326791763306 0.12805253267288208
0.45894959568977356 0.9138505458831787 0.040868714451789856
0.3948557376861572 0.8760330080986023 0.10324011743068695
0.3677665591239929 0.8517071604728699 0.1367330551147461
0.4948628842830658 0.3265361487865448 -0.05391807481646538
0.5079293251037598 0.920881450176239 0.026119805872440338
0.39842382073402405 0.4873427152633667 0.02176780439913273
0.41706472635269165 0.4845552444458008 0.022771526128053665
0.4284375309944153 0.4830014109611511 0.02613617666065693
0.2718537747859955 0.4512783885002136 0.10290976613759995
0.4135434031486511 0.4672722816467285 0.01857088878750801
0.39335328340530396 0.4617003798484802 0.016372814774513245
0.37259775400161743 0.46011295914649963 0.020103249698877335
0.35196009278297424 0.46311062574386597 0.029211249202489853
0.33861297369003296 0.46817803382873535 0.03921538591384888
0.2515917718410492 0.4354814291000366 0.23590832948684692
0.34310609102249146 0.4826735258102417 0.04378560557961464
0.49222129583358765 0.6747449040412903 -0.06604614853858948
0.40586602687835693 0.6755629777908325 -0.025388872250914574
0.42717719078063965 0.6345676183700562 -0.06908095628023148
0.4552196264266968 0.6742217540740967 -0.05846957862377167
0.4947684407234192 0.457444965839386 -0.05645463988184929
0.35521870851516724 0.8203100562095642 0.10762973129749298
0.3845605254173279 0.8482024669647217 0.0769549086689949
0.4532861113548279 0.8978707194328308 0.010697916150093079
0.3072889745235443 0.7826215028762817 0.22424331307411194
0.4272250235080719 0.47564882040023804 0.022809993475675583
0.4528184235095978 0.537641167640686 -0.06432334333658218
0.5043943524360657 0.9038602113723755 -0.0024313933681696653
0.4232000410556793 0.89798903465271 0.06783550977706909
0.2518464922904968 0.6576719880104065 0.2088024765253067
0.4442833364009857 0.7524570822715759 -0.009018778800964355
0.43962955474853516 0.7579079866409302 -0.012621919624507427
0.4358066916465759 0.766808271408081 -0.015408450737595558
0.43334946036338806 0.7793318629264832 -0.011048626154661179
0.42873817682266235 0.8004416227340698 0.0069423564709723
0.40275806188583374 0.7172452807426453 0.019583091139793396
0.39439037442207336 0.7141439914703369 0.021264782175421715
0.38703837990760803 0.7100567817687988 0.021247446537017822
0.3663547933101654 0.699292778968811 0.02546389028429985
0.28004053235054016 0.6525026559829712 0.07250615209341049
0.45660215616226196 0.5112324953079224 -0.04152867570519447
0.44911378622055054 0.4632149934768677 0.002560840453952551
0.43645286560058594 0.467587411403656 0.015929022803902626
0.4102291762828827 0.7146680951118469 0.021153107285499573
0.28738605976104736 0.7148548364639282 0.11519511789083481
0.465961754322052 0.46177273988723755 -0.03427377715706825
0.42091575264930725 0.8242079019546509 0.0181401539593935
0.4863945245742798 0.5468127131462097 -0.11695853620767593
0.46801480650901794 0.5251387357711792 -0.08522792905569077
0.4891425371170044 0.5197895169258118 -0.09449838101863861
0.43463319540023804 0.5761563777923584 -0.06189955398440361
0.5023742318153381 0.8783184289932251 -0.016039719805121422
0.5018854737281799 0.8468197584152222 -0.017564553767442703
0.45872238278388977 0.8434910774230957 -0.005945045035332441
0.36867910623550415 0.763009786605835 0.05724990740418434
0.3872869908809662 0.635328471660614 -0.004737229086458683
0.3934023082256317 0.7968522906303406 0.04005969315767288
0.3292301893234253 0.6311817169189453 0.013343212194740772
0.36392641067504883 0.6582838892936707 0.008919206447899342
0.3111668825149536 0.6695013046264648 0.04178130254149437
0.45286503434181213 0.8738129138946533 -0.0024677657056599855
0.42133766412734985 0.588090181350708 -0.04131119325757027
0.35514193773269653 0.7874196767807007 0.08018519729375839
0.38543570041656494 0.8200976848602295 0.05765974149107933
0.3452938199043274 0.7280029654502869 0.05913760885596275
0.2657913565635681 0.6852427124977112 0.13802365958690643
0.31901848316192627 0.7385078072547913 0.08378204703330994
0.2663912773132324 0.709468424320221 0.19899024069309235
0.3451889753341675 0.6841952800750732 0.029313072562217712
0.438822865486145 0.5530851483345032 -0.043309081345796585
0.4310707747936249 0.6293652057647705 -0.0996585488319397
0.4171011447906494 0.6313977241516113 -0.07062944024801254
0.43994367122650146 0.6136265993118286 -0.11944959312677383
0.42958900332450867 0.44234898686408997 -0.002080240286886692
0.39084938168525696 0.428657203912735 -0.0018160803010687232
0.35748064517974854 0.4259059727191925 0.0044259848073124886
0.3303976058959961 0.42988553643226624 0.019140170887112617
0.31251096725463867 0.440731406211853 0.037959109991788864
0.30222266912460327 0.48234283924102783 0.07984091341495514
0.24367603659629822 0.5484009385108948 0.20663580298423767
0.31695234775543213 0.5134655237197876 0.05903536453843117
0.34100258350372314 0.5203237533569336 0.0408787839114666
0.37303632497787476 0.5210756659507751 0.02654934488236904
0.403369665145874 0.516737163066864 0.01787910982966423
0.42625749111175537 0.5094664096832275 0.012266150675714016
0.4411865472793579 0.5018085241317749 0.00795337650924921
0.2565876543521881 0.5509268641471863 0.30047905445098877
0.41847920417785645 0.6358280777931213 -0.058026812970638275
0.44966715574264526 0.5613384246826172 -0.0842464417219162
0.44657057523727417 0.6332146525382996 -0.12158551812171936
0.46159663796424866 0.6453139185905457 -0.11287613213062286
0.4479883313179016 0.6365124583244324 -0.10916390269994736
0.4249136745929718 0.6424720883369446 -0.05013623833656311
0.4650152325630188 0.6485044360160828 -0.11996456980705261
0.46959808468818665 0.6525639891624451 -0.09028852730989456
0.44132867455482483 0.48286861181259155 0.019202830269932747
0.4526810050010681 0.4884108304977417 0.0016493332805112004
0.45760029554367065 0.4928714632987976 -0.017740068957209587
0.3308296799659729 0.4719339609146118 0.04887237027287483
0.3177712559700012 0.4619811773300171 0.051723893731832504
0.5079094767570496 0.5504477024078369 -0.11151447892189026
0.6813262701034546 0.4787260890007019 0.002425014041364193
0.5124322175979614 0.6488367915153503 -0.09502805024385452
0.8006390333175659 0.3777952790260315 0.10323622822761536
0.6063308119773865 0.5007502436637878 -0.013273795135319233
0.6319971084594727 0.501602828502655 -0.014651485718786716
0.6576423048973083 0.4999392330646515 -0.011180833913385868
0.6945700645446777 0.48715388774871826 0.005315636284649372
0.5851374268531799 0.4958287179470062 -0.00743761844933033
0.6404646635055542 0.43902838230133057 -0.028583217412233353
0.6137562394142151 0.440986692905426 -0.02358805201947689
0.6663989424705505 0.442649781703949 -0.023296447470784187
0.6845594048500061 0.4511163830757141 -0.014587334357202053
0.7189033031463623 0.5018731951713562 0.016423100605607033
0.6036611795425415 0.8561266660690308 0.0046104067005217075
0.6921894550323486 0.4739253520965576 0.009580914862453938
0.813685417175293 0.49037235975265503 0.11770456284284592
0.7517066597938538 0.48609331250190735 0.03763324394822121
0.6330835223197937 0.6024079918861389 -0.03653331100940704
0.533011257648468 0.7002730369567871 -0.06857594847679138
0.5334837436676025 0.7207008004188538 -0.05557242035865784
0.576313316822052 0.7033848762512207 -0.05589016526937485
0.6055275201797485 0.7076209783554077 -0.03416179493069649
0.5649515390396118 0.7194478511810303 -0.0463489331305027
0.5903580188751221 0.7185335159301758 -0.02611374855041504
0.6394664645195007 0.7512950897216797 0.010779697448015213
0.5040532946586609 0.638229250907898 -0.1400923877954483
0.5058425068855286 0.6115573644638062 -0.1488484889268875
0.7275153398513794 0.42327189445495605 -0.01330044586211443
0.574708878993988 0.5427283644676208 -0.03518572077155113
0.575650155544281 0.6222396492958069 -0.08596096932888031
0.5779598951339722 0.6073488593101501 -0.07868263125419617
0.7182925939559937 0.5944873094558716 -0.01422607246786356
0.5064896941184998 0.5784027576446533 -0.13561920821666718
0.658686101436615 0.39615291357040405 -0.047695547342300415
0.6977047920227051 0.40471118688583374 -0.033384308218955994
0.7664961814880371 0.3319637179374695 0.05657107010483742
0.5464844703674316 0.42053890228271484 -0.056175850331783295
0.5909205675125122 0.4494103789329529 -0.012982351705431938
0.6618311405181885 0.7202586531639099 0.009972685016691685
0.8015315532684326 0.7361513376235962 0.19635120034217834
0.5579131841659546 0.6376522779464722 -0.07323221117258072
0.5351303815841675 0.6470010280609131 -0.07174576073884964
0.6417860984802246 0.7186463475227356 0.013281767256557941
0.629522979259491 0.7197456359863281 0.008892888203263283
0.7147250175476074 0.3864913284778595 -0.02374468557536602
0.5803546905517578 0.630578339099884 -0.07133499532938004
0.6087741255760193 0.39964938163757324 -0.05592031031847
0.61309415102005 0.3774127662181854 -0.06266268342733383
0.6471710801124573 0.2729184925556183 -0.027149325236678123
0.7395679950714111 0.3587487041950226 0.011116842739284039
0.626532793045044 0.3231517970561981 -0.04577803984284401
0.7472508549690247 0.4106941819190979 0.005196473095566034
0.7737293243408203 0.39605778455734253 0.05204471945762634
0.5336445569992065 0.7130889296531677 -0.06442198157310486
0.5697637796401978 0.7135667204856873 -0.05167749151587486
0.5976525545120239 0.713426411151886 -0.031955618411302567
0.5524550676345825 0.6416216492652893 -0.06652604043483734
0.6359144449234009 0.7188922166824341 0.011129006743431091
0.6193473935127258 0.7363883256912231 -0.00028269385802559555
0.6257610321044922 0.7205892205238342 0.008644210174679756
0.5379934310913086 0.6352367401123047 -0.10824082046747208
0.5868529081344604 0.7155928611755371 -0.022121643647551537
0.5614708662033081 0.7181007266044617 -0.036298420280218124
0.5324036478996277 0.721044659614563 -0.04552026838064194
0.5423786640167236 0.8186651468276978 -0.020550144836306572
0.5385104417800903 0.7936148047447205 -0.04204762727022171
0.5367060899734497 0.7795839309692383 -0.044973522424697876
0.535275399684906 0.7680627703666687 -0.03870789706707001
0.5333862900733948 0.7599228024482727 -0.03433491662144661
0.5893476605415344 0.7443559169769287 -0.012809348292648792
0.5933501124382019 0.7465670108795166 -0.01665545627474785
0.5987474322319031 0.7521200776100159 -0.019820572808384895
0.6033748388290405 0.7599773406982422 -0.015062864869832993
0.6228828430175781 0.6860251426696777 -0.029775766655802727
0.8293877243995667 0.6058056354522705 0.22331887483596802
0.606257438659668 0.7360987663269043 0.0014822643715888262
0.6128501892089844 0.7351652979850769 -0.0007201060652732849
0.5263293385505676 0.6585168242454529 -0.07155390083789825
0.5748777389526367 0.6441045999526978 -0.04983455315232277
0.5304915904998779 0.6531586647033691 -0.07250259816646576
0.6039736866950989 0.5546447038650513 -0.03004291094839573
0.6494625210762024 0.5681179761886597 -0.02796786092221737
0.5856740474700928 0.6164469122886658 -0.06423836946487427
0.7172016501426697 0.29574471712112427 0.010509418323636055
0.692741870880127 0.3329189419746399 -0.0205262191593647
0.6688715219497681 0.37427252531051636 -0.04554472491145134
0.6147140264511108 0.7782350182533264 -8.523150609107688e-05
0.5531488656997681 0.3854023218154907 -0.06721606850624084
0.5634672045707703 0.32350480556488037 -0.05637415498495102
0.576787531375885 0.2636736333370209 -0.04464861750602722
0.6807804107666016 0.49523189663887024 -0.003173846285790205
0.7508314847946167 0.5183834433555603 0.02775740623474121
0.5718829035758972 0.4903051257133484 -0.003198418766260147
0.7166526317596436 0.4578123390674591 0.003864389145746827
0.5545369982719421 0.5280964970588684 -0.04293143004179001
0.5541773438453674 0.6172114014625549 -0.1092120036482811
0.7844261527061462 0.5362944006919861 0.05248953402042389
0.7300509810447693 0.5337325930595398 0.007731783669441938
0.6938048005104065 0.5422558188438416 -0.010663640685379505
0.6419223546981812 0.5413573384284973 -0.016535209491848946
0.6038824319839478 0.5338807702064514 -0.01764773018658161
0.5761244297027588 0.524002730846405 -0.021305080503225327
0.5165016055107117 0.4962640106678009 -0.06735876202583313
0.7849519848823547 0.5873867869377136 0.047593142837285995
0.7413733601570129 0.4527580142021179 0.012468338944017887
0.49743056297302246 0.6511140465736389 -0.12717236578464508
0.5726770162582397 0.567776083946228 -0.045994099229574203
0.8318299055099487 0.4879084825515747 0.19761310517787933
0.5554445385932922 0.5115728378295898 -0.02335379831492901
0.5915091037750244 0.6159716844558716 -0.03764423727989197
0.702620804309845 0.4745919108390808 0.013241796754300594
0.5570210218429565 0.598606288433075 -0.10013880580663681
0.8215120434761047 0.6698423624038696 0.21565751731395721
0.5733687877655029 0.48176252841949463 0.0022421583998948336
0.5312851667404175 0.5863029360771179 -0.12266820669174194
0.7290039658546448 0.7937067151069641 0.08123422414064407
0.7304956316947937 0.8274074792861938 0.12295620888471603
0.8194447159767151 0.5998789668083191 0.13465574383735657
0.7689573764801025 0.7601648569107056 0.10299669206142426
0.7950054407119751 0.43926990032196045 0.09130724519491196
0.607531726360321 0.8832399249076843 0.017315326258540154
0.49738365411758423 0.6553636789321899 -0.09289102256298065
0.5989537835121155 0.5835886597633362 -0.03874759003520012
0.7788687944412231 0.4907302260398865 0.05963889881968498
0.653077244758606 0.48528626561164856 -0.008875029161572456
0.6305991411209106 0.48760491609573364 -0.012417128309607506
0.6257246732711792 0.7396441698074341 0.003101895796135068
0.7866525650024414 0.6407235264778137 0.058971188962459564
0.5601064562797546 0.9175465106964111 0.026815127581357956
0.6434991955757141 0.8843680024147034 0.06883839517831802
0.6827442646026611 0.8610565066337585 0.0934021845459938
0.6097685694694519 0.4869880974292755 -0.010683733969926834
0.590448796749115 0.48432740569114685 -0.00513137923553586
0.5787393450737 0.4831545948982239 0.0011490429751574993
0.7651386260986328 0.44626951217651367 0.03492448851466179
0.5954970121383667 0.4670470952987671 -0.010089486837387085
0.6174672245979309 0.46128153800964355 -0.017246436327695847
0.6380922794342041 0.4601178765296936 -0.01893295720219612
0.6597562432289124 0.46297502517700195 -0.015260767191648483
0.6746196150779724 0.4679979085922241 -0.008489072322845459
0.8212378025054932 0.42650941014289856 0.15544846653938293
0.6692920923233032 0.4820382297039032 -0.0032108190935105085
0.5922495126724243 0.6757091879844666 -0.04679115116596222
0.5565288066864014 0.6355641484260559 -0.08257154375314713
0.5326281785964966 0.6745322942733765 -0.06739542633295059
0.6860454082489014 0.8281639814376831 0.06497102975845337
0.6477338075637817 0.8559789061546326 0.04314066842198372
0.558868408203125 0.9012154340744019 -0.003009885549545288
0.7689957618713379 0.7891339659690857 0.16063469648361206
0.5801476836204529 0.4759570360183716 -0.0028553784359246492
0.5324392318725586 0.5372784733772278 -0.0755828320980072
0.6037331819534302 0.9041869640350342 0.04223433881998062
0.8145599365234375 0.658509373664856 0.13443316519260406
0.563418984413147 0.7533696889877319 -0.025706011801958084
0.5672915577888489 0.7586488723754883 -0.02986118011176586
0.5706542730331421 0.7678406238555908 -0.033638328313827515
0.5736196637153625 0.7803128957748413 -0.029675867408514023
0.5830435752868652 0.8021248579025269 -0.013243669643998146
0.6149765253067017 0.7174707055091858 -0.007650358602404594
0.6222487092018127 0.7148259282112122 -0.008171132765710354
0.62935471534729 0.7108674049377441 -0.009576394222676754
0.6493387222290039 0.6995861530303955 -0.009856813587248325
0.7483562231063843 0.6521567702293396 0.013445086777210236
0.5348283648490906 0.5108544826507568 -0.05336349457502365
0.552227258682251 0.4626118242740631 -0.012225006707012653
0.5686517357826233 0.4671171009540558 -0.005462208297103643
0.6092249155044556 0.7145571708679199 -0.0051877605728805065
0.7557980418205261 0.7173665761947632 0.05604439228773117
0.5283045768737793 0.4612191319465637 -0.04311934486031532
0.5941976308822632 0.8275060653686523 -0.002858391497284174
0.5123614072799683 0.5249442458152771 -0.09124033153057098
0.5520336627960205 0.575779914855957 -0.07679338753223419
0.5489769577980042 0.845414400100708 -0.01611212268471718
0.6573828458786011 0.7665593028068542 0.020590662956237793
0.6152008771896362 0.6348439455032349 -0.03168018162250519
0.6284505724906921 0.8007211685180664 0.01110943965613842
0.680947482585907 0.6303342580795288 -0.029080338776111603
0.6445985436439514 0.6581389904022217 -0.024746792390942574
0.7090734243392944 0.6697625517845154 -0.006704550236463547
0.5555391311645508 0.8763755559921265 -0.015182802453637123
0.571443498134613 0.5874792337417603 -0.06014754995703697
0.6773056387901306 0.7930907011032104 0.03899000212550163
0.6407793164253235 0.8260548710823059 0.026013070717453957
0.6810764670372009 0.7302899360656738 0.015211286023259163
0.7826837301254272 0.6867913007736206 0.07196170836687088
0.7157738208770752 0.7421754598617554 0.03360644727945328
0.8000155091285706 0.7124559283256531 0.12833274900913239
0.6724609136581421 0.6841896772384644 -0.011212828569114208
0.5519630908966064 0.5526001453399658 -0.05951659753918648
0.5456939935684204 0.6304699778556824 -0.11380137503147125
0.5674965381622314 0.6321372389793396 -0.08729428797960281
0.5306341052055359 0.6142972111701965 -0.130814328789711
0.5709261894226074 0.4413863718509674 -0.022592177614569664
0.6107370853424072 0.42686188220977783 -0.031589772552251816
0.6463661789894104 0.4235612452030182 -0.034785252064466476
0.6780409812927246 0.42762911319732666 -0.028361639007925987
0.7020442485809326 0.43849632143974304 -0.015237727202475071
0.7236525416374207 0.4802873134613037 0.02191779762506485
0.8194597363471985 0.5445870161056519 0.1270304024219513
0.7024025917053223 0.5116772651672363 0.005651603918522596
0.6737511157989502 0.5186866521835327 -0.005544562358409166
0.6377838253974915 0.520074725151062 -0.011533675715327263
0.6046494245529175 0.5161548256874084 -0.012208783999085426
0.5796128511428833 0.5091868042945862 -0.010128721594810486
0.5625839829444885 0.5015867948532104 -0.010295680724084377
0.831670880317688 0.5461879968643188 0.21862302720546722
0.5693192481994629 0.6363217830657959 -0.074221670627594
0.5300569534301758 0.5611588358879089 -0.09582624584436417
0.5237550735473633 0.6341306567192078 -0.1305805742740631
0.5117693543434143 0.6462862491607666 -0.11799191683530807
0.5257604122161865 0.637799084186554 -0.11837144196033478
0.5644019842147827 0.6427888870239258 -0.06389347463846207
0.5061250925064087 0.6491764783859253 -0.1241426020860672
0.5063422322273254 0.6531861424446106 -0.09383639693260193
0.5635790228843689 0.48294931650161743 -4.567020368995145e-06
0.549306333065033 0.4881237745285034 -0.012599204666912556
0.5400082468986511 0.4924119710922241 -0.02939288504421711
0.6842270493507385 0.47164738178253174 -0.0008932818891480565
0.6996232271194458 0.4605790376663208 -0.0011528818868100643
