ply
format ascii 1.0
element vertex 468
property float x
property float y
property float z
end_header
0.48268961906433105 0.6807478666305542 -0.07671461254358292
0.46719035506248474 0.6183496713638306 -0.13758820295333862
0.47771984338760376 0.6413773894309998 -0.07878779619932175
0.45551246404647827 0.5418850779533386 -0.09409147500991821
0.466574102640152 0.5935424566268921 -0.14404265582561493
0.4694632291793823 0.5625985860824585 -0.13177719712257385
0.48058727383613586 0.4902839958667755 -0.05889401212334633
0.3336188793182373 0.48094338178634644 0.06910315155982971
0.48351800441741943 0.43426114320755005 -0.03514520451426506
0.48298051953315735 0.4025622606277466 -0.03631356731057167
0.48910191655158997 0.28039243817329407 -0.0008646816131658852
0.48390135169029236 0.6911736726760864 -0.07488887012004852
0.4860767722129822 0.6981411576271057 -0.06941349059343338
0.48833683133125305 0.6996304392814636 -0.06057773903012276
0.4863743782043457 0.7554808855056763 -0.04530422016978264
0.4855513572692871 0.7645451426506042 -0.05051771178841591
0.4853565990924835 0.7757342457771301 -0.05646926164627075
0.4856654107570648 0.7888779640197754 -0.05300062522292137
0.4872501492500305 0.8110954165458679 -0.03371059149503708
0.46969127655029297 0.6315686702728271 -0.1261679083108902
0.45404133200645447 0.6298707723617554 -0.09059615433216095
0.2749479413032532 0.3998972177505493 0.20565533638000488
0.39765089750289917 0.5036828517913818 0.03288910165429115
0.37517011165618896 0.5041490793228149 0.03783638775348663
0.3539160192012787 0.5023033618927002 0.04764806851744652
0.3261537551879883 0.48930269479751587 0.07318934053182602
0.41620367765426636 0.49947085976600647 0.03152425214648247
0.366873562335968 0.4404420256614685 0.034640029072761536
0.39180058240890503 0.4437583088874817 0.029882963746786118
0.34406572580337524 0.44369417428970337 0.04516316577792168
0.3294093608856201 0.45256707072257996 0.05644237622618675
0.3094645142555237 0.5046604871749878 0.08644957095384598
0.4037645161151886 0.834599494934082 0.008004710078239441
0.32637304067611694 0.47556886076927185 0.07895954698324203
0.26284706592559814 0.5004315376281738 0.20610588788986206
0.29028230905532837 0.49181893467903137 0.1161683201789856
0.3673858344554901 0.5933335423469543 -0.0023648557253181934
0.44796568155288696 0.6764692068099976 -0.06796345859766006
0.4545131325721741 0.696380615234375 -0.05956248193979263
0.4154508113861084 0.6798088550567627 -0.046495430171489716
0.3972036838531494 0.6856832504272461 -0.018168281763792038
0.4309347867965698 0.6957048773765564 -0.041571687906980515
0.41433197259902954 0.696811854839325 -0.015728380531072617
0.37918147444725037 0.7345980405807495 0.030061732977628708
0.44937893748283386 0.6176767945289612 -0.13273435831069946
0.44659125804901123 0.5936331152915955 -0.1379098892211914
0.30074071884155273 0.4327179193496704 0.07073955237865448
0.41894638538360596 0.5401423573493958 -0.005830850452184677
0.406024694442749 0.6076335310935974 -0.06406674534082413
0.4063163995742798 0.5951023697853088 -0.05533254146575928
0.30023419857025146 0.5876757502555847 0.041800159960985184
0.45041099190711975 0.565043568611145 -0.12013506889343262
0.3472275733947754 0.40837132930755615 0.020681051537394524
0.3191562294960022 0.41524648666381836 0.0447540320456028
0.2919560372829437 0.3566403388977051 0.15836550295352936
0.43808048963546753 0.43027615547180176 -0.018650218844413757
0.41295504570007324 0.45331263542175293 0.03263658657670021
0.36126452684402466 0.7023125290870667 0.0366823710501194
0.29140010476112366 0.7238335609436035 0.24097847938537598
0.42305952310562134 0.6215803623199463 -0.058706171810626984
0.4417482614517212 0.6300985813140869 -0.06688112020492554
0.3772847652435303 0.7015470266342163 0.03514081984758377
0.3899415135383606 0.7033751606941223 0.027592753991484642
0.3095586895942688 0.40054041147232056 0.05992204323410988
0.40655970573425293 0.6162795424461365 -0.052015822380781174
0.3856036067008972 0.41193336248397827 -0.0013016327284276485
0.38130632042884827 0.3926331400871277 -0.004423973616212606
0.3659738600254059 0.29636919498443604 0.05336200073361397
0.30071765184402466 0.3778787851333618 0.10320604592561722
0.37533506751060486 0.34182289242744446 0.02318236418068409
0.29035207629203796 0.4232441782951355 0.09515978395938873
0.2824052572250366 0.4128551483154297 0.14790111780166626
0.4502184987068176 0.6882983446121216 -0.06557400524616241
0.4234526753425598 0.6893049478530884 -0.044281743466854095
0.40526139736175537 0.6909401416778564 -0.018544841557741165
0.42879682779312134 0.6255831122398376 -0.055967941880226135
0.38282573223114014 0.7021337747573853 0.031119126826524734
0.39373016357421875 0.7232599258422852 0.01615125685930252
0.39531970024108887 0.7043464183807373 0.026430336758494377
0.4306885600090027 0.6171750426292419 -0.09221193939447403
0.4204861521720886 0.6949059367179871 -0.013681122101843357
0.43743640184402466 0.6954141855239868 -0.03387556970119476
0.4595590829849243 0.697791576385498 -0.05069143325090408
0.45065099000930786 0.8064450025558472 -0.025519896298646927
0.45087167620658875 0.7833477854728699 -0.04309955984354019
0.4515482187271118 0.7702171802520752 -0.04492158070206642
0.45381268858909607 0.7593527436256409 -0.038636405020952225
0.45724421739578247 0.7517630457878113 -0.03444014489650726
0.41794446110725403 0.7339760661125183 -0.0008732416899874806
0.4130009114742279 0.7361444234848022 -0.004671870730817318
0.4068606197834015 0.7408590316772461 -0.007288675289601088
0.40263354778289795 0.7478233575820923 -0.0019557492341846228
0.3806658387184143 0.6679450273513794 -0.008446577936410904
0.27227866649627686 0.6067476868629456 0.2903077304363251
0.47327491641044617 0.6368003487586975 -0.09542475640773773
0.40765613317489624 0.7238686084747314 0.01729927584528923
0.39998218417167664 0.7226130962371826 0.015054533258080482
0.44875410199165344 0.6399750709533691 -0.06809550523757935
0.41401493549346924 0.6290981769561768 -0.03734726831316948
0.44536495208740234 0.6353849768638611 -0.06839943677186966
0.39440327882766724 0.5509524345397949 0.0047279964201152325
0.35507312417030334 0.5629428625106812 0.015303021296858788
0.40341055393218994 0.6042414307594299 -0.04196346178650856
0.31987863779067993 0.3212661147117615 0.10497437417507172
0.3300376832485199 0.353058785200119 0.06237436830997467
0.34050774574279785 0.38986074924468994 0.027994640171527863
0.39589494466781616 0.762897253036499 0.013825531117618084
0.4297908544540405 0.39888936281204224 -0.024592937901616096
0.4251817762851715 0.3389822542667389 -0.003807994071394205
0.4203255772590637 0.28402501344680786 0.017057964578270912
0.33580493927001953 0.4975740909576416 0.061140090227127075
0.286833792924881 0.5208127498626709 0.10204408317804337
0.4280463755130768 0.4940916895866394 0.03351972624659538
0.3097357153892517 0.4628215432167053 0.08100483566522598
0.4345782995223999 0.5264871120452881 -0.016017917543649673
0.4168166220188141 0.6013281345367432 -0.08933921158313751
0.2662612497806549 0.5380327701568604 0.13134729862213135
0.2975810766220093 0.5337750911712646 0.07629971206188202
0.32275623083114624 0.5407999157905579 0.04864637926220894
0.3648589849472046 0.5395135879516602 0.030516305938363075
0.39748209714889526 0.5330385565757751 0.020687589421868324
0.42122864723205566 0.5239818096160889 0.010529585182666779
0.4609108865261078 0.49670925736427307 -0.04530761018395424
0.260852187871933 0.5835072994232178 0.11949968338012695
0.29478219151496887 0.4607619047164917 0.09576132148504257
0.4590469300746918 0.6302377581596375 -0.12281689047813416
0.41745075583457947 0.5617715120315552 -0.020108459517359734
0.26658540964126587 0.5015748143196106 0.28582730889320374
0.43771013617515564 0.5124721527099609 0.005114525556564331
0.40249067544937134 0.6049941182136536 -0.016933487728238106
0.31993648409843445 0.4772517681121826 0.08504732698202133
0.41819125413894653 0.5858075022697449 -0.07861500978469849
0.27797624468803406 0.6635807156562805 0.2716332972049713
0.428899884223938 0.48554831743240356 0.04150737076997757
0.4338524639606476 0.5732206106185913 -0.10370022058486938
0.32173579931259155 0.7736440896987915 0.11138156056404114
0.3321205675601959 0.8059381246566772 0.14624471962451935
0.254952609539032 0.5973052382469177 0.2068682312965393
0.29394492506980896 0.7433321475982666 0.14342638850212097
0.27204108238220215 0.4536277651786804 0.1846003532409668
0.40386587381362915 0.8598493337631226 0.01730361208319664
0.4646574854850769 0.6356953382492065 -0.09259191155433655
0.39672964811325073 0.5763187408447266 -0.010255432687699795
0.27512577176094055 0.49759918451309204 0.14332985877990723
0.3551538288593292 0.48844218254089355 0.05063408613204956
0.37463927268981934 0.491020143032074 0.041939876973629
0.38864144682884216 0.7253203392028809 0.020450638607144356
0.26179027557373047 0.631661057472229 0.12102162092924118
0.4450732469558716 0.8964725732803345 0.009584490209817886
0.38644322752952576 0.8595296740531921 0.07418522983789444
0.3623022437095642 0.8368778228759766 0.10746689885854721
0.4853972792625427 0.33892273902893066 -0.019896578043699265
0.4906807243824005 0.9048358201980591 -0.0064543746411800385
0.39374837279319763 0.4910357892513275 0.03791333734989166
0.4119449555873871 0.48910781741142273 0.03870140761137009
0.42352545261383057 0.48763078451156616 0.04202542454004288
0.2825171947479248 0.4569575786590576 0.12337341904640198
0.40985581278800964 0.46708235144615173 0.03802119567990303
0.3909338712692261 0.45853856205940247 0.03751557692885399
0.37089863419532776 0.45555639266967773 0.04156436026096344
0.35085684061050415 0.45890718698501587 0.05009979009628296
0.33843663334846497 0.46572092175483704 0.059322234243154526
0.2667256295681 0.44544774293899536 0.2521488070487976
0.3422384262084961 0.4849245548248291 0.06074181944131851
0.48020416498184204 0.6548299193382263 -0.07194727659225464
0.40127483010292053 0.6575266718864441 -0.031110389158129692
0.42147719860076904 0.6189262866973877 -0.0676720067858696
0.4459323287010193 0.6545382142066956 -0.0634833350777626
0.48396968841552734 0.46175968647003174 -0.03794913366436958
0.3521547317504883 0.8053820133209229 0.08418922126293182
0.37797778844833374 0.831864058971405 0.05253105238080025
0.44038674235343933 0.8803583383560181 -0.014966974966228008
0.30995550751686096 0.7720421552658081 0.1943102478981018
0.42289286851882935 0.4784584939479828 0.0403914637863636
0.444171667098999 0.5326640009880066 -0.05361803621053696
0.48768842220306396 0.8882904052734375 -0.029506567865610123
0.41189947724342346 0.880446195602417 0.0381917767226696
0.25985726714134216 0.6499727964401245 0.1961701661348343
0.43490326404571533 0.7441039085388184 -0.018533967435359955
0.4299406111240387 0.7490987181663513 -0.021992335096001625
0.4257560670375824 0.757520318031311 -0.024862701073288918
0.42311015725135803 0.7692961692810059 -0.021027982234954834
0.4182026982307434 0.7883191108703613 -0.005964978598058224
0.3990246653556824 0.6978673934936523 0.00797138549387455
0.39059382677078247 0.6947160959243774 0.010235141962766647
0.38362598419189453 0.6909214854240417 0.010993542149662971
0.3653293251991272 0.6814489364624023 0.017038045451045036
0.2832948863506317 0.6410245299339294 0.06677885353565216
0.44851788878440857 0.5104246735572815 -0.02873110957443714
0.4429846405982971 0.46832674741744995 0.020402347669005394
0.43149131536483765 0.47149553894996643 0.03414740040898323
0.4066370129585266 0.695831298828125 0.00897903461009264
0.29050350189208984 0.7024644017219543 0.10071400552988052
0.4576921761035919 0.46637630462646484 -0.015506520867347717
0.41064876317977905 0.8094101548194885 0.0020506158471107483
0.4734179377555847 0.5383939146995544 -0.10601850599050522
0.4579370319843292 0.5208476781845093 -0.07200674712657928
0.4769374132156372 0.515738844871521 -0.08097779005765915
0.42717429995536804 0.5669973492622375 -0.05533143877983093
0.4864348769187927 0.8642093539237976 -0.037966784089803696
0.48690831661224365 0.835067093372345 -0.03543458878993988
0.4453204870223999 0.8296208381652832 -0.02292712591588497
0.3664972484111786 0.7477293014526367 0.0426463782787323
0.384919673204422 0.6227409243583679 -0.006710329093039036
0.3869430720806122 0.7817498445510864 0.02443564496934414
0.3290788233280182 0.6195803880691528 0.01189783401787281
0.36274805665016174 0.6443572044372559 0.004879303742200136
0.31322866678237915 0.6562789678573608 0.03598765656352043
0.4399571418762207 0.8572015762329102 -0.022980665788054466
0.4157014489173889 0.5786557197570801 -0.03715825080871582
0.3531129062175751 0.7725387811660767 0.061439111828804016
0.3793982267379761 0.8042944669723511 0.03749486431479454
0.3459621071815491 0.7122933864593506 0.04673561081290245
0.2705916166305542 0.6742767691612244 0.12523530423641205
0.3202422261238098 0.7247321009635925 0.06935317814350128
0.27262017130851746 0.6997148990631104 0.18027910590171814
0.34643399715423584 0.6688041687011719 0.02231958508491516
0.43155384063720703 0.5473882555961609 -0.035222407430410385
0.4231836795806885 0.6126330494880676 -0.09593982994556427
0.41228240728378296 0.6159153580665588 -0.06931507587432861
0.4304782748222351 0.596904456615448 -0.11426869034767151
0.42523887753486633 0.44795459508895874 0.019154800102114677
0.38966915011405945 0.4332575798034668 0.021626176312565804
0.3583011329174042 0.4294317364692688 0.02888953499495983
0.3329463601112366 0.4330612123012543 0.04301764443516731
0.3163672685623169 0.4438837766647339 0.06029925122857094
0.3078969717025757 0.48456305265426636 0.0965060442686081
0.2566545009613037 0.5483773946762085 0.20923812687397003
0.31956160068511963 0.5130435228347778 0.07138627767562866
0.34159791469573975 0.5196103453636169 0.05273764953017235
0.3706716299057007 0.5208024382591248 0.03768332302570343
0.398978054523468 0.5176455974578857 0.02915632724761963
0.42062219977378845 0.5112795829772949 0.024029988795518875
0.4347570538520813 0.5042198896408081 0.020484665408730507
0.2702582776546478 0.5539097785949707 0.2971246838569641
0.41433185338974 0.6206973195075989 -0.057955555617809296
0.44023609161376953 0.5524137616157532 -0.07522611320018768
0.4362127482891083 0.6145185232162476 -0.11803426593542099
0.4503948986530304 0.626537561416626 -0.11163702607154846
0.4380717873573303 0.6185665130615234 -0.1065007671713829
0.4203161597251892 0.6270708441734314 -0.05183297023177147
0.4530390202999115 0.6286623477935791 -0.1188366562128067
0.4583597183227539 0.6336672306060791 -0.09148227423429489
0.4358116388320923 0.48694226145744324 0.034766554832458496
0.4457237720489502 0.4917234182357788 0.016384057700634003
0.4499322772026062 0.49491938948631287 -0.0036210943944752216
0.3314380645751953 0.4710361361503601 0.06822776794433594
0.3200908899307251 0.46339380741119385 0.07100678235292435
0.4934285581111908 0.5421445965766907 -0.10228139907121658
0.6669174432754517 0.48448649048805237 0.01004611887037754
0.4959847033023834 0.6310073733329773 -0.09698827564716339
0.7749506235122681 0.3995412588119507 0.11476489156484604
0.5948631167411804 0.5055302977561951 -0.005389924626797438
0.6192977428436279 0.506360650062561 -0.008025133982300758
0.6433581113815308 0.505047619342804 -0.005392438732087612
0.6788192987442017 0.49324649572372437 0.010618404485285282
0.5742731094360352 0.5010901689529419 0.0015000926796346903
0.6251983642578125 0.44109246134757996 -0.013424092903733253
0.5982246398925781 0.44383424520492554 -0.008022394962608814
0.6514396071434021 0.44531387090682983 -0.01022252719849348
0.6700230240821838 0.45500290393829346 -0.0034580803476274014
0.7001290321350098 0.5086286067962646 0.019125087186694145
0.5851012468338013 0.842592716217041 -0.02062065154314041
0.6772825717926025 0.4792613983154297 0.017229609191417694
0.7872854471206665 0.5052899122238159 0.11430244147777557
0.7293308973312378 0.4956999719142914 0.04071146249771118
0.6155986189842224 0.5968233942985535 -0.04239514470100403
0.5213554501533508 0.6782400608062744 -0.07952453941106796
0.522648274898529 0.6983969807624817 -0.07065702974796295
0.5640739798545837 0.6839117407798767 -0.06961666792631149
0.5937691926956177 0.6908623576164246 -0.04965059086680412
0.5535842180252075 0.6994805335998535 -0.0626518726348877
0.5789860486984253 0.7011253833770752 -0.043493468314409256
0.625511884689331 0.7414590120315552 -0.009442421607673168
0.4868986904621124 0.6183943748474121 -0.13798639178276062
0.4889794886112213 0.5939300060272217 -0.14407990872859955
0.7050597071647644 0.43424805998802185 -0.0003367277095094323
0.5599784255027771 0.5415257811546326 -0.031979285180568695
0.5554765462875366 0.6093554496765137 -0.08845397084951401
0.5585900545120239 0.5966112017631531 -0.08039385080337524
0.6986727118492126 0.5937651991844177 -0.023448346182703972
0.4908145070075989 0.5653494596481323 -0.1282685399055481
0.6378360390663147 0.4073197543621063 -0.02832150086760521
0.6759945154190063 0.4154985845088959 -0.01693868450820446
0.7413871884346008 0.35369759798049927 0.07710385322570801
0.5325567722320557 0.42963123321533203 -0.034517884254455566
0.5762991905212402 0.45360663533210754 0.0019326680339872837
0.64702308177948 0.7091607451438904 -0.010219767689704895
0.7756543159484863 0.7387471199035645 0.15613892674446106
0.5388451814651489 0.6233717799186707 -0.07679580897092819
0.517776370048523 0.6311203241348267 -0.07601659744977951
0.6308994889259338 0.7081927061080933 -0.006244196556508541
0.6184441447257996 0.7091712355613708 -0.009596934542059898
0.6907185912132263 0.4001949727535248 -0.006039741914719343
0.5607228875160217 0.6180456280708313 -0.0759548544883728
0.5904083847999573 0.41061168909072876 -0.034777168184518814
0.59393310546875 0.39057493209838867 -0.038819003850221634
0.6287792325019836 0.29232698678970337 0.007234371267259121
0.7143871784210205 0.3762247562408447 0.030594080686569214
0.6076416969299316 0.33885887265205383 -0.016511084511876106
0.7228246927261353 0.42456525564193726 0.01897653378546238
0.747869074344635 0.41347187757492065 0.06533391028642654
0.5223591327667236 0.6905314922332764 -0.07707381248474121
0.5581844449043274 0.6933456063270569 -0.06654934585094452
0.5863951444625854 0.6959980130195618 -0.04825472831726074
0.5340024828910828 0.6272763609886169 -0.07079172879457474
0.6251758337020874 0.7084746360778809 -0.00794092658907175
0.6075415015220642 0.7289882898330688 -0.01722891256213188
0.614195704460144 0.7097043395042419 -0.009695157408714294
0.5195278525352478 0.6188233494758606 -0.1086239442229271
0.5758178234100342 0.6987202167510986 -0.040096767246723175
0.5505105257034302 0.6986425518989563 -0.05379100888967514
0.5221993327140808 0.6995024085044861 -0.06213805451989174
0.528195321559906 0.8094847202301025 -0.0367414765059948
0.5251623392105103 0.7861259579658508 -0.05570850893855095
0.5234017372131348 0.772935688495636 -0.05817599222064018
0.5217331647872925 0.7621649503707886 -0.05164913833141327
0.519723653793335 0.7542942762374878 -0.04694461077451706
0.5757221579551697 0.7384921908378601 -0.027566010132431984
0.5799431800842285 0.7409195303916931 -0.031301431357860565
0.585928201675415 0.7461495399475098 -0.03475182130932808
0.5906893610954285 0.7534244060516357 -0.031046897172927856
0.6071141362190247 0.6724882125854492 -0.04353134334087372
0.8045855164527893 0.6171451807022095 0.19644983112812042
0.5935277938842773 0.728882908821106 -0.014816365204751492
0.6007448434829712 0.7279452085494995 -0.01712973043322563
0.5105372667312622 0.6409081816673279 -0.07703577727079391
0.5567060708999634 0.6309108138084412 -0.05662011355161667
0.5136641263961792 0.6364589333534241 -0.0771884098649025
0.5885111093521118 0.5530280470848083 -0.03003726899623871
0.6324596405029297 0.5663422346115112 -0.03134160116314888
0.5665508508682251 0.6059526801109314 -0.06801672279834747
0.6942140460014343 0.31697413325309753 0.03886337950825691
0.6694448590278625 0.3502561151981354 0.004180232062935829
0.6464423537254333 0.38788700103759766 -0.02405712381005287
0.6005370020866394 0.7694635391235352 -0.019439546391367912
0.5385690927505493 0.3974505066871643 -0.04178062826395035
0.5492019653320312 0.3373725414276123 -0.02403588965535164
0.5629547238349915 0.2816660702228546 -0.005996649153530598
0.6656635999679565 0.5009799599647522 0.002096838317811489
0.729121208190918 0.5256531238555908 0.027348412200808525
0.5608342289924622 0.49566376209259033 0.0067548868246376514
0.697822093963623 0.46569493412971497 0.01288274209946394
0.5405234098434448 0.5274483561515808 -0.036655232310295105
0.5348113179206848 0.6027889847755432 -0.10878603905439377
0.7607839107513428 0.5443360209465027 0.04694093391299248
0.7100859880447388 0.538308322429657 0.005835633259266615
0.6756191849708557 0.5444185733795166 -0.011859852820634842
0.6259715557098389 0.5422647595405579 -0.015915827825665474
0.5895131826400757 0.5349460244178772 -0.014780262485146523
0.5626890659332275 0.5254421830177307 -0.016170822083950043
0.503692626953125 0.4968947470188141 -0.053848110139369965
0.762370765209198 0.5917742848396301 0.035039495676755905
0.7191176414489746 0.4633426070213318 0.020969700068235397
0.4815521538257599 0.6309418082237244 -0.12692265212535858
0.5567716360092163 0.5631811618804932 -0.045369312167167664
0.8065333366394043 0.5066238045692444 0.18833212554454803
0.5428558588027954 0.513465404510498 -0.015467150136828423
0.5733564496040344 0.6068931221961975 -0.0432402528822422
0.6868008971214294 0.48104310035705566 0.020265668630599976
0.5384162068367004 0.5870264768600464 -0.0986410453915596
0.7959820032119751 0.6766775846481323 0.18173615634441376
0.5618972182273865 0.48722511529922485 0.013944897800683975
0.5141063928604126 0.5741143226623535 -0.11800037324428558
0.7053624391555786 0.787756621837616 0.04846180975437164
0.7067301869392395 0.8218759298324585 0.08237306773662567
0.7945300936698914 0.6075352430343628 0.11524426192045212
0.7439157962799072 0.7578524351119995 0.06922689825296402
0.769374430179596 0.4560578465461731 0.0964365229010582
0.5867262482643127 0.8688300251960754 -0.013082079589366913
0.48230522871017456 0.6360756158828735 -0.0951923057436943
0.5823104381561279 0.5784345865249634 -0.04144742339849472
0.7543076276779175 0.5020235180854797 0.06045873090624809
0.6400671601295471 0.49113357067108154 -0.0009799895342439413
0.6186425685882568 0.49315059185028076 -0.0037310151383280754
0.6138589382171631 0.7314285039901733 -0.015114184468984604
0.7638815641403198 0.6423776149749756 0.0385134182870388
0.5403628349304199 0.9020540118217468 -0.007643027231097221
0.6220226287841797 0.871812105178833 0.032325100153684616
0.6603322625160217 0.8513680696487427 0.05503804609179497
0.5987082719802856 0.49274754524230957 -0.0010398925514891744
0.5796738862991333 0.49051710963249207 0.005350262857973576
0.5675203800201416 0.48927590250968933 0.012222953140735626
0.7408969402313232 0.45956021547317505 0.042549315840005875
0.5830239653587341 0.4685553014278412 0.0034935378935188055
0.6037658452987671 0.4599900543689728 -0.0028922532219439745
0.6241294145584106 0.45770496129989624 -0.005481709726154804
0.6459435224533081 0.4614644944667816 -0.0030823061242699623
0.6603801846504211 0.4689137637615204 0.0023512912448495626
0.7955634593963623 0.4476317763328552 0.1567978411912918
0.6555929780006409 0.48799949884414673 0.004429948050528765
0.5759027600288391 0.6606475710868835 -0.057844266295433044
0.5374113917350769 0.6207650303840637 -0.0847453624010086
0.5185402631759644 0.6560631990432739 -0.07493901252746582
0.6636132001876831 0.8183643221855164 0.03273651748895645
0.6263762712478638 0.8435332179069519 0.011475570499897003
0.5392887592315674 0.8855170607566833 -0.03194490447640419
0.74375319480896 0.7877359986305237 0.11827463656663895
0.5681509971618652 0.4801996648311615 0.009633815847337246
0.5179086327552795 0.5333269238471985 -0.06747806072235107
0.582939863204956 0.889640748500824 0.007158033084124327
0.7898911833763123 0.6627193689346313 0.10780185461044312
0.5494256615638733 0.7480154037475586 -0.03930436819791794
0.5536108016967773 0.7533352375030518 -0.04341302812099457
0.5573527216911316 0.7620198130607605 -0.04748017340898514
0.5603597164154053 0.7738131284713745 -0.044188663363456726
0.5688827037811279 0.7937900424003601 -0.03111683949828148
0.6040918231010437 0.7032160758972168 -0.02575950138270855
0.6113672256469727 0.700600266456604 -0.02624952793121338
0.6180269718170166 0.6971719264984131 -0.02724633552134037
0.6339296698570251 0.6873564124107361 -0.026384437456727028
0.7269011735916138 0.6504989266395569 -0.004505423363298178
0.5214827656745911 0.5108810663223267 -0.043306052684783936
0.5403735637664795 0.46881797909736633 0.002442858414724469
0.5566526055335999 0.47244805097579956 0.008501931093633175
0.5984027981758118 0.7004871368408203 -0.02356535941362381
0.7328565120697021 0.7143915295600891 0.0297324750572443
0.5161714553833008 0.46641260385513306 -0.026448199525475502
0.5784997344017029 0.8161052465438843 -0.024173934012651443
0.49849122762680054 0.5210679769515991 -0.07933126389980316
0.5358314514160156 0.5680178999900818 -0.07365372031927109
0.5334908366203308 0.8334780931472778 -0.035455942153930664
0.6398919224739075 0.755781888961792 -0.0023447645362466574
0.5969221591949463 0.6254899501800537 -0.04009271040558815
0.6120131611824036 0.7896246314048767 -0.011490250937640667
0.6617840528488159 0.6253750324249268 -0.03967423364520073
0.6265681982040405 0.6489606499671936 -0.03656725957989693
0.6882610321044922 0.6641144752502441 -0.022939501330256462
0.5376991629600525 0.8616544008255005 -0.03910401090979576
0.5543176531791687 0.5799940824508667 -0.06048021465539932
0.6567220687866211 0.7829689979553223 0.011917724274098873
0.6215965747833252 0.8141375780105591 -0.0009815932717174292
0.6627921462059021 0.7200778722763062 -0.007089024409651756
0.7593345642089844 0.6864502429962158 0.04607561603188515
0.6944889426231384 0.7353806495666504 0.008658334612846375
0.7745837569236755 0.713688313961029 0.0958743691444397
0.6540019512176514 0.6748335361480713 -0.02724122256040573
0.5367742776870728 0.5483436584472656 -0.05528496578335762
0.5266830325126648 0.6145451664924622 -0.11351649463176727
0.5477814078330994 0.6179051995277405 -0.08994529396295547
0.5120611786842346 0.5981072783470154 -0.12844590842723846
0.5571622252464294 0.4482623040676117 -0.005688733886927366
0.594342052936554 0.43325018882751465 -0.014335998333990574
0.6293210983276367 0.4296044409275055 -0.01806572824716568
0.6603402495384216 0.43416255712509155 -0.014041077345609665
0.683894693851471 0.4457613229751587 -0.003706129267811775
0.7045602798461914 0.4882712960243225 0.027442634105682373
0.7935382723808289 0.5559225678443909 0.11527255177497864
0.6851173639297485 0.5167561173439026 0.007854132913053036
0.6572014093399048 0.5225049257278442 -0.00287247053347528
0.6233121156692505 0.5232202410697937 -0.008026329800486565
0.5918077826499939 0.5194915533065796 -0.007204156834632158
0.567764937877655 0.5128811001777649 -0.0032221872825175524
0.551141619682312 0.5054303407669067 -0.0017667519859969616
0.8070715665817261 0.5615778565406799 0.20008139312267303
0.5499613285064697 0.622653067111969 -0.07820072770118713
0.5146297216415405 0.5531107187271118 -0.08941631019115448
0.5054416656494141 0.6160380840301514 -0.12917332351207733
0.49505481123924255 0.6278600096702576 -0.11809256672859192
0.5080198645591736 0.6203362345695496 -0.1179601177573204
0.5460348129272461 0.6288739442825317 -0.06896871328353882
0.48965984582901 0.6297234296798706 -0.12410017102956772
0.4903944134712219 0.6346129775047302 -0.09613031148910522
0.5521771907806396 0.4882502257823944 0.011712734587490559
0.5380529761314392 0.49261313676834106 -0.0010476168245077133
0.528067409992218 0.4954606294631958 -0.01792791858315468
0.6695052981376648 0.4744560718536377 0.008643696084618568
0.6839034557342529 0.4664069712162018 0.007976403459906578
