ply
format ascii 1.0
element vertex 468
property float x
property float y
property float z
end_header
0.49846693873405457 0.703876793384552 -0.03685271739959717
0.4854869246482849 0.6632410883903503 -0.13282684981822968
0.4932435154914856 0.6744827032089233 -0.061656348407268524
0.4696663022041321 0.5756970643997192 -0.11674309521913528
0.4848533570766449 0.6392794847488403 -0.14627942442893982
0.4862311780452728 0.6038548350334167 -0.1439216285943985
0.49286389350891113 0.5136035680770874 -0.10134866833686829
0.3334534764289856 0.48036614060401917 0.014330863952636719
0.49429967999458313 0.4529375731945038 -0.09894691407680511
0.49398598074913025 0.4203715920448303 -0.11289214342832565
0.4985809326171875 0.27688178420066833 -0.12550891935825348
0.49957314133644104 0.7122989892959595 -0.03134259581565857
0.5010095238685608 0.7156234979629517 -0.023624470457434654
0.5025331974029541 0.7132802605628967 -0.013034947216510773
0.5029216408729553 0.767842173576355 0.009548323228955269
0.502629280090332 0.7761526107788086 0.00724665867164731
0.5024411082267761 0.7859185934066772 0.004535626154392958
0.5026290416717529 0.7973355054855347 0.011666161939501762
0.5025357604026794 0.8168590068817139 0.036248885095119476
0.4873933792114258 0.6733638048171997 -0.1178210973739624
0.46796470880508423 0.6647449135780334 -0.08152974396944046
0.2596379816532135 0.3740123510360718 0.1044006198644638
0.40498629212379456 0.5053138732910156 -0.011644929647445679
0.3815178871154785 0.5052315592765808 -0.007438707631081343
0.35798168182373047 0.50303715467453 0.0006422688602469862
0.3247487545013428 0.4868333637714386 0.021645562723279
0.4229167401790619 0.5026506781578064 -0.01315334066748619
0.3648613393306732 0.44908198714256287 -0.028392115607857704
0.3914472758769989 0.4525831341743469 -0.03228628262877464
0.3411073088645935 0.4509819746017456 -0.017394190654158592
0.3262891173362732 0.4575894773006439 -0.005233603995293379
0.30714207887649536 0.5005753040313721 0.038844261318445206
0.41593244671821594 0.8351419568061829 0.08992839604616165
0.32363417744636536 0.47409704327583313 0.022011924535036087
0.2498515546321869 0.4792950451374054 0.14872094988822937
0.283508837223053 0.4848165512084961 0.06005832552909851
0.3722212314605713 0.60428786277771 -0.00852288119494915
0.46014726161956787 0.6984208822250366 -0.03162572532892227
0.46518921852111816 0.7120151519775391 -0.015862969681620598
0.423783540725708 0.6943569779396057 -0.009577160701155663
0.4025452136993408 0.6911121010780334 0.0219801664352417
0.4384034276008606 0.7063863277435303 0.001550357905216515
0.419094443321228 0.7014380097389221 0.029144754633307457
0.3837938904762268 0.7269670963287354 0.08792722970247269
0.46641993522644043 0.6611441373825073 -0.12928347289562225
0.46362364292144775 0.6371824145317078 -0.14166605472564697
0.2937229871749878 0.4346242845058441 -0.005662278272211552
0.4262644648551941 0.551652729511261 -0.032042790204286575
0.41550448536872864 0.6329411864280701 -0.06525950878858566
0.4157451093196869 0.6176645755767822 -0.06009484454989433
0.2994239628314972 0.5887024998664856 0.029733028262853622
0.46617263555526733 0.6045113801956177 -0.13383544981479645
0.34488534927368164 0.4196472764015198 -0.059157636016607285
0.3137156367301941 0.42217472195625305 -0.03524994105100632
0.2771068513393402 0.336623877286911 0.04310513287782669
0.445123553276062 0.4478631317615509 -0.08685439079999924
0.4141385555267334 0.46145394444465637 -0.02594887651503086
0.36221688985824585 0.6943974494934082 0.08478240668773651
0.28615549206733704 0.6926126480102539 0.2788273096084595
0.43255746364593506 0.6470193862915039 -0.054400887340307236
0.452905535697937 0.6578218936920166 -0.0563054159283638
0.37721699476242065 0.6928837895393372 0.08500298112630844
0.38971275091171265 0.6971596479415894 0.07826290279626846
0.30204686522483826 0.40403756499290466 -0.027538545429706573
0.41487208008766174 0.6370717883110046 -0.048990387469530106
0.3876110911369324 0.4268854856491089 -0.07737929373979568
0.38279110193252563 0.40583568811416626 -0.08859247714281082
0.3608255386352539 0.2876827120780945 -0.07441578060388565
0.29018524289131165 0.3700850009918213 0.003049401566386223
0.37419819831848145 0.34468787908554077 -0.08369077742099762
0.28126949071884155 0.4204913377761841 0.012187440879642963
0.2705095410346985 0.3991096019744873 0.055722564458847046
0.4618462324142456 0.7078209519386292 -0.025127436965703964
0.4315696954727173 0.7022821307182312 -0.003380225505679846
0.4106736481189728 0.6963784098625183 0.02446352131664753
0.43804311752319336 0.6503921747207642 -0.04945118725299835
0.3827868402004242 0.6943294405937195 0.08128716051578522
0.3978804349899292 0.7202937602996826 0.07086700946092606
0.39487528800964355 0.6990189552307129 0.07737022638320923
0.4434438943862915 0.6513065099716187 -0.09182342886924744
0.4241747260093689 0.6984167695045471 0.03205782175064087
0.44410446286201477 0.703774094581604 0.011143077164888382
0.4693061411380768 0.7099953889846802 -0.005095874425023794
0.4639187157154083 0.8114386796951294 0.0433325432240963
0.46527546644210815 0.7909024953842163 0.019279932603240013
0.46603456139564514 0.7796257734298706 0.01369831245392561
0.46762797236442566 0.7705686688423157 0.016351640224456787
0.47048261761665344 0.7633014917373657 0.018007872626185417
0.4246833622455597 0.7374393939971924 0.05014417693018913
0.4200757145881653 0.7392188906669617 0.04867072403430939
0.41463223099708557 0.7429932355880737 0.04902831092476845
0.4109187722206116 0.7487035393714905 0.05653216689825058
0.3850259780883789 0.6764081120491028 0.02213267982006073
0.2616349756717682 0.5732211470603943 0.27788209915161133
0.48976776003837585 0.6746110320091248 -0.08257675170898438
0.4116445779800415 0.7232723832130432 0.06869639456272125
0.404034823179245 0.7210556268692017 0.06838586181402206
0.4612554907798767 0.668929934501648 -0.05186687409877777
0.4213874042034149 0.6474516987800598 -0.02743673324584961
0.45715680718421936 0.6638990044593811 -0.05564450845122337
0.4015587568283081 0.5595254302024841 -0.017061611637473106
0.3594125807285309 0.5694291591644287 -0.0035649691708385944
0.41187402606010437 0.6231173872947693 -0.0430898480117321
0.30820438265800476 0.30704569816589355 -0.0179023128002882
0.3227030634880066 0.350604772567749 -0.042582929134368896
0.3368481397628784 0.39818263053894043 -0.06050318107008934
0.403669536113739 0.7607837319374084 0.07676001638174057
0.4363197982311249 0.4156154990196228 -0.10448404401540756
0.42984557151794434 0.34447234869003296 -0.10877125710248947
0.4220927655696869 0.27847766876220703 -0.11005699634552002
0.3368496298789978 0.4966922700405121 0.011996923945844173
0.28235000371932983 0.5145330429077148 0.05871665105223656
0.43353980779647827 0.49919089674949646 -0.012755830772221088
0.30497896671295166 0.4623689651489258 0.01747805066406727
0.4423048496246338 0.5411020517349243 -0.04622349515557289
0.42871221899986267 0.6335930824279785 -0.09312838315963745
0.2598579227924347 0.5271854400634766 0.09400531649589539
0.29630178213119507 0.530439555644989 0.04086034744977951
0.3249867856502533 0.5412188172340393 0.018369385972619057
0.370586097240448 0.5430071353912354 0.001857300754636526
0.40477287769317627 0.5382983088493347 -0.009134507738053799
0.4278941750526428 0.5316470265388489 -0.022152338176965714
0.4713403284549713 0.5181054472923279 -0.0874001532793045
0.25578975677490234 0.5735803842544556 0.10114114731550217
0.2877497673034668 0.45765969157218933 0.027704676613211632
0.47569558024406433 0.6714028120040894 -0.11519965529441833
0.4254637360572815 0.5775296092033386 -0.03714757412672043
0.2512187063694 0.46771401166915894 0.22637131810188293
0.44442543387413025 0.5232018232345581 -0.03186670318245888
0.40996190905570984 0.6196870803833008 -0.016807595267891884
0.3169279992580414 0.4750702381134033 0.0280485600233078
0.4296126663684845 0.6145414710044861 -0.08724870532751083
0.27004194259643555 0.6308204531669617 0.28359565138816833
0.4321134686470032 0.4908671975135803 -0.009207404218614101
0.44750651717185974 0.6080483198165894 -0.11567520350217819
0.324878454208374 0.7588293552398682 0.1719128042459488
0.3361356854438782 0.7840571403503418 0.2171974778175354
0.24688005447387695 0.5771515369415283 0.19084928929805756
0.2924080491065979 0.7255064249038696 0.1900034099817276
0.2594793736934662 0.4353089928627014 0.10768032819032669
0.41675227880477905 0.8581407070159912 0.10884252935647964
0.4804159998893738 0.6731649041175842 -0.08033526688814163
0.40373486280441284 0.5886491537094116 -0.02181185595691204
0.26606059074401855 0.48653239011764526 0.08688060939311981
0.35965901613235474 0.48942768573760986 -0.0003831556241493672
0.38083547353744507 0.4921720623970032 -0.0076012155041098595
0.39262181520462036 0.7206543684005737 0.07625456899404526
0.25661060214042664 0.6211555600166321 0.12386805564165115
0.4579967260360718 0.8931713104248047 0.11565227806568146
0.3979972004890442 0.8483095169067383 0.16373692452907562
0.3712760806083679 0.8203284740447998 0.18876798450946808
0.4961606562137604 0.34585344791412354 -0.12150659412145615
0.502072274684906 0.9019432067871094 0.10409621894359589
0.400391161441803 0.49207690358161926 -0.01137660350650549
0.41839075088500977 0.4908050298690796 -0.01069579552859068
0.42862725257873535 0.49105310440063477 -0.008291141130030155
0.2730792760848999 0.4489284157752991 0.051716409623622894
0.4106845259666443 0.47135135531425476 -0.018099725246429443
0.39008837938308716 0.46219733357429504 -0.02135355956852436
0.3686699867248535 0.45932120084762573 -0.018164420500397682
0.34763503074645996 0.4618662893772125 -0.009638338349759579
0.3351098299026489 0.46747738122940063 0.0006237035267986357
0.2512093484401703 0.41515493392944336 0.16939792037010193
0.34447216987609863 0.4851812720298767 0.0076605165377259254
0.4955676198005676 0.683699905872345 -0.04735417291522026
0.40827780961990356 0.6725481152534485 -0.006611356511712074
0.4314226508140564 0.646939754486084 -0.06644202023744583
0.45838451385498047 0.6800316572189331 -0.03971750661730766
0.494697630405426 0.47991544008255005 -0.09157679229974747
0.3602461814880371 0.7940245866775513 0.15833677351474762
0.3888682723045349 0.8250533938407898 0.13639837503433228
0.45414915680885315 0.8819538354873657 0.08398384600877762
0.30884644389152527 0.7448512315750122 0.25057679414749146
0.42515450716018677 0.4837329089641571 -0.013226637616753578
0.4550181031227112 0.5570833086967468 -0.08171510696411133
0.5009700655937195 0.8908281326293945 0.07389985024929047
0.4248335361480713 0.8742960691452026 0.13611243665218353
0.25340941548347473 0.6298366189002991 0.20222175121307373
0.44494885206222534 0.7525413036346436 0.03264642879366875
0.4404616057872772 0.7570242881774902 0.03156013414263725
0.4370117783546448 0.764156699180603 0.03197686746716499
0.43501734733581543 0.7745283246040344 0.03909788653254509
0.4288797080516815 0.7906351089477539 0.060231905430555344
0.4003005027770996 0.696424126625061 0.05503985658288002
0.39225226640701294 0.6926227807998657 0.056663814932107925
0.38557156920433044 0.6884114742279053 0.05531404912471771
0.3668924570083618 0.6818040609359741 0.054190222173929214
0.2800099849700928 0.6375499963760376 0.07519064843654633
0.45747023820877075 0.5287867188453674 -0.06516335159540176
0.44762325286865234 0.4782361686229706 -0.03415781632065773
0.4342784583568573 0.4790639877319336 -0.021297840401530266
0.40743571519851685 0.6949454545974731 0.05675375461578369
0.28761231899261475 0.6920300722122192 0.13331155478954315
0.46537262201309204 0.48149245977401733 -0.06973711401224136
0.42206716537475586 0.8102647662162781 0.07568912208080292
0.488446444272995 0.5738226175308228 -0.1281556636095047
0.4704138934612274 0.5489112138748169 -0.10526648163795471
0.4906964898109436 0.5455377697944641 -0.11406926065683365
0.437671035528183 0.591115415096283 -0.07120895385742188
0.500741720199585 0.8692957758903503 0.05576053261756897
0.5017622709274292 0.8406785726547241 0.046693507581949234
0.45927754044532776 0.8341359496116638 0.056937869638204575
0.37236902117729187 0.7401975393295288 0.1025068387389183
0.3907546103000641 0.6340509653091431 -0.000607445603236556
0.39599400758743286 0.7777292728424072 0.09302998334169388
0.32988911867141724 0.6267207860946655 0.015044102445244789
0.36634889245033264 0.6523749828338623 0.02063300833106041
0.3120434582233429 0.6571109890937805 0.05350176990032196
0.4539603292942047 0.8612890243530273 0.06650341302156448
0.4249174892902374 0.5978659391403198 -0.04811897873878479
0.35987383127212524 0.7642893195152283 0.12695454061031342
0.3893837034702301 0.8000156879425049 0.11350739002227783
0.3481295108795166 0.705008327960968 0.09342726320028305
0.2658570408821106 0.6617099642753601 0.14549638330936432
0.321341872215271 0.7162808179855347 0.11430757492780685
0.2678596079349518 0.6794883012771606 0.20809493958950043
0.3470170497894287 0.6688967347145081 0.049233753234148026
0.440854549407959 0.5674052834510803 -0.057734355330467224
0.43557578325271606 0.6468914747238159 -0.09766609966754913
0.4220123589038849 0.6427145004272461 -0.0673738643527031
0.4450537860393524 0.6358729600906372 -0.11874383687973022
0.4289664328098297 0.4600311517715454 -0.04332824423909187
0.39065808057785034 0.4456212818622589 -0.04623407870531082
0.35710421204566956 0.4404783844947815 -0.040268674492836
0.32996782660484314 0.44130629301071167 -0.025678733363747597
0.312272846698761 0.4480232000350952 -0.00725081842392683
0.30323851108551025 0.4803433418273926 0.0397270992398262
0.24629154801368713 0.5279609560966492 0.17231754958629608
0.3197472393512726 0.5108216404914856 0.028278153389692307
0.3450450599193573 0.5198983550071716 0.01320344302803278
0.3771789073944092 0.5227382183074951 0.0008132917573675513
0.40636610984802246 0.5205039381980896 -0.007646542973816395
0.4270767569541931 0.5160976648330688 -0.014709437265992165
0.4406072497367859 0.511349618434906 -0.019828105345368385
0.25684860348701477 0.5193203687667847 0.2603186368942261
0.42316126823425293 0.6441348195075989 -0.0540122389793396
0.45270565152168274 0.5821913480758667 -0.09530366212129593
0.45127159357070923 0.654651403427124 -0.11729181557893753
0.4651718735694885 0.6644565463066101 -0.10534890741109848
0.45198434591293335 0.6557798385620117 -0.10466677695512772
0.4285067319869995 0.6488083004951477 -0.04396834224462509
0.4687477648258209 0.6685066223144531 -0.11161205172538757
0.47314906120300293 0.6697729825973511 -0.08081426471471786
0.43957212567329407 0.4939160943031311 -0.014250148087739944
0.45104923844337463 0.5009139776229858 -0.02951463684439659
0.45681536197662354 0.5078643560409546 -0.046575065702199936
0.32812225818634033 0.47150978446006775 0.010034044273197651
0.316590815782547 0.46452271938323975 0.01127630565315485
0.5088946223258972 0.576252818107605 -0.12202880531549454
0.674863874912262 0.48763611912727356 -0.023825429379940033
0.5134676694869995 0.6660490036010742 -0.08532973378896713
0.784771740436554 0.377432644367218 0.04484761133790016
0.5993229150772095 0.5096675753593445 -0.036558061838150024
0.624189019203186 0.5102157592773438 -0.036988165229558945
0.6494737863540649 0.5083746910095215 -0.03377154842019081
0.6866263747215271 0.4943779706954956 -0.018835222348570824
0.5796684622764587 0.5062768459320068 -0.03255205973982811
0.6388350129127502 0.45422905683517456 -0.05994558706879616
0.6114612817764282 0.45629942417144775 -0.057005684822797775
0.664042592048645 0.4574604034423828 -0.05361977219581604
0.681002676486969 0.4648614823818207 -0.04436109960079193
0.7085008025169373 0.5069929361343384 -0.005056531634181738
0.5946314334869385 0.8422486186027527 0.07113778591156006
0.6865689754486084 0.48246634006500244 -0.017997417598962784
0.7934667468070984 0.48640432953834534 0.08868422359228134
0.7388790845870972 0.4919767677783966 0.011226184666156769
0.630071222782135 0.6074015498161316 -0.03458038717508316
0.5395480990409851 0.6996546387672424 -0.03887706995010376
0.540641725063324 0.7131917476654053 -0.02290993556380272
0.5832757353782654 0.696826159954071 -0.024227049201726913
0.6128326058387756 0.6941304206848145 0.0018336622742936015
0.5726195573806763 0.7084977626800537 -0.011901403777301311
0.5982097387313843 0.7036585211753845 0.011005615815520287
0.6408352255821228 0.731544017791748 0.06148749962449074
0.5059239864349365 0.6619950532913208 -0.13256405293941498
0.50755774974823 0.6378893256187439 -0.1455993354320526
0.7189539074897766 0.4425046741962433 -0.051800623536109924
0.5717699527740479 0.5536730885505676 -0.04864243417978287
0.5726539492607117 0.6350307464599609 -0.08007866889238358
0.5743310451507568 0.6194803714752197 -0.07541542500257492
0.7123391628265381 0.5945621728897095 -0.013223886489868164
0.5078865885734558 0.6051961779594421 -0.13904771208763123
0.6549433469772339 0.42448049783706665 -0.0910489484667778
0.69203782081604 0.4289531111717224 -0.07566995918750763
0.7561531066894531 0.3383234143257141 -0.010179946199059486
0.5458998680114746 0.44920650124549866 -0.0975557416677475
0.5883839130401611 0.46432578563690186 -0.045937202870845795
0.6639236211776733 0.6989597082138062 0.05348920077085495
0.7695751190185547 0.7069834470748901 0.22395539283752441
0.5564185976982117 0.6491106748580933 -0.06557506322860718
0.5350666046142578 0.6588073968887329 -0.06180673837661743
0.6509804725646973 0.6961913704872131 0.0576154850423336
0.638269305229187 0.6997585892677307 0.053609274327754974
0.7074317336082458 0.4107822775840759 -0.07066330313682556
0.577320396900177 0.6388492584228516 -0.0635964423418045
0.6066319346427917 0.42986923456192017 -0.09945126622915268
0.6110368967056274 0.4085029363632202 -0.11120353639125824
0.6470357179641724 0.28723397850990295 -0.10459664463996887
0.7304332256317139 0.374104380607605 -0.04459952190518379
0.6253472566604614 0.345730185508728 -0.10971210896968842
0.736835241317749 0.4279172122478485 -0.03711714968085289
0.7602117657661438 0.40460142493247986 0.0017893793992698193
0.5407307744026184 0.7091268301010132 -0.03258110582828522
0.5773301720619202 0.7046140432357788 -0.017742373049259186
0.6055200695991516 0.6990930438041687 0.005339810624718666
0.5516788959503174 0.6520350575447083 -0.05843261629343033
0.6452791690826416 0.6972649097442627 0.055559467524290085
0.6266592741012573 0.7234402298927307 0.04884684085845947
0.6334308981895447 0.7015090584754944 0.0532248355448246
0.5377060174942017 0.6537816524505615 -0.10187412798404694
0.5947669744491577 0.700016438961029 0.014841029420495033
0.5690408945083618 0.7054218053817749 -0.0017666085623204708
0.5392903089523315 0.7110465168952942 -0.012697973288595676
0.5438504219055176 0.8136519193649292 0.03581126406788826
0.5428943634033203 0.7928841710090637 0.011036280542612076
0.5421143174171448 0.7815114855766296 0.005031378008425236
0.5406162142753601 0.7723777294158936 0.007969020865857601
0.5383091568946838 0.7650002241134644 0.010017694905400276
0.5950042009353638 0.7400314211845398 0.03310990333557129
0.599244236946106 0.7420183420181274 0.031108172610402107
0.6047248840332031 0.746146559715271 0.03105032816529274
0.6086212992668152 0.7521359324455261 0.03730970248579979
0.6249446272850037 0.679430365562439 -0.00016319971473421901
0.7996176481246948 0.5840436816215515 0.21682099997997284
0.6123325228691101 0.7257294654846191 0.04757416993379593
0.6199184656143188 0.7238139510154724 0.04709465429186821
0.5272581577301025 0.6694903373718262 -0.05732324346899986
0.5736632347106934 0.6486621499061584 -0.03924646973609924
0.5307695269584656 0.664679765701294 -0.06105026602745056
0.599186360836029 0.562032163143158 -0.03957267105579376
0.6446821689605713 0.5729731321334839 -0.03439219668507576
0.5818229913711548 0.6248770952224731 -0.05901721119880676
0.7122745513916016 0.3074120283126831 -0.061371952295303345
0.6871520280838013 0.3531719446182251 -0.08064905554056168
0.6642098426818848 0.40274739265441895 -0.09458275884389877
0.6154491305351257 0.7655266523361206 0.05466194078326225
0.5534546971321106 0.4167494773864746 -0.11558093130588531
0.5646363496780396 0.34490475058555603 -0.12203475087881088
0.5784565210342407 0.27795425057411194 -0.12526735663414001
0.6727719902992249 0.5030370354652405 -0.02629690058529377
0.7380852699279785 0.520962119102478 0.01008282694965601
0.5678349137306213 0.5026006698608398 -0.03021853230893612
0.7084834575653076 0.47015464305877686 -0.026771297678351402
0.5527874231338501 0.5427291989326477 -0.0593361034989357
0.5528302788734436 0.6357777118682861 -0.10507451742887497
0.7682231068611145 0.5348585844039917 0.03876694664359093
0.7190173864364624 0.5361084938049316 -0.004906433634459972
0.6851788759231567 0.5456050038337708 -0.021132776513695717
0.6347772479057312 0.5465752482414246 -0.028378110378980637
0.597713053226471 0.5411596298217773 -0.03203171491622925
0.57239830493927 0.5339361429214478 -0.03914588689804077
0.5166484117507935 0.5187827348709106 -0.09299739450216293
0.7700637578964233 0.5820002555847168 0.04609599709510803
0.7306779026985168 0.4649997055530548 -0.020670011639595032
0.4999083876609802 0.6721130013465881 -0.11770758032798767
0.5699242949485779 0.579269528388977 -0.05302497372031212
0.8075516223907471 0.4744371771812439 0.1625569760799408
0.5534798502922058 0.5249790549278259 -0.044854290783405304
0.5877543687820435 0.6212201714515686 -0.032905418425798416
0.6950753331184387 0.48330238461494446 -0.014149803668260574
0.5547622442245483 0.6162109971046448 -0.09948617219924927
0.7896147966384888 0.6438707113265991 0.22562822699546814
0.5701615810394287 0.49480539560317993 -0.027209075167775154
0.5309169292449951 0.609200119972229 -0.12442722171545029
0.7077392339706421 0.7721750736236572 0.13042813539505005
0.7030590772628784 0.7989416122436523 0.17574653029441833
0.7961586117744446 0.5878621339797974 0.13107608258724213
0.7461097240447998 0.7392974495887756 0.14164584875106812
0.7783113121986389 0.44111233949661255 0.05022730305790901
0.5940314531326294 0.8664513826370239 0.08926703035831451
0.49956977367401123 0.673471212387085 -0.0818118005990982
0.5953696966171265 0.590726912021637 -0.04152391105890274
0.7633535265922546 0.49382421374320984 0.03283249959349632
0.6457853317260742 0.49532976746559143 -0.033788375556468964
0.6234509944915771 0.4974342882633209 -0.037378013134002686
0.6325130462646484 0.7240197658538818 0.0527346096932888
0.7718927264213562 0.631230354309082 0.07029247283935547
0.5486965179443359 0.8980531096458435 0.10444562137126923
0.6226555705070496 0.8596242666244507 0.13670757412910461
0.658153772354126 0.8339724540710449 0.15485864877700806
0.6032806634902954 0.4968061149120331 -0.0367305725812912
0.5844907760620117 0.49496468901634216 -0.032360754907131195
0.5738324522972107 0.4950605034828186 -0.027690717950463295
0.7520483136177063 0.4559226632118225 -0.0008966822060756385
0.5932518243789673 0.47573941946029663 -0.04068734124302864
0.6151084899902344 0.4673786759376526 -0.047629520297050476
0.6366130113601685 0.465840220451355 -0.049070026725530624
0.6582884788513184 0.4693759083747864 -0.04431913420557976
0.6720898151397705 0.47542688250541687 -0.03669730946421623
0.8009623289108276 0.41973716020584106 0.10696813464164734
0.6622906923294067 0.4917982816696167 -0.02877521514892578
0.5933745503425598 0.674492359161377 -0.023254383355379105
0.55525803565979 0.6492371559143066 -0.07672220468521118
0.5354338884353638 0.6809966564178467 -0.04672469198703766
0.665828287601471 0.8060961961746216 0.12480303645133972
0.6303279995918274 0.8358190059661865 0.10960451513528824
0.549885094165802 0.8865785002708435 0.07274894416332245
0.7390205264091492 0.7595804929733276 0.20146633684635162
0.5773892402648926 0.48783695697784424 -0.03320453688502312
0.5320021510124207 0.5582199692726135 -0.09040405601263046
0.5876039862632751 0.8827186822891235 0.11609126627445221
0.7904173135757446 0.6421269178390503 0.14491026103496552
0.568619966506958 0.7549940347671509 0.019275829195976257
0.5730429887771606 0.7596786022186279 0.01759042590856552
0.5761584639549255 0.7670621275901794 0.017442651093006134
0.5782577395439148 0.7775163054466248 0.023758048191666603
0.5841203927993774 0.7946087121963501 0.043539997190237045
0.6240193843841553 0.6989949941635132 0.03286099433898926
0.6312982439994812 0.695580005645752 0.03255579248070717
0.6377930641174316 0.6916916370391846 0.030403869226574898
0.6523556709289551 0.6854403018951416 0.025970319285988808
0.7399958372116089 0.6460623741149902 0.028174538165330887
0.5341388583183289 0.529931366443634 -0.0746651291847229
0.5509874820709229 0.48026418685913086 -0.04553358629345894
0.5669689178466797 0.48197871446609497 -0.03778006136417389
0.6177359223365784 0.6969425678253174 0.03534187749028206
0.7421139478683472 0.703029990196228 0.08666825294494629
0.5278528332710266 0.48252683877944946 -0.07672607153654099
0.5904175043106079 0.8158220052719116 0.05829612538218498
0.5126808881759644 0.5495548844337463 -0.10985319316387177
0.5504985451698303 0.5925115346908569 -0.08254984021186829
0.5470497608184814 0.8371773958206177 0.048435408622026443
0.6507278084754944 0.7471630573272705 0.07262967526912689
0.6118342280387878 0.6363139748573303 -0.021834369748830795
0.6227245330810547 0.784414529800415 0.06926856189966202
0.6783568859100342 0.6319076418876648 -0.019037680700421333
0.6424993276596069 0.6561866402626038 -0.006123713683336973
0.7041433453559875 0.6642130613327026 0.014476414769887924
0.5500301122665405 0.8651459217071533 0.056123778223991394
0.5682659149169922 0.5992639064788818 -0.06227560713887215
0.6635787487030029 0.7740044593811035 0.09404750168323517
0.629095196723938 0.8089247941970825 0.08826112747192383
0.6757099032402039 0.7117171287536621 0.05751471221446991
0.7664400339126587 0.6731081008911133 0.09382540732622147
0.7047234177589417 0.7260761260986328 0.07393398880958557
0.7752043604850769 0.6929518580436707 0.1533341407775879
0.6707048416137695 0.6736717820167542 0.01644556224346161
0.550471842288971 0.5687621235847473 -0.07019972801208496
0.5451611876487732 0.6494230628013611 -0.10842601209878922
0.565499484539032 0.6450937986373901 -0.0798753872513771
0.5305378437042236 0.6376182436943054 -0.1277286559343338
0.5693220496177673 0.4625539481639862 -0.059210799634456635
0.6085326671600342 0.44950854778289795 -0.0697660818696022
0.644008994102478 0.4455232322216034 -0.07108283787965775
0.6743721961975098 0.4476269483566284 -0.06305598467588425
0.696284294128418 0.45557546615600586 -0.048961341381073
0.7134816646575928 0.48793455958366394 -0.005119376350194216
0.7970548868179321 0.5368082523345947 0.11099040508270264
0.6925573945045471 0.5167903304100037 -0.012946289964020252
0.6643820405006409 0.5247153043746948 -0.022880302742123604
0.6293510794639587 0.5269181728363037 -0.028986666351556778
0.597619891166687 0.5240398645401001 -0.031185856088995934
0.5749708414077759 0.519133985042572 -0.032206837087869644
0.559766411781311 0.513847827911377 -0.034059472382068634
0.8045718669891357 0.5278874039649963 0.19665707647800446
0.5672858953475952 0.6461509466171265 -0.06626489013433456
0.5298685431480408 0.5832312703132629 -0.10414161533117294
0.5243030786514282 0.6566321849822998 -0.12421714514493942
0.51317298412323 0.6658693552017212 -0.10930687934160233
0.5264302492141724 0.6580597758293152 -0.11160804331302643
0.5633752942085266 0.6504364013671875 -0.05435112491250038
0.5078982710838318 0.6696948409080505 -0.11473377048969269
0.5076901316642761 0.6706581711769104 -0.08358104526996613
0.5611960887908936 0.4970550835132599 -0.029133811593055725
0.5479633212089539 0.50303053855896 -0.04047855734825134
0.5393048524856567 0.5092813968658447 -0.0557258278131485
0.6803157329559326 0.4797198474407196 -0.028806673362851143
0.6936196088790894 0.4724503457546234 -0.02987653575837612
