ply
format ascii 1.0
element vertex 468
property float x
property float y
property float z
end_header
0.5117778778076172 0.7218945026397705 -0.02460387721657753
0.5286766886711121 0.6722636222839355 -0.11485596746206284
0.5168260335922241 0.6810389757156372 -0.04479113966226578
0.5020676255226135 0.5838916897773743 -0.11464421451091766
0.5302799344062805 0.6495355367660522 -0.12958253920078278
0.5275474190711975 0.6133435964584351 -0.13056392967700958
0.5165228247642517 0.5186759829521179 -0.1004408523440361
0.3268073797225952 0.48752737045288086 -0.04098229482769966
0.5146875381469727 0.45802879333496094 -0.10630853474140167
0.5159894824028015 0.42623376846313477 -0.1237291619181633
0.5122705101966858 0.2822844982147217 -0.14549791812896729
0.5104548335075378 0.7308120727539062 -0.018093576654791832
0.5082303285598755 0.7356112003326416 -0.00848808791488409
0.5058482885360718 0.7350597381591797 0.003341906238347292
0.5057321190834045 0.7389897108078003 0.008550642058253288
0.5060986280441284 0.7482509613037109 0.007859518751502037
0.5057197213172913 0.7595506310462952 0.006666115485131741
0.5046167373657227 0.7714143395423889 0.014246259815990925
0.5011357665061951 0.7908084392547607 0.04306409880518913
0.5255030989646912 0.6803444623947144 -0.09947159141302109
0.49686747789382935 0.6724826693534851 -0.06969131529331207
0.21141240000724792 0.36783066391944885 0.009301632642745972
0.40363216400146484 0.5069375038146973 -0.04751410707831383
0.37901338934898376 0.5091239809989929 -0.04942050948739052
0.35348695516586304 0.5087689757347107 -0.04721585288643837
0.3153378367424011 0.4936108887195587 -0.03616848215460777
0.42295196652412415 0.5025386214256287 -0.042738527059555054
0.36381664872169495 0.4564365744590759 -0.0773995965719223
0.39047926664352417 0.4575268030166626 -0.07309556752443314
0.33943819999694824 0.4591790437698364 -0.07244496047496796
0.3225131034851074 0.465024471282959 -0.063539519906044
0.29347914457321167 0.5068342089653015 -0.022587858140468597
0.40944039821624756 0.8263159990310669 0.07290644943714142
0.3145821988582611 0.4809795022010803 -0.037152133882045746
0.20182955265045166 0.47625187039375305 0.06056123599410057
0.26062771677970886 0.4882439970970154 -0.010691111907362938
0.38149261474609375 0.6140300035476685 -0.031903430819511414
0.47936582565307617 0.7181390523910522 -0.02827557921409607
0.4786091148853302 0.7345114946365356 -0.009961645118892193
0.4430524706840515 0.7184953689575195 -0.018042180687189102
0.4188108444213867 0.7187237739562988 -0.0015057030832394958
0.4524111747741699 0.731426477432251 -0.004914239980280399
0.4315347671508789 0.7278417348861694 0.009833442978560925
0.38455730676651 0.740781307220459 0.046310409903526306
0.5077764987945557 0.6711488366127014 -0.11589548736810684
0.5058630108833313 0.6483923196792603 -0.13026967644691467
0.28360486030578613 0.44142720103263855 -0.07584750652313232
0.4332766532897949 0.5555916428565979 -0.050658468157052994
0.4378263056278229 0.6441971659660339 -0.06951247155666351
0.4350639283657074 0.6280043125152588 -0.0663585215806961
0.3006264269351959 0.6029308438301086 -0.017974842339754105
0.5047670602798462 0.6145758032798767 -0.12711061537265778
0.34971293807029724 0.4271342158317566 -0.11201763153076172
0.311837375164032 0.43035250902175903 -0.09874138236045837
0.24270544946193695 0.33282700181007385 -0.04661380499601364
0.46172386407852173 0.4526301324367523 -0.10884339362382889
0.4136732518672943 0.4637826681137085 -0.06051943823695183
0.3640289902687073 0.7201345562934875 0.039190713316202164
0.21804791688919067 0.685824453830719 0.21718131005764008
0.454580694437027 0.6574597358703613 -0.053739070892333984
0.4757854640483856 0.6662255525588989 -0.047478530555963516
0.3886488080024719 0.7188223600387573 0.04030248522758484
0.399969220161438 0.7197523713111877 0.03645237162709236
0.29597699642181396 0.41099250316619873 -0.09609415382146835
0.4341195225715637 0.6484088897705078 -0.05269661545753479
0.3992806673049927 0.43315520882606506 -0.11612448841333389
0.39524316787719727 0.412217915058136 -0.12895084917545319
0.3588327169418335 0.2901342809200287 -0.1347237080335617
0.2707422971725464 0.37158310413360596 -0.07620646804571152
0.38105320930480957 0.3502178192138672 -0.1340484917163849
0.26465904712677 0.42544278502464294 -0.06368418782949448
0.23870216310024261 0.3982013463973999 -0.030248617753386497
0.4787980020046234 0.7288932800292969 -0.021540453657507896
0.44878798723220825 0.7271796464920044 -0.01176795270293951
0.42570704221725464 0.7238590717315674 0.002971626352518797
0.4598517119884491 0.6603168845176697 -0.04614029824733734
0.3945271968841553 0.7191990613937378 0.03836389631032944
0.4084644913673401 0.7276080846786499 0.03047352097928524
0.4023105204105377 0.7194180488586426 0.03608143329620361
0.47321733832359314 0.6614943146705627 -0.08878307044506073
0.4343211352825165 0.7245876789093018 0.014822086319327354
0.4550504982471466 0.7294551730155945 0.006169959902763367
0.4789828658103943 0.7336373329162598 0.0012875015381723642
0.4686269164085388 0.789649486541748 0.039999280124902725
0.4738539755344391 0.7693997621536255 0.010909242555499077
0.47602880001068115 0.7570861577987671 0.0036709944251924753
0.47770389914512634 0.7460551261901855 0.005051476415246725
0.479135662317276 0.7383137941360474 0.006362438201904297
0.4326874017715454 0.7295153737068176 0.019312283024191856
0.42962583899497986 0.7322298288345337 0.017548909410834312
0.4251593351364136 0.737556517124176 0.0176574494689703
0.4208185374736786 0.7444797158241272 0.02361021190881729
0.3990093171596527 0.6961366534233093 -0.0045654866844415665
0.18899956345558167 0.5647284984588623 0.19736488163471222
0.5215517282485962 0.6803099513053894 -0.06516336649656296
0.4185861647129059 0.7253633737564087 0.029675545170903206
0.414218008518219 0.7259533405303955 0.029081538319587708
0.48454049229621887 0.6770554184913635 -0.042854782193899155
0.4393690228462219 0.6588863730430603 -0.027831576764583588
0.4803978502750397 0.6721597909927368 -0.04628794640302658
0.4074811637401581 0.5654974579811096 -0.04146290943026543
0.36509907245635986 0.5796157121658325 -0.036346692591905594
0.4287595748901367 0.6335746049880981 -0.05006895586848259
0.2896866202354431 0.3061845898628235 -0.09610258042812347
0.31630682945251465 0.35410234332084656 -0.10918813943862915
0.3404403328895569 0.4051210880279541 -0.1173907220363617
0.40724360942840576 0.7608218193054199 0.04295822232961655
0.4551963210105896 0.42109841108322144 -0.1299501657485962
0.444606214761734 0.3513182997703552 -0.1426948755979538
0.4306167662143707 0.2829626500606537 -0.14980098605155945
0.3295709490776062 0.5034626126289368 -0.041925568133592606
0.26363685727119446 0.5213614702224731 -0.00823354721069336
0.43462881445884705 0.4987204372882843 -0.040165483951568604
0.29333406686782837 0.4677264988422394 -0.04896777495741844
0.4520186483860016 0.5445839166641235 -0.061414685100317
0.45744049549102783 0.6448968052864075 -0.09334222227334976
0.23234474658966064 0.5325989127159119 0.019093621522188187
0.28465932607650757 0.5407325029373169 -0.019578568637371063
0.32069921493530273 0.5527029633522034 -0.031856197863817215
0.3711126744747162 0.5508003234863281 -0.03617212921380997
0.40652191638946533 0.542103111743927 -0.038430824875831604
0.43099144101142883 0.5339151620864868 -0.04478934034705162
0.4914664030075073 0.5229676365852356 -0.09380152076482773
0.23546136915683746 0.5830592513084412 0.03149266168475151
0.2699277997016907 0.46169018745422363 -0.04496101289987564
0.5125309228897095 0.6793878078460693 -0.10036497563123703
0.43721210956573486 0.5835201144218445 -0.05026152357459068
0.1842229664325714 0.45845961570739746 0.1329195201396942
0.45045560598373413 0.5253335237503052 -0.050504907965660095
0.4233299493789673 0.6296176910400391 -0.02567061223089695
0.30619558691978455 0.48115646839141846 -0.033992525190114975
0.45426326990127563 0.6245070695877075 -0.0894838348031044
0.198233962059021 0.6237472295761108 0.21240144968032837
0.4314674735069275 0.4908141493797302 -0.03902960941195488
0.47955527901649475 0.6180505156517029 -0.1135663390159607
0.28889909386634827 0.762552797794342 0.12395943701267242
0.2858864665031433 0.781171977519989 0.1751227080821991
0.20137593150138855 0.5773621201515198 0.11278641223907471
0.2515639066696167 0.7270205020904541 0.13565680384635925
0.21881550550460815 0.4323924779891968 0.019152382388710976
0.40403449535369873 0.8490883111953735 0.09473448991775513
0.5114956498146057 0.67933189868927 -0.06492645293474197
0.4135224223136902 0.5963865518569946 -0.038275763392448425
0.23494839668273926 0.48806139826774597 0.008902252651751041
0.35695916414260864 0.49550318717956543 -0.048629604279994965
0.37991833686828613 0.49641382694244385 -0.05090145021677017
0.40217703580856323 0.7303425073623657 0.03475680574774742
0.23662763833999634 0.6299232840538025 0.060364410281181335
0.44665610790252686 0.8770513534545898 0.11882077157497406
0.3689813017845154 0.8416163921356201 0.14068631827831268
0.3314593434333801 0.8171051740646362 0.15537497401237488
0.5146132707595825 0.3528502583503723 -0.13747073709964752
0.4945566952228546 0.8791642189025879 0.12186732143163681
0.39970383048057556 0.49422553181648254 -0.04919964820146561
0.4180116057395935 0.4908449649810791 -0.04439797252416611
0.42810148000717163 0.4904569387435913 -0.03983048349618912
0.24731464684009552 0.45100414752960205 -0.0271200779825449
0.4085076153278351 0.47417742013931274 -0.05490947887301445
0.3859725296497345 0.46720701456069946 -0.06288344413042068
0.36405640840530396 0.46663326025009155 -0.06525608897209167
0.3424079120159149 0.470409631729126 -0.06170978769659996
0.32894617319107056 0.47594907879829407 -0.0546206496655941
0.19324135780334473 0.40714460611343384 0.0733153373003006
0.33993130922317505 0.4919383227825165 -0.04479116573929787
0.5143466591835022 0.6927123665809631 -0.03270092234015465
0.4253811836242676 0.6885866522789001 -0.01891196332871914
0.4555755853652954 0.65746009349823 -0.0648946538567543
0.4788770079612732 0.6919519901275635 -0.03508201614022255
0.5135396122932434 0.48382070660591125 -0.09487280249595642
0.3292698860168457 0.7956565022468567 0.11890570819377899
0.3654758036136627 0.8227834105491638 0.1093456819653511
0.4484251141548157 0.8661773204803467 0.0839495062828064
0.24876295030117035 0.7392253875732422 0.1994628757238388
0.4243136942386627 0.4847992956638336 -0.04631562530994415
0.47583654522895813 0.5631657242774963 -0.08834502100944519
0.4982486069202423 0.8687101602554321 0.08792432397603989
0.4066373109817505 0.8633056879043579 0.12494441121816635
0.20801401138305664 0.6298482418060303 0.13244642317295074
0.45432227849960327 0.7346389293670654 0.011151125654578209
0.451201856136322 0.7400908470153809 0.009109566919505596
0.4482992887496948 0.7484329342842102 0.008870494551956654
0.44553643465042114 0.7599471211433411 0.015438678674399853
0.43508365750312805 0.7781455516815186 0.03832343593239784
0.41209617257118225 0.723071813583374 0.022692445665597916
0.4055618643760681 0.7210054397583008 0.02088269032537937
0.3986433744430542 0.7173499464988708 0.018362725153565407
0.3758774995803833 0.7063697576522827 0.013918431475758553
0.2741524577140808 0.6496022939682007 0.023471007123589516
0.47208765149116516 0.5327792167663574 -0.07628309726715088
0.4534652829170227 0.4797486662864685 -0.056344885379076004
0.4357186257839203 0.47991451621055603 -0.05081794038414955
0.41649025678634644 0.720464289188385 0.02630631998181343
0.2667325735092163 0.6999481916427612 0.08028781414031982
0.4790935516357422 0.4847845137119293 -0.08290155977010727
0.42062124609947205 0.8013688325881958 0.05703973397612572
0.5235873460769653 0.5814757943153381 -0.1192513108253479
0.49657705426216125 0.5552762150764465 -0.10721026360988617
0.5200647115707397 0.5515349507331848 -0.109828419983387
0.45751485228538513 0.5988385677337646 -0.07626492530107498
0.5000754594802856 0.847243070602417 0.06567925959825516
0.5004114508628845 0.8172906041145325 0.05499797686934471
0.4606943130493164 0.8157278299331665 0.053795795887708664
0.36170434951782227 0.752721905708313 0.059687964618206024
0.4003985822200775 0.6449155211448669 -0.01768968068063259
0.3886528015136719 0.7796816229820251 0.061095330864191055
0.33701831102371216 0.639322817325592 -0.018390007317066193
0.3734220862388611 0.6661712527275085 -0.008107067085802555
0.31111711263656616 0.6716964244842529 0.010776915587484837
0.45312735438346863 0.8445776700973511 0.06323767453432083
0.4398464858531952 0.6055353283882141 -0.05627446621656418
0.33922338485717773 0.7717626094818115 0.08465390652418137
0.3739810585975647 0.800541877746582 0.08447395265102386
0.33981990814208984 0.724904477596283 0.04599674791097641
0.24100077152252197 0.6685646176338196 0.08639068901538849
0.30425387620925903 0.7283964157104492 0.06480094790458679
0.22188295423984528 0.6791233420372009 0.14515864849090576
0.3491436839103699 0.6894540190696716 0.009521568194031715
0.45627036690711975 0.5728748440742493 -0.06812040507793427
0.4659927189350128 0.658021092414856 -0.09555941820144653
0.44544464349746704 0.6540509462356567 -0.06804367154836655
0.4811883866786957 0.6472288966178894 -0.11434335261583328
0.43510884046554565 0.46314018964767456 -0.07356951385736465
0.39531055092811584 0.4514811038970947 -0.08743073791265488
0.3600577116012573 0.4480454921722412 -0.09074681252241135
0.329710453748703 0.4491148591041565 -0.08414769917726517
0.3069852590560913 0.45510172843933105 -0.07127875834703445
0.2870129942893982 0.4848927855491638 -0.02587413415312767
0.19859230518341064 0.5265532732009888 0.08713765442371368
0.3101014494895935 0.5186017751693726 -0.028350038453936577
0.338960736989975 0.527417004108429 -0.03613552823662758
0.37431713938713074 0.5277817249298096 -0.0397939570248127
0.40542274713516235 0.5225853323936462 -0.040264323353767395
0.4278799891471863 0.5167827606201172 -0.040228068828582764
0.4434472322463989 0.5119888782501221 -0.041444290429353714
0.1855008602142334 0.5100008249282837 0.1712769865989685
0.4441550374031067 0.6553536653518677 -0.054486945271492004
0.47952398657798767 0.5900079607963562 -0.09770766645669937
0.4879181981086731 0.6654994487762451 -0.10930720716714859
0.4979749917984009 0.6729384064674377 -0.09314361214637756
0.4848744869232178 0.6658396124839783 -0.09713239967823029
0.4489836096763611 0.6597117185592651 -0.042133137583732605
0.5038443803787231 0.6768655180931091 -0.097798652946949
0.5029141306877136 0.6768476366996765 -0.06731951236724854
0.4411919116973877 0.49377384781837463 -0.039292387664318085
0.4561316967010498 0.5019246935844421 -0.04813593998551369
0.4659593105316162 0.5101568698883057 -0.06103033944964409
0.32086944580078125 0.479401171207428 -0.04718414694070816
0.30889075994491577 0.4710080325603485 -0.04983031377196312
0.5419778227806091 0.5827684998512268 -0.10643350332975388
0.6605896353721619 0.47809898853302 0.019017068669199944
0.543413519859314 0.6704373359680176 -0.06343081593513489
0.7251034379005432 0.36027997732162476 0.10157716274261475
0.5917983055114746 0.5021693110466003 -0.008914998732507229
0.6141666769981384 0.5028995871543884 -0.002861197805032134
0.6366194486618042 0.5012527108192444 0.0062349415384233
0.6662987470626831 0.48371437191963196 0.02737332507967949
0.5752188563346863 0.4985630214214325 -0.012639674358069897
0.6344475150108337 0.45240479707717896 -0.028492847457528114
0.6094701290130615 0.4547159671783447 -0.03448900207877159
0.655367910861969 0.45343291759490967 -0.015779152512550354
0.6674830913543701 0.4582170248031616 -0.0023723931517452
0.6818802952766418 0.4962572455406189 0.0454779714345932
0.5766152739524841 0.8150696754455566 0.10044987499713898
0.6692349910736084 0.47116467356681824 0.025869598612189293
0.728347897529602 0.4630323648452759 0.15389682352542877
0.7040033936500549 0.4768112301826477 0.06586617231369019
0.6198604106903076 0.6065859198570251 0.007085266523063183
0.5409359335899353 0.715195894241333 -0.018183007836341858
0.5329193472862244 0.7319479584693909 -0.00040953297866508365
0.5667254328727722 0.7121017575263977 0.0030054510571062565
0.5798987746238708 0.7108210921287537 0.027536453679203987
0.5519055128097534 0.7263309359550476 0.01365318801254034
0.5650360584259033 0.7218300104141235 0.03451574221253395
0.5965155363082886 0.7307963371276855 0.08344515413045883
0.5475746393203735 0.6693407297134399 -0.11063481122255325
0.5509983897209167 0.6468517780303955 -0.12392684072256088
0.7016146779060364 0.433640718460083 -0.0035077868960797787
0.5748529434204102 0.5518115758895874 -0.025337081402540207
0.5893835425376892 0.6383606195449829 -0.04581143707036972
0.5877220630645752 0.6227458119392395 -0.041956402361392975
0.681458592414856 0.5904357433319092 0.046124015003442764
0.5473745465278625 0.6133987307548523 -0.11922495812177658
0.658996045589447 0.4248647689819336 -0.06238826364278793
0.686272919178009 0.4252600371837616 -0.03623172268271446
0.7150024175643921 0.3282179832458496 0.03643256053328514
0.5625715851783752 0.4528276026248932 -0.09259821474552155
0.5871562957763672 0.46158820390701294 -0.029371799901127815
0.6161013841629028 0.7090274095535278 0.08416303992271423
0.6867526173591614 0.6620671153068542 0.30175644159317017
0.5731903910636902 0.6523686051368713 -0.0357227548956871
0.5545089244842529 0.6633287668228149 -0.03831127658486366
0.593904972076416 0.7102915048599243 0.07961710542440414
0.5834365487098694 0.7123373746871948 0.07104099541902542
0.6971954107284546 0.4059251546859741 -0.029084624722599983
0.5871584415435791 0.6426131725311279 -0.029572341591119766
0.6189792156219482 0.43279582262039185 -0.08172865211963654
0.6249924898147583 0.41201967000961304 -0.09385474026203156
0.6446757316589355 0.2895469069480896 -0.08741992712020874
0.7059360146522522 0.3665505051612854 -0.001727130264043808
0.6328675746917725 0.34956103563308716 -0.0935516208410263
0.7123859524726868 0.4172794222831726 0.013673866167664528
0.7193425893783569 0.39024287462234497 0.05365996062755585
0.5377261638641357 0.7259424328804016 -0.011336716823279858
0.5588703155517578 0.7216169834136963 0.008164876140654087
0.5727301836013794 0.7170103192329407 0.029507385566830635
0.5671101808547974 0.655890703201294 -0.03175048530101776
0.5886629819869995 0.7113603353500366 0.07485125958919525
0.5791348218917847 0.7206094264984131 0.06142815575003624
0.5803310871124268 0.7123041152954102 0.06992822885513306
0.5671196579933167 0.6567649841308594 -0.07271534949541092
0.5590879321098328 0.7193371057510376 0.038463056087493896
0.5455236434936523 0.725409746170044 0.023553675040602684
0.5276967287063599 0.7316667437553406 0.010795488022267818
0.529837965965271 0.7864539623260498 0.049440886825323105
0.5313631296157837 0.7669693231582642 0.02095014601945877
0.5316274166107178 0.7546945810317993 0.014276918955147266
0.5304260849952698 0.7437924146652222 0.01570969820022583
0.528216540813446 0.7361584305763245 0.016422830522060394
0.5607478618621826 0.72404545545578 0.04295475780963898
0.5641511082649231 0.7265333533287048 0.04128841683268547
0.5682880878448486 0.7314466238021851 0.0419435016810894
0.571653425693512 0.7379446029663086 0.04950558394193649
0.6016050577163696 0.6879048347473145 0.028800884261727333
0.7096500992774963 0.5466166734695435 0.2924075126647949
0.5692316889762878 0.7192327976226807 0.05927575007081032
0.574165940284729 0.71941077709198 0.05884779989719391
0.5458205342292786 0.6750525832176208 -0.034031808376312256
0.5782830119132996 0.6540317535400391 -0.009738506749272346
0.5502088069915771 0.6698164939880371 -0.037516288459300995
0.5952063798904419 0.560294508934021 -0.007553598377853632
0.6314214468002319 0.5720192193984985 0.009493614546954632
0.5886949300765991 0.6281249523162842 -0.02493453584611416
0.6907814741134644 0.3039393126964569 -0.028666572645306587
0.6791619062423706 0.3516664505004883 -0.049680087715387344
0.6673223972320557 0.40289971232414246 -0.06430865079164505
0.5792927742004395 0.751919686794281 0.07338987290859222
0.5728411078453064 0.42214950919151306 -0.11232978105545044
0.5796909332275391 0.35110798478126526 -0.12137282639741898
0.5871506929397583 0.28279513120651245 -0.12604601681232452
0.6557334661483765 0.49450939893722534 0.018479907885193825
0.7032421231269836 0.5091478824615479 0.06767574697732925
0.5661042928695679 0.49518951773643494 -0.013357039541006088
0.687272310256958 0.45864027738571167 0.020546801388263702
0.5615283250808716 0.5417548418045044 -0.04128429293632507
0.5803121328353882 0.6400693655014038 -0.07426518201828003
0.7212557792663574 0.5183247923851013 0.10489003360271454
0.6908711791038513 0.5293134450912476 0.05170800909399986
0.6650446653366089 0.5430465340614319 0.028438162058591843
0.6231391429901123 0.5439889430999756 0.009911254048347473
0.5925076007843018 0.537211000919342 -0.003663652576506138
0.5725135803222656 0.5302573442459106 -0.01853001117706299
0.5370664596557617 0.5220153331756592 -0.08534760028123856
0.720102846622467 0.566655158996582 0.11681637912988663
0.7038446664810181 0.45182234048843384 0.03140620142221451
0.5371414422988892 0.6782771944999695 -0.09615194797515869
0.5755646824836731 0.5797195434570312 -0.025806400924921036
0.7217371463775635 0.4459923505783081 0.2313917875289917
0.5582002401351929 0.5226788520812988 -0.03008466213941574
0.5875695943832397 0.6240488886833191 -0.0010692545911297202
0.6742069721221924 0.47122910618782043 0.03192435950040817
0.5780956745147705 0.6203916668891907 -0.06994917243719101
0.7015883326530457 0.6024115681648254 0.3031320869922638
0.5678132772445679 0.4868212938308716 -0.01084101852029562
0.5637136697769165 0.6153676509857178 -0.09932247549295425
0.6582238674163818 0.7398896217346191 0.18701991438865662
0.6468281149864197 0.7570217251777649 0.23914086818695068
0.7253564596176147 0.5588748455047607 0.2058516889810562
0.683883547782898 0.7031232118606567 0.21004007756710052
0.7242785096168518 0.42206668853759766 0.10894551873207092
0.5780806541442871 0.8359991908073425 0.12436199933290482
0.5312031507492065 0.6786178350448608 -0.06233667954802513
0.5927044749259949 0.591058075428009 -0.00801481306552887
0.7180643081665039 0.47567903995513916 0.09345637261867523
0.6361472606658936 0.48811548948287964 0.004018320702016354
0.6154211163520813 0.49045252799987793 -0.004217831417918205
0.5837242007255554 0.7226653099060059 0.06787139177322388
0.7147045135498047 0.6110365390777588 0.1426369547843933
0.5382228493690491 0.8697325587272644 0.13537566363811493
0.5936779975891113 0.824230432510376 0.18213200569152832
0.6172482967376709 0.7956336140632629 0.2073434591293335
0.5964131355285645 0.48920920491218567 -0.009491109289228916
0.5795667171478271 0.48661062121391296 -0.010367524810135365
0.5705286264419556 0.4865381121635437 -0.009217905811965466
0.7158386707305908 0.44073766469955444 0.055086880922317505
0.588190495967865 0.469991534948349 -0.01975863054394722
0.6083402633666992 0.46237826347351074 -0.022190071642398834
0.6294881701469421 0.4603413939476013 -0.01751134544610977
0.6492283344268799 0.4628047049045563 -0.007550021167844534
0.6600792407989502 0.4672633409500122 0.003303229110315442
0.7272884845733643 0.39734917879104614 0.1700834184885025
0.6504353880882263 0.48346447944641113 0.012639704160392284
0.5854576230049133 0.682198166847229 0.0065251910127699375
0.5757192373275757 0.6519462466239929 -0.04806622490286827
0.5456615686416626 0.6892112493515015 -0.024526474997401237
0.6289174556732178 0.7752713561058044 0.17011860013008118
0.6036279201507568 0.805190920829773 0.1494702249765396
0.5434967279434204 0.8591936826705933 0.10010886192321777
0.6683249473571777 0.7145930528640747 0.2755746841430664
0.5745377540588379 0.4805758595466614 -0.01501667033880949
0.552963137626648 0.5610634684562683 -0.07452572137117386
0.5692667961120605 0.8503069877624512 0.15533465147018433
0.7170716524124146 0.608501136302948 0.22143737971782684
0.5466587543487549 0.7304443717002869 0.02888336591422558
0.5499317646026611 0.735693633556366 0.027243254706263542
0.5525388717651367 0.7439862489700317 0.027804449200630188
0.5540713667869568 0.755119264125824 0.03512629121541977
0.5576938986778259 0.771787703037262 0.06041768193244934
0.5762256979942322 0.7162855863571167 0.05383356660604477
0.5832629799842834 0.7134110927581787 0.05474420264363289
0.5899734497070312 0.7090978622436523 0.054096441715955734
0.6136907339096069 0.6962764263153076 0.05546136945486069
0.6938289999961853 0.6330549716949463 0.09341475367546082
0.5491166114807129 0.5310009121894836 -0.06186883524060249
0.5550410747528076 0.47796010971069336 -0.03779745101928711
0.5667335391044617 0.4771936535835266 -0.024508405476808548
0.5702475905418396 0.7141290307044983 0.0560695119202137
0.6862490177154541 0.6796813011169434 0.15055975317955017
0.54078209400177 0.4841674566268921 -0.07218490540981293
0.5672494769096375 0.7922084331512451 0.08142732828855515
0.5398967862129211 0.5541607737541199 -0.09968968480825424
0.5681286454200745 0.5955005884170532 -0.058411985635757446
0.5355764031410217 0.811011791229248 0.06521129608154297
0.6143019795417786 0.7392890453338623 0.10235843807458878
0.604171633720398 0.6380419135093689 0.014132685028016567
0.5917850732803345 0.7678380012512207 0.09484367817640305
0.6544783115386963 0.6280010342597961 0.03176090493798256
0.6232216358184814 0.6569990515708923 0.032011084258556366
0.6683200597763062 0.6571309566497803 0.06795450299978256
0.5425021648406982 0.8386083841323853 0.07836039364337921
0.577406644821167 0.6013221144676208 -0.03376776725053787
0.6286922693252563 0.7541388869285583 0.1331147998571396
0.6017521619796753 0.785370945930481 0.12164051085710526
0.6355459690093994 0.7108288407325745 0.09761729836463928
0.7051512598991394 0.6478961110115051 0.16491122543811798
0.6595869064331055 0.7098750472068787 0.12442121654748917
0.7043899297714233 0.6557209491729736 0.22953173518180847
0.6368495225906372 0.6779364943504333 0.05721379816532135
0.5640933513641357 0.5699502825737 -0.048543885350227356
0.5745050311088562 0.6528701782226562 -0.07816804945468903
0.5840839743614197 0.6482186317443848 -0.047887131571769714
0.567689061164856 0.6439223289489746 -0.09990228712558746
0.5746874809265137 0.46150338649749756 -0.04812381789088249
0.6124227643013 0.4491005539894104 -0.050458163022994995
0.6441572904586792 0.44449326395988464 -0.04279079660773277
0.6685209274291992 0.4439765214920044 -0.02617788314819336
0.6829946637153625 0.44802531599998474 -0.00603666715323925
0.6867742538452148 0.47434481978416443 0.04398040845990181
0.7290813326835632 0.5108011364936829 0.18252167105674744
0.6705036163330078 0.5086492300033569 0.03573964163661003
0.648134708404541 0.5191090106964111 0.019833222031593323
0.6183151006698608 0.5213805437088013 0.006117320619523525
0.5909039974212646 0.5177009701728821 -0.004385763313621283
0.5722231864929199 0.5130125284194946 -0.013101132586598396
0.5600126385688782 0.5089831352233887 -0.01958153396844864
0.7141667008399963 0.4949931800365448 0.2694329023361206
0.5808470249176025 0.6498286724090576 -0.03484863415360451
0.556826114654541 0.587905764579773 -0.08359362930059433
0.5619423389434814 0.6619530320167542 -0.0982157438993454
0.547039270401001 0.6704757809638977 -0.0867023691534996
0.5598970651626587 0.6619866490364075 -0.08578795194625854
0.5736899375915527 0.655083954334259 -0.02570604905486107
0.5438769459724426 0.675021767616272 -0.09262602031230927
0.5384395718574524 0.6752935647964478 -0.06285969167947769
0.5610032081604004 0.49063459038734436 -0.015871545299887657
0.5507153272628784 0.49980485439300537 -0.030866364017128944
0.5470746159553528 0.5084714293479919 -0.04649662226438522
0.6657992005348206 0.47003376483917236 0.013251667842268944
0.6755130290985107 0.46238917112350464 0.014557519927620888
