ply
format ascii 1.0
element vertex 468
property float x
property float y
property float z
end_header
0.503080427646637 0.6973561644554138 -0.07453595846891403
0.5030784010887146 0.6114500164985657 -0.12596207857131958
0.5027753710746765 0.640346109867096 -0.0695730522274971
0.48314857482910156 0.5344119668006897 -0.08979327231645584
0.5030102729797363 0.585989773273468 -0.13246063888072968
0.502785325050354 0.5547587871551514 -0.12120401114225388
0.5023550391197205 0.48293372988700867 -0.05276859179139137
0.33948248624801636 0.4882035255432129 0.03778735548257828
0.5014649033546448 0.4317004084587097 -0.03334750980138779
0.501491129398346 0.40052148699760437 -0.03543531894683838
0.5014907717704773 0.287666916847229 -4.6248875150922686e-05
0.5031843185424805 0.7099481225013733 -0.0722854807972908
0.5031529068946838 0.7196251153945923 -0.06510503590106964
0.5030554533004761 0.7238636016845703 -0.055009860545396805
0.5039496421813965 0.7353377342224121 -0.0546417310833931
0.5040599703788757 0.7457985281944275 -0.05916842073202133
0.5040095448493958 0.7591869831085205 -0.06446373462677002
0.5037746429443359 0.7743550539016724 -0.061801109462976456
0.5032355785369873 0.7994145154953003 -0.03995295986533165
0.502903401851654 0.6254039406776428 -0.11480236053466797
0.4824068248271942 0.6256718039512634 -0.08366336673498154
0.25702589750289917 0.40903419256210327 0.15365655720233917
0.40519392490386963 0.5059012174606323 0.01434105820953846
0.38241520524024963 0.5086201429367065 0.015590035356581211
0.36030662059783936 0.5082477927207947 0.021414918825030327
0.33042097091674805 0.4979175329208374 0.040634918957948685
0.42460182309150696 0.49888408184051514 0.017158279195427895
0.37581101059913635 0.44948965311050415 0.007444774266332388
0.39944642782211304 0.44987350702285767 0.008570428006350994
0.3532297611236572 0.4537864625453949 0.014214589260518551
0.3378184735774994 0.46233513951301575 0.02354339323937893
0.31151700019836426 0.513971209526062 0.05104370787739754
0.41417646408081055 0.8383341431617737 -0.015541218221187592
0.3314995765686035 0.4836999475955963 0.04546927288174629
0.24545800685882568 0.511310338973999 0.1543201506137848
0.2858470678329468 0.5010040402412415 0.07519294321537018
0.3873805105686188 0.6024618148803711 -0.015823950991034508
0.4738197922706604 0.6935795545578003 -0.07148532569408417
0.47752898931503296 0.7195402979850769 -0.06169203296303749
0.44373849034309387 0.7023622989654541 -0.05801261216402054
0.4240882396697998 0.7137701511383057 -0.040586527436971664
0.4557880163192749 0.7217263579368591 -0.05207962542772293
0.438615620136261 0.725530207157135 -0.03551088646054268
0.394903302192688 0.7562299370765686 -0.007412054110318422
0.48389121890068054 0.6111356019973755 -0.12401784956455231
0.48082083463668823 0.5868937373161316 -0.12996019423007965
0.3004838824272156 0.44028452038764954 0.03135286644101143
0.43410035967826843 0.5414986610412598 -0.014404920861124992
0.43085676431655884 0.6094412207603455 -0.0667925477027893
0.4291340708732605 0.5973793268203735 -0.05899643525481224
0.318188339471817 0.6035714149475098 0.013195118866860867
0.482028990983963 0.5578327775001526 -0.11412419378757477
0.3561882972717285 0.41183748841285706 -0.007073832210153341
0.3234242796897888 0.42169272899627686 0.010057271458208561
0.279420405626297 0.3634999692440033 0.11098632961511612
0.45606839656829834 0.42776674032211304 -0.026537584140896797
0.4205110967159271 0.45615774393081665 0.0154738649725914
0.3773612082004547 0.7321417927742004 -0.0010198841337114573
0.26677411794662476 0.7407535314559937 0.19771888852119446
0.4479970633983612 0.6229609251022339 -0.05829392746090889
0.46702200174331665 0.6303300261497498 -0.061947356909513474
0.40181663632392883 0.7318841218948364 -0.0026393558364361525
0.4128343164920807 0.7306453585624695 -0.008636939339339733
0.31036779284477234 0.4070308208465576 0.022489553317427635
0.4302370250225067 0.6211189031600952 -0.054748982191085815
0.3999270796775818 0.4122523069381714 -0.019533425569534302
0.3954364061355591 0.3926587700843811 -0.022873636335134506
0.37139463424682617 0.301724910736084 0.026555903255939484
0.29565542936325073 0.38383516669273376 0.06103180721402168
0.38570451736450195 0.34415221214294434 0.0010511667933315039
0.2867976427078247 0.4313337802886963 0.05224430561065674
0.2720896899700165 0.42083558440208435 0.10024738311767578
0.4752412438392639 0.7085750699043274 -0.06931393593549728
0.45059701800346375 0.7140392065048218 -0.056141551584005356
0.4314610958099365 0.7199640870094299 -0.040134329348802567
0.4537813663482666 0.6275421380996704 -0.05414579436182976
0.40746790170669556 0.7315642237663269 -0.005718879401683807
0.41763272881507874 0.7366561889648438 -0.020983779802918434
0.4157570004463196 0.7296549677848816 -0.009516163729131222
0.4599577784538269 0.6127948760986328 -0.0901356190443039
0.44288522005081177 0.7244951128959656 -0.03203197568655014
0.4602277874946594 0.7234342694282532 -0.04330607131123543
0.4803664982318878 0.7234887480735779 -0.0522458553314209
0.47087928652763367 0.7987871766090393 -0.03906086087226868
0.4731375575065613 0.7722716331481934 -0.05989326909184456
0.4750044047832489 0.7566820979118347 -0.06197172403335571
0.4771924316883087 0.7430515289306641 -0.0560278594493866
0.47935348749160767 0.7344069480895996 -0.0516098253428936
0.43968307971954346 0.7327620983123779 -0.030900336802005768
0.43609973788261414 0.7358390092849731 -0.03534625098109245
0.43065208196640015 0.7425194978713989 -0.0389540009200573
0.4258076250553131 0.7515586018562317 -0.03503374382853508
0.4048950672149658 0.6874937415122986 -0.031240742653608322
0.24407771229743958 0.6233822703361511 0.24099130928516388
0.5028999447822571 0.6318541169166565 -0.08504384756088257
0.428367555141449 0.7325578927993774 -0.017955444753170013
0.42333364486694336 0.733518660068512 -0.020763322710990906
0.4745272696018219 0.6412562727928162 -0.06393934041261673
0.43832945823669434 0.6366657018661499 -0.038733694702386856
0.4709664583206177 0.6360024809837341 -0.063360795378685
0.4096473753452301 0.5565761923789978 -0.0077460333704948425
0.37176796793937683 0.5734444856643677 -0.0026226381305605173
0.42552924156188965 0.609169602394104 -0.04633668437600136
0.3156159818172455 0.326800674200058 0.06536844372749329
0.33166882395744324 0.3572613596916199 0.02881486527621746
0.3478021025657654 0.39320266246795654 -0.0011151302605867386
0.41419118642807007 0.7729250192642212 -0.019929954782128334
0.4484448730945587 0.3960825204849243 -0.03379647061228752
0.44037172198295593 0.3410259187221527 -0.014763446524739265
0.4312877655029297 0.2901014983654022 0.004388086963444948
0.3412090539932251 0.505240797996521 0.03135195001959801
0.28690192103385925 0.5319017767906189 0.06276918947696686
0.4368097484111786 0.49181151390075684 0.0206244308501482
0.3111550509929657 0.4704844653606415 0.04321642965078354
0.45023074746131897 0.5246689319610596 -0.02210168167948723
0.44492101669311523 0.5986853837966919 -0.08901119232177734
0.2627953886985779 0.5507006645202637 0.08639317750930786
0.30242490768432617 0.5466269254684448 0.040851425379514694
0.332054078578949 0.5533286929130554 0.019631993025541306
0.3759850561618805 0.5483189225196838 0.009379182942211628
0.4087628126144409 0.5375090837478638 0.005330738145858049
0.4331243634223938 0.5251263976097107 -0.00015291120507754385
0.4804553985595703 0.48994970321655273 -0.044160615652799606
0.26564279198646545 0.6003555655479431 0.07683505117893219
0.291985422372818 0.4687265455722809 0.054740723222494125
0.4916149377822876 0.624364972114563 -0.11369120329618454
0.43598684668540955 0.5635740160942078 -0.026028256863355637
0.23955100774765015 0.5153120756149292 0.2316296398639679
0.45090657472610474 0.5109433531761169 -0.0025196666829288006
0.4233371615409851 0.6121824383735657 -0.022564178332686424
0.323695570230484 0.48593083024024963 0.04962609335780144
0.44382816553115845 0.5842809081077576 -0.07914061099290848
0.2507604658603668 0.6812381148338318 0.22578679025173187
0.4366702735424042 0.4832371473312378 0.027363058179616928
0.46238452196121216 0.568375289440155 -0.10093426704406738
0.3151857554912567 0.7888282537460327 0.07310392707586288
0.3173738121986389 0.819410502910614 0.11135054379701614
0.244145005941391 0.6127246618270874 0.1588316708803177
0.28669655323028564 0.7583400011062622 0.10344748944044113
0.25829631090164185 0.46272051334381104 0.1342463344335556
0.40964874625205994 0.8637146353721619 -0.004811516497284174
0.4940452575683594 0.6309173703193665 -0.08356667309999466
0.41532230377197266 0.5824833512306213 -0.018844833597540855
0.26657524704933167 0.5072928071022034 0.09808552265167236
0.3624073266983032 0.4935055077075958 0.02429087460041046
0.3824614882469177 0.4946266710758209 0.01886085420846939
0.4116646945476532 0.7416225075721741 -0.017082341015338898
0.26934629678726196 0.6494142413139343 0.08044543117284775
0.45303651690483093 0.8972697257995605 -0.0009994925931096077
0.3825392425060272 0.8678547143936157 0.04755232855677605
0.3524072766304016 0.8482323884963989 0.07567987591028214
0.5016453266143799 0.3421117961406708 -0.018980447202920914
0.5026591420173645 0.9016209840774536 -0.007715803105384111
0.40150320529937744 0.4927877187728882 0.017964206635951996
0.4194751977920532 0.48855745792388916 0.021570246666669846
0.43090662360191345 0.48577427864074707 0.026656489819288254
0.2756803035736084 0.46573054790496826 0.0784216970205307
0.41736888885498047 0.4701569676399231 0.01910204254090786
0.39806658029556274 0.46603310108184814 0.014728279784321785
0.37906110286712646 0.4654611349105835 0.015541266649961472
0.35929203033447266 0.4696095287799835 0.020848698914051056
0.3461494445800781 0.47562175989151 0.027980998158454895
0.24464547634124756 0.45654410123825073 0.19827952980995178
0.3488691449165344 0.4909457564353943 0.031594887375831604
0.5029286742210388 0.6589987874031067 -0.06535650789737701
0.42677584290504456 0.6717692017555237 -0.04305068030953407
0.44740715622901917 0.6184816956520081 -0.06662285327911377
0.47107139229774475 0.6618250608444214 -0.06396940350532532
0.5019005537033081 0.4573947787284851 -0.03359217196702957
0.3464181125164032 0.8185297250747681 0.04844309017062187
0.37665796279907227 0.8413476347923279 0.023056458681821823
0.45141857862472534 0.8793914914131165 -0.028343500569462776
0.2903876304626465 0.7867414355278015 0.15610557794570923
0.430732786655426 0.4774520993232727 0.024075686931610107
0.465488463640213 0.5275053977966309 -0.05409136414527893
0.5026673078536987 0.8830904364585876 -0.03381698951125145
0.41486239433288574 0.8848128914833069 0.018199337646365166
0.25080007314682007 0.6662129163742065 0.1510542631149292
0.4577363431453705 0.7332206964492798 -0.04209662228822708
0.45402082800865173 0.7394546866416931 -0.04712989926338196
0.45009905099868774 0.749700665473938 -0.051323212683200836
0.44665053486824036 0.7636331915855408 -0.04844279587268829
0.43893468379974365 0.7877353429794312 -0.032215461134910583
0.4232251048088074 0.7282310128211975 -0.02095087617635727
0.41607925295829773 0.7261866331100464 -0.021128930151462555
0.4091445207595825 0.7226623296737671 -0.021032771095633507
0.38658979535102844 0.7078108787536621 -0.015721812844276428
0.29972535371780396 0.6585012078285217 0.03339638561010361
0.4658297598361969 0.5057703852653503 -0.03133365511894226
0.45473575592041016 0.46573173999786377 0.012080047279596329
0.4405742883682251 0.4704069197177887 0.020484084263443947
0.4284479022026062 0.7256061434745789 -0.018895348533988
0.2967219650745392 0.7198395729064941 0.06311001628637314
0.47365251183509827 0.46253252029418945 -0.017937220633029938
0.42571189999580383 0.8126941919326782 -0.022065583616495132
0.5027220249176025 0.5300594568252563 -0.09739653766155243
0.4813690781593323 0.5132066607475281 -0.06896183639764786
0.5024955868721008 0.5071995258331299 -0.07406502962112427
0.4498453438282013 0.5654264092445374 -0.05653974041342735
0.502910315990448 0.8573161363601685 -0.04497292637825012
0.5030625462532043 0.8263126611709595 -0.04271641746163368
0.46273744106292725 0.8251520395278931 -0.03790556639432907
0.3733349144458771 0.7680787444114685 0.004666612949222326
0.40440765023231506 0.6331407427787781 -0.018233858048915863
0.39698338508605957 0.7940778136253357 -0.007789802271872759
0.35034894943237305 0.6323125958442688 -0.008974561467766762
0.382041335105896 0.6584379076957703 -0.015667937695980072
0.3306483030319214 0.6735798716545105 0.0068334536626935005
0.45469552278518677 0.8546236753463745 -0.03863179683685303
0.4364003837108612 0.5805411338806152 -0.04103641211986542
0.3537844121456146 0.788802444934845 0.02427639812231064
0.38356927037239075 0.8151986598968506 0.006840167101472616
0.3546774983406067 0.7373596429824829 0.008964275009930134
0.27507781982421875 0.6918346285820007 0.08538077026605606
0.3258744478225708 0.7440029978752136 0.031138785183429718
0.26293328404426575 0.7152000665664673 0.13695299625396729
0.36279410123825073 0.6915125846862793 -0.007202348206192255
0.4512200951576233 0.5453800559043884 -0.038919467478990555
0.45265626907348633 0.6088743805885315 -0.09448269009590149
0.4377947747707367 0.6169652342796326 -0.06997628509998322
0.4618872106075287 0.5913389921188354 -0.11052621155977249
0.43710941076278687 0.4475710988044739 0.005847678054124117
0.4004548192024231 0.43644893169403076 0.0013014207361266017
0.36810851097106934 0.435168594121933 0.001764974556863308
0.34085768461227417 0.4400511085987091 0.010424518957734108
0.3214021921157837 0.45146024227142334 0.024567127227783203
0.30718016624450684 0.49314773082733154 0.058763664215803146
0.24154311418533325 0.5612572431564331 0.15768763422966003
0.3241207003593445 0.5228727459907532 0.0389009565114975
0.3477344512939453 0.528076171875 0.024913346394896507
0.37827426195144653 0.5269503593444824 0.015640251338481903
0.40749862790107727 0.520728588104248 0.012235766276717186
0.43028056621551514 0.5115867853164673 0.012083646841347218
0.4455767869949341 0.5026207566261292 0.010974731296300888
0.24150827527046204 0.5694060921669006 0.2446667104959488
0.4387301206588745 0.6240545511245728 -0.058680638670921326
0.46549031138420105 0.5473495721817017 -0.07406973093748093
0.4683062434196472 0.6083000898361206 -0.11274691671133041
0.48099789023399353 0.6211784482002258 -0.10411752760410309
0.4687386155128479 0.6130993962287903 -0.10162081569433212
0.4453236758708954 0.631805419921875 -0.051295749843120575
0.4848209619522095 0.622925341129303 -0.11038877815008163
0.4870741069316864 0.6293115019798279 -0.08354803174734116
0.4449061155319214 0.4841274619102478 0.023680441081523895
0.4576486647129059 0.488860547542572 0.009214772842824459
0.4643718898296356 0.4914661645889282 -0.0077996333129704
0.338091105222702 0.48005741834640503 0.03549396991729736
0.3252323269844055 0.4720701277256012 0.03655903786420822
0.5221357941627502 0.5346131920814514 -0.08928079903125763
0.6651738286018372 0.4878528118133545 0.04290645569562912
0.5233232378959656 0.6256430745124817 -0.08314531296491623
0.7461184859275818 0.4119298458099365 0.16221405565738678
0.6004981398582458 0.5057526230812073 0.01735149882733822
0.623242199420929 0.5083646774291992 0.0190091785043478
0.6451143622398376 0.5080683827400208 0.02567387744784355
0.6742047667503357 0.4977388381958008 0.04576382040977478
0.5811481475830078 0.49887052178382874 0.01925494149327278
0.6281901001930237 0.44925224781036377 0.01176417712122202
0.6047372817993164 0.44993162155151367 0.012064135633409023
0.6506914496421814 0.4534565210342407 0.0193993728607893
0.6660771369934082 0.4619174301624298 0.02869918942451477
0.6928604245185852 0.5148454904556274 0.05665992200374603
0.5905556678771973 0.8389395475387573 -0.013306749053299427
0.6729713082313538 0.4832254946231842 0.05077929422259331
0.7575567960739136 0.5138725638389587 0.16310328245162964
0.7172785401344299 0.502099335193634 0.08169307559728622
0.6181016564369202 0.6029680967330933 -0.01304780412465334
0.5321747064590454 0.6931779384613037 -0.07089456170797348
0.5285108089447021 0.7194516062736511 -0.061013251543045044
0.562187910079956 0.7017160058021545 -0.0565718375146389
0.5816415548324585 0.7131320238113403 -0.03862093761563301
0.5501521229743958 0.7214168906211853 -0.051046259701251984
0.5672308206558228 0.7249489426612854 -0.033966995775699615
0.6100106835365295 0.7564665675163269 -0.004384263884276152
0.5220673084259033 0.6111754179000854 -0.12355490773916245
0.5248575210571289 0.5870377421379089 -0.12939538061618805
0.7017374634742737 0.44054555892944336 0.037821002304553986
0.5712444186210632 0.5416494607925415 -0.012629225850105286
0.5745759010314941 0.6094652414321899 -0.06499948352575302
0.5760902166366577 0.5973864197731018 -0.05716808885335922
0.6867296695709229 0.6042497158050537 0.018007416278123856
0.523543119430542 0.5580177307128906 -0.11354978382587433
0.6460182666778564 0.4115966558456421 -0.0024848878383636475
0.678644597530365 0.4215814471244812 0.015601588413119316
0.7232396602630615 0.365872859954834 0.11869845539331436
0.5472250580787659 0.4274563193321228 -0.025017553940415382
0.5841802954673767 0.4565347731113434 0.018271228298544884
0.6271893978118896 0.7322389483451843 0.002479186747223139
0.7351027727127075 0.7430418133735657 0.2058134377002716
0.5577038526535034 0.622806191444397 -0.057125672698020935
0.5387744903564453 0.6303300857543945 -0.0612383596599102
0.6032875180244446 0.7317612171173096 0.00014262467448133975
0.5926439166069031 0.7303842902183533 -0.0061678579077124596
0.6912871599197388 0.4072832763195038 0.02891084924340248
0.5753625631332397 0.6212882399559021 -0.05304783955216408
0.6026914119720459 0.4118850827217102 -0.016393154859542847
0.6070916652679443 0.39222264289855957 -0.019453108310699463
0.6313015818595886 0.3027620315551758 0.031409990042448044
0.7069578170776367 0.38489830493927 0.0677119567990303
0.6172122955322266 0.34457287192344666 0.0049647619016468525
0.7153258919715881 0.43221986293792725 0.05931384861469269
0.7310366630554199 0.422664612531662 0.10804823040962219
0.5307382941246033 0.7082859873771667 -0.06851421296596527
0.5554384589195251 0.7133067846298218 -0.05499856173992157
0.5744813084602356 0.7191132307052612 -0.038391921669244766
0.551873505115509 0.6274612545967102 -0.053089290857315063
0.5978002548217773 0.7312657833099365 -0.0032067899592220783
0.5881936550140381 0.7366880774497986 -0.018506208434700966
0.5897918343544006 0.729449450969696 -0.007088824175298214
0.5457395911216736 0.6125749349594116 -0.08891656994819641
0.562818169593811 0.7240877747535706 -0.03064431995153427
0.5455069541931152 0.7231860160827637 -0.04227065667510033
0.5256137251853943 0.7231928706169128 -0.05168862268328667
0.5354421734809875 0.79901123046875 -0.03827619552612305
0.5339189171791077 0.7723437547683716 -0.059190258383750916
0.5325146317481995 0.7566618323326111 -0.06114065274596214
0.5304084420204163 0.7431593537330627 -0.05534376949071884
0.5279850363731384 0.7345923781394958 -0.05077853798866272
0.5667171478271484 0.7326563596725464 -0.02926594577729702
0.5703954696655273 0.735845685005188 -0.03360653296113014
0.5757456421852112 0.7426999807357788 -0.03725385665893555
0.5804473161697388 0.7516771554946899 -0.03296535834670067
0.600418210029602 0.6871618628501892 -0.029037341475486755
0.7580215930938721 0.6264156699180603 0.25013095140457153
0.5775303244590759 0.7325162887573242 -0.01577182486653328
0.5825193524360657 0.7335394024848938 -0.018745629116892815
0.5315367579460144 0.6411029100418091 -0.06324349343776703
0.5673675537109375 0.6367941498756409 -0.03739195317029953
0.5348590612411499 0.6359902620315552 -0.06278016418218613
0.595824122428894 0.5567924380302429 -0.005427984986454248
0.6336174011230469 0.5738187432289124 0.0007227254682220519
0.5799641013145447 0.6092482805252075 -0.04454094544053078
0.686695396900177 0.3284987211227417 0.0717906653881073
0.6706766486167908 0.3580232262611389 0.03435630351305008
0.6540859937667847 0.3929392695426941 0.003989953547716141
0.591269850730896 0.7731266021728516 -0.01767837442457676
0.554703414440155 0.3959980010986328 -0.0317830853164196
0.5629889369010925 0.34127703309059143 -0.012425960041582584
0.5717736482620239 0.29069310426712036 0.006861708592623472
0.6636500954627991 0.505142092704773 0.0361098051071167
0.7169879674911499 0.533321738243103 0.0691893920302391
0.5688099265098572 0.4919091463088989 0.02283618040382862
0.6922163367271423 0.47093915939331055 0.04924246668815613
0.5549517273902893 0.5248875617980957 -0.020769890397787094
0.5605194568634033 0.5986363887786865 -0.0875154361128807
0.7407224774360657 0.5525143146514893 0.093997523188591
0.7019523978233337 0.5475696921348572 0.04666270315647125
0.6728274822235107 0.554056704044342 0.024176638573408127
0.6292953491210938 0.5486527681350708 0.012793992646038532
0.5967369675636292 0.5377078652381897 0.007804973050951958
0.572177529335022 0.5253565311431885 0.0015882214065641165
0.5243475437164307 0.4901566803455353 -0.04348906874656677
0.7382261753082275 0.6018180251121521 0.08396697044372559
0.7108814120292664 0.46946200728416443 0.06121702119708061
0.5141510963439941 0.6245324611663818 -0.1131429672241211
0.5694302320480347 0.5637587308883667 -0.02430654875934124
0.7630001306533813 0.5186442732810974 0.24107186496257782
0.5542293190956116 0.511144757270813 -0.001184116001240909
0.5820790529251099 0.612341582775116 -0.020802419632673264
0.6805621385574341 0.48572736978530884 0.05524614453315735
0.5613932013511658 0.584293007850647 -0.07759620994329453
0.7511134147644043 0.6841102242469788 0.23455563187599182
0.5689395666122437 0.48333263397216797 0.029651395976543427
0.5429335236549377 0.5684284567832947 -0.09983520954847336
0.6873689293861389 0.7898062467575073 0.07870234549045563
0.6850560903549194 0.8208200335502625 0.11729464679956436
0.7588489055633545 0.6152579188346863 0.16731280088424683
0.7157617807388306 0.7596981525421143 0.11019336432218552
0.745039701461792 0.4649895429611206 0.14263585209846497
0.5947980284690857 0.8645036220550537 -0.0021222217474132776
0.5116257071495056 0.6308528780937195 -0.08339183777570724
0.5901521444320679 0.5827378034591675 -0.016727767884731293
0.7364100217819214 0.5091022253036499 0.10557867586612701
0.6430032253265381 0.49315738677978516 0.028657248243689537
0.6232348680496216 0.4942983090877533 0.022557424381375313
0.5940415859222412 0.7416895627975464 -0.014705495908856392
0.7341318726539612 0.6509671211242676 0.08725148439407349
0.551650881767273 0.897926926612854 0.0002916100202128291
0.6212137341499329 0.8689029812812805 0.051249850541353226
0.6508535742759705 0.8493211269378662 0.08046629279851913
0.6041603684425354 0.4925604462623596 0.021205060184001923
0.5863115787506104 0.48831886053085327 0.024263055995106697
0.5748945474624634 0.4857737421989441 0.029046693816781044
0.7273379564285278 0.46706339716911316 0.08564849942922592
0.5878994464874268 0.47017645835876465 0.0220780149102211
0.6069786548614502 0.46596115827560425 0.017999747768044472
0.6258529424667358 0.46524620056152344 0.019606320187449455
0.6455479860305786 0.4689398407936096 0.025491079315543175
0.6585812568664551 0.47492513060569763 0.033047884702682495
0.7584601044654846 0.4599583148956299 0.20759162306785583
0.6562357544898987 0.4906438887119293 0.03619513660669327
0.5787717700004578 0.6715379953384399 -0.04125275835394859
0.558193027973175 0.6183351874351501 -0.06530390679836273
0.5346596837043762 0.6614882349967957 -0.06331327557563782
0.6566044092178345 0.8195484280586243 0.05281628668308258
0.6269585490226746 0.8423606753349304 0.026629794389009476
0.5535280704498291 0.8799585700035095 -0.027042917907238007
0.7118017673492432 0.7886123061180115 0.16323129832744598
0.5747226476669312 0.4775233864784241 0.02652718685567379
0.5396369099617004 0.5276942849159241 -0.05317305028438568
0.5893182754516602 0.8858175277709961 0.020817026495933533
0.7520240545272827 0.6684457063674927 0.1594119668006897
0.5492457151412964 0.7333107590675354 -0.04119271785020828
0.552951991558075 0.7394574284553528 -0.0456697978079319
0.5568400621414185 0.7498527765274048 -0.0498385950922966
0.5600106716156006 0.763867974281311 -0.04678674787282944
0.5668961405754089 0.7880995869636536 -0.030613558366894722
0.5823944807052612 0.7278363108634949 -0.018969736993312836
0.5893812775611877 0.7257355451583862 -0.018889615312218666
0.5962139368057251 0.7221435904502869 -0.018572544679045677
0.6182400584220886 0.7076935172080994 -0.01292845793068409
0.7043226361274719 0.6594089865684509 0.038791902363300323
0.5391208529472351 0.5059276819229126 -0.030416246503591537
0.5500344038009644 0.46575722098350525 0.01362995058298111
0.564462423324585 0.47054171562194824 0.02268722839653492
0.5772982835769653 0.725244402885437 -0.01688227988779545
0.7062296271324158 0.7205984592437744 0.06921903043985367
0.5305256247520447 0.46267491579055786 -0.01691492460668087
0.5793900489807129 0.8131809234619141 -0.02019847370684147
0.5237169861793518 0.5133000016212463 -0.06828034669160843
0.5552862286567688 0.5654689073562622 -0.055197376757860184
0.5428758859634399 0.82539963722229 -0.036822255700826645
0.6309443712234497 0.7685446739196777 0.00811652559787035
0.601086437702179 0.6333720684051514 -0.016062969341874123
0.6074424982070923 0.7945542931556702 -0.00510775251314044
0.6548046469688416 0.633020281791687 -0.005367134232074022
0.6232635378837585 0.6587296724319458 -0.012837969698011875
0.6738424301147461 0.6742703318595886 0.011097378097474575
0.5506846904754639 0.8550812602043152 -0.03721696883440018
0.5689129829406738 0.5807098150253296 -0.03954031318426132
0.6497384905815125 0.7895481586456299 0.028421979397535324
0.6205224990844727 0.8158653378486633 0.010043315589427948
0.64936363697052 0.737644612789154 0.012993646785616875
0.7277454733848572 0.69312584400177 0.0920584425330162
0.6773681640625 0.7445877194404602 0.03622231259942055
0.739534854888916 0.7171273231506348 0.14480632543563843
0.6418086290359497 0.6917487978935242 -0.003789682639762759
0.5540344715118408 0.5455068349838257 -0.03770359233021736
0.5531038641929626 0.6087421178817749 -0.09303265810012817
0.5677556991577148 0.6168572306632996 -0.06848658621311188
0.5439109206199646 0.5914527177810669 -0.10939455777406693
0.5671030879020691 0.4476219415664673 0.008054981008172035
0.6032400727272034 0.4362349212169647 0.004679617937654257
0.6350558400154114 0.43477344512939453 0.00594712421298027
0.6622925400733948 0.4398287534713745 0.015641218051314354
0.6818183660507202 0.4514423608779907 0.030254701152443886
0.6967331767082214 0.4935292601585388 0.06458234041929245
0.7613399028778076 0.5640900731086731 0.16656923294067383
0.6807037591934204 0.5234061479568481 0.04401141032576561
0.6573978662490845 0.528292715549469 0.029270021244883537
0.627156674861908 0.5270812511444092 0.019052105024456978
0.5980919003486633 0.5206788182258606 0.015051606111228466
0.5753849744796753 0.5117400288581848 0.013807421550154686
0.5598509311676025 0.5027949810028076 0.012546420097351074
0.7604715824127197 0.572619616985321 0.25406646728515625
0.5668133497238159 0.6240681409835815 -0.057210881263017654
0.5396913886070251 0.5473510026931763 -0.07306768000125885
0.5375508069992065 0.6083117723464966 -0.11174225062131882
0.5247599482536316 0.6211068630218506 -0.10361916571855545
0.5370809435844421 0.6129747033119202 -0.10067397356033325
0.5603950619697571 0.6320376396179199 -0.05022464692592621
0.5210881233215332 0.6229909062385559 -0.10986565053462982
0.5187568068504333 0.6294153332710266 -0.08323105424642563
0.5606652498245239 0.4841933846473694 0.025586675852537155
0.5475968718528748 0.48905348777770996 0.010558472946286201
0.5406526923179626 0.4917333722114563 -0.006883511785417795
0.6664735078811646 0.479449599981308 0.0408925861120224
0.6785642504692078 0.47179296612739563 0.04194707050919533
