ply
format ascii 1.0
element vertex 468
property float x
property float y
property float z
end_header
0.5416367650032043 0.7180906534194946 -0.0549653135240078
0.5833896994590759 0.6525394320487976 -0.12963229417800903
0.5530983209609985 0.6716740727424622 -0.06383670121431351
0.5489360094070435 0.5616913437843323 -0.11477228999137878
0.5868311524391174 0.6259950995445251 -0.13963982462882996
0.5805467963218689 0.5891407132148743 -0.13272523880004883
0.5552823543548584 0.4981463849544525 -0.07835479825735092
0.3375643789768219 0.47841185331344604 -0.05371512845158577
0.5504816174507141 0.4378325939178467 -0.06783424317836761
0.5534164309501648 0.4055444896221161 -0.07629579305648804
0.5449737906455994 0.27379748225212097 -0.06480257958173752
0.5380677580833435 0.7291256189346313 -0.051242467015981674
0.5332835912704468 0.7367703914642334 -0.043795812875032425
0.5278443694114685 0.7386487722396851 -0.0332178995013237
0.5288130640983582 0.7685900330543518 -0.021682683378458023
0.5301644802093506 0.7799334526062012 -0.02508341334760189
0.5299840569496155 0.7935152649879456 -0.028411533683538437
0.5278469920158386 0.8079813122749329 -0.02210061252117157
0.5207235813140869 0.831419825553894 0.0038937299977988005
0.5751268863677979 0.6652174592018127 -0.11597475409507751
0.5386711359024048 0.6616353988647461 -0.09022603929042816
0.18132933974266052 0.3726252615451813 0.006435758899897337
0.41915950179100037 0.5009554624557495 -0.050468605011701584
0.39247533679008484 0.5027438402175903 -0.05830870196223259
0.36468151211738586 0.5020073056221008 -0.061247728765010834
0.32229214906692505 0.487307071685791 -0.05396853759884834
0.44110870361328125 0.49558621644973755 -0.03912188112735748
0.38496655225753784 0.43731558322906494 -0.07529427856206894
0.41442975401878357 0.4385019540786743 -0.06298218667507172
0.35622867941856384 0.4418330192565918 -0.07642031461000443
0.3349536061286926 0.45065921545028687 -0.07199116796255112
0.29548180103302 0.5046790838241577 -0.046645637601614
0.4122893512248993 0.871802568435669 0.0027293141465634108
0.32359805703163147 0.47152408957481384 -0.049880605190992355
0.16859421133995056 0.4882357716560364 0.028255432844161987
0.255557656288147 0.48851943016052246 -0.03480953350663185
0.4006407856941223 0.6122012138366699 -0.06507491320371628
0.5058438777923584 0.7149311900138855 -0.064811572432518
0.5000033974647522 0.7368848919868469 -0.05137154459953308
0.4613091051578522 0.7201070189476013 -0.0624094232916832
0.4282730519771576 0.7260958552360535 -0.050581194460392
0.46802017092704773 0.7368607521057129 -0.05146182328462601
0.44107699394226074 0.7371401190757751 -0.0394587405025959
0.3805880546569824 0.7687437534332275 -0.013665586709976196
0.5611549615859985 0.6524531245231628 -0.13376793265342712
0.5610687136650085 0.6258098483085632 -0.14424997568130493
0.2951579689979553 0.4328559935092926 -0.0849362164735794
0.45870691537857056 0.5479605793952942 -0.05834892392158508
0.47341370582580566 0.6353975534439087 -0.09652119874954224
0.46810007095336914 0.6190913915634155 -0.09111911803483963
0.3068253695964813 0.605663001537323 -0.06736110150814056
0.5565010905265808 0.5915918946266174 -0.13483400642871857
0.37957826256752014 0.40982919931411743 -0.10299088805913925
0.3337809145450592 0.41682225465774536 -0.0994524359703064
0.2331480234861374 0.32990631461143494 -0.03414411097764969
0.49790656566619873 0.43207406997680664 -0.0805271714925766
0.43817228078842163 0.4468090832233429 -0.046298135071992874
0.3603254556655884 0.7399792075157166 -0.023016536608338356
0.1547469198703766 0.737668514251709 0.12699012458324432
0.4893554151058197 0.6508256196975708 -0.07851547002792358
0.5110863447189331 0.6589505672454834 -0.06997408717870712
0.38419008255004883 0.739186704158783 -0.016594504937529564
0.39695820212364197 0.7391387224197388 -0.01676252670586109
0.31494542956352234 0.39987820386886597 -0.09454125910997391
0.4645841121673584 0.6433261036872864 -0.08135639131069183
0.43436384201049805 0.41317039728164673 -0.09684371948242188
0.4317922294139862 0.39267653226852417 -0.10533224791288376
0.3843199908733368 0.27836424112319946 -0.08918926864862442
0.2770298719406128 0.3645493686199188 -0.06910115480422974
0.41328996419906616 0.33406028151512146 -0.09859053790569305
0.27014169096946716 0.4199458360671997 -0.07161043584346771
0.22771459817886353 0.39826011657714844 -0.03425627946853638
0.5029022097587585 0.7284030914306641 -0.06075093895196915
0.46595609188079834 0.7306411862373352 -0.05760573595762253
0.43547558784484863 0.7322344183921814 -0.04655146226286888
0.49360713362693787 0.6546027660369873 -0.06993294507265091
0.3907727599143982 0.739217221736908 -0.016505219042301178
0.4081849455833435 0.7531673312187195 -0.020605746656656265
0.3996734023094177 0.7385566234588623 -0.01640676148235798
0.5169142484664917 0.6495868563652039 -0.11186036467552185
0.44207727909088135 0.7345219850540161 -0.034258779138326645
0.46840277314186096 0.7362895607948303 -0.0405733659863472
0.49711981415748596 0.7380229234695435 -0.04172473028302193
0.4821357727050781 0.8302861452102661 -0.006208482664078474
0.4909113645553589 0.8054529428482056 -0.03260383382439613
0.4947125315666199 0.7908428311347961 -0.03818228840827942
0.4970403015613556 0.7773533463478088 -0.03421948105096817
0.4980173110961914 0.7680003046989441 -0.03040385991334915
0.44010689854621887 0.7568792700767517 -0.02481180988252163
0.4364681839942932 0.7604691982269287 -0.02785704843699932
0.43053144216537476 0.7669724822044373 -0.030022479593753815
0.42425063252449036 0.7752330899238586 -0.02677094005048275
0.41247817873954773 0.7021247744560242 -0.05123075842857361
0.12332987785339355 0.6001714468002319 0.13477401435375214
0.5650321841239929 0.6685245037078857 -0.08304522931575775
0.4207257926464081 0.7503313422203064 -0.01834665797650814
0.4152365028858185 0.7510198354721069 -0.020448410883545876
0.519017219543457 0.6700869202613831 -0.06780053675174713
0.46649405360221863 0.6569435596466064 -0.05588381364941597
0.5154867768287659 0.6649733185768127 -0.06974662095308304
0.42822399735450745 0.5605615377426147 -0.059466879814863205
0.38174134492874146 0.5765724182128906 -0.06706147640943527
0.4572117030620575 0.6280378699302673 -0.0772438645362854
0.29929041862487793 0.2973775267601013 -0.06787323206663132
0.3371541202068329 0.3420506417751312 -0.08880916982889175
0.3697744905948639 0.3891204595565796 -0.10438331961631775
0.40776360034942627 0.7943879961967468 -0.01448082271963358
0.49426791071891785 0.3998722434043884 -0.09495534002780914
0.48099562525749207 0.33451247215270996 -0.0925489217042923
0.46314722299575806 0.2716018557548523 -0.08658403903245926
0.33826953172683716 0.4971805214881897 -0.05885474383831024
0.25961750745773315 0.5228854417800903 -0.04084751009941101
0.45558369159698486 0.48986750841140747 -0.03252440318465233
0.29985713958740234 0.4608648419380188 -0.06296072900295258
0.4814563989639282 0.5335419774055481 -0.0624907910823822
0.5008031725883484 0.6309353709220886 -0.1160060465335846
0.2168477475643158 0.5399088263511658 -0.02476361207664013
0.2867232859134674 0.5404759645462036 -0.0553743839263916
0.329751580953598 0.5500614047050476 -0.06351686269044876
0.3859981298446655 0.5468852519989014 -0.05797956883907318
0.42513328790664673 0.5373207330703735 -0.049895334988832474
0.4536851942539215 0.5270503163337708 -0.047476910054683685
0.5288636088371277 0.5038998126983643 -0.07863394916057587
0.2194320559501648 0.5943748950958252 -0.026241887360811234
0.27153438329696655 0.4575198292732239 -0.06086272746324539
0.5613510608673096 0.6644400358200073 -0.11972004175186157
0.46487662196159363 0.5753931403160095 -0.06451519578695297
0.12696880102157593 0.4802531599998474 0.09988964349031448
0.476725697517395 0.5153144001960754 -0.04568210244178772
0.4467467665672302 0.6268121600151062 -0.05205155536532402
0.31211501359939575 0.47367554903030396 -0.049329496920108795
0.49458980560302734 0.6106913089752197 -0.10857381671667099
0.13102281093597412 0.6668996810913086 0.1356707066297531
0.4526311457157135 0.4807637333869934 -0.028659595176577568
0.5266437530517578 0.5988929867744446 -0.12705916166305542
0.2609785199165344 0.80851811170578 0.038000404834747314
0.2438214123249054 0.8402941226959229 0.08051655441522598
0.16063982248306274 0.6008549928665161 0.05148138850927353
0.21599076688289642 0.7699486613273621 0.04752366244792938
0.19484196603298187 0.4381723403930664 0.002174413064494729
0.4025651514530182 0.902518630027771 0.015295136719942093
0.5546555519104004 0.6674214601516724 -0.08450064063072205
0.435912162065506 0.5919293761253357 -0.06079614534974098
0.22100181877613068 0.4925093352794647 -0.0198679156601429
0.37066468596458435 0.48694971203804016 -0.05821308121085167
0.39466723799705505 0.4887504577636719 -0.05668745934963226
0.4001760184764862 0.7566086649894714 -0.019244622439146042
0.215828999876976 0.6483291983604431 -0.009176680818200111
0.4499923288822174 0.9385372400283813 0.039765726774930954
0.34890827536582947 0.9040399789810181 0.053381696343421936
0.30059611797332764 0.8783125877380371 0.06471631675958633
0.5505545735359192 0.33791786432266235 -0.07264044880867004
0.5063626170158386 0.938753604888916 0.0538516566157341
0.4158744215965271 0.4871949851512909 -0.049604613333940506
0.43561166524887085 0.4835469126701355 -0.039985813200473785
0.44769996404647827 0.4821735620498657 -0.031612519174814224
0.2410707324743271 0.45063865184783936 -0.044503167271614075
0.42913901805877686 0.45940130949020386 -0.04561540111899376
0.4057347774505615 0.4499173164367676 -0.056960199028253555
0.3827020525932312 0.4485815763473511 -0.06423256546258926
0.35837799310684204 0.45349717140197754 -0.06602054089307785
0.34250545501708984 0.4612857699394226 -0.062272828072309494
0.14765524864196777 0.4196164608001709 0.05631816014647484
0.3521372973918915 0.48306649923324585 -0.056650545448064804
0.5474151372909546 0.6857917308807373 -0.05424501374363899
0.44659602642059326 0.6903078556060791 -0.058543842285871506
0.49345842003822327 0.6490873098373413 -0.08777368068695068
0.5092307925224304 0.687095582485199 -0.06433061510324478
0.5480790138244629 0.46552330255508423 -0.06378266960382462
0.3082631826400757 0.8451670408248901 0.03564849868416786
0.352896511554718 0.8750138282775879 0.027671100571751595
0.45837709307670593 0.9191106557846069 0.010456152260303497
0.19580931961536407 0.7961794137954712 0.1038074791431427
0.4457106590270996 0.4727901816368103 -0.03621862828731537
0.5141276121139526 0.5460245013237 -0.08699511736631393
0.5155349969863892 0.9203272461891174 0.02542969398200512
0.3989374339580536 0.9255344867706299 0.0405864454805851
0.16404348611831665 0.6607566475868225 0.05867045745253563
0.4681583344936371 0.763409435749054 -0.0298836138099432
0.46470269560813904 0.7701524496078491 -0.03353409096598625
0.4606974720954895 0.7804487943649292 -0.03635295853018761
0.4561064839363098 0.7940584421157837 -0.031882550567388535
0.4414469301700592 0.8161343336105347 -0.015395171009004116
0.4139476716518402 0.7369824647903442 -0.02881196327507496
0.40741902589797974 0.7347631454467773 -0.03211236745119095
0.4001631736755371 0.730739951133728 -0.03524456545710564
0.38070210814476013 0.7183687686920166 -0.04051359370350838
0.2685896158218384 0.6632529497146606 -0.04195258021354675
0.5058028697967529 0.5173105597496033 -0.06870685517787933
0.48037493228912354 0.46579256653785706 -0.03558991476893425
0.4595692455768585 0.46637821197509766 -0.03532538563013077
0.4179413318634033 0.7337504029273987 -0.025073114782571793
0.2469126433134079 0.7287498712539673 0.0025713976938277483
0.5113618969917297 0.4679935574531555 -0.058944810181856155
0.42484936118125916 0.8416770696640015 -0.0036748030688613653
0.571641206741333 0.558234691619873 -0.11334250867366791
0.5388242602348328 0.5343915820121765 -0.09789403527975082
0.5635257959365845 0.5293267965316772 -0.09502989053726196
0.4940106272697449 0.5856885313987732 -0.08759617060422897
0.5198638439178467 0.8917851448059082 0.010231985710561275
0.5199658870697021 0.8581070899963379 0.00785079225897789
0.4738244414329529 0.857410728931427 -0.0013527454575523734
0.355398952960968 0.7832721471786499 -0.006800458766520023
0.4193432033061981 0.6461965441703796 -0.05208009108901024
0.38572418689727783 0.8165048360824585 -0.0033193842973560095
0.3504897654056549 0.6425737142562866 -0.06600673496723175
0.38760611414909363 0.6712673902511597 -0.052800051867961884
0.31517618894577026 0.6834370493888855 -0.04907013475894928
0.46599048376083374 0.8902463912963867 -0.0025013084523379803
0.4697429835796356 0.596926212310791 -0.07398351281881332
0.3269028067588806 0.8101454973220825 0.008800371550023556
0.3676708936691284 0.8433201909065247 0.01091791596263647
0.3347328305244446 0.7478888034820557 -0.021989090368151665
0.21511700749397278 0.6950716972351074 0.00912823248654604
0.2914794981479645 0.7582453489303589 -0.009635350666940212
0.17885251343250275 0.7173291444778442 0.06026152893900871
0.3549749255180359 0.7006926536560059 -0.046244096010923386
0.4894872307777405 0.5604739189147949 -0.07470809668302536
0.5103321671485901 0.6450028419494629 -0.11862199008464813
0.48230642080307007 0.6457825899124146 -0.09426324814558029
0.5312741994857788 0.6286258101463318 -0.13348223268985748
0.4640515446662903 0.44582599401474 -0.052779581397771835
0.42395079135894775 0.432407945394516 -0.07338215410709381
0.3856571614742279 0.42937541007995605 -0.08526475727558136
0.3502727150917053 0.43310749530792236 -0.08748879283666611
0.3207736611366272 0.4433438777923584 -0.08051838725805283
0.2884872257709503 0.48172926902770996 -0.04466676339507103
0.16164234280586243 0.5438493490219116 0.038829028606414795
0.3154573440551758 0.5151877403259277 -0.05268164351582527
0.3485097289085388 0.5228670835494995 -0.05694013088941574
0.38748010993003845 0.5228087306022644 -0.05466429144144058
0.4218837022781372 0.5175030827522278 -0.04663613438606262
0.4476095139980316 0.5101677775382996 -0.03881407529115677
0.4661557674407959 0.5034232139587402 -0.034715455025434494
0.12264448404312134 0.5392361283302307 0.12371846288442612
0.47718125581741333 0.6496160626411438 -0.08122895658016205
0.5223863124847412 0.5715990662574768 -0.1035958006978035
0.5375022888183594 0.6491004228591919 -0.1295243799686432
0.5433183312416077 0.6601148247718811 -0.11318771541118622
0.5311520099639893 0.6524410247802734 -0.11791212111711502
0.47977501153945923 0.6556458473205566 -0.06829158961772919
0.5514125227928162 0.6627357602119446 -0.11758942902088165
0.545245885848999 0.6658661365509033 -0.08725683391094208
0.46448439359664917 0.48303040862083435 -0.026476440951228142
0.4815874397754669 0.49073028564453125 -0.03390200063586235
0.4950416684150696 0.49692052602767944 -0.04762568324804306
0.3325846195220947 0.4670621156692505 -0.057402171194553375
0.3175661265850067 0.46072036027908325 -0.0619698204100132
0.5878233909606934 0.5611546635627747 -0.09510640799999237
0.6723973751068115 0.47191566228866577 0.09031789749860764
0.5841770172119141 0.6597832441329956 -0.07521285116672516
0.7068158388137817 0.38137322664260864 0.22774934768676758
0.6092570424079895 0.4984775185585022 0.0424429289996624
0.6313623189926147 0.4994162619113922 0.053196556866168976
0.651985228061676 0.49800002574920654 0.06762300431728363
0.6744176745414734 0.48083242774009705 0.09887298941612244
0.5925164222717285 0.49356406927108765 0.0338088683784008
0.6502094268798828 0.4353380501270294 0.041957758367061615
0.6241856217384338 0.4381270408630371 0.028943926095962524
0.6709132194519043 0.4385360777378082 0.05861850455403328
0.6817579865455627 0.44631272554397583 0.0738905668258667
0.6867668628692627 0.49986767768859863 0.1176186129450798
0.5926119685173035 0.8558510541915894 0.0708003118634224
0.6782101392745972 0.4644413888454437 0.10091348737478256
0.7054075598716736 0.4846213459968567 0.25276505947113037
0.7004159688949585 0.4831862449645996 0.14919622242450714
0.6407894492149353 0.6093282103538513 0.02963666059076786
0.5700504183769226 0.7128539681434631 -0.03995122015476227
0.5562312602996826 0.7352377772331238 -0.028218604624271393
0.5914300084114075 0.7158481478691101 -0.011874821037054062
0.5992133617401123 0.7219902873039246 0.019099803641438484
0.5716227293014526 0.7336636185646057 -0.006586660165339708
0.5805496573448181 0.7345805764198303 0.02046285755932331
0.6073988676071167 0.7612095475196838 0.0771181583404541
0.6004786491394043 0.6506908535957336 -0.12114682048559189
0.605280339717865 0.6249096989631653 -0.12928888201713562
0.7089147567749023 0.428119421005249 0.0886886939406395
0.5982723236083984 0.5468497276306152 0.0026452240999788046
0.6228805780410767 0.6324210166931152 -0.040030185133218765
0.61953204870224 0.6169593334197998 -0.03267543390393257
0.692919135093689 0.5996295213699341 0.08931779861450195
0.5980027914047241 0.5909427404403687 -0.11550139635801315
0.6790353059768677 0.4084499180316925 0.018280990421772003
0.7005211114883423 0.41339194774627686 0.05211295560002327
0.7058924436569214 0.34135961532592773 0.16436386108398438
0.5927532911300659 0.4322672486305237 -0.04016844183206558
0.6015849709510803 0.4468699097633362 0.028057236224412918
0.6244529485702515 0.7330342531204224 0.08672664314508438
0.6540536880493164 0.7108243703842163 0.33213815093040466
0.605659008026123 0.6477681994438171 -0.036105070263147354
0.5884475111961365 0.6578021049499512 -0.04858116805553436
0.6036415696144104 0.7363543510437012 0.07824940979480743
0.592088520526886 0.7369025945663452 0.06698813289403915
0.7079223394393921 0.39755743741989136 0.06717223674058914
0.617045521736145 0.641266942024231 -0.025887858122587204
0.6444017887115479 0.4133511185646057 -0.01343958918005228
0.6514702439308167 0.393502414226532 -0.01996508426964283
0.6587806940078735 0.28906872868537903 0.02463984303176403
0.7075752019882202 0.3691888451576233 0.10893237590789795
0.6550139784812927 0.33959245681762695 -0.0005665089120157063
0.7145595550537109 0.41693589091300964 0.1142953634262085
0.7115898132324219 0.4011112451553345 0.16686397790908813
0.564329206943512 0.726324200630188 -0.03611799702048302
0.5814380645751953 0.7268179655075073 -0.00960614811629057
0.5907255411148071 0.7284802198410034 0.01772984117269516
0.5986503958702087 0.6523209810256958 -0.03548292815685272
0.598332405090332 0.7368308305740356 0.07193438708782196
0.5925214886665344 0.749953031539917 0.05369948968291283
0.5875422954559326 0.736190140247345 0.06526218354701996
0.60788893699646 0.6453677415847778 -0.07335232943296432
0.5723457336425781 0.7327750325202942 0.022466056048870087
0.5629045963287354 0.7341979742050171 0.0014856966445222497
0.548320472240448 0.7368581295013428 -0.01812521554529667
0.5511887669563293 0.8259552717208862 0.017325490713119507
0.5564180612564087 0.8024962544441223 -0.007192016579210758
0.5567383766174316 0.7878334522247314 -0.011951444670557976
0.5546612739562988 0.7747926712036133 -0.008395765908062458
0.5508055686950684 0.7658786177635193 -0.005785482469946146
0.575714111328125 0.7536128163337708 0.03214724361896515
0.5805865526199341 0.7568562030792236 0.029332872480154037
0.5860910415649414 0.7626967430114746 0.028995253145694733
0.5896978974342346 0.770133912563324 0.03658312186598778
0.6212025880813599 0.6979299783706665 0.02898913063108921
0.6706353425979614 0.5866341590881348 0.36393675208091736
0.580497682094574 0.7475564479827881 0.05275208130478859
0.5872460007667542 0.7480030059814453 0.05115729570388794
0.5798015594482422 0.6692333221435547 -0.0467526838183403
0.6051985025405884 0.655698835849762 -0.011705047450959682
0.5842804908752441 0.6642219424247742 -0.04902641847729683
0.6166867017745972 0.5591851472854614 0.02284114994108677
0.6502718329429626 0.5741933584213257 0.04501410201191902
0.6175693869590759 0.6261891722679138 -0.01681694947183132
0.6924591064453125 0.3099151849746704 0.0936911404132843
0.6905230283737183 0.3476095497608185 0.05402307212352753
0.6865326762199402 0.38890141248703003 0.023696063086390495
0.594529390335083 0.7856206893920898 0.060091741383075714
0.6052640080451965 0.4014855623245239 -0.05146064609289169
0.6095868945121765 0.3380658030509949 -0.04165766388177872
0.611625075340271 0.27819475531578064 -0.029437556862831116
0.6670967936515808 0.4915473461151123 0.08511249721050262
0.7029425501823425 0.5178649425506592 0.14156131446361542
0.5827934145927429 0.48810622096061707 0.03230559453368187
0.6937825679779053 0.45480385422706604 0.10401178896427155
0.5877621173858643 0.5325177311897278 -0.013730870559811592
0.6206408143043518 0.627781867980957 -0.07035598158836365
0.7144202589988708 0.5332503318786621 0.18164323270320892
0.6972970962524414 0.5361733436584473 0.11608149856328964
0.6778734922409058 0.5471243262290955 0.08269240707159042
0.6406340599060059 0.5447750687599182 0.0538526251912117
0.6118900179862976 0.5356839895248413 0.03468240797519684
0.5928722620010376 0.5256966948509216 0.015762338414788246
0.5723570585250854 0.5036505460739136 -0.05774371698498726
0.7173380851745605 0.5847858786582947 0.17945119738578796
0.7047942876815796 0.452473521232605 0.12156890332698822
0.5857498049736023 0.663416862487793 -0.1097373440861702
0.6020097732543945 0.5743391513824463 -0.005835752468556166
0.685657262802124 0.479001522064209 0.3374224603176117
0.5804740190505981 0.5143910646438599 0.0036068111658096313
0.6125401258468628 0.6254804730415344 0.008334332145750523
0.6815036535263062 0.4668056070804596 0.10921778529882431
0.615073561668396 0.6087509989738464 -0.06198738142848015
0.6654544472694397 0.646294355392456 0.3548620939254761
0.5820467472076416 0.47793152928352356 0.03948728367686272
0.608319103717804 0.5974459052085876 -0.09303852170705795
0.6522411108016968 0.7804847955703735 0.1915060430765152
0.6336951851844788 0.8075300455093384 0.23549243807792664
0.7050355672836304 0.5874654054641724 0.2755589485168457
0.6700047254562378 0.7430582642555237 0.22789998352527618
0.7082998752593994 0.4391583800315857 0.217140793800354
0.59330153465271 0.8828142881393433 0.08846193552017212
0.5740683078765869 0.6671333909034729 -0.07833196222782135
0.6162064671516418 0.5904349684715271 0.012011418119072914
0.7073480486869812 0.4871409237384796 0.18292005360126495
0.6533397436141968 0.482397198677063 0.06832275539636612
0.6339452266693115 0.4854092597961426 0.055417489260435104
0.5969094038009644 0.7525814175605774 0.06052214279770851
0.7100294828414917 0.6340104937553406 0.18938711285591125
0.5535093545913696 0.9265478849411011 0.0804610326886177
0.6009646654129028 0.8770500421524048 0.15411965548992157
0.6161688566207886 0.8468971848487854 0.190957710146904
0.6141901612281799 0.48459452390670776 0.045839253813028336
0.5966112613677979 0.48138970136642456 0.04197533428668976
0.5861387848854065 0.4797728359699249 0.04200564697384834
0.7100409269332886 0.44728952646255493 0.15248315036296844
0.6011189222335815 0.4564371705055237 0.03827240318059921
0.6203557252883911 0.44643881916999817 0.04096490889787674
0.6422511339187622 0.44328463077545166 0.049831487238407135
0.6621939539909363 0.4469299614429474 0.06353359669446945
0.6717194318771362 0.4544636011123657 0.07653064280748367
0.7001031637191772 0.4246305227279663 0.2888067364692688
0.665209174156189 0.47742006182670593 0.08100923150777817
0.6099641919136047 0.6875070333480835 0.0023847513366490602
0.610127866268158 0.6454021334648132 -0.04793683812022209
0.5773682594299316 0.685539960861206 -0.039054177701473236
0.6312483549118042 0.8177655339241028 0.1597694456577301
0.6121103167533875 0.8495451211929321 0.12565818428993225
0.562471330165863 0.908219039440155 0.0505705364048481
0.6438111066818237 0.7652490139007568 0.2874598801136017
0.5886073708534241 0.46967947483062744 0.03872865438461304
0.5888718366622925 0.5451658368110657 -0.0543525330722332
0.5826162099838257 0.9047558903694153 0.11455447226762772
0.6968692541122437 0.6417210102081299 0.27321842312812805
0.5660738348960876 0.7602240443229675 0.013000762090086937
0.5707115530967712 0.766529381275177 0.010487738065421581
0.5748382210731506 0.776288628578186 0.01004586648195982
0.5769100785255432 0.7891336679458618 0.016739696264266968
0.5771042704582214 0.8087731599807739 0.03941350057721138
0.5872456431388855 0.7346005439758301 0.045928679406642914
0.5960942506790161 0.7317102551460266 0.04917558655142784
0.6033825874328613 0.7274722456932068 0.05097901448607445
0.6269774436950684 0.712994396686554 0.0599294938147068
0.6969464421272278 0.6513129472732544 0.12799414992332458
0.5796341896057129 0.516751229763031 -0.03408060595393181
0.5746016502380371 0.46500837802886963 0.007604298647493124
0.582471489906311 0.4651845693588257 0.026950674131512642
0.5795500874519348 0.7319849133491516 0.04700210690498352
0.6817123889923096 0.7092660069465637 0.17338025569915771
0.5690674781799316 0.4676809310913086 -0.03335285559296608
0.5833781361579895 0.8296789526939392 0.05638107284903526
0.5807931423187256 0.533836841583252 -0.08027004450559616
0.6017725467681885 0.5843709707260132 -0.044940389692783356
0.5557745695114136 0.8507147431373596 0.027530847117304802
0.622735857963562 0.7694411873817444 0.09763242304325104
0.6252614259719849 0.6439085006713867 0.025096582248806953
0.6038113236427307 0.8024272918701172 0.07946620881557465
0.6691220998764038 0.6361734867095947 0.056651655584573746
0.6400985717773438 0.6664974093437195 0.044383805245161057
0.6756539344787598 0.6727049946784973 0.09114009141921997
0.5630650520324707 0.8813949823379517 0.03530693054199219
0.6062783002853394 0.5957115888595581 -0.020191596820950508
0.6346185803413391 0.7888344526290894 0.12789463996887207
0.6116968393325806 0.8231467604637146 0.10217369347810745
0.6420989632606506 0.7356770038604736 0.10416471213102341
0.6973992586135864 0.6762672066688538 0.1996060460805893
0.6611332297325134 0.7392075061798096 0.13545078039169312
0.6848794221878052 0.6933940052986145 0.26396116614341736
0.6473159790039062 0.6937401294708252 0.07014358788728714
0.5944534540176392 0.5594226121902466 -0.02840433083474636
0.6156949996948242 0.6407250165939331 -0.07697121053934097
0.6181461215019226 0.6422112584114075 -0.04641858488321304
0.6155211925506592 0.6258026957511902 -0.09988713264465332
0.594568133354187 0.444592148065567 0.0069876485504209995
0.6314358711242676 0.4307408928871155 0.015090208500623703
0.662584662437439 0.42758435010910034 0.03078232705593109
0.6846718788146973 0.4305381178855896 0.05322744697332382
0.6948024034500122 0.4389379322528839 0.07677620649337769
0.6892164349555969 0.47542351484298706 0.12416290491819382
0.7073689103126526 0.5354738235473633 0.2684849798679352
0.6796014308929443 0.5106741189956665 0.10179359465837479
0.6614763736724854 0.5196758508682251 0.07772918790578842
0.6346548199653625 0.520331084728241 0.05621545761823654
0.6085856556892395 0.5154489278793335 0.04038069397211075
0.5901463031768799 0.5086362361907959 0.026958106085658073
0.5787216424942017 0.5021111369132996 0.018489982932806015
0.6747573614120483 0.5321617722511292 0.3601803481578827
0.6121198534965515 0.6469253897666931 -0.034346699714660645
0.5972977876663208 0.5705798864364624 -0.070120669901371
0.61036217212677 0.645368754863739 -0.10303150862455368
0.5916739702224731 0.6572239398956299 -0.09777496755123138
0.6042752861976624 0.648280680179596 -0.09068939089775085
0.6032528877258301 0.6539716720581055 -0.02884044125676155
0.5907790064811707 0.6608110070228577 -0.10510488599538803
0.5802820920944214 0.6644190549850464 -0.0766744315624237
0.5766333341598511 0.4811391234397888 0.0297955684363842
0.5702059864997864 0.48971986770629883 0.007829690352082253
0.571445107460022 0.4964115619659424 -0.01288372091948986
0.676143229007721 0.460135817527771 0.08771571516990662
0.6857132911682129 0.45474153757095337 0.09224359691143036
