ply
format ascii 1.0
element vertex 468
property float x
property float y
property float z
end_header
0.5406851768493652 0.7397981882095337 -0.06537368148565292
0.564124584197998 0.6560385823249817 -0.1421383023262024
0.5441132187843323 0.6803790926933289 -0.07335469871759415
0.5262272953987122 0.5596140623092651 -0.11918097734451294
0.5653477907180786 0.6268385052680969 -0.15222759544849396
0.5583661794662476 0.5877480506896973 -0.1433231681585312
0.534299373626709 0.49282705783843994 -0.07701932638883591
0.3144342005252838 0.4804213047027588 -0.030711427330970764
0.5274505615234375 0.425462543964386 -0.06017827242612839
0.5286552906036377 0.38807982206344604 -0.06643170118331909
0.5175780057907104 0.2496906816959381 -0.04415187984704971
0.5389619469642639 0.7522655725479126 -0.060821257531642914
0.5357010364532471 0.7595691680908203 -0.052228350192308426
0.5314241647720337 0.760239839553833 -0.040521856397390366
0.5330626368522644 0.7613893151283264 -0.042976830154657364
0.5348876118659973 0.7702966928482056 -0.047778792679309845
0.5354750752449036 0.7822047472000122 -0.05509364977478981
0.5342423915863037 0.796688973903656 -0.05470527336001396
0.5277622938156128 0.8260872960090637 -0.033950842916965485
0.5587395429611206 0.6702154874801636 -0.12774351239204407
0.5226050615310669 0.6668217182159424 -0.09818083792924881
0.16404962539672852 0.3688579797744751 0.05602661520242691
0.39787930250167847 0.5031951665878296 -0.034756116569042206
0.37008562684059143 0.5051379203796387 -0.040880486369132996
0.34191828966140747 0.504081130027771 -0.041282959282398224
0.2989264726638794 0.4901174306869507 -0.029769321903586388
0.42085742950439453 0.49705201387405396 -0.02412019856274128
0.36350658535957336 0.4385015368461609 -0.057410139590501785
0.39224010705947876 0.4395507574081421 -0.04615123197436333
0.3346344828605652 0.44283270835876465 -0.056201688945293427
0.313335120677948 0.45181912183761597 -0.04985610023140907
0.27209413051605225 0.5071405172348022 -0.020553583279252052
0.41793766617774963 0.8818490505218506 -0.023461537435650826
0.3015974760055542 0.4746253788471222 -0.025254201143980026
0.15207666158676147 0.49307113885879517 0.07167674601078033
0.2327432632446289 0.4900803565979004 -0.0034178353380411863
0.3814294934272766 0.6194108724594116 -0.057316068559885025
0.5022667646408081 0.7352271676063538 -0.07367822527885437
0.4990200996398926 0.7584686875343323 -0.05774741247296333
0.456912636756897 0.7389836311340332 -0.06756503880023956
0.4227171540260315 0.7433777451515198 -0.05273844674229622
0.46483057737350464 0.7568641901016235 -0.05468463897705078
0.4357745051383972 0.754841685295105 -0.04070877656340599
0.37995922565460205 0.7782607078552246 -0.019435295835137367
0.5400773882865906 0.655457615852356 -0.14523650705814362
0.5380468368530273 0.6268043518066406 -0.15553127229213715
0.2673579454421997 0.4259069859981537 -0.05664631724357605
0.43987417221069336 0.5515788793563843 -0.049470677971839905
0.45280301570892334 0.640355110168457 -0.09880504757165909
0.447550505399704 0.6240174770355225 -0.0918293222784996
0.2837231159210205 0.6125669479370117 -0.04823252931237221
0.5329071283340454 0.5905379056930542 -0.14333218336105347
0.35045403242111206 0.3962728679180145 -0.08082325011491776
0.3047044277191162 0.40646976232528687 -0.07294458895921707
0.21003904938697815 0.31937867403030396 0.011283311992883682
0.4733273386955261 0.41791027784347534 -0.06864844262599945
0.4163948893547058 0.4474325478076935 -0.030451277270913124
0.35394081473350525 0.7519177198410034 -0.021429425105452538
0.15405547618865967 0.7616977095603943 0.16132311522960663
0.47091439366340637 0.6563257575035095 -0.08156098425388336
0.4951888620853424 0.6659455299377441 -0.07532350718975067
0.38019177317619324 0.7486230134963989 -0.014994491823017597
0.39115968346595764 0.7483052015304565 -0.016832634806632996
0.28484922647476196 0.38741379976272583 -0.06507638841867447
0.4454905390739441 0.6498510837554932 -0.08276394754648209
0.40659087896347046 0.3978518843650818 -0.07950470596551895
0.40236037969589233 0.3742886781692505 -0.0870397537946701
0.3540189564228058 0.2570188045501709 -0.057107146829366684
0.24973049759864807 0.35245776176452637 -0.03243856504559517
0.3830457627773285 0.31365230679512024 -0.07283631712198257
0.24278594553470612 0.412148118019104 -0.03991582989692688
0.2046966403722763 0.3919697701931 0.00610766327008605
0.5008789896965027 0.7501726150512695 -0.06849117577075958
0.4627223014831543 0.7505910396575928 -0.061842553317546844
0.43053096532821655 0.7497866153717041 -0.04832099750638008
0.4763466417789459 0.6609729528427124 -0.07306794077157974
0.386096715927124 0.7481523752212524 -0.01549704559147358
0.40590789914131165 0.7556638717651367 -0.02786036767065525
0.39346301555633545 0.7485073804855347 -0.017055561766028404
0.4967995584011078 0.6526838541030884 -0.1178128570318222
0.436726838350296 0.7517114877700806 -0.03495221957564354
0.4655964970588684 0.7556106448173523 -0.04289453104138374
0.49721282720565796 0.7587651610374451 -0.04655610769987106
0.488964319229126 0.8270750045776367 -0.040546584874391556
0.49751412868499756 0.7954782843589783 -0.06163904815912247
0.49976062774658203 0.7800382375717163 -0.06265715509653091
0.5000277757644653 0.7684844732284546 -0.054464299231767654
0.49990054965019226 0.7608071565628052 -0.048982709646224976
0.43656766414642334 0.7553750872612 -0.03619232773780823
0.4342470169067383 0.7575893998146057 -0.0410306453704834
0.43039506673812866 0.7636537551879883 -0.04584038630127907
0.4261470139026642 0.7728984355926514 -0.0428144671022892
0.4005875885486603 0.7152683734893799 -0.05110720545053482
0.1193690299987793 0.6189626455307007 0.18372568488121033
0.5517987012863159 0.6745740175247192 -0.09251730889081955
0.4160391092300415 0.7531353831291199 -0.024624457582831383
0.4116107225418091 0.7529891133308411 -0.027506601065397263
0.5057567358016968 0.678624153137207 -0.07545429468154907
0.45029154419898987 0.665322482585907 -0.05796453356742859
0.5008643865585327 0.6726226806640625 -0.07588322460651398
0.4080969989299774 0.5658749938011169 -0.04836150258779526
0.36009952425956726 0.5824107527732849 -0.05260952189564705
0.43800783157348633 0.634380042552948 -0.07667256891727448
0.27153754234313965 0.28095772862434387 -0.029060151427984238
0.3070964515209198 0.32524144649505615 -0.057103727012872696
0.33909130096435547 0.3731608986854553 -0.07978247851133347
0.41029173135757446 0.798713743686676 -0.029536370187997818
0.4672339856624603 0.38025957345962524 -0.08197376877069473
0.45228224992752075 0.313254177570343 -0.07241085916757584
0.43285706639289856 0.24791061878204346 -0.061235543340444565
0.31521499156951904 0.499368816614151 -0.036332305520772934
0.2365148514509201 0.5262329578399658 -0.012418823316693306
0.4355912506580353 0.49060630798339844 -0.01768300123512745
0.27544987201690674 0.45983850955963135 -0.036131247878074646
0.46239370107650757 0.5347751379013062 -0.05497509241104126
0.47873806953430176 0.633720338344574 -0.12095118314027786
0.19579321146011353 0.5454833507537842 0.007889103144407272
0.2633000314235687 0.5445112586021423 -0.030808689072728157
0.30665192008018494 0.5542723536491394 -0.04370802640914917
0.3642125427722931 0.5517573952674866 -0.042104966938495636
0.4046284854412079 0.5418746471405029 -0.03671823441982269
0.4347309470176697 0.5300975441932678 -0.03593237325549126
0.5073882937431335 0.49948740005493164 -0.07464167475700378
0.19853398203849792 0.6033594012260437 0.00393275311216712
0.24684742093086243 0.4553511142730713 -0.030999813228845596
0.5439856052398682 0.6690971255302429 -0.1306566447019577
0.4461682140827179 0.579866349697113 -0.05879023298621178
0.11876708269119263 0.4892798662185669 0.15377388894557953
0.4580482542514801 0.5158865451812744 -0.03501497581601143
0.4289188086986542 0.6342952847480774 -0.04919940233230591
0.2895164489746094 0.47611695528030396 -0.023239467293024063
0.4725781977176666 0.6135168075561523 -0.11175447702407837
0.1292409896850586 0.6893993616104126 0.17847034335136414
0.43299227952957153 0.4807358384132385 -0.012629899196326733
0.5035919547080994 0.5994481444358826 -0.13317590951919556
0.25866055488586426 0.824670672416687 0.0449608750641346
0.2484014481306076 0.8597186803817749 0.09138277918100357
0.14729446172714233 0.613990068435669 0.09140007197856903
0.20823481678962708 0.7886850833892822 0.06531383842229843
0.17578476667404175 0.43758508563041687 0.04519123584032059
0.41055455803871155 0.9113944172859192 -0.010135388001799583
0.5402673482894897 0.6734369993209839 -0.09331251680850983
0.4172916114330292 0.5983415842056274 -0.05399865284562111
0.19962628185749054 0.4949033260345459 0.015570349991321564
0.34682783484458923 0.4874240756034851 -0.03844022750854492
0.37152358889579773 0.4893423318862915 -0.038630787283182144
0.3992439806461334 0.7608435750007629 -0.02516566589474678
0.19670763611793518 0.6614744067192078 0.01844782382249832
0.4610974192619324 0.943442702293396 0.009331581182777882
0.36051610112190247 0.9166054725646973 0.0410953052341938
0.3100767731666565 0.8944000005722046 0.06323021650314331
0.5245129466056824 0.31785479187965393 -0.056908782571554184
0.5165014266967773 0.9430134892463684 0.01781151071190834
0.39396342635154724 0.48798614740371704 -0.0328691303730011
0.41459500789642334 0.4843534827232361 -0.02381974272429943
0.42708075046539307 0.4824144244194031 -0.015171974897384644
0.2171548306941986 0.44826534390449524 -0.010351575911045074
0.40946105122566223 0.4640173316001892 -0.029205596074461937
0.3858303427696228 0.4575212597846985 -0.04011240229010582
0.3633708655834198 0.45641735196113586 -0.04574979469180107
0.339091032743454 0.46040672063827515 -0.04604513570666313
0.3222733736038208 0.4666737914085388 -0.04097931459546089
0.13538512587547302 0.42190104722976685 0.10917244106531143
0.32849255204200745 0.484083354473114 -0.035104312002658844
0.541293740272522 0.6994611620903015 -0.06505396217107773
0.43437960743904114 0.7025461792945862 -0.06169293448328972
0.47395479679107666 0.6537238359451294 -0.0912422314286232
0.5001639127731323 0.7002463340759277 -0.07375975698232651
0.5268380641937256 0.45772862434387207 -0.058369021862745285
0.3119052052497864 0.8600987195968628 0.030927717685699463
0.3595268130302429 0.8872789144515991 0.01232084445655346
0.46691247820854187 0.9255544543266296 -0.02435881830751896
0.19657953083515167 0.8186340928077698 0.12785866856575012
0.42609545588493347 0.4740105867385864 -0.019780777394771576
0.4930185377597809 0.5451047420501709 -0.085179403424263
0.5246690511703491 0.9240034818649292 -0.015028518624603748
0.41072386503219604 0.9338610172271729 0.01804192177951336
0.1528474986553192 0.6780052185058594 0.09358837455511093
0.46710389852523804 0.7582206726074219 -0.04489249736070633
0.46486997604370117 0.7636294364929199 -0.05083876848220825
0.46317073702812195 0.7726649045944214 -0.05736183375120163
0.46076276898384094 0.7866227626800537 -0.05506271868944168
0.44656842947006226 0.8158466815948486 -0.039735812693834305
0.40753433108329773 0.7510446310043335 -0.028415491804480553
0.4014921188354492 0.7490130662918091 -0.03140363469719887
0.39435985684394836 0.7451651692390442 -0.034019846469163895
0.3697658181190491 0.7311111688613892 -0.03770047798752785
0.24703827500343323 0.6749268770217896 -0.02260512113571167
0.485623836517334 0.5155304074287415 -0.06274717301130295
0.4599897861480713 0.4614947438240051 -0.021688487380743027
0.4397841691970825 0.4657381772994995 -0.019568104296922684
0.41148072481155396 0.7479968667030334 -0.02483459934592247
0.23289448022842407 0.7444038391113281 0.018984058871865273
0.49007120728492737 0.4610101580619812 -0.050069183111190796
0.430298775434494 0.8491300344467163 -0.030113624408841133
0.5498979091644287 0.5555598139762878 -0.12020903825759888
0.5167837738990784 0.531411349773407 -0.09857222437858582
0.542258620262146 0.5256450176239014 -0.09770143777132034
0.47355055809020996 0.5884562134742737 -0.08710227906703949
0.5285674333572388 0.8957014083862305 -0.031440023332834244
0.5282309651374817 0.8589494824409485 -0.032965511083602905
0.48077765107154846 0.8614171743392944 -0.03830299898982048
0.3545016348361969 0.7962538003921509 -0.01234512496739626
0.40232834219932556 0.6553246974945068 -0.04834550619125366
0.38961493968963623 0.827305793762207 -0.019667360931634903
0.329183965921402 0.6506083011627197 -0.056754592806100845
0.37090542912483215 0.681664764881134 -0.04840640723705292
0.29485884308815 0.6943835616111755 -0.03903421759605408
0.47306588292121887 0.897833526134491 -0.038783080875873566
0.4504907429218292 0.601933479309082 -0.07185878604650497
0.3274897336959839 0.8236701488494873 0.00448587816208601
0.3723270297050476 0.8552465438842773 -0.0051172650419175625
0.3270072340965271 0.7613531351089478 -0.019136914983391762
0.19927164912223816 0.7111780643463135 0.03317192941904068
0.282814621925354 0.7716827392578125 -0.0026329373940825462
0.16899147629737854 0.7367332577705383 0.08874484151601791
0.3393842279911041 0.712868332862854 -0.04050356522202492
0.46995776891708374 0.5623478293418884 -0.07085961848497391
0.48899707198143005 0.6478617787361145 -0.1246325746178627
0.46216437220573425 0.6507763862609863 -0.09770522266626358
0.5080779790878296 0.6299223303794861 -0.14095550775527954
0.4412336051464081 0.439572274684906 -0.037209756672382355
0.39920803904533386 0.42602139711380005 -0.05491934344172478
0.36038705706596375 0.4235458970069885 -0.06527702510356903
0.32452988624572754 0.4282054305076599 -0.06469731777906418
0.2953079044818878 0.439872145652771 -0.05483350530266762
0.2651561498641968 0.48328500986099243 -0.016745848581194878
0.14627999067306519 0.5528393983840942 0.08114821463823318
0.2921786606311798 0.5183106064796448 -0.029314085841178894
0.3258153796195984 0.5259855389595032 -0.03665776178240776
0.3654923439025879 0.5263634324073792 -0.03733011707663536
0.40109115839004517 0.5210544466972351 -0.032248739153146744
0.42836204171180725 0.5126987099647522 -0.025108417496085167
0.4474795460700989 0.5041800737380981 -0.02215239778161049
0.11690807342529297 0.5533509254455566 0.17665472626686096
0.4582572281360626 0.6557648181915283 -0.08384206891059875
0.5003892779350281 0.5714476108551025 -0.10552939027547836
0.5159035921096802 0.651250422000885 -0.1385754942893982
0.5257587432861328 0.6642016172409058 -0.12259243428707123
0.5111673474311829 0.6552345752716064 -0.1257626861333847
0.4627920091152191 0.6629778742790222 -0.07130973786115646
0.5336707830429077 0.6670545935630798 -0.12803322076797485
0.5300387740135193 0.6714135408401489 -0.09568729251623154
0.444812148809433 0.48258650302886963 -0.011694507673382759
0.46277865767478943 0.48922091722488403 -0.021739982068538666
0.47575628757476807 0.4946689009666443 -0.037834085524082184
0.31135469675064087 0.47126394510269165 -0.034720342606306076
0.2947905659675598 0.4617350101470947 -0.03759672865271568
0.568970263004303 0.5597376227378845 -0.10239385813474655
0.6731452941894531 0.48366421461105347 0.0917990431189537
0.5738036632537842 0.6657418012619019 -0.08505845814943314
0.7220034599304199 0.38387471437454224 0.2433873414993286
0.6073001027107239 0.5065945386886597 0.04418568313121796
0.6317919492721558 0.5081773996353149 0.05401511862874031
0.6542004346847534 0.5067720413208008 0.0683671310544014
0.679110050201416 0.49331778287887573 0.09999515116214752
0.5872883796691895 0.500091016292572 0.03795987367630005
0.6430767774581909 0.44426828622817993 0.04177824407815933
0.6170092225074768 0.44482213258743286 0.03210943564772606
0.6653218865394592 0.4490485191345215 0.05827448144555092
0.678412675857544 0.45795899629592896 0.07409343868494034
0.6971537470817566 0.5105087161064148 0.11919571459293365
0.6090097427368164 0.8706830143928528 0.034215040504932404
0.6792515516281128 0.47855913639068604 0.10292602330446243
0.730632483959198 0.49843665957450867 0.2626444101333618
0.7143560647964478 0.49403464794158936 0.1531965285539627
0.6471951007843018 0.6186366081237793 0.022876430302858353
0.5730623006820679 0.7340216636657715 -0.05238138884305954
0.5645034909248352 0.7571234107017517 -0.0380484014749527
0.6017513275146484 0.7353715300559998 -0.023954976350069046
0.6179391741752625 0.7394925355911255 0.006875324063003063
0.5858222246170044 0.7539945244789124 -0.01675582304596901
0.6011298894882202 0.7517932653427124 0.010055054910480976
0.632926881313324 0.7720199823379517 0.05714879557490349
0.5838998556137085 0.6548420190811157 -0.13432902097702026
0.5869930982589722 0.6265547871589661 -0.1428021639585495
0.7116360664367676 0.4325977563858032 0.09086201339960098
0.5927542448043823 0.5525363683700562 0.0026839019265025854
0.6203188896179199 0.6388728022575378 -0.049672652035951614
0.6171258687973022 0.6229203343391418 -0.041230879724025726
0.7106480598449707 0.611366868019104 0.08403093367815018
0.5790246725082397 0.5904061794281006 -0.12680044770240784
0.6700964570045471 0.4034927487373352 0.02145104482769966
0.6966383457183838 0.41361451148986816 0.055060017853975296
0.7126049995422363 0.33638128638267517 0.17897248268127441
0.5739902853965759 0.4203227758407593 -0.034999050199985504
0.5937521457672119 0.45179837942123413 0.032760459929704666
0.6536315679550171 0.7461758852005005 0.07126283645629883
0.6939446926116943 0.7470527291297913 0.3364509344100952
0.6026554703712463 0.6546616554260254 -0.04519116133451462
0.583572268486023 0.6648343205451965 -0.05692603066563606
0.6329095959663391 0.7447666525840759 0.06520309299230576
0.621404767036438 0.7449747323989868 0.05391167849302292
0.7060319781303406 0.395901620388031 0.07143721729516983
0.6175510287284851 0.6481630206108093 -0.03492574766278267
0.6304513216018677 0.40335145592689514 -0.009546962566673756
0.6366797685623169 0.38067546486854553 -0.015018131583929062
0.6460014581680298 0.2702333629131317 0.038697946816682816
0.710180401802063 0.3650246560573578 0.1179443970322609
0.640862226486206 0.32307928800582886 0.009798535145819187
0.7200407385826111 0.4201616048812866 0.11795550584793091
0.7226285934448242 0.40347498655319214 0.17684230208396912
0.5700534582138062 0.748461127281189 -0.047354452311992645
0.5935054421424866 0.7473233938217163 -0.02087032049894333
0.6101006865501404 0.7460502982139587 0.006204378791153431
0.596000075340271 0.6591439247131348 -0.043212808668613434
0.6276447176933289 0.7447410821914673 0.05911264196038246
0.6177705526351929 0.7520835995674133 0.034948308020830154
0.6165818572044373 0.7452613711357117 0.0518764927983284
0.5986261367797852 0.6507338285446167 -0.08446820080280304
0.5934466123580933 0.7492687106132507 0.01314203254878521
0.5776737332344055 0.7534981966018677 -0.007181351538747549
0.5574767589569092 0.7577336430549622 -0.026801839470863342
0.5606896281242371 0.8242098093032837 -0.021518589928746223
0.5648165941238403 0.7936218976974487 -0.04061777889728546
0.5650862455368042 0.7782449126243591 -0.04090297967195511
0.563293993473053 0.766994059085846 -0.03280274569988251
0.5598910450935364 0.7594582438468933 -0.0283884946256876
0.5973023176193237 0.7524145841598511 0.01206296868622303
0.601481020450592 0.7545552849769592 0.007072996813803911
0.6060581207275391 0.7602320909500122 0.0041741118766367435
0.6093083620071411 0.7688907384872437 0.010836916975677013
0.6373583674430847 0.7118121385574341 0.01737595908343792
0.7073327302932739 0.6154913306236267 0.3788910508155823
0.6059727668762207 0.7499412298202515 0.03557794168591499
0.6121933460235596 0.749771237373352 0.03296550363302231
0.5754013657569885 0.6775177717208862 -0.05736543610692024
0.6071466207504272 0.6634800434112549 -0.02000136487185955
0.5795220732688904 0.6716043949127197 -0.05827048793435097
0.6168015599250793 0.5667832493782043 0.021549277007579803
0.6570438146591187 0.5829809904098511 0.04210233688354492
0.6180027723312378 0.6331087946891785 -0.02462811768054962
0.6896932125091553 0.29758718609809875 0.10747665911912918
0.684598982334137 0.33736559748649597 0.06350035965442657
0.6777676343917847 0.3814733922481537 0.028432542458176613
0.6144998669624329 0.7922019958496094 0.03312487527728081
0.5850090980529785 0.38412362337112427 -0.04536483809351921
0.5890871286392212 0.318571001291275 -0.029208272695541382
0.5909765958786011 0.25556981563568115 -0.01306003425270319
0.6709871292114258 0.5020080804824829 0.08585480600595474
0.7197173833847046 0.5290592908859253 0.1429825872182846
0.5752536058425903 0.4929371178150177 0.037583231925964355
0.6981379985809326 0.46480438113212585 0.10596979409456253
0.5778802037239075 0.5357182621955872 -0.013536575250327587
0.6122910380363464 0.6327797770500183 -0.08123334497213364
0.7369586229324341 0.5471420884132385 0.1836063116788864
0.7116913199424744 0.5465537309646606 0.11499734967947006
0.6882479190826416 0.5560402274131775 0.08051124960184097
0.6453906297683716 0.5532968640327454 0.05304659157991409
0.6116232872009277 0.5434597730636597 0.0353165939450264
0.5874484181404114 0.5316079258918762 0.017988815903663635
0.55461186170578 0.5001534223556519 -0.056895911693573
0.7429928779602051 0.6015709638595581 0.17881900072097778
0.7131736874580383 0.4607768654823303 0.12449055165052414
0.5708910226821899 0.6686977744102478 -0.12187815457582474
0.5973358750343323 0.5802576541900635 -0.008315819315612316
0.7149047255516052 0.49581021070480347 0.35535675287246704
0.5708565711975098 0.5175063014030457 0.007074541877955198
0.6149668097496033 0.6330816745758057 0.0028218606021255255
0.6846380233764648 0.4804297089576721 0.1114821508526802
0.6073393821716309 0.6130779981613159 -0.07135747373104095
0.7035377621650696 0.6802772283554077 0.36545053124427795
0.5739077925682068 0.4826511740684509 0.045186690986156464
0.5942200422286987 0.5991926193237305 -0.10391174256801605
0.6843162178993225 0.8072066903114319 0.17576855421066284
0.6648910045623779 0.8388798236846924 0.22427169978618622
0.7370910048484802 0.6107593774795532 0.28221485018730164
0.7074857950210571 0.772790253162384 0.21915479004383087
0.726412296295166 0.44685494899749756 0.227689728140831
0.6086989641189575 0.8978016376495361 0.05220597982406616
0.5619409084320068 0.6732649803161621 -0.08804541081190109
0.6169887781143188 0.5982925891876221 0.00827806256711483
0.7265628576278687 0.49896907806396484 0.18819226324558258
0.6528511047363281 0.4907453954219818 0.06917881220579147
0.6323222517967224 0.49315065145492554 0.05669598653912544
0.6222059726715088 0.7568134069442749 0.04226406291127205
0.7403210401535034 0.655682384967804 0.18718141317367554
0.5639112591743469 0.9352594017982483 0.04352925717830658
0.6179237365722656 0.8982778787612915 0.12751273810863495
0.6390758752822876 0.8735900521278381 0.17165963351726532
0.6111111044883728 0.49193382263183594 0.048080459237098694
0.5914352536201477 0.4877779483795166 0.04577784985303879
0.5793934464454651 0.485036700963974 0.04715690389275551
0.7225884199142456 0.454908549785614 0.1570962816476822
0.5941556692123413 0.46663880348205566 0.04181116819381714
0.6148747801780701 0.46101999282836914 0.04264192283153534
0.6365718841552734 0.4598838686943054 0.050825104117393494
0.6572393178939819 0.4640772342681885 0.06399587541818619
0.6689666509628296 0.47056978940963745 0.07681626081466675
0.7222232818603516 0.4336817264556885 0.306356817483902
0.6654021739959717 0.4871825873851776 0.08191017061471939
0.61807781457901 0.6998836398124695 -0.009650861844420433
0.6056229472160339 0.651914119720459 -0.05655240640044212
0.5761061906814575 0.6988474130630493 -0.05200594291090965
0.6562420129776001 0.8418981432914734 0.13696947693824768
0.6322986483573914 0.8699952363967896 0.0961756557226181
0.573875367641449 0.9179444909095764 0.00925152376294136
0.6812677979469299 0.8000245690345764 0.2848570942878723
0.5804916620254517 0.47591155767440796 0.043668992817401886
0.5747196674346924 0.5455522537231445 -0.05712336674332619
0.5956504344940186 0.9195008277893066 0.0813981220126152
0.731926441192627 0.6698758006095886 0.27688977122306824
0.5815863609313965 0.7558530569076538 -0.008647137321531773
0.5857201814651489 0.7610535025596619 -0.013624981045722961
0.5888786911964417 0.76983642578125 -0.01785588264465332
0.5903510451316833 0.7833408713340759 -0.014008961617946625
0.5915724635124207 0.8106459975242615 0.005849882960319519
0.6142399907112122 0.7479508519172668 0.03434901311993599
0.6224355697631836 0.7453824281692505 0.037501923739910126
0.6293736100196838 0.7413478493690491 0.038860004395246506
0.6521613597869873 0.7267971038818359 0.04766278341412544
0.725480854511261 0.6695071458816528 0.12055594474077225
0.5654457807540894 0.5164871215820312 -0.03331579640507698
0.5623595714569092 0.4635933041572571 0.015242309309542179
0.5724783539772034 0.46832045912742615 0.03348096087574959
0.6060583591461182 0.7454152703285217 0.035740699619054794
0.7164154052734375 0.7335260510444641 0.16390839219093323
0.5519693493843079 0.4621761441230774 -0.02828238345682621
0.5997055172920227 0.8404890894889832 0.020252451300621033
0.5625549554824829 0.5315566658973694 -0.08345938473939896
0.5926878452301025 0.5883404016494751 -0.05011835694313049
0.5673238635063171 0.8566890358924866 -0.013938575983047485
0.6475064158439636 0.7866595387458801 0.07610924541950226
0.6331326961517334 0.653444230556488 0.017225634306669235
0.6240149736404419 0.8173406720161438 0.05017085373401642
0.6862472295761108 0.6481261253356934 0.0465238131582737
0.655770480632782 0.6787272691726685 0.03403647243976593
0.7024153470993042 0.6889257431030273 0.07895835489034653
0.5750651955604553 0.891549289226532 -0.006916247308254242
0.6021674275398254 0.6017484664916992 -0.025343241170048714
0.6593103408813477 0.8097140789031982 0.10545001178979874
0.6323679089546204 0.8414503335952759 0.07262199372053146
0.6708246469497681 0.7532436847686768 0.0876062661409378
0.7315265536308289 0.7018543481826782 0.1946295201778412
0.691786527633667 0.7601718902587891 0.11990596354007721
0.7226626873016357 0.7243362665176392 0.2628295421600342
0.6729117631912231 0.7084499597549438 0.057610075920820236
0.5848201513290405 0.5627878308296204 -0.03089476004242897
0.6067256927490234 0.6461337804794312 -0.08857789635658264
0.6149590015411377 0.6488779187202454 -0.056343238800764084
0.601986825466156 0.6290758848190308 -0.11223239451646805
0.5825537443161011 0.4420469403266907 0.013524064794182777
0.621856689453125 0.4305039346218109 0.01968165673315525
0.654784083366394 0.4300277829170227 0.032926175743341446
0.6799068450927734 0.435264527797699 0.054344721138477325
0.6941866874694824 0.4463050067424774 0.07843626290559769
0.6979171633720398 0.48715323209762573 0.12687192857265472
0.7365694046020508 0.5540143251419067 0.2764928936958313
0.6880512833595276 0.521093487739563 0.10213726758956909
0.6678721904754639 0.5283613204956055 0.07777336984872818
0.6378315091133118 0.528972864151001 0.05675624683499336
0.6077495813369751 0.5235088467597961 0.042061854153871536
0.5849497318267822 0.5149731636047363 0.030873265117406845
0.5702121257781982 0.5060758590698242 0.02336244098842144
0.7083730101585388 0.5551239848136902 0.3771462142467499
0.610951840877533 0.6538766026496887 -0.04324957728385925
0.5825739502906799 0.5716307759284973 -0.07666172087192535
0.597002387046814 0.6498329639434814 -0.11576233804225922
0.5792418122291565 0.6627874970436096 -0.10937563329935074
0.5926487445831299 0.6534407734870911 -0.10235750675201416
0.6028974056243896 0.6612429022789001 -0.03722967952489853
0.5772092938423157 0.6662431359291077 -0.11732026934623718
0.56925368309021 0.6707082986831665 -0.08658692240715027
0.567584216594696 0.4846780002117157 0.036083489656448364
0.5589599609375 0.49117299914360046 0.014148128218948841
0.5582656860351562 0.49631232023239136 -0.008272533304989338
0.6752422451972961 0.475191593170166 0.08862557262182236
0.6864415407180786 0.4669263958930969 0.09322100877761841
