ply
format ascii 1.0
element vertex 468
property float x
property float y
property float z
end_header
0.4572051763534546 0.6850308179855347 -0.08185336738824844
0.43427062034606934 0.6036323308944702 -0.1400924175977707
0.4534737169742584 0.6342346668243408 -0.08165838569402695
0.43191149830818176 0.5272455215454102 -0.09135456383228302
0.4334380030632019 0.5774157643318176 -0.14620599150657654
0.44057154655456543 0.5466550588607788 -0.13370825350284576
0.4651820957660675 0.47469788789749146 -0.058363135904073715
0.33686983585357666 0.48375219106674194 0.09960994124412537
0.47288277745246887 0.4144026041030884 -0.033732347190380096
0.4725276529788971 0.38026267290115356 -0.0338716134428978
0.4839269816875458 0.2651398181915283 0.003675718093290925
0.4588240087032318 0.6974821090698242 -0.07951165735721588
0.4626631438732147 0.7067357897758484 -0.07345690578222275
0.4673008620738983 0.7098362445831299 -0.06367138028144836
0.468759685754776 0.756333589553833 -0.05111086741089821
0.4668995440006256 0.7669211626052856 -0.056184396147727966
0.46643781661987305 0.7798651456832886 -0.062153566628694534
0.4676414728164673 0.7948662042617798 -0.0587802417576313
0.47313523292541504 0.815496563911438 -0.03875447437167168
0.43942368030548096 0.6189010143280029 -0.128721684217453
0.42843830585479736 0.6194593906402588 -0.09000445902347565
0.300985187292099 0.40662330389022827 0.2561416029930115
0.3958021402359009 0.5016857385635376 0.052622128278017044
0.3742317855358124 0.5037288665771484 0.06146949529647827
0.35436537861824036 0.5026475191116333 0.07532096654176712
0.33090484142303467 0.4925658702850342 0.10624954104423523
0.4135185778141022 0.4950035810470581 0.04718587175011635
0.3659733533859253 0.43871575593948364 0.05681478604674339
0.38933616876602173 0.4401741027832031 0.04770093411207199
0.3447539806365967 0.44315069913864136 0.07217124104499817
0.3319515287876129 0.4532092809677124 0.08675801753997803
0.31635916233062744 0.5077305436134338 0.12198276817798615
0.3987586498260498 0.8383207321166992 0.01671965792775154
0.3315638601779938 0.4799059331417084 0.1114262267947197
0.2932582199573517 0.5080751180648804 0.2563466727733612
0.30356112122535706 0.49499747157096863 0.15675443410873413
0.35921984910964966 0.5927608609199524 0.017801746726036072
0.4247966408729553 0.6805698275566101 -0.0677143856883049
0.4338386058807373 0.7053371071815491 -0.05870487540960312
0.39662981033325195 0.6854696869850159 -0.039952438324689865
0.3825370967388153 0.693960964679718 -0.0077306367456912994
0.41335272789001465 0.7051411271095276 -0.03581446036696434
0.4001413583755493 0.7071391344070435 -0.006738974247127771
0.3730916380882263 0.744458794593811 0.04392275959253311
0.4171135425567627 0.6032629609107971 -0.13258112967014313
0.4142969846725464 0.5784786343574524 -0.13729947805404663
0.30515921115875244 0.43048515915870667 0.10842186957597733
0.40946653485298157 0.5345088243484497 0.007673530839383602
0.38383111357688904 0.6000112295150757 -0.053851522505283356
0.38602888584136963 0.5877683162689209 -0.04423220083117485
0.30229702591896057 0.5914303064346313 0.07628611475229263
0.42185571789741516 0.549989640712738 -0.11823634058237076
0.34285518527030945 0.3980819880962372 0.046658795326948166
0.3185997009277344 0.4092698395252228 0.07757021486759186
0.3091433048248291 0.35874807834625244 0.2037053406238556
0.42865708470344543 0.41210272908210754 -0.010336239822208881
0.4100143313407898 0.4481394290924072 0.04718766361474991
0.3566857576370239 0.712717592716217 0.05488209426403046
0.3364259600639343 0.7343688607215881 0.2877890467643738
0.4013625979423523 0.614183247089386 -0.05168876051902771
0.4196505844593048 0.6231784224510193 -0.06457672268152237
0.3710367679595947 0.7128390073776245 0.05059166997671127
0.383548378944397 0.7141208052635193 0.040542472153902054
0.3114532232284546 0.3949795961380005 0.09499491751194
0.386896014213562 0.6109658479690552 -0.04192601516842842
0.37783151865005493 0.3970840573310852 0.01619868353009224
0.37344515323638916 0.37697523832321167 0.014234772883355618
0.3675178289413452 0.28824764490127563 0.08005475252866745
0.3094904124736786 0.37595486640930176 0.1432359218597412
0.37098896503448486 0.3301798105239868 0.04638884589076042
0.29878219962120056 0.42252153158187866 0.13521723449230194
0.2988256812095642 0.41579264402389526 0.19297221302986145
0.4278106987476349 0.6949265003204346 -0.06500730663537979
0.40492117404937744 0.6968663930892944 -0.03816180303692818
0.3904638886451721 0.7003225684165955 -0.009082263335585594
0.4079391360282898 0.6189999580383301 -0.05053459852933884
0.3766048550605774 0.7132882475852966 0.04480581730604172
0.38500022888183594 0.7310086488723755 0.02616754360496998
0.38928017020225525 0.7146544456481934 0.03894167020916939
0.40477752685546875 0.6052762866020203 -0.08620546758174896
0.40803027153015137 0.7058662176132202 -0.005165981128811836
0.4217468500137329 0.7061094045639038 -0.028349531814455986
0.4411124587059021 0.7082111835479736 -0.04898754879832268
0.437893807888031 0.8117204904556274 -0.026136578992009163
0.4333656132221222 0.7891625761985779 -0.04364796727895737
0.43337100744247437 0.7743165493011475 -0.04528571292757988
0.4363207221031189 0.7613877654075623 -0.03886498883366585
0.4408363997936249 0.7525246739387512 -0.03489580377936363
0.4067583680152893 0.7381202578544617 0.00589468888938427
0.40139228105545044 0.7407368421554565 0.0017574077937752008
0.39474213123321533 0.7463803887367249 -0.0008751469431445003
0.3909091055393219 0.7541208267211914 0.005206866189837456
0.36931687593460083 0.6722986102104187 0.00515709538012743
0.31974315643310547 0.6201572418212891 0.3441495895385742
0.4461286664009094 0.6264061331748962 -0.09814911335706711
0.3991323709487915 0.7304924726486206 0.027193661779165268
0.3911091983318329 0.7295705080032349 0.02469838596880436
0.42616674304008484 0.6340762376785278 -0.06655711680650711
0.3970069885253906 0.6257197260856628 -0.029517823830246925
0.42298629879951477 0.6288673281669617 -0.06650290638208389
0.3862055838108063 0.5481444001197815 0.023028628900647163
0.3498115539550781 0.5632070302963257 0.04035308584570885
0.38542357087135315 0.5990174412727356 -0.030455974861979485
0.3291221857070923 0.3184254467487335 0.14162492752075195
0.33221912384033203 0.3464982211589813 0.09475989639759064
0.336880087852478 0.37931299209594727 0.05600624158978462
0.3884705901145935 0.7700974941253662 0.02381361462175846
0.41997313499450684 0.3787792921066284 -0.014744692482054234
0.4177214503288269 0.3239602744579315 0.009898770600557327
0.417142778635025 0.2720431983470917 0.03256145864725113
0.33867207169532776 0.4993622899055481 0.09247752279043198
0.2979053854942322 0.524731457233429 0.1418091505765915
0.42467302083969116 0.4878341257572174 0.04731006547808647
0.31553640961647034 0.4637417197227478 0.11721288412809372
0.4238828718662262 0.5184227228164673 -0.005411430727690458
0.3911958336830139 0.5900529623031616 -0.08173973113298416
0.2839629650115967 0.5438418388366699 0.17647726833820343
0.30320972204208374 0.5373907089233398 0.11352142691612244
0.3226137161254883 0.5428226590156555 0.08033882826566696
0.36070916056632996 0.5393603444099426 0.05481867492198944
0.39175280928611755 0.5303830504417419 0.03912081569433212
0.4146524667739868 0.5189286470413208 0.024769950658082962
0.4464665949344635 0.4826873540878296 -0.040696028620004654
0.27726611495018005 0.5903417468070984 0.1650032103061676
0.3040628433227539 0.4616321325302124 0.1358030140399933
0.4294268786907196 0.6178640723228455 -0.12347613275051117
0.404715359210968 0.5557023286819458 -0.0073341187089681625
0.30889517068862915 0.5136048793792725 0.34040403366088867
0.4301767349243164 0.5049170255661011 0.01610797829926014
0.3880891799926758 0.6014171242713928 -0.004801557399332523
0.325812429189682 0.4805935025215149 0.11912994086742401
0.39523887634277344 0.575348436832428 -0.07050903141498566
0.3254130184650421 0.6759849786758423 0.32288122177124023
0.42661648988723755 0.4795301556587219 0.055607300251722336
0.4079359471797943 0.5602290034294128 -0.09852366894483566
0.3432689905166626 0.7781651020050049 0.14217741787433624
0.3629348576068878 0.8103924989700317 0.17935815453529358
0.28774458169937134 0.6070055961608887 0.2577475607395172
0.323183536529541 0.7494652271270752 0.18206222355365753
0.29585000872612 0.4592866897583008 0.23294737935066223
0.4017842710018158 0.8616547584533691 0.027589742094278336
0.4377593994140625 0.6253007054328918 -0.09403494745492935
0.38610386848449707 0.5731673836708069 0.005345115438103676
0.29438096284866333 0.5018614530563354 0.18829305469989777
0.35512977838516235 0.48871201276779175 0.07721898704767227
0.3737298250198364 0.490287721157074 0.06525493413209915
0.3800758719444275 0.7341182231903076 0.03169386833906174
0.2814919352531433 0.6390657424926758 0.16496768593788147
0.4406890571117401 0.8978406190872192 0.014546126127243042
0.3969167470932007 0.8615328073501587 0.09241077303886414
0.38224172592163086 0.8395464420318604 0.1321844458580017
0.47687387466430664 0.3218466341495514 -0.01613207906484604
0.48366600275039673 0.9071364402770996 -0.009519929997622967
0.39226025342941284 0.489108681678772 0.05750563368201256
0.4094506502151489 0.4850877523422241 0.05551107972860336
0.42061638832092285 0.482257604598999 0.057265955954790115
0.29717645049095154 0.4593455195426941 0.1668076515197754
0.4094155430793762 0.468100905418396 0.05420970544219017
0.39185065031051636 0.4643808603286743 0.056013379245996475
0.3729207217693329 0.4634558856487274 0.06339074671268463
0.3542289733886719 0.46686720848083496 0.07582075893878937
0.3425062596797943 0.47223949432373047 0.08725927770137787
0.30096277594566345 0.45524686574935913 0.3055790960788727
0.3439158499240875 0.48624086380004883 0.08972901105880737
0.45670992136001587 0.651875913143158 -0.0757150650024414
0.3861408233642578 0.658579409122467 -0.021294113248586655
0.39837127923965454 0.610201895236969 -0.06118141859769821
0.4239753484725952 0.6529350876808167 -0.062044475227594376
0.47276973724365234 0.4454813599586487 -0.03669672831892967
0.3652345538139343 0.8090202808380127 0.10687722265720367
0.3842270076274872 0.8344000577926636 0.06879141181707382
0.43131402134895325 0.8825801014900208 -0.011636745184659958
0.3488156795501709 0.7794038653373718 0.23555560410022736
0.42094144225120544 0.47439348697662354 0.05556271970272064
0.42700082063674927 0.5209652781486511 -0.046900201588869095
0.47636502981185913 0.8904989361763 -0.03427889570593834
0.4138273596763611 0.8817439079284668 0.050033219158649445
0.29468202590942383 0.6595983505249023 0.24440215528011322
0.42064812779426575 0.746078372001648 -0.014359401538968086
0.41492143273353577 0.7519417405128479 -0.018470756709575653
0.4101058840751648 0.7617237567901611 -0.021180730313062668
0.40792953968048096 0.7747358679771423 -0.017118148505687714
0.4081680178642273 0.7937601208686829 -4.799945236300118e-05
0.3893071711063385 0.7087715864181519 0.0199054516851902
0.3804919123649597 0.7053872346878052 0.02313917689025402
0.37344175577163696 0.7012726664543152 0.02481883019208908
0.357597678899765 0.6894304752349854 0.03425975888967514
0.29352787137031555 0.6467638611793518 0.10340046137571335
0.43615972995758057 0.49932312965393066 -0.02146555855870247
0.437742680311203 0.4577741026878357 0.02999008446931839
0.42841315269470215 0.46399086713790894 0.04708310589194298
0.3979809284210205 0.7068189382553101 0.02013806812465191
0.3088749647140503 0.7091207504272461 0.1368667185306549
0.44866693019866943 0.4522840976715088 -0.009974687360227108
0.40430957078933716 0.8143047094345093 0.008983870968222618
0.44923847913742065 0.5226755738258362 -0.10749350488185883
0.43856537342071533 0.5064483880996704 -0.06898806244134903
0.4570361375808716 0.5002813339233398 -0.08164261281490326
0.4085661470890045 0.5575944781303406 -0.047005318105220795
0.4732358157634735 0.8671256899833679 -0.04358131065964699
0.4732072949409485 0.8388205766677856 -0.0416070781648159
0.43394583463668823 0.8340935707092285 -0.023301338776946068
0.36512792110443115 0.7560245990753174 0.05935487896203995
0.3735957741737366 0.6219710111618042 0.008918123319745064
0.3837957978248596 0.7882142066955566 0.0364195890724659
0.32613104581832886 0.6216226816177368 0.03763781115412712
0.35476207733154297 0.6466365456581116 0.023822365328669548
0.31553909182548523 0.661179780960083 0.06455190479755402
0.42881956696510315 0.860788106918335 -0.021327950060367584
0.3994978666305542 0.5717303156852722 -0.026399459689855576
0.35829681158065796 0.7782516479492188 0.0822833999991417
0.3806617856025696 0.8086827993392944 0.05180279165506363
0.34576350450515747 0.721002459526062 0.06938784569501877
0.29349321126937866 0.6818289756774902 0.16691532731056213
0.3299374580383301 0.7311768531799316 0.0973874107003212
0.3068334758281708 0.7080870866775513 0.22579550743103027
0.3423444926738739 0.6753754615783691 0.044331204146146774
0.4168296456336975 0.5384838581085205 -0.025635791942477226
0.3968205451965332 0.6008272767066956 -0.08937325328588486
0.38924676179885864 0.607900857925415 -0.06118942052125931
0.4012611508369446 0.5828251242637634 -0.10918547958135605
0.41977933049201965 0.43633347749710083 0.031901486217975616
0.38482004404067993 0.4239267110824585 0.04005693644285202
0.35514310002326965 0.4227406978607178 0.05286689102649689
0.3321034014225006 0.4288630783557892 0.0726875513792038
0.31861287355422974 0.44244900345802307 0.09466421604156494
0.3162904381752014 0.4874434471130371 0.13324660062789917
0.28828689455986023 0.55712890625 0.26066693663597107
0.3232024312019348 0.5156891942024231 0.10481380671262741
0.34142857789993286 0.5204645991325378 0.08183608949184418
0.3683387041091919 0.5203344821929932 0.06186073645949364
0.39542898535728455 0.5152920484542847 0.04814797267317772
0.41648155450820923 0.5065776109695435 0.03884051740169525
0.4298175275325775 0.4974604845046997 0.03221079707145691
0.3163975179195404 0.5671167969703674 0.3521941304206848
0.39333751797676086 0.6145104169845581 -0.04986046627163887
0.4188459515571594 0.5400605797767639 -0.06919398158788681
0.4062345027923584 0.6005576848983765 -0.11479081213474274
0.4232251048088074 0.6147323846817017 -0.11102258414030075
0.4105643332004547 0.6058232188224792 -0.10320273786783218
0.4011633098125458 0.6221595406532288 -0.04541080817580223
0.4243755638599396 0.6165513396263123 -0.11880647391080856
0.4320554733276367 0.6235241293907166 -0.09208379685878754
0.43252313137054443 0.47927701473236084 0.04649222642183304
0.4405517578125 0.48294055461883545 0.025356771424412727
0.44198083877563477 0.4847802519798279 0.004094915930181742
0.3359496593475342 0.47635307908058167 0.0980408564209938
0.3244262933731079 0.4651355743408203 0.10400727391242981
0.47093337774276733 0.5270954370498657 -0.10749674588441849
0.6730566024780273 0.4789063632488251 -0.016643134877085686
0.4707031548023224 0.620573878288269 -0.102719247341156
0.8085494041442871 0.3910924792289734 0.07864735275506973
0.5958490967750549 0.49809345602989197 -0.022358998656272888
0.6214442849159241 0.5000594854354858 -0.028263431042432785
0.647447407245636 0.4989387094974518 -0.02858336828649044
0.6871688365936279 0.48770999908447266 -0.016908034682273865
0.5745089054107666 0.4916227459907532 -0.011428359895944595
0.6264406442642212 0.42962419986724854 -0.03731124475598335
0.5988872647285461 0.43194466829299927 -0.0261396374553442
0.654792845249176 0.43399739265441895 -0.03659653291106224
0.6756675243377686 0.4444049000740051 -0.03088689036667347
0.7099237442016602 0.5029290914535522 -0.009941698051989079
0.5793442726135254 0.8495759963989258 -0.03829294070601463
0.6844574809074402 0.47403407096862793 -0.010259517468512058
0.8140990734100342 0.5014044046401978 0.07629991322755814
0.7442048192024231 0.48845186829566956 0.008638590574264526
0.6070051789283752 0.5932660102844238 -0.059041865170001984
0.4971119165420532 0.6821426749229431 -0.08967271447181702
0.5006105899810791 0.7071691751480103 -0.07901503145694733
0.5436709523200989 0.690248429775238 -0.08408214896917343
0.5781132578849792 0.6993914842605591 -0.06750088930130005
0.5345370173454285 0.7091535925865173 -0.07536134868860245
0.5640798807144165 0.7115089893341064 -0.05892171710729599
0.6209327578544617 0.7519453167915344 -0.030784837901592255
0.4554838538169861 0.6037304401397705 -0.14284197986125946
0.45807304978370667 0.5786353945732117 -0.14939846098423004
0.7186601161956787 0.4187129735946655 -0.030744893476366997
0.5527748465538025 0.5336824059486389 -0.042384594678878784
0.537448525428772 0.601669430732727 -0.10157765448093414
0.5428967475891113 0.5890827178955078 -0.09371743351221085
0.6973371505737305 0.5912298560142517 -0.04982767999172211
0.463731586933136 0.549989640712738 -0.13418105244636536
0.6419311761856079 0.3847635090351105 -0.048550743609666824
0.6848217844963074 0.3963261842727661 -0.042460206896066666
0.7679727077484131 0.3405095934867859 0.044478122144937515
0.5257890224456787 0.4069506525993347 -0.04099778085947037
0.5765683054924011 0.44148820638656616 -0.012750104069709778
0.6425155997276306 0.7193542718887329 -0.03378182277083397
0.7995288968086243 0.746134340763092 0.12244376540184021
0.5199319124221802 0.6162769198417664 -0.08741484582424164
0.49700260162353516 0.6247180104255676 -0.0821751207113266
0.6239594221115112 0.7188267111778259 -0.02782033570110798
0.6122460961341858 0.7192941308021545 -0.029452983289957047
0.7033010125160217 0.38021886348724365 -0.03314154967665672
0.5444614291191101 0.6131170392036438 -0.08864080160856247
0.5890493988990784 0.38652878999710083 -0.049152906984090805
0.5926527380943298 0.36510321497917175 -0.053135182708501816
0.6346216201782227 0.2734506130218506 -0.010085687041282654
0.7333314418792725 0.3597829043865204 0.0009296964854001999
0.6089827418327332 0.31686896085739136 -0.031358715146780014
0.740333080291748 0.4094201624393463 -0.013656098395586014
0.7728689312934875 0.4017217457294464 0.03153271600604057
0.4986494779586792 0.696877121925354 -0.08685386180877686
0.5380232930183411 0.7012724280357361 -0.0804300308227539
0.5705024003982544 0.7053459286689758 -0.06490763276815414
0.5149130821228027 0.6211119294166565 -0.07930506765842438
0.6181985139846802 0.7188332080841064 -0.0282253660261631
0.5997642278671265 0.7364841103553772 -0.03671475127339363
0.6089208722114563 0.7196065187454224 -0.029025599360466003
0.49553796648979187 0.6067283749580383 -0.11849357932806015
0.5625575184822083 0.7095653414726257 -0.054619017988443375
0.533244788646698 0.7093144059181213 -0.06533229351043701
0.5021941065788269 0.7094253897666931 -0.06996165961027145
0.5159308910369873 0.8150267004966736 -0.0464458130300045
0.509663462638855 0.7921491861343384 -0.0668298751115799
0.5067312121391296 0.7771798372268677 -0.06962523609399796
0.5051411390304565 0.7643615007400513 -0.06307631731033325
0.5038008689880371 0.7553150057792664 -0.057861749082803726
0.5662840604782104 0.7427434921264648 -0.044026605784893036
0.5701591968536377 0.7453948855400085 -0.048421259969472885
0.5761258006095886 0.7516138553619385 -0.05255785211920738
0.581574022769928 0.7597712278366089 -0.049494851380586624
0.5936779975891113 0.6763375401496887 -0.06238476186990738
0.8367329239845276 0.6218878626823425 0.16032129526138306
0.5865398049354553 0.7351541519165039 -0.03317468613386154
0.5927184224128723 0.7347326874732971 -0.036220159381628036
0.4887901544570923 0.6356906294822693 -0.08376944065093994
0.5407396554946899 0.628424882888794 -0.06710156053304672
0.49233514070510864 0.6306127309799194 -0.08339282125234604
0.5829467177391052 0.5472881197929382 -0.04382237419486046
0.6280157566070557 0.5620042085647583 -0.049605924636125565
0.5523720979690552 0.6008065938949585 -0.08136595785617828
0.7110434174537659 0.29992687702178955 0.012341422960162163
0.6805839538574219 0.3302434980869293 -0.01916380412876606
0.6525095105171204 0.3645341396331787 -0.045573897659778595
0.5933414101600647 0.7774655818939209 -0.03890892490744591
0.5314810276031494 0.3717311918735504 -0.048179201781749725
0.5440729856491089 0.31680265069007874 -0.029893960803747177
0.561472475528717 0.2636474370956421 -0.012800991535186768
0.6720770597457886 0.4952573776245117 -0.02378954365849495
0.7402554154396057 0.5204045176506042 -0.0048276567831635475
0.5604042410850525 0.4848019480705261 -0.004951281473040581
0.7093633413314819 0.45550042390823364 -0.01678634062409401
0.5319510698318481 0.5174770951271057 -0.04520084336400032
0.5129514336585999 0.5911691784858704 -0.12008555233478546
0.7752727270126343 0.5404965281486511 0.011157047934830189
0.717102587223053 0.5339509844779968 -0.0246034674346447
0.6779307723045349 0.5398938059806824 -0.03788904845714569
0.6252593994140625 0.5372337698936462 -0.03551635891199112
0.5872328281402588 0.5285859704017639 -0.029516249895095825
0.5587337613105774 0.517368495464325 -0.0269023347645998
0.4902421534061432 0.48173075914382935 -0.05713050439953804
0.7721715569496155 0.5904284715652466 -0.0004625906003639102
0.7339538931846619 0.45237159729003906 -0.01119060069322586
0.45198360085487366 0.6183399558067322 -0.13138246536254883
0.5461413264274597 0.5556700229644775 -0.05626727640628815
0.8442795872688293 0.5062623620033264 0.1502428948879242
0.5370824337005615 0.5032432079315186 -0.023706089705228806
0.5612581372261047 0.6032344698905945 -0.05580763518810272
0.6967191100120544 0.4742007851600647 -0.008110719732940197
0.5192083716392517 0.5761299133300781 -0.10962161421775818
0.8243337869644165 0.6829806566238403 0.14736364781856537
0.562307596206665 0.4767586886882782 0.0011748203542083502
0.49073246121406555 0.5605891346931458 -0.12655118107795715
0.7111643552780151 0.7949696779251099 0.01982780545949936
0.7177244424819946 0.8302085399627686 0.05476069822907448
0.8142868280410767 0.6083213090896606 0.07769841700792313
0.7539090514183044 0.7634919285774231 0.03741611912846565
0.7959693670272827 0.44854408502578735 0.06025802344083786
0.5822572708129883 0.8752434849739075 -0.03101729042828083
0.45549875497817993 0.6253522038459778 -0.09917528182268143
0.5731388926506042 0.5734714865684509 -0.054800353944301605
0.7730594277381897 0.49566492438316345 0.025411702692508698
0.6435084939002991 0.48465895652770996 -0.024652084335684776
0.6205785274505615 0.4860486090183258 -0.024770313873887062
0.6069048047065735 0.7399566173553467 -0.035201869904994965
0.7715790867805481 0.6432323455810547 0.004542783368378878
0.5347402691841125 0.9065883159637451 -0.018610168248414993
0.6242885589599609 0.8799353241920471 0.011135663837194443
0.6664969325065613 0.8599278330802917 0.030519548803567886
0.5997071266174316 0.4847716689109802 -0.01905735954642296
0.5809417963027954 0.48116135597229004 -0.00984945148229599
0.5687119960784912 0.47899776697158813 -0.0014183350140228868
0.7600095272064209 0.4492433965206146 0.008226977661252022
0.5833774209022522 0.4633907079696655 -0.013288433663547039
0.6045117974281311 0.4584963321685791 -0.022917572408914566
0.6244564652442932 0.45743441581726074 -0.02832251600921154
0.6468719244003296 0.46063435077667236 -0.028702842071652412
0.6635218858718872 0.4660595953464508 -0.02449270710349083
0.8326810598373413 0.4431913495063782 0.11940165609121323
0.660495936870575 0.48191726207733154 -0.021049639210104942
0.5592314004898071 0.6621665954589844 -0.0726189836859703
0.5170356035232544 0.6119486093521118 -0.09473066031932831
0.496878057718277 0.6546476483345032 -0.08356595784425735
0.6670634150505066 0.8270162343978882 0.007287672720849514
0.6262117028236389 0.8515721559524536 -0.010282850824296474
0.5308737754821777 0.8904378414154053 -0.04411928728222847
0.7613612413406372 0.7956538200378418 0.08748582005500793
0.5683919191360474 0.4713378846645355 -0.0047155641950666904
0.502720057964325 0.5203718543052673 -0.07390334457159042
0.5807137489318848 0.8962161540985107 -0.010227436199784279
0.8068451881408691 0.6654455661773682 0.07187516987323761
0.5365805625915527 0.7502470016479492 -0.05361408740282059
0.5404136180877686 0.7563866376876831 -0.05858416110277176
0.5443604588508606 0.76643967628479 -0.06331849843263626
0.5480046272277832 0.7794998288154602 -0.06051258370280266
0.5591162443161011 0.7998589277267456 -0.047097306698560715
0.5938391089439392 0.7137904167175293 -0.04370478168129921
0.6004523038864136 0.7109140157699585 -0.045328058302402496
0.6073516607284546 0.7071711421012878 -0.04735422134399414
0.6244743466377258 0.6945787072181702 -0.0485534593462944
0.7270644903182983 0.6509950160980225 -0.03342505544424057
0.5105038285255432 0.498052716255188 -0.04934588447213173
0.5372491478919983 0.4542961120605469 -0.005446011666208506
0.5554555654525757 0.46001100540161133 -0.0033306104596704245
0.5893585681915283 0.7110368013381958 -0.040917057543992996
0.737011194229126 0.7186834216117859 -0.00045906860032118857
0.5080172419548035 0.4500768184661865 -0.030873950570821762
0.5707951784133911 0.8230936527252197 -0.0404488705098629
0.4804077446460724 0.5059747099876404 -0.08308929204940796
0.519945502281189 0.5578368306159973 -0.08281958103179932
0.522364616394043 0.8389192819595337 -0.04687489569187164
0.6379024982452393 0.7658314108848572 -0.025498101487755775
0.5864485502243042 0.6243546605110168 -0.05540764704346657
0.6078960299491882 0.7987976670265198 -0.03126842528581619
0.6546275615692139 0.6234025955200195 -0.06081994250416756
0.6172367930412292 0.6495965719223022 -0.055494096130132675
0.6841427087783813 0.6656368970870972 -0.04822853207588196
0.5277248620986938 0.8671475052833557 -0.05167274922132492
0.5411916375160217 0.5724904537200928 -0.07181243598461151
0.6575954556465149 0.792170524597168 -0.01312829926609993
0.619316577911377 0.8223907947540283 -0.021945439279079437
0.6604738235473633 0.7290549278259277 -0.032658547163009644
0.7672304511070251 0.6894361972808838 0.013247826136648655
0.6952670812606812 0.7421826720237732 -0.0190476942807436
0.7894237637519836 0.7181278467178345 0.061046302318573
0.6474699378013611 0.6796536445617676 -0.05023849755525589
0.5241482853889465 0.5381345748901367 -0.06416305899620056
0.502886950969696 0.6022751927375793 -0.12399966269731522
0.5283200144767761 0.6098065972328186 -0.10157060623168945
0.4854946732521057 0.583751380443573 -0.13685305416584015
0.5549848675727844 0.43122392892837524 -0.016562804579734802
0.5944212675094604 0.4155628979206085 -0.030056366696953773
0.631382942199707 0.41240954399108887 -0.03899277001619339
0.665593147277832 0.4183849096298218 -0.039466533809900284
0.6928589344024658 0.432217001914978 -0.03103611245751381
0.7170029878616333 0.4809112548828125 -0.002728138817474246
0.8169664144515991 0.5544633865356445 0.07633674144744873
0.6923922300338745 0.5116626024246216 -0.019741728901863098
0.661496102809906 0.5169927477836609 -0.02689632773399353
0.6249182820320129 0.5173107981681824 -0.02766217477619648
0.5917324423789978 0.5124214887619019 -0.022734250873327255
0.5663928389549255 0.504032552242279 -0.014321068301796913
0.5484738945960999 0.49517762660980225 -0.010929460637271404
0.8427698016166687 0.5642374753952026 0.16261525452136993
0.5320778489112854 0.6166966557502747 -0.0895078033208847
0.4951057732105255 0.5399889349937439 -0.09709152579307556
0.47723037004470825 0.60179603099823 -0.1366943120956421
0.4679568409919739 0.6158850789070129 -0.12370206415653229
0.4816889464855194 0.6072648763656616 -0.1255834847688675
0.5282394289970398 0.6246733665466309 -0.07867036014795303
0.4610917270183563 0.6173322796821594 -0.1290326714515686
0.46441173553466797 0.6243833899497986 -0.10092063248157501
0.5510756373405457 0.47626638412475586 0.0013721352443099022
0.5342462658882141 0.48051249980926514 -0.008485985919833183
0.5212589502334595 0.48296111822128296 -0.02380671165883541
0.6745462417602539 0.4702928960323334 -0.01853918842971325
0.6925944089889526 0.4570549428462982 -0.02047167904675007
