ply
format ascii 1.0
element vertex 468
property float x
property float y
property float z
end_header
0.4999750852584839 0.7145518064498901 -0.027494512498378754
0.4970614016056061 0.6676703095436096 -0.1182379499077797
0.4996022880077362 0.6751166582107544 -0.04674427956342697
0.4756717383861542 0.5816730260848999 -0.11213507503271103
0.495879203081131 0.6462952494621277 -0.13302846252918243
0.49535325169563293 0.6114617586135864 -0.1339462697505951
0.4953538179397583 0.5181023478507996 -0.10317070782184601
0.33717969059944153 0.48575159907341003 -0.004219069145619869
0.4938648045063019 0.4643632769584656 -0.11117936670780182
0.4924236536026001 0.4354042410850525 -0.12917689979076385
0.4877874553203583 0.3003861904144287 -0.15135514736175537
0.500446617603302 0.7237558960914612 -0.02104072831571102
0.5012403726577759 0.7287310361862183 -0.011009003035724163
0.5022137761116028 0.7285370230674744 0.0011610300280153751
0.5020508766174316 0.744286835193634 0.013813368044793606
0.5023010969161987 0.7545733451843262 0.013248910196125507
0.5027064681053162 0.766363263130188 0.013347361236810684
0.5038076639175415 0.777748167514801 0.022758763283491135
0.5066302418708801 0.7898873090744019 0.05418921634554863
0.4979695975780487 0.6750561594963074 -0.10264445096254349
0.474895179271698 0.6660661101341248 -0.06800523400306702
0.2405480146408081 0.37842732667922974 0.06662318110466003
0.40891751646995544 0.5043985843658447 -0.0236361026763916
0.38625457882881165 0.5062684416770935 -0.020894130691885948
0.3626256585121155 0.5060440301895142 -0.01441426295787096
0.3291739821434021 0.49198827147483826 0.0028071748092770576
0.4258193075656891 0.5004756450653076 -0.02516056038439274
0.36449363827705383 0.4623352289199829 -0.04890509322285652
0.39013803005218506 0.46211671829223633 -0.05103292316198349
0.34254756569862366 0.4652026295661926 -0.03908984735608101
0.32904577255249023 0.4698859453201294 -0.027091605588793755
0.3107200264930725 0.5052622556686401 0.01940103992819786
0.42522498965263367 0.8075199127197266 0.10093256086111069
0.3264584541320801 0.48036307096481323 0.0012604098301380873
0.24236124753952026 0.47552525997161865 0.12078035622835159
0.2814692258834839 0.4889211058616638 0.03682240471243858
0.38568341732025146 0.6090022921562195 -0.007443898357450962
0.46858248114585876 0.7090290784835815 -0.02435566857457161
0.47459909319877625 0.7261984944343567 -0.0064301639795303345
0.4384838342666626 0.709036111831665 -0.006162038538604975
0.4219663441181183 0.7108303904533386 0.016710342839360237
0.45278722047805786 0.7228012681007385 0.005220644176006317
0.43722301721572876 0.7206817865371704 0.025111963972449303
0.39829468727111816 0.7353395819664001 0.07457288354635239
0.4768446981906891 0.6657756567001343 -0.11566519737243652
0.4727555215358734 0.6446974277496338 -0.12954507768154144
0.28940650820732117 0.45311200618743896 -0.03371622413396835
0.4302349090576172 0.5529276728630066 -0.03593020886182785
0.42175108194351196 0.638466477394104 -0.05614674463868141
0.42172035574913025 0.6229947209358215 -0.052230995148420334
0.32138508558273315 0.5960472226142883 0.02174421213567257
0.4738242030143738 0.6121282577514648 -0.1252669245004654
0.3413654565811157 0.44268375635147095 -0.08640144020318985
0.3099899888038635 0.4452246427536011 -0.06510624289512634
0.2572064995765686 0.3484494388103485 0.003366569522768259
0.4455636739730835 0.4609162211418152 -0.1036539077758789
0.41309434175491333 0.4664728045463562 -0.04266691580414772
0.3795173168182373 0.7140191793441772 0.07109590619802475
0.2901385426521301 0.6618393659591675 0.2757262885570526
0.4387289583683014 0.6510816216468811 -0.04331112653017044
0.45831459760665894 0.6603390574455261 -0.043823082000017166
0.4016651511192322 0.7164713740348816 0.06820161640644073
0.4127167761325836 0.7175518274307251 0.06107719987630844
0.2952023148536682 0.42822617292404175 -0.059059422463178635
0.42169511318206787 0.6428830623626709 -0.03933083638548851
0.38584208488464355 0.44623827934265137 -0.09963192790746689
0.37896841764450073 0.42759692668914795 -0.11203749477863312
0.34541916847229004 0.3103230893611908 -0.10956631600856781
0.2768216133117676 0.387636661529541 -0.03277571499347687
0.3644788861274719 0.3676629066467285 -0.11328139901161194
0.27416303753852844 0.4382103681564331 -0.017921891063451767
0.25738734006881714 0.4097742438316345 0.021207846701145172
0.4709182381629944 0.719937264919281 -0.017681404948234558
0.4463682174682617 0.7184326648712158 -0.001019435003399849
0.4295257329940796 0.7165980935096741 0.019373377785086632
0.4443303942680359 0.6542147994041443 -0.03859071806073189
0.40731096267700195 0.7172772288322449 0.06405987590551376
0.4174756705760956 0.7276718616485596 0.054050084203481674
0.4154497981071472 0.7165595293045044 0.05985182896256447
0.45127037167549133 0.6542129516601562 -0.08080045133829117
0.44223836064338684 0.7181454300880432 0.02934533730149269
0.4582509994506836 0.7216989398002625 0.015713194385170937
0.4786892831325531 0.7261881828308105 0.005228857509791851
0.4745711088180542 0.7875818610191345 0.05647313967347145
0.47276201844215393 0.7741378545761108 0.025148732587695122
0.4731653034687042 0.762395977973938 0.01665157452225685
0.47468826174736023 0.7505724430084229 0.017087377607822418
0.47694098949432373 0.7418909668922424 0.017691947519779205
0.439159631729126 0.7302027344703674 0.038802966475486755
0.4354204535484314 0.7333260774612427 0.037373244762420654
0.43012499809265137 0.7388969659805298 0.03867705166339874
0.4260346293449402 0.7450516223907471 0.04593890905380249
0.4022670090198517 0.6886090040206909 0.016489798203110695
0.25732725858688354 0.5532494783401489 0.26186108589172363
0.49874943494796753 0.6746423840522766 -0.06764509528875351
0.4286406636238098 0.724888801574707 0.05220000445842743
0.4232027530670166 0.7259635925292969 0.05174865573644638
0.46729207038879395 0.6711681485176086 -0.03876259922981262
0.42980924248695374 0.6533640623092651 -0.0168868787586689
0.4629167318344116 0.6662115454673767 -0.042551398277282715
0.40920430421829224 0.5622460842132568 -0.021236902102828026
0.37288808822631836 0.57560795545578 -0.008908937685191631
0.4187643229961395 0.6285984516143799 -0.035086460411548615
0.2898741364479065 0.32505691051483154 -0.057582955807447433
0.31065458059310913 0.37262511253356934 -0.07621478289365768
0.3306676745414734 0.42285507917404175 -0.08917545527219772
0.4184092879295349 0.7550017833709717 0.06875654309988022
0.43488365411758423 0.4331813454627991 -0.12421443313360214
0.42219236493110657 0.36641576886177063 -0.13441304862499237
0.40915554761886597 0.30252188444137573 -0.14022701978683472
0.3416880965232849 0.501086413860321 -0.004920873790979385
0.28624069690704346 0.5185532569885254 0.03927764296531677
0.4355924129486084 0.49708935618400574 -0.024870874360203743
0.3043360710144043 0.4720236361026764 -0.007092037238180637
0.4447329044342041 0.5423516631126404 -0.05049360170960426
0.435788631439209 0.638779878616333 -0.0831487700343132
0.26425662636756897 0.5280051827430725 0.07349558919668198
0.30367472767829895 0.5374030470848083 0.0247514471411705
0.33404773473739624 0.5493572950363159 0.0055551608093082905
0.37855857610702515 0.5476328134536743 -0.00831315852701664
0.4100320637226105 0.5392472743988037 -0.017499137669801712
0.4307258129119873 0.5316166281700134 -0.0296602975577116
0.47323673963546753 0.5219032764434814 -0.09123563021421432
0.27187666296958923 0.5742657780647278 0.08620920032262802
0.2835094630718231 0.4674345552921295 0.0017239938024431467
0.4855382442474365 0.6735533475875854 -0.10072207450866699
0.43114885687828064 0.579995334148407 -0.035558246076107025
0.23850512504577637 0.4580446481704712 0.19760963320732117
0.4463023841381073 0.5237177014350891 -0.03967626765370369
0.41796183586120605 0.6245391964912415 -0.010100073181092739
0.3197879195213318 0.481112003326416 0.006290787365287542
0.43560338020324707 0.6197643280029297 -0.07886748760938644
0.27002087235450745 0.6058180928230286 0.27459126710891724
0.4328170418739319 0.4893178641796112 -0.02284681610763073
0.4540677070617676 0.6145117878913879 -0.10731501132249832
0.33511269092559814 0.7361208200454712 0.17134079337120056
0.3425601124763489 0.7505476474761963 0.22335654497146606
0.2543816864490509 0.5662781000137329 0.17426854372024536
0.3069577217102051 0.7018333077430725 0.18861065804958344
0.24846923351287842 0.43775296211242676 0.07583096623420715
0.4237346351146698 0.8252912163734436 0.12477639317512512
0.48856258392333984 0.673363983631134 -0.06561581045389175
0.41242164373397827 0.5923462510108948 -0.019679035991430283
0.2624187767505646 0.48815855383872986 0.062181081622838974
0.36442363262176514 0.4929382801055908 -0.016137374565005302
0.3857610821723938 0.4940429925918579 -0.022404462099075317
0.41199612617492676 0.7297292947769165 0.0597822442650795
0.2798873484134674 0.6160104274749756 0.11414266377687454
0.46692955493927 0.854187548160553 0.1415862888097763
0.40297895669937134 0.812352180480957 0.17724856734275818
0.3757137656211853 0.7858026027679443 0.19726361334323883
0.48982569575309753 0.36652833223342896 -0.14271019399166107
0.5142718553543091 0.8604766130447388 0.13459797203540802
0.40433308482170105 0.4920283555984497 -0.02545413374900818
0.42114171385765076 0.4890918731689453 -0.024557147175073624
0.43015432357788086 0.4888567328453064 -0.022242484614253044
0.2662106454372406 0.45737120509147644 0.023557161912322044
0.41168421506881714 0.4743262231349945 -0.03396593779325485
0.39071840047836304 0.4685960114002228 -0.03935227170586586
0.36937880516052246 0.46835631132125854 -0.0370517298579216
0.3491726517677307 0.4720061421394348 -0.029347991570830345
0.3374693691730499 0.47656112909317017 -0.0195723008364439
0.23481693863868713 0.4124794006347656 0.13536831736564636
0.348959743976593 0.48965752124786377 -0.009600231423974037
0.49990522861480713 0.6862349510192871 -0.03437825292348862
0.42101284861564636 0.681532084941864 -0.0035996187943965197
0.4379098117351532 0.6507062315940857 -0.055855803191661835
0.4655788242816925 0.6849758625030518 -0.029747508466243744
0.49510687589645386 0.4869244396686554 -0.0981379821896553
0.3653131127357483 0.7690758109092712 0.16048787534236908
0.3937060832977295 0.7966451644897461 0.14488376677036285
0.4626263380050659 0.8464144468307495 0.10622722655534744
0.3151629567146301 0.7112478613853455 0.25337696075439453
0.4258182644844055 0.4837452173233032 -0.028038548305630684
0.4586285948753357 0.5606232285499573 -0.08142874389886856
0.5122490525245667 0.8528007864952087 0.10040821135044098
0.4318137466907501 0.8368844389915466 0.15583859384059906
0.26608961820602417 0.6129781007766724 0.19219982624053955
0.45596441626548767 0.7367429733276367 0.027242887765169144
0.45229649543762207 0.7427978515625 0.025889428332448006
0.44882479310035706 0.7518077492713928 0.027352306991815567
0.44649016857147217 0.76225745677948 0.03519422560930252
0.4430312216281891 0.7736203670501709 0.06045595929026604
0.4228569269180298 0.7184176445007324 0.04336218908429146
0.41567039489746094 0.7162036299705505 0.04319627210497856
0.4087340235710144 0.71216881275177 0.04211418330669403
0.38682594895362854 0.6994820833206177 0.04169859737157822
0.30813169479370117 0.6368470191955566 0.06866127997636795
0.4592245817184448 0.5312547087669373 -0.06959190964698792
0.44817298650741577 0.48109373450279236 -0.04656181111931801
0.43447715044021606 0.4802122116088867 -0.03629934787750244
0.42808979749679565 0.7155829668045044 0.04628070443868637
0.3106937110424042 0.6810432076454163 0.1289011389017105
0.465889036655426 0.4873468279838562 -0.07861071825027466
0.4337948262691498 0.7887452840805054 0.08242358267307281
0.4954010248184204 0.5797516107559204 -0.12240778654813766
0.4739431142807007 0.5532195568084717 -0.10489343106746674
0.49541494250297546 0.5500158667564392 -0.11244063824415207
0.44335314631462097 0.595154345035553 -0.06636488437652588
0.510293185710907 0.834837794303894 0.07800456136465073
0.5084992051124573 0.8100554347038269 0.06677699834108353
0.4695623517036438 0.8062095046043396 0.07255151867866516
0.3804337680339813 0.7403573989868164 0.09230028837919235
0.4001837968826294 0.6393769383430481 0.0027939637657254934
0.40517836809158325 0.7661972045898438 0.09030982851982117
0.3516403138637543 0.6314210891723633 0.014088082127273083
0.38103747367858887 0.6590155959129333 0.01820783130824566
0.3358222246170044 0.6603965759277344 0.049410704523324966
0.4635668098926544 0.8293334245681763 0.08463098853826523
0.43089351058006287 0.601220965385437 -0.04302988946437836
0.3660626709461212 0.7518620491027832 0.12261516600847244
0.39565473794937134 0.7799106240272522 0.11713410168886185
0.36096227169036865 0.7136589884757996 0.08303222060203552
0.28924158215522766 0.6505336761474609 0.1391163468360901
0.33720874786376953 0.710680365562439 0.10765289515256882
0.2817234396934509 0.6573009490966797 0.20290182530879974
0.3651425540447235 0.6812788248062134 0.04154491052031517
0.4451069235801697 0.569908857345581 -0.05705830827355385
0.44338250160217285 0.6508976221084595 -0.08679157495498657
0.4284881055355072 0.6475605368614197 -0.05699760839343071
0.4529265761375427 0.641859233379364 -0.10834450274705887
0.4290649890899658 0.467253714799881 -0.05980115756392479
0.3897678256034851 0.4588119089603424 -0.0674634799361229
0.35615813732147217 0.4574129581451416 -0.06445898115634918
0.3294690251350403 0.4586693346500397 -0.05143503472208977
0.3122023344039917 0.4631485044956207 -0.03344043344259262
0.30346375703811646 0.48554009199142456 0.016941308975219727
0.24569711089134216 0.5205873250961304 0.1493375450372696
0.32531219720840454 0.516191840171814 0.01133011095225811
0.3501385748386383 0.5246562957763672 -0.0018290316220372915
0.38200002908706665 0.5247904062271118 -0.012033240869641304
0.41016897559165955 0.5198509097099304 -0.01786280982196331
0.42964813113212585 0.514551043510437 -0.02467503771185875
0.44272297620773315 0.5103991031646729 -0.029192538931965828
0.24821951985359192 0.5042643547058105 0.23685790598392487
0.4296276569366455 0.6493168473243713 -0.043392252177000046
0.45838046073913574 0.5872687697410583 -0.09076955914497375
0.4600718915462494 0.6589351296424866 -0.10499828308820724
0.4735356569290161 0.6664110422134399 -0.09174098819494247
0.4604644477367401 0.6589038372039795 -0.09240993112325668
0.4360444247722626 0.6540079116821289 -0.03291307017207146
0.478051096200943 0.670633852481842 -0.09745792299509048
0.48049378395080566 0.6705682277679443 -0.06674177199602127
0.44071534276008606 0.4927161633968353 -0.02629409171640873
0.4526106119155884 0.5012289881706238 -0.03930005431175232
0.45827972888946533 0.5096410512924194 -0.0544467456638813
0.33087897300720215 0.47944164276123047 -0.010600808076560497
0.3191094398498535 0.47377949953079224 -0.010718326084315777
0.5163352489471436 0.58135586977005 -0.11451089382171631
0.6662293076515198 0.48085272312164307 -0.021820345893502235
0.5229143500328064 0.6660761833190918 -0.06971663981676102
0.7685030698776245 0.3683958649635315 0.03861909359693527
0.5929689407348633 0.502404510974884 -0.034780826419591904
0.6165505051612854 0.5035651326179504 -0.034315332770347595
0.641366720199585 0.5026800632476807 -0.03041219338774681
0.6760382652282715 0.48708969354629517 -0.016097066923975945
0.5746082663536072 0.49891552329063416 -0.03394201025366783
0.633983850479126 0.45587632060050964 -0.06337963789701462
0.6078978180885315 0.4568862318992615 -0.06234275549650192
0.6569774746894836 0.4581790268421173 -0.055999498814344406
0.6720015406608582 0.46297457814216614 -0.04536905139684677
0.6972898840904236 0.5002790093421936 -0.0009205721435137093
0.5982770919799805 0.8090041875839233 0.09365096688270569
0.6774692535400391 0.47453874349594116 -0.01733248494565487
0.7764861583709717 0.46759945154190063 0.0921751856803894
0.7283428311347961 0.48237648606300354 0.01363281812518835
0.6202893257141113 0.6076595783233643 -0.017423707991838455
0.5319618582725525 0.7095425724983215 -0.026805900037288666
0.5287258625030518 0.7266974449157715 -0.008315365761518478
0.56491619348526 0.7107378840446472 -0.011477317661046982
0.584137499332428 0.7128595113754272 0.00937181618064642
0.5522767305374146 0.7240188121795654 0.0007466840907000005
0.5695418119430542 0.722098708152771 0.01938261277973652
0.6156182289123535 0.7371634840965271 0.06539351493120193
0.5177393555641174 0.6656524538993835 -0.1171281710267067
0.5198196172714233 0.6445015072822571 -0.13141870498657227
0.7110234498977661 0.4435643255710602 -0.05531024932861328
0.5705545544624329 0.5515791773796082 -0.043038260191679
0.578707218170166 0.6384506821632385 -0.06270255893468857
0.5793724060058594 0.6228229403495789 -0.05922183766961098
0.6907866597175598 0.5935748815536499 0.004252541810274124
0.5178314447402954 0.611841082572937 -0.12741726636886597
0.6512356400489807 0.4330684244632721 -0.1002965122461319
0.6858822703361511 0.4352189302444458 -0.08301492780447006
0.7432636022567749 0.3382343649864197 -0.021875645965337753
0.5436242818832397 0.45761197805404663 -0.10789503902196884
0.5849985480308533 0.46285995841026306 -0.05156977102160454
0.6330345273017883 0.7156747579574585 0.060226019471883774
0.7507073879241943 0.6597817540168762 0.250743567943573
0.5616542100906372 0.6516239047050476 -0.04845638573169708
0.5415471196174622 0.660451352596283 -0.04622887820005417
0.6080564856529236 0.7184634804725647 0.05841294303536415
0.5970395803451538 0.7192583680152893 0.05262938514351845
0.7007209658622742 0.41743409633636475 -0.07855884730815887
0.5805599093437195 0.6431178450584412 -0.04581661522388458
0.6041336059570312 0.439115047454834 -0.10920914262533188
0.6087292432785034 0.41992831230163574 -0.1220264881849289
0.6370871663093567 0.303294837474823 -0.12359002977609634
0.7211257815361023 0.37749654054641724 -0.05534472316503525
0.6198750138282776 0.3606386184692383 -0.12545065581798553
0.72732013463974 0.4282888174057007 -0.04121438413858414
0.7479474544525146 0.3999200463294983 -0.004237689543515444
0.5307998061180115 0.7204606533050537 -0.01997789368033409
0.5576565265655518 0.7198817729949951 -0.005769557785242796
0.576624870300293 0.7183705568313599 0.012776724994182587
0.5562518835067749 0.6546992063522339 -0.04244936257600784
0.6022628545761108 0.7191386222839355 0.05522137135267258
0.5913487672805786 0.7292386889457703 0.04638234153389931
0.594603419303894 0.7181644439697266 0.05185529962182045
0.5463239550590515 0.6544698476791382 -0.08524338901042938
0.5654343366622925 0.7192662954330444 0.023907583206892014
0.5479741096496582 0.7226275205612183 0.011858871206641197
0.5265770554542542 0.7264913320541382 0.003264394123107195
0.5397582054138184 0.7879953384399414 0.05461523309350014
0.5355204939842224 0.7746219038963318 0.022967299446463585
0.5330070853233337 0.762885570526123 0.01460220292210579
0.5303609371185303 0.7510045170783997 0.014803620986640453
0.5279107689857483 0.742280125617981 0.01559504121541977
0.568693995475769 0.7313134074211121 0.033116161823272705
0.5724523663520813 0.7345356345176697 0.03166636452078819
0.5781505107879639 0.7402045726776123 0.03277503326535225
0.583294153213501 0.7463778257369995 0.0398537702858448
0.6044743061065674 0.6894296407699585 0.007788962684571743
0.7766281366348267 0.5476234555244446 0.23291049897670746
0.5803930759429932 0.7261554002761841 0.04483572021126747
0.5855337381362915 0.7274753451347351 0.044501498341560364
0.5326025485992432 0.6712779402732849 -0.04108533263206482
0.5733614563941956 0.6538541316986084 -0.02185998670756817
0.5368805527687073 0.6663143634796143 -0.045115333050489426
0.5941191911697388 0.5606768131256104 -0.030439695343375206
0.633226752281189 0.5737054347991943 -0.02127806842327118
0.5840283036231995 0.6284170746803284 -0.042139869183301926
0.7014482617378235 0.3155185878276825 -0.07784050703048706
0.6800552010536194 0.3630664348602295 -0.09382585436105728
0.6603367328643799 0.41269057989120483 -0.10419023782014847
0.5959714651107788 0.7565967440605164 0.061297789216041565
0.5508197546005249 0.42882537841796875 -0.1287006437778473
0.5587551593780518 0.3628809452056885 -0.14046339690685272
0.568344235420227 0.298780620098114 -0.1469801664352417
0.663320779800415 0.4968715310096741 -0.022798925638198853
0.7254723310470581 0.5135446190834045 0.01649738848209381
0.5638447403907776 0.49566829204559326 -0.032826751470565796
0.6990355253219604 0.4648086726665497 -0.02792087383568287
0.5537723898887634 0.5412694811820984 -0.05617119371891022
0.5618916749954224 0.6387507319450378 -0.0887458398938179
0.7524546384811401 0.5225557088851929 0.04759281873703003
0.7065595388412476 0.5332940816879272 0.0037015036214143038
0.6739085912704468 0.5462056398391724 -0.011888410896062851
0.6262894868850708 0.5454726815223694 -0.021273337304592133
0.5928797721862793 0.5374723076820374 -0.027112359181046486
0.5700235366821289 0.5301432609558105 -0.03703753277659416
0.5193547606468201 0.5212929248809814 -0.0935094803571701
0.7477802634239197 0.5703445076942444 0.06100333482027054
0.7214825749397278 0.4594387114048004 -0.02146366611123085
0.510562539100647 0.673438549041748 -0.10188844054937363
0.5701767802238464 0.578931987285614 -0.04237249121069908
0.7853834629058838 0.4495311379432678 0.16806438565254211
0.5522677302360535 0.5225340127944946 -0.045244839042425156
0.5860767364501953 0.6243807673454285 -0.016712352633476257
0.6848361492156982 0.47522416710853577 -0.013275274075567722
0.5624821186065674 0.6194424629211426 -0.08440481871366501
0.7680296897888184 0.6017707586288452 0.2472793459892273
0.56663578748703 0.48785626888275146 -0.031090708449482918
0.5405502319335938 0.6140748858451843 -0.11117667704820633
0.6969324946403503 0.7372362017631531 0.1532575786113739
0.6962057948112488 0.7512600421905518 0.20438072085380554
0.773440957069397 0.5611979961395264 0.1462424397468567
0.7269821166992188 0.7015141248703003 0.167199969291687
0.7634105682373047 0.4286516308784485 0.048462461680173874
0.6037771701812744 0.82667076587677 0.11660220474004745
0.5088366866111755 0.6732079386711121 -0.0665118470788002
0.5914756655693054 0.5913512110710144 -0.02770453505218029
0.7508374452590942 0.4811091125011444 0.03648584708571434
0.6380005478858948 0.4894375801086426 -0.031649135053157806
0.6160284876823425 0.49114280939102173 -0.03592926263809204
0.5977069139480591 0.7313758730888367 0.05137857794761658
0.7438974380493164 0.6133652925491333 0.09038367122411728
0.562742292881012 0.8550498485565186 0.13748371601104736
0.6309382319450378 0.8141312599182129 0.16536356508731842
0.6606669425964355 0.7876526117324829 0.1821870654821396
0.5966972708702087 0.489748477935791 -0.036886297166347504
0.5790111422538757 0.48731184005737305 -0.034497037529945374
0.569464385509491 0.48732349276542664 -0.031324245035648346
0.740952730178833 0.44879013299942017 -0.0012498297728598118
0.5881836414337158 0.4713131785392761 -0.04439402371644974
0.6100032329559326 0.46406883001327515 -0.051177576184272766
0.6316726803779602 0.46315911412239075 -0.050969041883945465
0.6526126861572266 0.46612095832824707 -0.04528481140732765
0.6651798486709595 0.47066986560821533 -0.036800235509872437
0.7812842130661011 0.4029780626296997 0.10605809092521667
0.6540231704711914 0.4855119585990906 -0.026515629142522812
0.5837411880493164 0.6821250319480896 -0.010054045356810093
0.561550498008728 0.6510434746742249 -0.060562025755643845
0.5353061556816101 0.685150682926178 -0.03242699056863785
0.6655350923538208 0.7710304260253906 0.1458166092634201
0.6356672048568726 0.7985944747924805 0.13364677131175995
0.5632349848747253 0.8474520444869995 0.10231509804725647
0.725555419921875 0.7107123136520386 0.23082219064235687
0.5735880136489868 0.4818160831928253 -0.03733440861105919
0.5365577340126038 0.5598331093788147 -0.08538414537906647
0.5995380282402039 0.8382660150527954 0.14712464809417725
0.7656398415565491 0.609544038772583 0.16577427089214325
0.5501720905303955 0.7375333309173584 0.02293318696320057
0.5542769432067871 0.7436820268630981 0.021635308861732483
0.5585219860076904 0.7526503801345825 0.022801287472248077
0.5624175071716309 0.7631083726882935 0.030673133209347725
0.5714308023452759 0.7745887041091919 0.05546959489583969
0.5855989456176758 0.7199077010154724 0.035962000489234924
0.5926212072372437 0.7180613279342651 0.034977443516254425
0.5996245741844177 0.7141430974006653 0.033151865005493164
0.6225793361663818 0.7007416486740112 0.031140515580773354
0.7109344005584717 0.6351302862167358 0.049591779708862305
0.5361639261245728 0.5302633047103882 -0.07355277985334396
0.5474070906639099 0.47925758361816406 -0.05216725170612335
0.5634116530418396 0.47818636894226074 -0.04412132501602173
0.5805095434188843 0.7170330882072449 0.039246462285518646
0.7153404355049133 0.6803523898124695 0.10943498462438583
0.5265892744064331 0.48609474301338196 -0.08178426325321198
0.585497260093689 0.7900100946426392 0.07655929028987885
0.5183768272399902 0.5527411699295044 -0.10691583901643753
0.5549554228782654 0.5943195223808289 -0.07157456874847412
0.5486184358596802 0.8068194389343262 0.06980916112661362
0.6382489204406738 0.7420636415481567 0.08169321715831757
0.6055729389190674 0.639019250869751 -0.005639093462377787
0.6144558191299438 0.7679272890090942 0.08208265155553818
0.6585205793380737 0.6301293969154358 0.0012515551643446088
0.627017080783844 0.6586359739303589 0.00791588518768549
0.6794151663780212 0.6595094203948975 0.03452061489224434
0.5584250092506409 0.8301266431808472 0.08072790503501892
0.5703043341636658 0.6005431413650513 -0.0493374727666378
0.6584835052490234 0.7535932660102844 0.109586700797081
0.628664493560791 0.7818664908409119 0.10726269334554672
0.6559741497039795 0.7148122787475586 0.07011881470680237
0.7378841638565063 0.6487991809844971 0.11695254594087601
0.6857163310050964 0.7113758325576782 0.09168867766857147
0.7527067065238953 0.6554628610610962 0.17821530997753143
0.6463782787322998 0.681520938873291 0.029528958722949028
0.5531841516494751 0.569044828414917 -0.06264002621173859
0.554014265537262 0.6511791348457336 -0.09191533923149109
0.5717241168022156 0.6478836536407471 -0.06276796013116837
0.542114794254303 0.6417720913887024 -0.11264601349830627
0.565485417842865 0.4639579653739929 -0.06727979332208633
0.6047952771186829 0.45328280329704285 -0.07799424231052399
0.6391559839248657 0.45019596815109253 -0.07835005223751068
0.667709231376648 0.4507579207420349 -0.06863363832235336
0.6879642605781555 0.4551019072532654 -0.05280570313334465
0.7033954858779907 0.479415625333786 -0.00402850192040205
0.777977705001831 0.514056921005249 0.12058675289154053
0.6818225979804993 0.5118404626846313 -0.00752072362229228
0.6558443307876587 0.5212922096252441 -0.018222227692604065
0.6220194101333618 0.5222742557525635 -0.025205424055457115
0.5922021865844727 0.5180038213729858 -0.028094332665205002
0.5711169242858887 0.5131610631942749 -0.032324545085430145
0.5565093159675598 0.5092194080352783 -0.03549286723136902
0.7811390161514282 0.49709010124206543 0.20764562487602234
0.5716752409934998 0.6498456597328186 -0.04887897148728371
0.5362975001335144 0.5865623950958252 -0.09488891065120697
0.5357197523117065 0.6590350270271301 -0.10822928696870804
0.5233069658279419 0.6664311289787292 -0.09366957098245621
0.5360940098762512 0.658952534198761 -0.0957578793168068
0.5657325983047485 0.6545692086219788 -0.03744740039110184
0.5185307860374451 0.6705764532089233 -0.09890442341566086
0.5172507166862488 0.6706019639968872 -0.06804826855659485
0.5579551458358765 0.49131274223327637 -0.033351801335811615
0.5449361801147461 0.5000848770141602 -0.04412202537059784
0.5380011796951294 0.5085443258285522 -0.05828301981091499
0.6722695231437683 0.4734615385532379 -0.02831208147108555
0.6835592985153198 0.46707263588905334 -0.030052131041884422
