ply
format ascii 1.0
element vertex 468
property float x
property float y
property float z
end_header
0.48590588569641113 0.6852632164955139 -0.07160740345716476
0.47176215052604675 0.6207426190376282 -0.1341652274131775
0.4821068048477173 0.644588053226471 -0.07487144321203232
0.46076279878616333 0.5419726371765137 -0.0948469415307045
0.4711427688598633 0.5956242084503174 -0.14166708290576935
0.47442665696144104 0.5639085173606873 -0.13077670335769653
0.48678913712501526 0.4878540635108948 -0.06128574162721634
0.33588582277297974 0.48005738854408264 0.0617813766002655
0.49088430404663086 0.418498158454895 -0.039919041097164154
0.49062490463256836 0.3834581673145294 -0.04290495440363884
0.49767908453941345 0.27434250712394714 -0.016818122938275337
0.4870792329311371 0.6956185698509216 -0.069127157330513
0.4890221059322357 0.702488124370575 -0.06284910440444946
0.49132299423217773 0.7039629220962524 -0.053498174995183945
0.49185889959335327 0.7501638531684875 -0.04163673520088196
0.4909023940563202 0.7594515681266785 -0.04604708403348923
0.4906068742275238 0.7707700133323669 -0.05131852999329567
0.4910227358341217 0.7835703492164612 -0.04751408100128174
0.49317485094070435 0.8040329813957214 -0.027220724150538445
0.4744129478931427 0.6340561509132385 -0.12242160737514496
0.4603174924850464 0.6315723657608032 -0.08735045045614243
0.2787904441356659 0.3929443359375 0.19527465105056763
0.4017140567302704 0.5050140023231506 0.025315366685390472
0.37794846296310425 0.5055124759674072 0.031146133318543434
0.35625511407852173 0.502590000629425 0.04177998751401901
0.32912319898605347 0.4877678155899048 0.0676642507314682
0.42116618156433105 0.5000059604644775 0.02488972805440426
0.37032967805862427 0.4327806234359741 0.025123758241534233
0.39588189125061035 0.4369519352912903 0.019848240539431572
0.346672922372818 0.4360584616661072 0.03721090406179428
0.33163249492645264 0.4462355971336365 0.048802826553583145
0.3126974105834961 0.5027243494987488 0.08238038420677185
0.4113357663154602 0.8266037702560425 0.016738975420594215
0.32907626032829285 0.473321795463562 0.07208270579576492
0.26819249987602234 0.49497780203819275 0.20181667804718018
0.29433542490005493 0.4860806465148926 0.11174888908863068
0.37266647815704346 0.5948673486709595 -0.002667608903720975
0.45248499512672424 0.6808450222015381 -0.06317200511693954
0.45846477150917053 0.7006350755691528 -0.053561966866254807
0.4210585951805115 0.6833575367927551 -0.041727304458618164
0.40302395820617676 0.6878942251205444 -0.014499051496386528
0.4357883334159851 0.6993643045425415 -0.036366868764162064
0.41942548751831055 0.6993759870529175 -0.011511201038956642
0.38524848222732544 0.7313106656074524 0.03392260894179344
0.45436057448387146 0.6196237206459045 -0.1295921504497528
0.4513944387435913 0.5955435633659363 -0.13582095503807068
0.3010028302669525 0.41682910919189453 0.06544908136129379
0.4247099459171295 0.5403739809989929 -0.008047768846154213
0.413687527179718 0.60983806848526 -0.06293873488903046
0.41401273012161255 0.5970801115036011 -0.05511627346277237
0.30422261357307434 0.5882877111434937 0.043181080371141434
0.45537644624710083 0.5662839412689209 -0.11958104372024536
0.3448948562145233 0.3871608376502991 0.015149435959756374
0.3180334270000458 0.395978182554245 0.040408436208963394
0.29385870695114136 0.3481098711490631 0.14547842741012573
0.43990516662597656 0.4118724465370178 -0.024851776659488678
0.41777724027633667 0.44860929250717163 0.022455722093582153
0.3670124113559723 0.7007062435150146 0.04000574350357056
0.304743230342865 0.7157590985298157 0.25196245312690735
0.4306434988975525 0.6233830451965332 -0.05731113255023956
0.4489298462867737 0.6324187517166138 -0.06317902356386185
0.3834664225578308 0.7003422379493713 0.03781388700008392
0.3959478437900543 0.7025924921035767 0.030057493597269058
0.3076823055744171 0.3801177144050598 0.053636856377124786
0.41465890407562256 0.6189147233963013 -0.05039869621396065
0.3833795189857483 0.390413761138916 -0.007944799959659576
0.3791179955005646 0.37022873759269714 -0.01226156298071146
0.36921364068984985 0.2880884110927582 0.03670832887291908
0.2999221086502075 0.3646080493927002 0.0933467373251915
0.37550413608551025 0.32890865206718445 0.010538763366639614
0.2908580005168915 0.40706783533096313 0.08847197890281677
0.2842707931995392 0.40210047364234924 0.1384608894586563
0.4544340968132019 0.6927066445350647 -0.060284603387117386
0.42853590846061707 0.6929288506507874 -0.039367008954286575
0.4107774794101715 0.6934487819671631 -0.01463486347347498
0.4364648759365082 0.6278060078620911 -0.05328834056854248
0.38906657695770264 0.7011680006980896 0.03363105654716492
0.40004274249076843 0.7202779054641724 0.018594538792967796
0.4009547233581543 0.7033962607383728 0.029219795018434525
0.4376624524593353 0.6182150840759277 -0.09031299501657486
0.42559778690338135 0.697668731212616 -0.009346265345811844
0.4421415627002716 0.6992225646972656 -0.02848472259938717
0.46341004967689514 0.7020394802093506 -0.04440343752503395
0.45706939697265625 0.8001768589019775 -0.01918412186205387
0.45647716522216797 0.7783120274543762 -0.03802729770541191
0.4570206105709076 0.7652539014816284 -0.04050632193684578
0.45926594734191895 0.7544572353363037 -0.03506669029593468
0.4627952575683594 0.7468070983886719 -0.03132534772157669
0.4234510362148285 0.7300199866294861 0.0012289028381928802
0.4187074303627014 0.7320868372917175 -0.0022014668211340904
0.41275668144226074 0.7368286848068237 -0.005167417693883181
0.4086686372756958 0.743630588054657 0.0005039501120336354
0.3872007131576538 0.6696664094924927 -0.0053262850269675255
0.28318196535110474 0.6005289554595947 0.2942131459712982
0.47787967324256897 0.6393694877624512 -0.09162452071905136
0.4134863615036011 0.7209257483482361 0.019446833059191704
0.40610837936401367 0.7197661399841309 0.017414595931768417
0.45535963773727417 0.6429799795150757 -0.06427428871393204
0.42212730646133423 0.6322588324546814 -0.03512554243206978
0.45235881209373474 0.6381358504295349 -0.06443214416503906
0.39969193935394287 0.5519772171974182 0.0034167570993304253
0.3589271605014801 0.5641302466392517 0.01601274497807026
0.41148173809051514 0.6064803600311279 -0.04139591380953789
0.3212025761604309 0.31213417649269104 0.0900021567940712
0.3278009593486786 0.3386818766593933 0.05075845494866371
0.33748769760131836 0.367791086435318 0.019912926480174065
0.4019778370857239 0.7585827708244324 0.018091563135385513
0.43157875537872314 0.3783363699913025 -0.0321776308119297
0.4289968013763428 0.3290577828884125 -0.016792476177215576
0.4261975884437561 0.27724745869636536 -6.58957869745791e-05
0.338439404964447 0.4969765543937683 0.05567729473114014
0.29058557748794556 0.5187511444091797 0.09845778346061707
0.4335709810256958 0.4938880205154419 0.026276350021362305
0.31229454278945923 0.45510631799697876 0.075152687728405
0.44028645753860474 0.5260652303695679 -0.018435906618833542
0.4236411452293396 0.6027621030807495 -0.08806941658258438
0.27116167545318604 0.5353060960769653 0.12982386350631714
0.30062615871429443 0.5331296324729919 0.07345155626535416
0.32561707496643066 0.540995717048645 0.04586523398756981
0.3682348132133484 0.5401729941368103 0.02849925123155117
0.4020620882511139 0.5336431860923767 0.01761266402900219
0.4265483021736145 0.5240567922592163 0.007316386792808771
0.46686017513275146 0.49432727694511414 -0.047866735607385635
0.26675736904144287 0.5820466876029968 0.12058138102293015
0.297405481338501 0.45033812522888184 0.09006980061531067
0.4642527997493744 0.6325863599777222 -0.11915554106235504
0.4241833984851837 0.5626095533370972 -0.021836526691913605
0.273625910282135 0.49547743797302246 0.2820144593715668
0.4435827136039734 0.5116904973983765 0.0011227921349927783
0.41076499223709106 0.6073437333106995 -0.017458105459809303
0.3229440152645111 0.4739667773246765 0.07880621403455734
0.42536669969558716 0.5872202515602112 -0.0783284455537796
0.29024380445480347 0.6568737030029297 0.2795135974884033
0.43477216362953186 0.4850081205368042 0.03317205235362053
0.4396628141403198 0.5743915438652039 -0.10306243598461151
0.332571804523468 0.7657923698425293 0.11985975503921509
0.34507352113723755 0.7954424023628235 0.15922346711158752
0.2636336386203766 0.5934164524078369 0.20908807218074799
0.30532020330429077 0.7365040183067322 0.15196415781974792
0.2760355472564697 0.44625717401504517 0.1776001900434494
0.41231805086135864 0.8494166135787964 0.028652360662817955
0.4699721336364746 0.6380934715270996 -0.08881895244121552
0.4032924771308899 0.5777466297149658 -0.011554866097867489
0.27968117594718933 0.49149462580680847 0.13913831114768982
0.35696837306022644 0.489570677280426 0.04301583766937256
0.3771073818206787 0.49299943447113037 0.03418077901005745
0.3947877287864685 0.7224342823028564 0.023212818428874016
0.2694673538208008 0.6297374963760376 0.12477001547813416
0.4528350532054901 0.8839325904846191 0.024010570719838142
0.397270143032074 0.8473403453826904 0.08691427111625671
0.3744339346885681 0.8252550363540649 0.11996413767337799
0.4933869540691376 0.33022207021713257 -0.032365914434194565
0.497113972902298 0.8921136856079102 0.00816644448786974
0.3974478244781494 0.4927845895290375 0.030190441757440567
0.41666123270988464 0.49001890420913696 0.030954819172620773
0.4289209246635437 0.48770976066589355 0.034187592566013336
0.2854732871055603 0.44604015350341797 0.11718856543302536
0.41497960686683655 0.46573254466056824 0.027949724346399307
0.39525532722473145 0.45685410499572754 0.02786136046051979
0.37446361780166626 0.4538060426712036 0.03216591477394104
0.35389095544815063 0.4568737745285034 0.04129083827137947
0.3411027193069458 0.4634895920753479 0.05077698081731796
0.27196991443634033 0.43950021266937256 0.24498189985752106
0.34419935941696167 0.48493796586990356 0.05333263427019119
0.4843785762786865 0.6582520604133606 -0.0676971897482872
0.4085579514503479 0.6604734063148499 -0.027346456423401833
0.428922176361084 0.6206141710281372 -0.06615930050611496
0.4517964720726013 0.6582220196723938 -0.0594712533056736
0.49074435234069824 0.45368456840515137 -0.04242301359772682
0.3622860014438629 0.7965008616447449 0.09340821206569672
0.3875838816165924 0.821878969669342 0.06278993934392929
0.447302907705307 0.8700493574142456 -0.002558408072218299
0.32335686683654785 0.7624641060829163 0.20740680396556854
0.4285814166069031 0.47750124335289 0.031413596123456955
0.44977062940597534 0.532117486000061 -0.05559893697500229
0.49379268288612366 0.8773775100708008 -0.01687026023864746
0.42129451036453247 0.8679854869842529 0.05156061425805092
0.2703530192375183 0.6457111835479736 0.20118175446987152
0.4403468072414398 0.7393165826797485 -0.01586322858929634
0.435502827167511 0.7443341612815857 -0.019099999219179153
0.43141332268714905 0.7527812719345093 -0.022270621731877327
0.42890992760658264 0.7643603086471558 -0.018089016899466515
0.4246997833251953 0.7829036712646484 -0.0008576411637477577
0.4047423005104065 0.6989907622337341 0.011608869768679142
0.39637210965156555 0.6955881714820862 0.01372875552624464
0.38964706659317017 0.6917111277580261 0.014025868847966194
0.3712139129638672 0.6818923354148865 0.01950395107269287
0.2895106375217438 0.6404601335525513 0.0702204704284668
0.4542388916015625 0.5088838338851929 -0.031473275274038315
0.4479683041572571 0.46326711773872375 0.011756609193980694
0.43712034821510315 0.4689277708530426 0.025246094912290573
0.4120781719684601 0.6970263123512268 0.012444967404007912
0.2990681529045105 0.6988496780395508 0.10629665851593018
0.46319594979286194 0.45873910188674927 -0.02210046350955963
0.4177749752998352 0.8029391169548035 0.008643549866974354
0.4787035584449768 0.5385513305664062 -0.10652518272399902
0.46338018774986267 0.5200254917144775 -0.07392335683107376
0.4826361835002899 0.5149322748184204 -0.08286793529987335
0.43371570110321045 0.5677294135093689 -0.05642901733517647
0.4923381507396698 0.8550898432731628 -0.02725006826221943
0.4926765561103821 0.8272314667701721 -0.026945024728775024
0.4520513415336609 0.8224415183067322 -0.014872453175485134
0.3729180693626404 0.7434103488922119 0.04761489853262901
0.3920300602912903 0.6246979236602783 -0.005958431866019964
0.39380788803100586 0.7761272192001343 0.03022952750325203
0.33368536829948425 0.620375394821167 0.01314359251409769
0.36835917830467224 0.6454742550849915 0.006482170429080725
0.3183249831199646 0.6557896137237549 0.03756905719637871
0.446656197309494 0.8490238189697266 -0.012912334874272346
0.42312243580818176 0.5799115300178528 -0.038142815232276917
0.3608887195587158 0.7662339806556702 0.06860805302858353
0.38733482360839844 0.7966910600662231 0.04554594308137894
0.3517661690711975 0.7096871137619019 0.050949789583683014
0.2797848582267761 0.6710174083709717 0.13065166771411896
0.32763785123825073 0.7207563519477844 0.07437434792518616
0.28405866026878357 0.6941630244255066 0.18808187544345856
0.35142436623573303 0.6686894297599792 0.0250456091016531
0.43786850571632385 0.5474725961685181 -0.03728063777089119
0.4300229549407959 0.6138544678688049 -0.09429317712783813
0.4199337661266327 0.6179941296577454 -0.06758192926645279
0.43622151017189026 0.598252534866333 -0.11150962859392166
0.42823779582977295 0.4379984736442566 0.009371413849294186
0.39102816581726074 0.42061275243759155 0.013257035985589027
0.359417200088501 0.41639891266822815 0.02190569043159485
0.3341027498245239 0.4207240343093872 0.037067074328660965
0.318176805973053 0.4331684112548828 0.054871007800102234
0.31111013889312744 0.4799557626247406 0.09141261875629425
0.26360607147216797 0.544003427028656 0.2079543173313141
0.32233941555023193 0.5120927095413208 0.06709001213312149
0.344261109828949 0.5193725824356079 0.04877917096018791
0.3739544749259949 0.5214856266975403 0.03387080878019333
0.4031633734703064 0.5182827711105347 0.023335309699177742
0.42579346895217896 0.5113308429718018 0.019144166260957718
0.4404413104057312 0.5035609602928162 0.01469340268522501
0.27919283509254456 0.547640860080719 0.2969006896018982
0.4221237003803253 0.6231005191802979 -0.05621333047747612
0.4457955062389374 0.5526729822158813 -0.07617087662220001
0.4420904517173767 0.6158685684204102 -0.1154269203543663
0.4565502107143402 0.6281458735466003 -0.10840021073818207
0.4444432258605957 0.6196521520614624 -0.10399588197469711
0.42820724844932556 0.6298103332519531 -0.04942268133163452
0.45866823196411133 0.6307182908058167 -0.115199014544487
0.4642746150493622 0.635757327079773 -0.08798468112945557
0.4418327510356903 0.485895037651062 0.0267840176820755
0.4517972469329834 0.4898257553577423 0.00956990011036396
0.4560343623161316 0.4926215410232544 -0.008026174269616604
0.33408498764038086 0.4687037467956543 0.060394298285245895
0.3226161599159241 0.4578845798969269 0.06401029229164124
0.49907150864601135 0.5424312949180603 -0.1027814969420433
0.6786937117576599 0.4847075939178467 0.0037274188362061977
0.4992140531539917 0.6331316828727722 -0.09338494390249252
0.7918789386749268 0.39318394660949707 0.10576100647449493
0.6038148999214172 0.5073707103729248 -0.0123157212510705
0.629582405090332 0.5085259079933167 -0.013884483836591244
0.6543324589729309 0.5063104033470154 -0.010414273478090763
0.6899515390396118 0.49253594875335693 0.0060175382532179356
0.5821602940559387 0.5016593933105469 -0.004421998281031847
0.6368393898010254 0.43439310789108276 -0.02202954888343811
0.6092805862426758 0.43766772747039795 -0.01704750955104828
0.663676917552948 0.4388050436973572 -0.017306366935372353
0.6825077533721924 0.44968706369400024 -0.009951024316251278
0.7112354040145874 0.507176399230957 0.016005735844373703
0.5890376567840576 0.834467351436615 -0.011045524850487709
0.688888430595398 0.47817593812942505 0.011588855646550655
0.8003032207489014 0.4996267855167389 0.11119655519723892
0.7415154576301575 0.4906741678714752 0.03756968677043915
0.6213862895965576 0.5980210304260254 -0.04140164703130722
0.5234543681144714 0.6823229193687439 -0.07418250292539597
0.524733304977417 0.7019861340522766 -0.06403322517871857
0.5649093389511108 0.6866797804832458 -0.0638808161020279
0.5941339731216431 0.6915201544761658 -0.04457377642393112
0.5546784400939941 0.701993465423584 -0.0563107430934906
0.5797911882400513 0.7020552158355713 -0.03806106001138687
0.6277667284011841 0.7366864085197449 -0.003934978507459164
0.49143147468566895 0.6205873489379883 -0.1346219778060913
0.4936019480228424 0.5962315797805786 -0.14169466495513916
0.7220070362091064 0.4200281500816345 -0.004271224606782198
0.566647469997406 0.5419816970825195 -0.03331100195646286
0.5577460527420044 0.6122053861618042 -0.0862576887011528
0.5612992644309998 0.5991998314857483 -0.07914280891418457
0.7067494988441467 0.5936153531074524 -0.020611997693777084
0.49589550495147705 0.5667921900749207 -0.12741781771183014
0.6571025848388672 0.38741207122802734 -0.03235088661313057
0.6942113637924194 0.39794182777404785 -0.019668452441692352
0.759809672832489 0.34651291370391846 0.06545881181955338
0.5461025834083557 0.4116312861442566 -0.040052879601716995
0.586135745048523 0.4489975571632385 -0.007437325548380613
0.648693323135376 0.7059974670410156 -0.005074453540146351
0.7784836292266846 0.7287594079971313 0.16863277554512024
0.5408005714416504 0.6258554458618164 -0.07504049688577652
0.5201670527458191 0.6339743733406067 -0.07197482883930206
0.631407618522644 0.7041292786598206 -0.0018223198130726814
0.6193280220031738 0.7055205702781677 -0.005677815061062574
0.7107008695602417 0.3815247714519501 -0.010702940635383129
0.5621227622032166 0.6211363077163696 -0.0733126550912857
0.6089843511581421 0.3900580406188965 -0.04044033959507942
0.6129186749458313 0.3693788945674896 -0.04572977125644684
0.6437913179397583 0.2854832708835602 -0.008363205939531326
0.7345090508460999 0.36455678939819336 0.021907269954681396
0.62461918592453 0.32725289463996887 -0.02826559729874134
0.7408431768417358 0.40979069471359253 0.01365359965711832
0.7657668590545654 0.4037629961967468 0.05714838206768036
0.5245267152786255 0.6942930817604065 -0.07133156806230545
0.5591127872467041 0.695979654788971 -0.06071024388074875
0.586855947971344 0.6967049837112427 -0.04297957196831703
0.5358313918113708 0.6298921704292297 -0.06728484481573105
0.6257320046424866 0.7045081853866577 -0.0034020855091512203
0.6092857718467712 0.7236804962158203 -0.013370002619922161
0.6154235005378723 0.7063614130020142 -0.0055309790186584
0.5225436091423035 0.6208023428916931 -0.10601174086332321
0.5767589807510376 0.6995912790298462 -0.03458717465400696
0.5518308877944946 0.7011530995368958 -0.04728417471051216
0.5242241024971008 0.7029610872268677 -0.055148713290691376
0.5329717993736267 0.8025220036506653 -0.02970445714890957
0.5297149419784546 0.7804582118988037 -0.04999758303165436
0.5281346440315247 0.767356276512146 -0.05287719890475273
0.5265753865242004 0.7565078735351562 -0.047203391790390015
0.5248041749000549 0.7486312389373779 -0.04300073906779289
0.5793702602386475 0.7329933047294617 -0.023980772122740746
0.5834270715713501 0.735301673412323 -0.02766183204948902
0.5889578461647034 0.7404124736785889 -0.031098272651433945
0.5935916900634766 0.747529149055481 -0.02702893503010273
0.6087535619735718 0.67337965965271 -0.03878847137093544
0.810908317565918 0.609022319316864 0.202006533741951
0.596064567565918 0.7239125967025757 -0.011175615713000298
0.6028889417648315 0.7228225469589233 -0.013450237922370434
0.5130622982978821 0.6442779302597046 -0.07275541126728058
0.5579748749732971 0.6342513561248779 -0.0535244382917881
0.5160523653030396 0.6395065784454346 -0.07279238104820251
0.5955042243003845 0.5541137456893921 -0.03036963753402233
0.6405671834945679 0.5672985315322876 -0.029753610491752625
0.5685978531837463 0.6086245179176331 -0.06641058623790741
0.7123207449913025 0.3094490170478821 0.025059295818209648
0.6900824904441833 0.33739468455314636 -0.006345376372337341
0.6671255826950073 0.36760586500167847 -0.030783014371991158
0.6037454009056091 0.7638727426528931 -0.013545926660299301
0.5528239011764526 0.37754708528518677 -0.04847826063632965
0.5616227388381958 0.3282705545425415 -0.03661070391535759
0.5747253894805908 0.27563923597335815 -0.02261229045689106
0.6768022179603577 0.5013622641563416 -0.0023580302949994802
0.740164577960968 0.5237208008766174 0.024943001568317413
0.568139374256134 0.49535125494003296 0.00031720061087980866
0.7109318375587463 0.4593416154384613 0.007961953058838844
0.5473043918609619 0.5271956920623779 -0.03849590942263603
0.5383177995681763 0.6050824522972107 -0.10682492703199387
0.7711905241012573 0.5413893461227417 0.04648610204458237
0.7204686403274536 0.5377779006958008 0.004202665761113167
0.6853997707366943 0.5447149276733398 -0.01366820465773344
0.6351538300514221 0.5431033372879028 -0.01706577092409134
0.5976797342300415 0.5357955098152161 -0.01703818514943123
0.5701947808265686 0.525601327419281 -0.01869162917137146
0.5102512836456299 0.49462005496025085 -0.05629430338740349
0.7702925205230713 0.5892696976661682 0.03742809221148491
0.7335116267204285 0.45410168170928955 0.01632721535861492
0.4858355224132538 0.6333513259887695 -0.12305425852537155
0.5617003440856934 0.5642368793487549 -0.046354878693819046
0.8189882636070251 0.49944961071014404 0.18623313307762146
0.5498009324073792 0.5126103758811951 -0.01861654408276081
0.5754636526107788 0.6092991232872009 -0.04233282804489136
0.6983162760734558 0.4786491394042969 0.01536890584975481
0.5420302152633667 0.5891964435577393 -0.09764880686998367
0.8003195524215698 0.668045163154602 0.1911606639623642
0.5689859986305237 0.48668909072875977 0.006028083618730307
0.5186730623245239 0.5756897926330566 -0.1168358251452446
0.7079442143440247 0.7793670892715454 0.05809639021754265
0.7083439826965332 0.8104873895645142 0.0964503139257431
0.8017368316650391 0.602217435836792 0.1187615618109703
0.7467688322067261 0.7497316002845764 0.07922729849815369
0.7846186757087708 0.4490015506744385 0.0905698612332344
0.5907340049743652 0.8585749864578247 -0.0008420745143666863
0.4864722192287445 0.6385809183120728 -0.09132029116153717
0.5873219966888428 0.5797455906867981 -0.04157183691859245
0.7669177055358887 0.4963197708129883 0.05723044276237488
0.6514869928359985 0.4934561550617218 -0.007635537069290876
0.6292474269866943 0.4959520995616913 -0.01077338308095932
0.6155948638916016 0.7262082099914551 -0.010612302459776402
0.7698214650154114 0.6386298537254333 0.04392142593860626
0.5453802943229675 0.8894076347351074 0.007246172521263361
0.6246200799942017 0.8597500324249268 0.04613154008984566
0.6622225642204285 0.8396736979484558 0.06869247555732727
0.6078920960426331 0.49503153562545776 -0.008186683990061283
0.587859034538269 0.49161428213119507 -0.001950200297869742
0.5751076936721802 0.4894232749938965 0.004828582517802715
0.7559959888458252 0.4495322108268738 0.03772309049963951
0.5918759107589722 0.4676625728607178 -0.005757991224527359
0.6140789985656738 0.45924633741378784 -0.011560110375285149
0.6352161169052124 0.45715415477752686 -0.013967220671474934
0.6573340892791748 0.4610220193862915 -0.010801802389323711
0.6720378398895264 0.4680452346801758 -0.00516893807798624
0.8107027411460876 0.4412558078765869 0.151181161403656
0.6673221588134766 0.4893842339515686 -0.0019524798262864351
0.5773106217384338 0.6633648872375488 -0.052848931401968
0.5395540595054626 0.6231885552406311 -0.08252325654029846
0.5213377475738525 0.6596601605415344 -0.07014186680316925
0.6661962270736694 0.8095561861991882 0.0431101992726326
0.6291797757148743 0.8337130546569824 0.02293572947382927
0.5444847345352173 0.8752626180648804 -0.01905239187180996
0.7459325790405273 0.7765980958938599 0.13296817243099213
0.5757601857185364 0.47947531938552856 0.0012598780449479818
0.5241262316703796 0.5330310463905334 -0.06894633173942566
0.5866969227790833 0.8772546648979187 0.021360494196414948
0.7947309613227844 0.6563780903816223 0.11442644149065018
0.5538896322250366 0.7422382235527039 -0.03550796955823898
0.5578558444976807 0.7474954128265381 -0.03948294743895531
0.5613638162612915 0.7560873627662659 -0.043359238654375076
0.5641776919364929 0.7677260637283325 -0.03988003358244896
0.5727113485336304 0.7871522903442383 -0.024447903037071228
0.6045636534690857 0.7018234133720398 -0.02079508639872074
0.6116695404052734 0.6990165710449219 -0.021239852532744408
0.6184015274047852 0.6954259276390076 -0.022349441424012184
0.6355794072151184 0.6863809823989868 -0.022104596719145775
0.7329568862915039 0.6481146216392517 0.00074585439870134
0.5282278656959534 0.5095996856689453 -0.045733965933322906
0.5486961603164673 0.46375033259391785 -0.005664377007633448
0.5644907355308533 0.4697602391242981 0.0003193498414475471
0.5990458726882935 0.6994726061820984 -0.01858389936387539
0.7370727062225342 0.7091963291168213 0.036979205906391144
0.524190366268158 0.4590023458003998 -0.03253955394029617
0.582195520401001 0.8090782761573792 -0.016291949898004532
0.5045579671859741 0.5204688310623169 -0.08112718909978867
0.54044109582901 0.5691636800765991 -0.07413651794195175
0.5382201075553894 0.8259105086326599 -0.027049286291003227
0.6427921056747437 0.751266360282898 0.00441852118819952
0.5999960899353027 0.6274815797805786 -0.03792085126042366
0.6153231263160706 0.7836843132972717 -0.0039604827761650085
0.6681040525436401 0.6254115700721741 -0.036877259612083435
0.6305015087127686 0.6497361660003662 -0.033317629247903824
0.6939642429351807 0.6627728939056396 -0.01956331357359886
0.5427870750427246 0.8532544374465942 -0.02827027253806591
0.5580751895904541 0.5815744400024414 -0.06046215444803238
0.660030722618103 0.7768795490264893 0.020132767036557198
0.6248668432235718 0.8065598011016846 0.008172237314283848
0.6658642292022705 0.7170330882072449 -0.0010950621217489243
0.7639405727386475 0.6813631653785706 0.05314205586910248
0.698341429233551 0.7307546734809875 0.015284714289009571
0.7783052921295166 0.7061987519264221 0.10515102744102478
0.6576470136642456 0.6739676594734192 -0.02295082062482834
0.5424195528030396 0.5488065481185913 -0.056438226252794266
0.5298647284507751 0.6166538000106812 -0.1111866906285286
0.5497450828552246 0.6206240653991699 -0.08729087561368942
0.5163942575454712 0.6001444458961487 -0.12541307508945465
0.5686169862747192 0.43860572576522827 -0.014837859198451042
0.6083910465240479 0.4213973879814148 -0.021853787824511528
0.6438686847686768 0.4176890254020691 -0.02413240820169449
0.6749087572097778 0.4231492280960083 -0.018828311935067177
0.6979767680168152 0.43659496307373047 -0.007717070635408163
0.7163893580436707 0.4845314621925354 0.023455332964658737
0.8037081956863403 0.5507416129112244 0.11547435820102692
0.6958175301551819 0.5164204239845276 0.004584335722029209
0.6677271127700806 0.5230143070220947 -0.0057741631753742695
0.6330054402351379 0.5243581533432007 -0.010980777442455292
0.6003644466400146 0.5204740166664124 -0.012052656151354313
0.5754568576812744 0.5129592418670654 -0.007288701366633177
0.5583372712135315 0.5046356916427612 -0.006855139974504709
0.8162833452224731 0.5538278222084045 0.2015911191701889
0.5514852404594421 0.6255055665969849 -0.07548116892576218
0.5201921463012695 0.5537535548210144 -0.08996042609214783
0.5093027353286743 0.617927610874176 -0.12609130144119263
0.49862274527549744 0.6297799944877625 -0.11456824839115143
0.511447012424469 0.6221486330032349 -0.11499465256929398
0.5472968220710754 0.6319671869277954 -0.06581417471170425
0.4935172200202942 0.6319847702980042 -0.12028895318508148
0.49401354789733887 0.6368691921234131 -0.09232987463474274
0.5592849850654602 0.4870585799217224 0.0043769050389528275
0.5449590682983398 0.4905473589897156 -0.007116793189197779
0.5349409580230713 0.49309155344963074 -0.021911196410655975
0.6811051964759827 0.47348853945732117 0.0020349540282040834
0.6962021589279175 0.4620494842529297 0.0020818489138036966
