ply
format ascii 1.0
element vertex 468
property float x
property float y
property float z
end_header
0.5068551301956177 0.725493311882019 -0.05124000087380409
0.5091132521629333 0.6589580774307251 -0.1327301561832428
0.5065036416053772 0.6787333488464355 -0.06271665543317795
0.48693615198135376 0.5662676692008972 -0.11189396679401398
0.5090861320495605 0.6316071152687073 -0.14470131695270538
0.5082440376281738 0.5938196182250977 -0.13914167881011963
0.5055189728736877 0.5008506774902344 -0.08518531918525696
0.3233778476715088 0.48706597089767456 0.006081353407353163
0.5045502781867981 0.43374204635620117 -0.07809939235448837
0.5045029520988464 0.39687228202819824 -0.08994118869304657
0.5025323629379272 0.25550466775894165 -0.0861874669790268
0.5068382620811462 0.7361521124839783 -0.046777576208114624
0.5066977739334106 0.7421519160270691 -0.03793869540095329
0.5064116716384888 0.7422078847885132 -0.026582999154925346
0.5067310929298401 0.7501485347747803 -0.024891769513487816
0.5068919658660889 0.7588180899620056 -0.027924157679080963
0.5069596171379089 0.7701177597045898 -0.031957920640707016
0.5070533156394958 0.7833386659622192 -0.02740442380309105
0.5067553520202637 0.8096385598182678 -0.0011565632885321975
0.5082664489746094 0.671307384967804 -0.11824017763137817
0.4858923554420471 0.6660078167915344 -0.08379138261079788
0.21605858206748962 0.3776858150959015 0.10357692092657089
0.3987521827220917 0.513550877571106 -0.014982608146965504
0.3721942901611328 0.5148670673370361 -0.013745206408202648
0.34695059061050415 0.5120128393173218 -0.007741247303783894
0.31333011388778687 0.4961250424385071 0.01169300451874733
0.42078739404678345 0.5075533390045166 -0.011584916152060032
0.36343786120414734 0.4483044147491455 -0.03260522708296776
0.39071202278137207 0.4500190019607544 -0.031990163028240204
0.3384026288986206 0.4519695043563843 -0.024033617228269577
0.32123157382011414 0.4601846933364868 -0.01342389639467001
0.29025423526763916 0.5122133493423462 0.02677614614367485
0.41672083735466003 0.8546165823936462 0.03273404389619827
0.31389304995536804 0.4801289737224579 0.013564728200435638
0.2068367898464203 0.49662691354751587 0.13508203625679016
0.2597839832305908 0.49487340450286865 0.04846970736980438
0.37705790996551514 0.6197047233581543 -0.0223211832344532
0.47381293773651123 0.7207723259925842 -0.050316210836172104
0.47578325867652893 0.7402348518371582 -0.03564435616135597
0.4393422305583954 0.7223003506660461 -0.0353969931602478
0.4153021574020386 0.7252306938171387 -0.01465290505439043
0.4502822458744049 0.7378825545310974 -0.02547997422516346
0.4293133616447449 0.7356573939323425 -0.00642671063542366
0.38734859228134155 0.7573618292808533 0.03131682798266411
0.48872140049934387 0.6578371524810791 -0.13136182725429535
0.4864550828933716 0.631167471408844 -0.14261335134506226
0.27714601159095764 0.4315715730190277 -0.012177582830190659
0.4309215247631073 0.5565140247344971 -0.03290596604347229
0.43143391609191895 0.6407482624053955 -0.07265254855155945
0.43004465103149414 0.6250919103622437 -0.06671255081892014
0.29376420378685 0.6127943396568298 0.0070476229302585125
0.48676982522010803 0.5962490439414978 -0.1323091834783554
0.340021550655365 0.40564095973968506 -0.05763862282037735
0.30344074964523315 0.41341227293014526 -0.03800796717405319
0.2429431974887848 0.3303576111793518 0.0464942641556263
0.452265202999115 0.42933475971221924 -0.07321710139513016
0.4146525263786316 0.45849475264549255 -0.02275630086660385
0.36487317085266113 0.732393205165863 0.03159036859869957
0.23767104744911194 0.7412493228912354 0.2460322380065918
0.4486008882522583 0.6554213166236877 -0.05986889824271202
0.4690917432308197 0.6641283631324768 -0.05891421437263489
0.3872120976448059 0.7284429669380188 0.032201606780290604
0.39833638072013855 0.7293787598609924 0.02655571699142456
0.2869011163711548 0.39395108819007874 -0.029551992192864418
0.4295981228351593 0.6485497951507568 -0.05668887495994568
0.3889256715774536 0.4093055725097656 -0.07001923769712448
0.3833761215209961 0.3856959342956543 -0.0795515701174736
0.3508515954017639 0.2687671482563019 -0.057357367128133774
0.26547467708587646 0.3613242208957672 0.0023478418588638306
0.36983656883239746 0.32521629333496094 -0.07083289325237274
0.2590108811855316 0.4177122712135315 0.006689740344882011
0.23747098445892334 0.3990194797515869 0.05145850032567978
0.4744150638580322 0.7331889867782593 -0.04535972326993942
0.44585034251213074 0.7323785424232483 -0.031144214794039726
0.4227781593799591 0.7308290600776672 -0.012269757688045502
0.4544045329093933 0.6590156555175781 -0.0534999817609787
0.3927130103111267 0.7285503149032593 0.02921346202492714
0.40696248412132263 0.7380434274673462 0.015580428764224052
0.40148627758026123 0.7299689054489136 0.025836018845438957
0.46218031644821167 0.6531692743301392 -0.09679839015007019
0.4329927861690521 0.7329879999160767 -0.002126488136127591
0.45412278175354004 0.7367367148399353 -0.014924317598342896
0.4781493544578552 0.7404910922050476 -0.02443566545844078
0.47280818223953247 0.8092705011367798 -0.0003077380533795804
0.4752351939678192 0.7811456918716431 -0.02617166005074978
0.4759055972099304 0.7667956352233887 -0.03009888157248497
0.4766503870487213 0.7560786604881287 -0.025600459426641464
0.47841498255729675 0.7489145398139954 -0.022125953808426857
0.4311167001724243 0.740536630153656 0.0009354788926430047
0.42797183990478516 0.7424426674842834 -0.0027176805306226015
0.4239395260810852 0.747760534286499 -0.005162667017430067
0.42061278223991394 0.7559582591056824 0.0005746681126765907
0.39579373598098755 0.7033630609512329 -0.010711710900068283
0.2059939205646515 0.6114465594291687 0.2601245641708374
0.5073654055595398 0.6746898293495178 -0.08291240781545639
0.41722872853279114 0.7368849515914917 0.016395585611462593
0.4122721552848816 0.7362161874771118 0.014484340324997902
0.47711116075515747 0.6757777333259583 -0.057108212262392044
0.4366886615753174 0.6617507934570312 -0.0343826524913311
0.47341081500053406 0.6703795790672302 -0.058878958225250244
0.403338223695755 0.5699578523635864 -0.02301192656159401
0.35864853858947754 0.5852627158164978 -0.015160394832491875
0.4248785674571991 0.633991539478302 -0.050588611513376236
0.28530094027519226 0.2931337058544159 -0.009507252834737301
0.30726099014282227 0.33519843220710754 -0.03760983794927597
0.32950347661972046 0.3819987177848816 -0.05792773514986038
0.4097643792629242 0.7789194583892822 0.020055964589118958
0.44338032603263855 0.3927736282348633 -0.08912375569343567
0.43289899826049805 0.32392486929893494 -0.08835728466510773
0.4207908809185028 0.257608562707901 -0.08263897895812988
0.32537683844566345 0.5061684846878052 0.0024282773956656456
0.26066017150878906 0.530315637588501 0.042522918432950974
0.43465322256088257 0.5011265277862549 -0.009010640904307365
0.2908249497413635 0.46595603227615356 0.008203007280826569
0.4490682780742645 0.5406883358955383 -0.043578166514635086
0.44711989164352417 0.6358276605606079 -0.09838923811912537
0.23179709911346436 0.5477898120880127 0.0732438787817955
0.2795776128768921 0.548284113407135 0.023032929748296738
0.31437838077545166 0.5582295656204224 0.0023825212847441435
0.36491334438323975 0.5566070675849915 -0.007816534489393234
0.4025152623653412 0.5477580428123474 -0.013506891205906868
0.4295377731323242 0.536527156829834 -0.021522928029298782
0.4823857247829437 0.5077195167541504 -0.07565180212259293
0.2338932752609253 0.6023366451263428 0.07459308952093124
0.26704588532447815 0.46082767844200134 0.018055595457553864
0.4963354468345642 0.6699389815330505 -0.11715979129076004
0.4344896078109741 0.583169162273407 -0.03978626802563667
0.1959742307662964 0.49096500873565674 0.2190861850976944
0.449184775352478 0.523116409778595 -0.02714798040688038
0.4211452603340149 0.6332785487174988 -0.024597952142357826
0.3059307932853699 0.4825354516506195 0.01882663555443287
0.4461880326271057 0.6165071725845337 -0.09093139320611954
0.216756671667099 0.6760705709457397 0.25958696007728577
0.4341634213924408 0.49104738235473633 -0.004962952807545662
0.4660795331001282 0.6040995717048645 -0.11657153069972992
0.30078259110450745 0.7990461587905884 0.11941499263048172
0.30489635467529297 0.8284456133842468 0.17050954699516296
0.20856595039367676 0.6097484230995178 0.167053684592247
0.2625933289527893 0.767265796661377 0.14494282007217407
0.22099503874778748 0.4435781240463257 0.09951424598693848
0.41439342498779297 0.8795223236083984 0.05085616558790207
0.4981931746006012 0.673417866230011 -0.0814383253455162
0.4104827046394348 0.5999392867088318 -0.02866731956601143
0.23542439937591553 0.4989846348762512 0.07348766177892685
0.34938278794288635 0.4972143769264221 -0.0076893046498298645
0.37211209535598755 0.5005933046340942 -0.013323845341801643
0.40174591541290283 0.7421502470970154 0.020068952813744545
0.23690181970596313 0.6554839611053467 0.09138338267803192
0.4596233069896698 0.909407377243042 0.06349032372236252
0.38580960035324097 0.8804010152816772 0.10962411016225815
0.35006070137023926 0.8594969511032104 0.13660027086734772
0.503760039806366 0.3248886466026306 -0.09123764932155609
0.5067229270935059 0.9123013019561768 0.058484289795160294
0.3944551944732666 0.4995713233947754 -0.01340799406170845
0.4154372811317444 0.49572432041168213 -0.009738055057823658
0.4283154308795929 0.4934828579425812 -0.005020663607865572
0.2455688714981079 0.4535103440284729 0.042028848081827164
0.4105241894721985 0.46890226006507874 -0.017003362998366356
0.387528657913208 0.4597107768058777 -0.022290362045168877
0.3648098111152649 0.4577789902687073 -0.021981244906783104
0.3423280119895935 0.4621173143386841 -0.015695886686444283
0.32850509881973267 0.46981722116470337 -0.007080844137817621
0.20119214057922363 0.4279201626777649 0.1660614013671875
0.334073543548584 0.49215030670166016 -0.00028026237851008773
0.506643533706665 0.6932884454727173 -0.05236046761274338
0.4227134585380554 0.6936626434326172 -0.02758309431374073
0.44827762246131897 0.6534883975982666 -0.07073375582695007
0.4726327955722809 0.6927251219749451 -0.051338210701942444
0.5046477317810059 0.4653170108795166 -0.07232338190078735
0.34230875968933105 0.8305052518844604 0.10077620297670364
0.3779468536376953 0.8551891446113586 0.07791360467672348
0.45773595571517944 0.8954280614852905 0.028579948469996452
0.26850101351737976 0.7920528054237366 0.21195527911186218
0.4269260764122009 0.4822932779788971 -0.01014788169413805
0.46717020869255066 0.5512659549713135 -0.07718724757432938
0.5074821710586548 0.8969202041625977 0.024922989308834076
0.42113786935806274 0.8978725075721741 0.081158347427845
0.2172504961490631 0.668212890625 0.172467440366745
0.4528082609176636 0.7450023293495178 -0.012101879343390465
0.4498057961463928 0.749908983707428 -0.016122683882713318
0.4476030766963959 0.7583832144737244 -0.01902926154434681
0.44579896330833435 0.7711663842201233 -0.013959493488073349
0.43809744715690613 0.797031044960022 0.007237906102091074
0.40980401635169983 0.7319362759590149 0.011089968495070934
0.40299081802368164 0.7294846773147583 0.010626640170812607
0.3962165117263794 0.7258331775665283 0.009214679710566998
0.37310218811035156 0.715540885925293 0.009540144354104996
0.2702357769012451 0.6691058874130249 0.04197518154978752
0.4662529230117798 0.5226031541824341 -0.057838074862957
0.45224595069885254 0.4718318581581116 -0.02399594709277153
0.4372464120388031 0.4765338897705078 -0.015193463303148746
0.41494375467300415 0.7295072078704834 0.013581305742263794
0.27009278535842896 0.7295093536376953 0.09047504514455795
0.4731370508670807 0.469999760389328 -0.05597405508160591
0.42634713649749756 0.8260135054588318 0.021276868879795074
0.5073509812355042 0.562440037727356 -0.119808129966259
0.48445966839790344 0.5386869311332703 -0.09664184600114822
0.5064994692802429 0.5331159830093384 -0.10201411694288254
0.45112907886505127 0.5921409726142883 -0.07165000587701797
0.5076220631599426 0.872527003288269 0.006548508070409298
0.5071401596069336 0.8395020961761475 0.002357861725613475
0.4660407602787018 0.8397585153579712 0.006427927874028683
0.3676449656486511 0.7741759419441223 0.04467451572418213
0.3986634314060211 0.6520318984985352 -0.01571844331920147
0.3955402374267578 0.8036365509033203 0.03533029183745384
0.3310101628303528 0.6482580900192261 -0.009086902253329754
0.37025952339172363 0.6753812432289124 -0.0061559113673865795
0.30731746554374695 0.6867326498031616 0.017300192266702652
0.45950859785079956 0.8722810745239258 0.011336964555084705
0.4365456998348236 0.6040668487548828 -0.051649391651153564
0.34835150837898254 0.7988353967666626 0.06897393614053726
0.3833357095718384 0.8279389142990112 0.055160995572805405
0.34266197681427 0.7428154945373535 0.040334198623895645
0.24448829889297485 0.699723482131958 0.10794403403997421
0.3090757131576538 0.7530874013900757 0.06312287598848343
0.23295119404792786 0.7210385799407959 0.17089228332042694
0.34616363048553467 0.7014845013618469 0.010501955635845661
0.4514502286911011 0.5670530200004578 -0.05706711485981941
0.4546457529067993 0.648977518081665 -0.10276053100824356
0.4385347366333008 0.6504650712013245 -0.0737907811999321
0.4657302796840668 0.6331076622009277 -0.12159118801355362
0.43203043937683105 0.4512174129486084 -0.03595153987407684
0.39085590839385986 0.4376254081726074 -0.04322195425629616
0.3551405668258667 0.4343843460083008 -0.042099058628082275
0.3247642517089844 0.4373440742492676 -0.03167536109685898
0.3028607964515686 0.44727131724357605 -0.015292437747120857
0.2858583331108093 0.4885903596878052 0.029966894537210464
0.2044401466846466 0.5528912544250488 0.15253423154354095
0.3057044446468353 0.5235509276390076 0.01578817330300808
0.3331449627876282 0.5318843722343445 0.0023626787588000298
0.3682163953781128 0.5335801839828491 -0.006648841314017773
0.40134575963020325 0.5291318297386169 -0.011510169133543968
0.4265768527984619 0.5210179090499878 -0.012779153883457184
0.4432722330093384 0.5126020908355713 -0.015319440513849258
0.2003408670425415 0.5506155490875244 0.24774712324142456
0.43866875767707825 0.6543304324150085 -0.060139041393995285
0.46811655163764954 0.5769440531730652 -0.09329840540885925
0.4720420241355896 0.6529533863067627 -0.12093853205442429
0.4846932590007782 0.6640482544898987 -0.10775016248226166
0.47163012623786926 0.6557942628860474 -0.10808583348989487
0.4447193741798401 0.660338819026947 -0.04953121021389961
0.48897168040275574 0.6674805879592896 -0.1139274537563324
0.49100613594055176 0.6708039045333862 -0.08256690204143524
0.44289687275886536 0.49317479133605957 -0.007670917548239231
0.4560859799385071 0.49835410714149475 -0.021026037633419037
0.4636446237564087 0.5028741359710693 -0.03705345094203949
0.3203337788581848 0.4754429757595062 0.0019646717701107264
0.30763131380081177 0.46897104382514954 0.002109878696501255
0.5273481011390686 0.5659373998641968 -0.10962378233671188
0.6816107034683228 0.4827389419078827 0.022943953052163124
0.527987003326416 0.6659947633743286 -0.08203591406345367
0.7776709794998169 0.3725664019584656 0.12987525761127472
0.6078364849090576 0.5110732316970825 -0.004457981325685978
0.634515643119812 0.5116580724716187 -0.000990579486824572
0.6590464115142822 0.5083287954330444 0.006873367819935083
0.6906832456588745 0.49156737327575684 0.029139187186956406
0.5856546759605408 0.5054299831390381 -0.0033115081023424864
0.6426892876625061 0.4444989562034607 -0.018996724858880043
0.6152372360229492 0.4469103515148163 -0.021348832175135612
0.6675909757614136 0.4477919340133667 -0.008301290683448315
0.684126079082489 0.45586031675338745 0.0035422679502516985
0.7129205465316772 0.5072048306465149 0.04587935656309128
0.5954937934875488 0.8517647385597229 0.04132624715566635
0.6901392936706543 0.4754377603530884 0.031248122453689575
0.7873411178588867 0.4893895983695984 0.16186940670013428
0.7414439916610718 0.48885399103164673 0.06997265666723251
0.6322616338729858 0.6172847747802734 -0.011329845525324345
0.5392460823059082 0.7203315496444702 -0.04741760715842247
0.5369061231613159 0.7396263480186462 -0.03296506777405739
0.5723996162414551 0.7213382720947266 -0.029721969738602638
0.5949469804763794 0.7235732674598694 -0.006575224921107292
0.5611467361450195 0.736904501914978 -0.02051762118935585
0.580771267414093 0.7341870665550232 0.00033822469413280487
0.6212483644485474 0.7550416588783264 0.04227562993764877
0.5287720561027527 0.6574844717979431 -0.12990036606788635
0.531308114528656 0.6307802200317383 -0.14087413251399994
0.7271209955215454 0.42539072036743164 0.008354336954653263
0.5778656601905823 0.5552091598510742 -0.026229556649923325
0.5806225538253784 0.6400516033172607 -0.0659709945321083
0.5813586711883545 0.624476432800293 -0.06002546846866608
0.7126652598381042 0.6079452037811279 0.0255504809319973
0.5293231010437012 0.595916211605072 -0.1298484057188034
0.6672938466072083 0.4003003239631653 -0.04259570315480232
0.702670693397522 0.4076213836669922 -0.019688434898853302
0.7541426420211792 0.32598793506622314 0.07010603696107864
0.5563668012619019 0.42719876766204834 -0.06800752133131027
0.5912604331970215 0.45605406165122986 -0.014150449074804783
0.6426989436149597 0.7296188473701477 0.045082394033670425
0.7527096271514893 0.7324303388595581 0.2710177004337311
0.5632938146591187 0.6550688743591309 -0.05542751029133797
0.5432100296020508 0.6641826033592224 -0.05645207315683365
0.6203603148460388 0.7264561653137207 0.043695516884326935
0.6093989610671997 0.7275242805480957 0.03621548041701317
0.7183303833007812 0.3877626657485962 -0.010075931437313557
0.5813025236129761 0.648007869720459 -0.05025218054652214
0.6193275451660156 0.40524402260780334 -0.05972057208418846
0.624728798866272 0.38152948021888733 -0.06903356313705444
0.6512866616249084 0.2666364312171936 -0.043679218739271164
0.7361150979995728 0.3560430109500885 0.023156527429819107
0.6358590126037598 0.32212239503860474 -0.05914159119129181
0.7436473369598389 0.41143113374710083 0.028542526066303253
0.7612314224243164 0.39338013529777527 0.0749058648943901
0.5387157201766968 0.7328014373779297 -0.04260611906647682
0.5659751296043396 0.7314647436141968 -0.02574033848941326
0.5877267718315125 0.7293372750282288 -0.0049830093048512936
0.5573363304138184 0.6589465737342834 -0.04950594902038574
0.6149309277534485 0.7266196608543396 0.03970569372177124
0.6018081307411194 0.7362402677536011 0.02411222644150257
0.6059476137161255 0.7281476855278015 0.035329271107912064
0.5519779920578003 0.6526790857315063 -0.09239907562732697
0.5764266848564148 0.7314766049385071 0.0042712073773145676
0.556613028049469 0.7357993721961975 -0.01028182078152895
0.5340093970298767 0.7399592995643616 -0.021938102319836617
0.5404713749885559 0.8086982369422913 0.002469985978677869
0.5382875800132751 0.7806503176689148 -0.02330518141388893
0.5374932289123535 0.7663756012916565 -0.02740904502570629
0.5363087058067322 0.7557270526885986 -0.022816918790340424
0.5342985391616821 0.7484089732170105 -0.01960241235792637
0.5788815021514893 0.7389942407608032 0.00716794840991497
0.5821200609207153 0.7409846186637878 0.0036320751532912254
0.586215615272522 0.7463605999946594 0.0016470132395625114
0.5896307826042175 0.7544652819633484 0.008133518509566784
0.6142646074295044 0.7014299631118774 -0.001325110555626452
0.7812525033950806 0.6030613780021667 0.2878674268722534
0.5913828611373901 0.7352184057235718 0.024596016854047775
0.5965620279312134 0.7346038222312927 0.02263096533715725
0.5354349613189697 0.6757434606552124 -0.054688941687345505
0.5737684965133667 0.6614109873771667 -0.029271187260746956
0.5390200018882751 0.6703315377235413 -0.05660634860396385
0.6052326560020447 0.5681052803993225 -0.013600070029497147
0.6498355269432068 0.5823009014129639 -0.002100954530760646
0.5854771137237549 0.6334109902381897 -0.04368075355887413
0.7141231298446655 0.2896140515804291 0.009496504440903664
0.6965242624282837 0.3305516839027405 -0.02052999660372734
0.6773201823234558 0.37661489844322205 -0.042445216327905655
0.6004310250282288 0.776627779006958 0.0289227943867445
0.5655574798583984 0.3903409242630005 -0.08337558805942535
0.5739983320236206 0.3223906457424164 -0.08201457560062408
0.5831691026687622 0.2566928267478943 -0.07574455440044403
0.679709255695343 0.5020350217819214 0.018956104293465614
0.7415274381637573 0.5244506001472473 0.06396634876728058
0.5716871023178101 0.49934861063957214 -0.0017117196694016457
0.7128697633743286 0.4606553316116333 0.0275578536093235
0.5603097677230835 0.5396043658256531 -0.038256727159023285
0.5670104026794434 0.6351698040962219 -0.09319843351840973
0.7679845094680786 0.5410999059677124 0.09764609485864639
0.724480152130127 0.5431808233261108 0.04294019192457199
0.6918679475784302 0.5541139245033264 0.019010724499821663
0.6425948143005371 0.5536565780639648 0.0051088882610201836
0.6051492691040039 0.5456686615943909 -0.003947016317397356
0.5783254504203796 0.5350636839866638 -0.014389242976903915
0.528350830078125 0.5071051120758057 -0.07328423112630844
0.766758918762207 0.5956035852432251 0.09896055608987808
0.7352743148803711 0.4548288583755493 0.039288267493247986
0.5200285911560059 0.6697564721107483 -0.11597590148448944
0.5754010081291199 0.5822350978851318 -0.03328409418463707
0.7922654151916504 0.4838314354419708 0.2475811094045639
0.558815598487854 0.5219725966453552 -0.021681373938918114
0.587973415851593 0.6324812173843384 -0.0174232367426157
0.6976978182792664 0.47779610753059387 0.037558529525995255
0.5668331384658813 0.6159423589706421 -0.0857105702161789
0.7714112997055054 0.667454719543457 0.28636208176612854
0.5715774893760681 0.4891693890094757 0.003023578552529216
0.54883873462677 0.6034843325614929 -0.11272278428077698
0.7015094757080078 0.7921285629272461 0.13845910131931305
0.6943163275718689 0.8207072019577026 0.18973587453365326
0.785590410232544 0.6018041372299194 0.19383296370506287
0.7361517548561096 0.7592848539352417 0.16710121929645538
0.7750471234321594 0.437200665473938 0.12498172372579575
0.5974956154823303 0.8761841058731079 0.060165125876665115
0.5163471102714539 0.673394501209259 -0.08079615980386734
0.5986636877059937 0.5984597206115723 -0.02048945054411888
0.76347815990448 0.49238121509552 0.09739608317613602
0.6568508744239807 0.4936743974685669 0.006955172400921583
0.6345415115356445 0.497522234916687 -0.00016982857778202742
0.6070029139518738 0.7403016686439514 0.029445817694067955
0.7634932994842529 0.6482198238372803 0.11517040431499481
0.5530982613563538 0.9076639413833618 0.0686471089720726
0.6215459704399109 0.8757129907608032 0.12206996977329254
0.6539614796638489 0.8533749580383301 0.15235671401023865
0.6122152805328369 0.49689239263534546 -0.0024682048242539167
0.5908411741256714 0.4934767186641693 -0.000346397195244208
0.5776161551475525 0.4915023446083069 0.0033558765426278114
0.7545866370201111 0.4471541941165924 0.06506756693124771
0.5949374437332153 0.4664348065853119 -0.007578426506370306
0.6177297234535217 0.45657339692115784 -0.011034914292395115
0.640474259853363 0.45402467250823975 -0.00891145784407854
0.6627994775772095 0.4581124782562256 -0.0007645519217476249
0.6763188242912292 0.46546682715415955 0.00902304146438837
0.7895674109458923 0.42194584012031555 0.19404847919940948
0.6716597676277161 0.4881845712661743 0.015818437561392784
0.588149905204773 0.6926708221435547 -0.02062338776886463
0.5642436742782593 0.6530276536941528 -0.0662008672952652
0.5401767492294312 0.6925171613693237 -0.04848530516028404
0.6633468866348267 0.8248843550682068 0.11609263718128204
0.63022780418396 0.8505921363830566 0.09005583077669144
0.5565109252929688 0.8937720060348511 0.0335058867931366
0.7259551286697388 0.7835899591445923 0.23432137072086334
0.5786612629890442 0.48022741079330444 -0.0017549876356497407
0.5447708368301392 0.5506227612495422 -0.07352857291698456
0.5896506309509277 0.894593358039856 0.09027531743049622
0.7769457101821899 0.6598415374755859 0.19833604991436005
0.558729887008667 0.7438955307006836 -0.007657256443053484
0.5620049834251404 0.7488698959350586 -0.011361089535057545
0.5644497871398926 0.7574484944343567 -0.01390793640166521
0.5664046406745911 0.7700902223587036 -0.008382144384086132
0.5738811492919922 0.7955411672592163 0.013603712432086468
0.5988692045211792 0.7302582263946533 0.019544389098882675
0.6057838201522827 0.7277798652648926 0.01996615342795849
0.612561821937561 0.7239845991134644 0.019313998520374298
0.6356559991836548 0.7128822803497314 0.021564384922385216
0.7340512275695801 0.6628747582435608 0.06199872866272926
0.5436499118804932 0.5218386650085449 -0.053939804434776306
0.5543112754821777 0.47026553750038147 -0.019333137199282646
0.5686303973197937 0.4746902585029602 -0.008023739792406559
0.5931587815284729 0.7279074192047119 0.02176372893154621
0.7321633100509644 0.7226281762123108 0.11119359731674194
0.535137951374054 0.4691285490989685 -0.053188107907772064
0.5854512453079224 0.8236231207847595 0.02873065695166588
0.5282278060913086 0.5383096933364868 -0.09454792737960815
0.5607415437698364 0.5914791226387024 -0.06685302406549454
0.5478821396827698 0.8386485576629639 0.00980847142636776
0.6404646635055542 0.7707688808441162 0.057475652545690536
0.6104927062988281 0.65060955286026 -0.006926228757947683
0.6142741441726685 0.800818920135498 0.04553087800741196
0.6774648427963257 0.6442106366157532 0.005376615561544895
0.6388729214668274 0.672703742980957 0.005329118110239506
0.6996491551399231 0.6816754937171936 0.034039925783872604
0.5553134083747864 0.8707460761070251 0.01625225320458412
0.5739880800247192 0.6034294366836548 -0.04567660018801689
0.6587182283401489 0.7941306829452515 0.08352423459291458
0.6259593963623047 0.8241105675697327 0.06646222621202469
0.6646804809570312 0.738699734210968 0.05565255507826805
0.7556763887405396 0.6923366785049438 0.13093440234661102
0.6960448622703552 0.7474409937858582 0.08086545020341873
0.762771487236023 0.7125211954116821 0.19562716782093048
0.6618934869766235 0.6978473663330078 0.02410210855305195
0.5592989325523376 0.5663895606994629 -0.05176283046603203
0.5597484707832336 0.6483618021011353 -0.09793668985366821
0.5739375948905945 0.6499384045600891 -0.06823714077472687
0.5504220128059387 0.6326011419296265 -0.11803364008665085
0.5746878385543823 0.4488864541053772 -0.02936812862753868
0.6159928441047668 0.4340176582336426 -0.03282119706273079
0.6518610715866089 0.4302050471305847 -0.028247680515050888
0.6815196871757507 0.43291032314300537 -0.014701366424560547
0.702215313911438 0.4423847198486328 0.0032372435089200735
0.7167948484420776 0.48318105936050415 0.04948002099990845
0.7897917628288269 0.5452735424041748 0.17990995943546295
0.6987527012825012 0.5189465880393982 0.03337826579809189
0.6727231740951538 0.5281116366386414 0.01778011955320835
0.6384392976760864 0.5306692719459534 0.00591693352907896
0.6055736541748047 0.5267739295959473 -0.001584552926942706
0.5804373025894165 0.5192431807518005 -0.005169169511646032
0.5637101531028748 0.5111430883407593 -0.009193944744765759
0.7868928909301758 0.5428959131240845 0.2763309180736542
0.572745144367218 0.6539459228515625 -0.054754361510276794
0.5453516244888306 0.5764160752296448 -0.08956240117549896
0.5443041324615479 0.6522958874702454 -0.11770503222942352
0.5303136706352234 0.6637168526649475 -0.10599370300769806
0.5433654189109802 0.6552602052688599 -0.10493095964193344
0.5663885474205017 0.660165011882782 -0.04511471465229988
0.5269391536712646 0.6672124266624451 -0.11237264424562454
0.5233191847801208 0.6705986261367798 -0.08139477670192719
0.5633260011672974 0.4915732145309448 -0.0014173374511301517
0.5507093667984009 0.49717283248901367 -0.016281476244330406
0.5444281101226807 0.5019174218177795 -0.03293438255786896
0.6841455101966858 0.47096043825149536 0.01894461363554001
0.6967073678970337 0.46419426798820496 0.019934415817260742
