ply
format ascii 1.0
element vertex 468
property float x
property float y
property float z
end_header
0.523550271987915 0.6983126997947693 -0.08155884593725204
0.5375336408615112 0.6247994303703308 -0.13764508068561554
0.5272925496101379 0.6493898034095764 -0.07945568859577179
0.5086939334869385 0.5443269610404968 -0.10030488669872284
0.5383257865905762 0.5990420579910278 -0.14367464184761047
0.5350707769393921 0.5665294528007507 -0.13080501556396484
0.5228360295295715 0.49094927310943604 -0.05475454032421112
0.3325662612915039 0.48640769720077515 0.013595929369330406
0.5188844799995422 0.43104445934295654 -0.02989138662815094
0.5188553333282471 0.4011172354221344 -0.02999095804989338
0.5122118592262268 0.31755343079566956 0.008043385110795498
0.5224291086196899 0.710363507270813 -0.07908954471349716
0.5205268859863281 0.7193586230278015 -0.07266397029161453
0.5181775689125061 0.7226600050926208 -0.06319260597229004
0.5191634893417358 0.7678937911987305 -0.051080022007226944
0.5198583006858826 0.7796227335929871 -0.05639341473579407
0.5199307203292847 0.7937087416648865 -0.06268132477998734
0.5190436840057373 0.8082882165908813 -0.05925536900758743
0.5161318182945251 0.830802857875824 -0.03997128829360008
0.5345596075057983 0.6385298371315002 -0.12615634500980377
0.5047321915626526 0.6376641988754272 -0.09673219174146652
0.22633299231529236 0.42038699984550476 0.12236957997083664
0.40710538625717163 0.504606306552887 -0.002409475389868021
0.382238507270813 0.5066442489624023 -0.004462647717446089
0.3573400676250458 0.5070738792419434 -0.001448044553399086
0.3212898373603821 0.4955019950866699 0.014312169514596462
0.42743369936943054 0.49915820360183716 0.004622562788426876
0.37187302112579346 0.4430650472640991 -0.009873227216303349
0.39904898405075073 0.44478750228881836 -0.004301572684198618
0.3455081582069397 0.4474755823612213 -0.006380720529705286
0.32749083638191223 0.4575387239456177 0.00036405111313797534
0.3007107377052307 0.514129102230072 0.02232685312628746
0.40787601470947266 0.8594920635223389 -0.024399474263191223
0.32153764367103577 0.48116111755371094 0.0208404790610075
0.21383148431777954 0.5144692659378052 0.11945341527462006
0.270133376121521 0.50117027759552 0.044845711439847946
0.3846548795700073 0.6042024493217468 -0.03987083584070206
0.48433718085289 0.6944852471351624 -0.083091601729393
0.4856316149234772 0.7194021940231323 -0.07318049669265747
0.4417668282985687 0.7027683854103088 -0.07242248952388763
0.41447633504867554 0.7127469182014465 -0.053055744618177414
0.455251008272171 0.7213201522827148 -0.065031498670578
0.43168485164642334 0.7247063517570496 -0.04658297076821327
0.37644749879837036 0.7629115581512451 -0.015058155171573162
0.5151032209396362 0.6246204972267151 -0.13789623975753784
0.5123288035392761 0.599665641784668 -0.1436927318572998
0.2915354371070862 0.43639159202575684 0.004480679519474506
0.439666748046875 0.5446137189865112 -0.028666121885180473
0.44099730253219604 0.6178863644599915 -0.0868450403213501
0.4374500513076782 0.6043996810913086 -0.07882177829742432
0.3062348961830139 0.6007660031318665 -0.02017667330801487
0.5110259056091309 0.5694943070411682 -0.12701663374900818
0.35337910056114197 0.40557587146759033 -0.023402921855449677
0.3181765675544739 0.41632258892059326 -0.011564819142222404
0.2579769492149353 0.37935003638267517 0.08470538258552551
0.4637085795402527 0.42394590377807617 -0.030063405632972717
0.4222032427787781 0.4535224437713623 0.0055420780554413795
0.35710078477859497 0.732153594493866 -0.014268823899328709
0.2167814075946808 0.740319013595581 0.15963584184646606
0.4591594636440277 0.6317461133003235 -0.07589229941368103
0.48099178075790405 0.639603316783905 -0.0752822533249855
0.37958136200904846 0.7347369194030762 -0.011323974467813969
0.3937143385410309 0.7344080209732056 -0.015224057249724865
0.30301159620285034 0.403947651386261 -0.0004054393502883613
0.4360165596008301 0.6283538341522217 -0.07455343008041382
0.4005897045135498 0.4059924781322479 -0.029970834031701088
0.39653292298316956 0.389411598443985 -0.03376677259802818
0.36990901827812195 0.32666516304016113 0.015575983561575413
0.28112292289733887 0.3926126956939697 0.036896198987960815
0.3864109516143799 0.35842975974082947 -0.009186229668557644
0.27454274892807007 0.42930474877357483 0.024081317707896233
0.2513641119003296 0.42751842737197876 0.07185924053192139
0.4847370684146881 0.709132969379425 -0.08043953776359558
0.44941413402557373 0.7142173647880554 -0.06941252946853638
0.4234074354171753 0.7190409898757935 -0.05163244903087616
0.4644087851047516 0.6363345980644226 -0.06957607716321945
0.38655728101730347 0.7348473072052002 -0.013032053597271442
0.4013229012489319 0.7513150572776794 -0.02399049513041973
0.39749154448509216 0.7335498929023743 -0.01541545893996954
0.4805103838443756 0.6251557469367981 -0.1076199933886528
0.43581971526145935 0.7230179905891418 -0.0429496094584465
0.45886093378067017 0.722037136554718 -0.055965691804885864
0.4866020381450653 0.7221651673316956 -0.06412287801504135
0.47362372279167175 0.8280501365661621 -0.04216344654560089
0.47812241315841675 0.8048717975616455 -0.06133134663105011
0.4811047613620758 0.7902063131332397 -0.06344020366668701
0.48398420214653015 0.7761012315750122 -0.056781649589538574
0.4864078760147095 0.766414999961853 -0.0518871434032917
0.43294042348861694 0.755038857460022 -0.03311028704047203
0.4280085861682892 0.7590007185935974 -0.03721384331583977
0.42061346769332886 0.7658413648605347 -0.04107794538140297
0.41410815715789795 0.7738955020904541 -0.03743097558617592
0.3969077467918396 0.689177930355072 -0.046604130417108536
0.19569069147109985 0.6201552748680115 0.20177549123764038
0.5310658812522888 0.6437488198280334 -0.09540803730487823
0.4164656698703766 0.7482144236564636 -0.020950432866811752
0.40903985500335693 0.7489005327224731 -0.023675935342907906
0.48991939425468445 0.650253176689148 -0.07742132991552353
0.4413442313671112 0.6431591510772705 -0.05594933405518532
0.4856921136379242 0.6451427936553955 -0.07672236859798431
0.41174179315567017 0.557576596736908 -0.026815805584192276
0.36931145191192627 0.572786271572113 -0.027759088203310966
0.429883748292923 0.6153428554534912 -0.0663328543305397
0.30341434478759766 0.34665706753730774 0.04647688567638397
0.3233579099178314 0.3680254817008972 0.010715005919337273
0.3437402844429016 0.39018359780311584 -0.018539639189839363
0.4005434215068817 0.7891379594802856 -0.024948569014668465
0.45701518654823303 0.39576584100723267 -0.036544572561979294
0.4484468400478363 0.35923904180526733 -0.01640469580888748
0.43723613023757935 0.31871357560157776 0.002781969727948308
0.33497875928878784 0.503404974937439 0.005965969525277615
0.2722851634025574 0.5324930548667908 0.03049108386039734
0.4404850900173187 0.4932791590690613 0.01005756575614214
0.3006516396999359 0.46885406970977783 0.016531476750969887
0.45931556820869446 0.5295188426971436 -0.033739764243364334
0.4628202021121979 0.6091824173927307 -0.10752662271261215
0.24065349996089935 0.5510794520378113 0.050087712705135345
0.29183727502822876 0.5452781915664673 0.008472763933241367
0.3258594870567322 0.551521360874176 -0.009335033595561981
0.3750521242618561 0.5470258593559265 -0.013292872346937656
0.41112011671066284 0.5375875234603882 -0.012067104689776897
0.43790102005004883 0.5269187092781067 -0.013092833571135998
0.4981478750705719 0.49745339155197144 -0.04982582852244377
0.2407938539981842 0.5974714756011963 0.037888336926698685
0.2790282964706421 0.4668825566768646 0.025552483275532722
0.5209671854972839 0.6378560662269592 -0.12681245803833008
0.4419787526130676 0.5676165819168091 -0.042486678808927536
0.1961117386817932 0.516920804977417 0.19491790235042572
0.458190381526947 0.514633297920227 -0.01246732845902443
0.4236573576927185 0.6166616678237915 -0.04172368720173836
0.3122901916503906 0.4827570915222168 0.023630712181329727
0.4592481553554535 0.5929428339004517 -0.09693355858325958
0.19972053170204163 0.6779487729072571 0.18667568266391754
0.4388091564178467 0.48531484603881836 0.017220759764313698
0.4854205846786499 0.578757643699646 -0.11668545007705688
0.28319409489631653 0.7961011528968811 0.04751429334282875
0.27822890877723694 0.829496443271637 0.082628034055233
0.20613762736320496 0.6114731431007385 0.11932068318128586
0.249739870429039 0.7621633410453796 0.07026012986898422
0.2317313700914383 0.4680008292198181 0.1023317277431488
0.4008958637714386 0.8890588283538818 -0.015778055414557457
0.5204193592071533 0.6429023742675781 -0.09515389055013657
0.41637101769447327 0.5849456191062927 -0.0387386828660965
0.24603751301765442 0.508516788482666 0.06506357342004776
0.3608807325363159 0.4922752380371094 0.002730037085711956
0.3829531669616699 0.49346381425857544 -0.0002654549607541412
0.39361464977264404 0.7543696165084839 -0.021489035338163376
0.2394638955593109 0.646190881729126 0.041621241718530655
0.45072343945503235 0.9288278818130493 -0.009643984958529472
0.3595948815345764 0.8897002935409546 0.030703257769346237
0.3209565579891205 0.8642361164093018 0.05422594025731087
0.5161008238792419 0.36112451553344727 -0.011800801381468773
0.5111462473869324 0.9330035448074341 -0.008807634934782982
0.4030473828315735 0.49217361211776733 0.0024085287004709244
0.4217761158943176 0.4890477657318115 0.00848187506198883
0.4333741366863251 0.4872269034385681 0.015604697167873383
0.2582622170448303 0.46523040533065796 0.04769951477646828
0.41705843806266785 0.47145307064056396 0.0070354812778532505
0.39521414041519165 0.46568018198013306 0.0006581159541383386
0.37419769167900085 0.4646192491054535 -0.0017410062719136477
0.3521893620491028 0.4679853916168213 0.00044257979607209563
0.3376721739768982 0.4737584888935089 0.005655867978930473
0.2065250277519226 0.4633876085281372 0.16408854722976685
0.3448347747325897 0.4896119236946106 0.007970885373651981
0.5251727104187012 0.6650603413581848 -0.07403969764709473
0.4247960150241852 0.6759065985679626 -0.059689734131097794
0.4612342119216919 0.6281843185424805 -0.08360941708087921
0.483967661857605 0.6677840352058411 -0.07663259655237198
0.519053041934967 0.4617036283016205 -0.033069539815187454
0.32081764936447144 0.8309500217437744 0.03054792992770672
0.3583349287509918 0.8602380752563477 0.008964058943092823
0.45386114716529846 0.9083465933799744 -0.03486299142241478
0.24527262151241302 0.7914708256721497 0.12055328488349915
0.432123601436615 0.4797453284263611 0.013199162669479847
0.4823094308376312 0.5352703928947449 -0.06463136523962021
0.5147015452384949 0.9133495092391968 -0.032966360449790955
0.4017374515533447 0.9128621816635132 0.005214001517742872
0.20907187461853027 0.6648723483085632 0.11161933094263077
0.4578551650047302 0.7615965008735657 -0.044178176671266556
0.45303022861480713 0.7685900926589966 -0.04882422089576721
0.4477410316467285 0.779530942440033 -0.053351860493421555
0.44286829233169556 0.7928725481033325 -0.05039441958069801
0.43188896775245667 0.8124575614929199 -0.03649412840604782
0.40912288427352905 0.7279113531112671 -0.02991054207086563
0.4006494879722595 0.725533127784729 -0.030405350029468536
0.39263495802879333 0.7214566469192505 -0.03156662359833717
0.3723420798778534 0.7074623107910156 -0.03020450845360756
0.2791045606136322 0.6556134819984436 -0.001327497186139226
0.47933530807495117 0.5122280120849609 -0.03978413715958595
0.4606574773788452 0.4681044816970825 0.006279102526605129
0.4438636302947998 0.47136813402175903 0.011931841261684895
0.41511446237564087 0.7245216369628906 -0.027544058859348297
0.2670428156852722 0.7198965549468994 0.030918657779693604
0.48509305715560913 0.46596211194992065 -0.021997973322868347
0.41926977038383484 0.8328297138214111 -0.028824709355831146
0.5306861400604248 0.5401421785354614 -0.10417069494724274
0.5028960704803467 0.5220983028411865 -0.0761706605553627
0.5269049406051636 0.516312301158905 -0.07806804776191711
0.46353745460510254 0.5723488330841064 -0.07151111215353012
0.5163264870643616 0.8849912285804749 -0.04264738783240318
0.516094446182251 0.8540596961975098 -0.040541015565395355
0.46680697798728943 0.8508672714233398 -0.04032669588923454
0.3551172614097595 0.7730491161346436 -0.00625106506049633
0.40065884590148926 0.6363619565963745 -0.03894314542412758
0.38275134563446045 0.8067248463630676 -0.016062093898653984
0.3425857424736023 0.6327236294746399 -0.03726673498749733
0.3752698004245758 0.660104513168335 -0.036634981632232666
0.316420316696167 0.6723008751869202 -0.021810423582792282
0.4589550197124481 0.8803483247756958 -0.04299221560359001
0.44358596205711365 0.5856939554214478 -0.058232005685567856
0.3324146270751953 0.7972661256790161 0.00884358212351799
0.368277370929718 0.8300731182098389 -0.004407279659062624
0.33593660593032837 0.7370350360870361 -0.009005561470985413
0.2416374236345291 0.6899141073226929 0.048607416450977325
0.30125170946121216 0.7462828159332275 0.007798105012625456
0.22137990593910217 0.7156856060028076 0.09861160069704056
0.350555419921875 0.6893030405044556 -0.02807418629527092
0.46263182163238525 0.5514408349990845 -0.052435413002967834
0.4724346101284027 0.6207332611083984 -0.11270476132631302
0.4498290717601776 0.6261966824531555 -0.08890857547521591
0.487053781747818 0.6038621068000793 -0.1270502656698227
0.44103121757507324 0.4452454745769501 -0.0014442418469116092
0.40094611048698425 0.4308414161205292 -0.009846965782344341
0.36580270528793335 0.42881742119789124 -0.01411430537700653
0.3354179561138153 0.43494564294815063 -0.010041984729468822
0.3135698437690735 0.44784224033355713 0.000899090722668916
0.2948194742202759 0.4923904538154602 0.030955830588936806
0.20756512880325317 0.5622058510780334 0.11940911412239075
0.3159409165382385 0.5215465426445007 0.010856467299163342
0.34349602460861206 0.5271113514900208 -4.959150373906596e-06
0.3777000904083252 0.5255782008171082 -0.005038001574575901
0.40942829847335815 0.5199685096740723 -0.004265545401722193
0.43372610211372375 0.5124050974845886 -0.000195469256141223
0.4505663216114044 0.5051114559173584 0.0012001767754554749
0.19557499885559082 0.5681672096252441 0.20629946887493134
0.44752582907676697 0.6322994232177734 -0.07727564126253128
0.48596271872520447 0.5560417175292969 -0.08728928118944168
0.49444276094436646 0.6220589280128479 -0.12839706242084503
0.5059741735458374 0.6344723701477051 -0.11779449135065079
0.4924112558364868 0.626471221446991 -0.11737674474716187
0.4521726965904236 0.6395613551139832 -0.06799183785915375
0.5120424032211304 0.6364476680755615 -0.12397050112485886
0.5112106800079346 0.6415407657623291 -0.09573663771152496
0.4490164816379547 0.4863225817680359 0.015022797510027885
0.4639914631843567 0.49238479137420654 0.002155079273506999
0.47370490431785583 0.49623429775238037 -0.014315691776573658
0.32880544662475586 0.4782116413116455 0.012064074166119099
0.31448861956596375 0.4685370922088623 0.011544965207576752
0.5505191087722778 0.5437729954719543 -0.09257442504167557
0.6709812879562378 0.4823179841041565 0.0703095942735672
0.5535299777984619 0.6371518969535828 -0.090578094124794
0.7279261350631714 0.420116662979126 0.20966391265392303
0.6049535870552063 0.5034902095794678 0.03433815389871597
0.6280556917190552 0.5047507286071777 0.03936157748103142
0.6499868631362915 0.5042983293533325 0.04945508390665054
0.6779634952545166 0.49137264490127563 0.07438892126083374
0.5862404704093933 0.4986339807510376 0.03358793258666992
0.6401543617248535 0.4401994049549103 0.03599971532821655
0.6141716241836548 0.44314438104629517 0.03217900171875954
0.6637161374092102 0.4437733292579651 0.0467977337539196
0.6782824993133545 0.4534231424331665 0.057728104293346405
0.6940127611160278 0.5103743076324463 0.08722798526287079
0.6094334125518799 0.8522359132766724 0.0031494705472141504
0.6790905594825745 0.476571261882782 0.08008798211812973
0.7410743236541748 0.509806752204895 0.20742347836494446
0.7140887975692749 0.4968031942844391 0.11718664318323135
0.637196958065033 0.6016409397125244 -0.002062670886516571
0.5590384006500244 0.6937391757965088 -0.07274588942527771
0.5506341457366943 0.7187774181365967 -0.06330718845129013
0.5919150114059448 0.7008213400840759 -0.05146655812859535
0.6088606119155884 0.7107806205749512 -0.024572128430008888
0.5739943981170654 0.7198762893676758 -0.0464293472468853
0.5896126627922058 0.7234995365142822 -0.02213154546916485
0.6318739652633667 0.7594817876815796 0.021550603210926056
0.557729959487915 0.6241419315338135 -0.1328306794166565
0.5610899925231934 0.5992271304130554 -0.13783158361911774
0.7071208953857422 0.4311015009880066 0.07277961075305939
0.585957944393158 0.5436275005340576 -0.004218166694045067
0.6052546501159668 0.61629718542099 -0.0640394389629364
0.6048729419708252 0.6030220985412598 -0.05513228476047516
0.6985830664634705 0.5967525243759155 0.04185992851853371
0.5566033124923706 0.5690690875053406 -0.11954094469547272
0.6645171642303467 0.4020620584487915 0.02386978082358837
0.6907176971435547 0.41141170263290405 0.04759413003921509
0.7120821475982666 0.3804507851600647 0.16258448362350464
0.5687507390975952 0.4228358268737793 -0.01437635999172926
0.5918866395950317 0.4526803195476532 0.03490481898188591
0.6488763093948364 0.7286508679389954 0.029494715854525566
0.7206708788871765 0.7276902198791504 0.24074193835258484
0.5866005420684814 0.6306293606758118 -0.059005409479141235
0.5678724050521851 0.6385320425033569 -0.06665931642055511
0.6281299591064453 0.7333698272705078 0.026624850928783417
0.614397406578064 0.7332437038421631 0.01841348595917225
0.7004912495613098 0.39932045340538025 0.062382444739341736
0.6046541333198547 0.6267780065536499 -0.051932789385318756
0.6256875991821289 0.4037168622016907 0.0025405557826161385
0.6303259134292603 0.3873564898967743 -0.00019103447266388685
0.6367211937904358 0.3285711407661438 0.059933312237262726
0.7072625160217285 0.3908212184906006 0.10636230558156967
0.632465124130249 0.35859915614128113 0.02897353656589985
0.71629798412323 0.4247516393661499 0.09712717682123184
0.7225151062011719 0.4251081347465515 0.1506355106830597
0.5557908415794373 0.7082176804542542 -0.07004214078187943
0.5826632380485535 0.7124894261360168 -0.04949048161506653
0.59978187084198 0.7172809839248657 -0.02523435652256012
0.5806050300598145 0.6350693106651306 -0.055695418268442154
0.6217696666717529 0.7336782217025757 0.022172635421156883
0.6123579144477844 0.7498353719711304 0.0058914669789373875
0.6094094514846802 0.7323660254478455 0.01747358962893486
0.5771998167037964 0.6243563294410706 -0.09226221591234207
0.5824766755104065 0.721925675868988 -0.01962759904563427
0.5664932131767273 0.720881462097168 -0.03824068605899811
0.5452753901481628 0.7215061783790588 -0.05427205190062523
0.5551198124885559 0.8263546228408813 -0.03261260688304901
0.5564559698104858 0.8035787343978882 -0.05090827867388725
0.5552901029586792 0.7888638377189636 -0.05241832137107849
0.5522523522377014 0.7750430107116699 -0.046029165387153625
0.5483835935592651 0.7655421495437622 -0.041566621512174606
0.5873985290527344 0.7537217736244202 -0.00999188981950283
0.5928043723106384 0.757355272769928 -0.013860332779586315
0.6002484560012817 0.7641245722770691 -0.017095770686864853
0.6058714985847473 0.7716368436813354 -0.011702046729624271
0.6268957853317261 0.6862956285476685 -0.014207775704562664
0.7336536645889282 0.6121140122413635 0.29183870553970337
0.5971677303314209 0.7469741106033325 0.007671614643186331
0.6051394939422607 0.7475951910018921 0.005148576572537422
0.5597867369651794 0.6491419672966003 -0.0686817392706871
0.5958195924758911 0.6414479613304138 -0.037919092923402786
0.5637925267219543 0.6443872451782227 -0.06841303408145905
0.6096020340919495 0.5561043620109558 0.006196288857609034
0.6471635103225708 0.5703749656677246 0.016960086300969124
0.607507586479187 0.6135850548744202 -0.04185713827610016
0.6848458647727966 0.348709374666214 0.10961481183767319
0.6800249814987183 0.36717650294303894 0.06637702137231827
0.6721979975700378 0.38675737380981445 0.031469546258449554
0.6141984462738037 0.7851155996322632 0.004726054612547159
0.5770756006240845 0.3948376476764679 -0.019491666927933693
0.579332709312439 0.35966017842292786 0.0033819819800555706
0.5813987255096436 0.3199540972709656 0.024959566071629524
0.667933464050293 0.4996623992919922 0.06256409734487534
0.7162471413612366 0.5285214185714722 0.10229485481977463
0.5746598243713379 0.49274057149887085 0.03565538674592972
0.6962591409683228 0.46411359310150146 0.08208484947681427
0.5705382823944092 0.5288503766059875 -0.014131170697510242
0.5927858948707581 0.6081910133361816 -0.08928472548723221
0.7369998693466187 0.5461053848266602 0.13133323192596436
0.7051519155502319 0.5418592095375061 0.07608366012573242
0.6800225973129272 0.5488313436508179 0.04833674803376198
0.6382350921630859 0.5451643466949463 0.03131195902824402
0.6058256030082703 0.5364675521850586 0.021768754348158836
0.5824810862541199 0.5262132287025452 0.012279171496629715
0.5437853336334229 0.4972427487373352 -0.041373107582330704
0.7400106191635132 0.5913621187210083 0.11874742805957794
0.7111933827400208 0.4621606171131134 0.0973079651594162
0.5468407273292542 0.6375400424003601 -0.12276609987020493
0.5892142057418823 0.5664063692092896 -0.018811536952853203
0.7361880540847778 0.5133396983146667 0.288686603307724
0.565783679485321 0.5140653848648071 0.0073009575717151165
0.607142448425293 0.6148771643638611 -0.017160335555672646
0.68525230884552 0.47824621200561523 0.08569329977035522
0.5913692712783813 0.5918419361114502 -0.07820699363946915
0.7318212985992432 0.6673831939697266 0.2725997567176819
0.5746012926101685 0.48418164253234863 0.04381956532597542
0.5745012760162354 0.5779454708099365 -0.1028660237789154
0.6943817734718323 0.7832369804382324 0.10812157392501831
0.6867012977600098 0.814335823059082 0.1441110074520111
0.7495317459106445 0.6033113598823547 0.2073407620191574
0.7165592908859253 0.7495953440666199 0.1413114219903946
0.7312942743301392 0.4651143550872803 0.18693451583385468
0.6134840846061707 0.8798401355743408 0.01345828827470541
0.5410621166229248 0.6427055597305298 -0.09257300198078156
0.6095866560935974 0.5831173062324524 -0.009482191875576973
0.7288560271263123 0.5037235021591187 0.14491510391235352
0.6486030220985413 0.48934292793273926 0.05255619063973427
0.6285481452941895 0.4914722442626953 0.043862130492925644
0.6186952590942383 0.7524722814559937 0.010383427143096924
0.7384588718414307 0.6383102536201477 0.12016023695468903
0.5677407383918762 0.9236413240432739 0.006893424782902002
0.6356955766677856 0.877206563949585 0.07101912796497345
0.6601243019104004 0.8497229814529419 0.10423608124256134
0.608872652053833 0.49107807874679565 0.03994446620345116
0.5908962488174438 0.4882313013076782 0.040921736508607864
0.579646110534668 0.4864734709262848 0.04452921450138092
0.7222884893417358 0.46083757281303406 0.12508293986320496
0.5939673185348511 0.4697127342224121 0.039984721690416336
0.6138728260993958 0.46350234746932983 0.03907674178481102
0.6347559690475464 0.46121102571487427 0.043232087045907974
0.6553159952163696 0.463926762342453 0.05142951384186745
0.6676867008209229 0.46938544511795044 0.06044844165444374
0.7357576489448547 0.46198570728302 0.25571221113204956
0.6617863178253174 0.4861915111541748 0.062116023153066635
0.6081122756004333 0.6734828948974609 -0.034968357533216476
0.5878980159759521 0.6271819472312927 -0.0673927590250969
0.5618752241134644 0.6666218638420105 -0.06627283245325089
0.6683393120765686 0.818065881729126 0.07995623350143433
0.6420930027961731 0.8483474850654602 0.048027802258729935
0.5716785788536072 0.9036142230033875 -0.018676869571208954
0.7046489119529724 0.7773507833480835 0.19321608543395996
0.5809218883514404 0.4785321354866028 0.04253971576690674
0.5618183612823486 0.5346050262451172 -0.051515981554985046
0.6072255373001099 0.9031847715377808 0.03477086126804352
0.7457114458084106 0.6548462510108948 0.195924311876297
0.5705296397209167 0.760114848613739 -0.026539301499724388
0.5761154294013977 0.7670345902442932 -0.030564161017537117
0.5817049741744995 0.7778587341308594 -0.03400075435638428
0.5855706930160522 0.79071044921875 -0.030467277392745018
0.590198814868927 0.8092164993286133 -0.014512542635202408
0.6039576530456543 0.7268587946891785 0.000411163957323879
0.61353600025177 0.7240885496139526 0.0020872631575912237
0.6214231252670288 0.7199127078056335 0.002835793187841773
0.6420644521713257 0.7044373750686646 0.010090512223541737
0.7147051692008972 0.6490873694419861 0.06576498597860336
0.556460440158844 0.5117778182029724 -0.026083897799253464
0.5604360699653625 0.4674527943134308 0.023143703117966652
0.5719311237335205 0.4704088568687439 0.03662679344415665
0.5959922671318054 0.7237218618392944 0.0015355526702478528
0.7143093347549438 0.7102777361869812 0.09879083931446075
0.5464299917221069 0.4656510651111603 -0.011897285468876362
0.5989044904708862 0.8273212909698486 -0.004425247199833393
0.5478460788726807 0.5216739177703857 -0.06906747817993164
0.5799551010131836 0.571361243724823 -0.05434547737240791
0.5609255433082581 0.8478322625160217 -0.028730114921927452
0.6488791704177856 0.7665342688560486 0.0351223386824131
0.6244838237762451 0.633838951587677 -0.007839595898985863
0.6269094944000244 0.8001125454902649 0.017248352989554405
0.6717709302902222 0.6286554336547852 0.011553083546459675
0.6439604759216309 0.656708300113678 0.002032324904575944
0.6881334185600281 0.6665249466896057 0.034025732427835464
0.5690566301345825 0.876503586769104 -0.027606694027781487
0.5927736163139343 0.584460973739624 -0.036597371101379395
0.6649782061576843 0.7873004674911499 0.0560673363506794
0.6377697587013245 0.8207196593284607 0.032091666013002396
0.6663885712623596 0.7311043739318848 0.04097297787666321
0.7323113679885864 0.6802965402603149 0.12381250411272049
0.6908791065216064 0.7373737692832947 0.0650026798248291
0.7353408336639404 0.7042090892791748 0.17913562059402466
0.6595971584320068 0.6853148937225342 0.018428174778819084
0.5745735168457031 0.5505176782608032 -0.03393688052892685
0.5853480100631714 0.619874894618988 -0.09567385166883469
0.598181426525116 0.6248770356178284 -0.06948909908533096
0.5787729024887085 0.6029163002967834 -0.11376640200614929
0.5800682306289673 0.44384467601776123 0.02162323333323002
0.6178595423698425 0.4285736382007599 0.024325845763087273
0.6502790451049805 0.42591142654418945 0.03132718801498413
0.6754601001739502 0.4311845004558563 0.045020751655101776
0.6905182003974915 0.44332146644592285 0.06208856776356697
0.6971536874771118 0.48773065209388733 0.09720255434513092
0.7476215362548828 0.5558918118476868 0.20974934101104736
0.683851957321167 0.5182390809059143 0.07211227715015411
0.6621457934379578 0.5243943929672241 0.05333263427019119
0.6328815221786499 0.5237841010093689 0.038718268275260925
0.6039634943008423 0.5188987255096436 0.030044764280319214
0.5822784304618835 0.5117328763008118 0.02598622813820839
0.5678545236587524 0.504705548286438 0.022433245554566383
0.7331929206848145 0.5623141527175903 0.2994004786014557
0.5962530970573425 0.6308842897415161 -0.05803879722952843
0.5663608312606812 0.5553040504455566 -0.07399708032608032
0.5723338723182678 0.6212782859802246 -0.11797245591878891
0.5566291213035583 0.6336665749549866 -0.11185814440250397
0.5696372985839844 0.6256527900695801 -0.1063353419303894
0.589389443397522 0.6383021473884583 -0.05183885619044304
0.5536696314811707 0.6360659003257751 -0.11884839087724686
0.5486764311790466 0.6409927010536194 -0.09141506999731064
0.566937267780304 0.48540687561035156 0.03700187802314758
0.5565831661224365 0.4920142889022827 0.018729208037257195
0.5531072616577148 0.49588876962661743 -0.0003570250410120934
0.674498975276947 0.47363466024398804 0.0690760612487793
0.686420738697052 0.46399515867233276 0.0724092572927475
