ply
format ascii 1.0
element vertex 468
property float x
property float y
property float z
end_header
0.48646923899650574 0.7154605388641357 -0.04236384108662605
0.47465911507606506 0.6396642327308655 -0.12347429990768433
0.48377853631973267 0.6588256359100342 -0.054838404059410095
0.46185508370399475 0.5565775036811829 -0.10598123073577881
0.47409483790397644 0.6158721446990967 -0.13625860214233398
0.47710534930229187 0.5821218490600586 -0.13372206687927246
0.4886362552642822 0.4989439845085144 -0.0918750986456871
0.3392864167690277 0.4792475700378418 0.027489542961120605
0.4941577911376953 0.4566514194011688 -0.09276392310857773
0.4946657717227936 0.42808085680007935 -0.10698076337575912
0.4990396201610565 0.28359389305114746 -0.11064930260181427
0.48741069436073303 0.7267958521842957 -0.0366884283721447
0.48898953199386597 0.7332285642623901 -0.027056997641921043
0.4910057485103607 0.7337324619293213 -0.015052258968353271
0.49136587977409363 0.7353278398513794 -0.010959301143884659
0.4906214475631714 0.744317352771759 -0.012876777909696102
0.4904238283634186 0.7560744881629944 -0.015751903876662254
0.49124598503112793 0.769744873046875 -0.009626321494579315
0.4952062964439392 0.7950509190559387 0.018104413524270058
0.47699055075645447 0.6505035758018494 -0.108998142182827
0.4587613046169281 0.6451617479324341 -0.07240636646747589
0.2733973562717438 0.38526207208633423 0.12174869328737259
0.4074100852012634 0.5002562999725342 0.0007166215218603611
0.38482528924942017 0.5024791955947876 0.00501313665881753
0.3622744679450989 0.5020092129707336 0.013228261843323708
0.33290159702301025 0.48767244815826416 0.034369975328445435
0.4248051941394806 0.4948789179325104 -0.0024670246057212353
0.37106797099113464 0.4567384123802185 -0.017647825181484222
0.39501917362213135 0.45769888162612915 -0.02191995643079281
0.3498389720916748 0.4580938220024109 -0.00659791799262166
0.3362131416797638 0.46232953667640686 0.006196767091751099
0.31712713837623596 0.5036032199859619 0.05089328810572624
0.4124375283718109 0.8345029354095459 0.06893476843833923
0.3309306502342224 0.4738848805427551 0.03422023728489876
0.2696990668773651 0.4879154860973358 0.16265125572681427
0.29521819949150085 0.48998165130615234 0.07272426784038544
0.3797353506088257 0.6041433215141296 0.0033906782045960426
0.4570523798465729 0.7100479006767273 -0.03621396794915199
0.4638989567756653 0.731569230556488 -0.01961432956159115
0.42955756187438965 0.7125880718231201 -0.015791824087500572
0.41337186098098755 0.7182244062423706 0.008625995367765427
0.4437243342399597 0.729434609413147 -0.0056236302480101585
0.42825451493263245 0.7287972569465637 0.015590080060064793
0.3916803300380707 0.7490888237953186 0.061146970838308334
0.45510801672935486 0.6382163763046265 -0.1198238730430603
0.4519416093826294 0.6153987050056458 -0.1313667744398117
0.3013741970062256 0.44387680292129517 0.004400772508233786
0.42658472061157227 0.5435989499092102 -0.02173687517642975
0.4089534878730774 0.6214085221290588 -0.053253304213285446
0.41023415327072144 0.6074302196502686 -0.04759804159402847
0.3188679814338684 0.5980702638626099 0.04120839387178421
0.4563256800174713 0.5838679671287537 -0.12284721434116364
0.351972371339798 0.43069449067115784 -0.05273278430104256
0.3207848370075226 0.43304580450057983 -0.028646238148212433
0.28763264417648315 0.34705957770347595 0.05962427332997322
0.45080238580703735 0.4540259838104248 -0.08053626865148544
0.41627657413482666 0.4619678258895874 -0.015223031863570213
0.3726174533367157 0.7266460061073303 0.0646282210946083
0.3025866746902466 0.7058609127998352 0.2860683500766754
0.426053524017334 0.634741485118866 -0.04298611357808113
0.4455568790435791 0.6442257165908813 -0.04773031547665596
0.3961162567138672 0.7260839939117432 0.060627177357673645
0.4061477780342102 0.725929856300354 0.0523102730512619
0.3093351125717163 0.41598689556121826 -0.019078999757766724
0.4102965295314789 0.6296053528785706 -0.037560172379016876
0.3956482410430908 0.4370918869972229 -0.07040566951036453
0.390228271484375 0.4163379371166229 -0.0804867371916771
0.3675638437271118 0.2965260446071625 -0.05847269296646118
0.29897817969322205 0.3794037401676178 0.014324715360999107
0.38052284717559814 0.3519909381866455 -0.07162921130657196
0.2904700040817261 0.4312746822834015 0.02397085353732109
0.28172507882118225 0.40899792313575745 0.06939422339200974
0.459968239068985 0.7237209677696228 -0.03043888323009014
0.43736767768859863 0.7236878871917725 -0.011236224323511124
0.420884370803833 0.7242242693901062 0.010265163145959377
0.43262532353401184 0.6389278173446655 -0.03983066976070404
0.4012450575828552 0.7260738611221313 0.055980753153562546
0.4114948809146881 0.7314517498016357 0.0403769388794899
0.40885213017463684 0.7251805067062378 0.05098151043057442
0.4350232183933258 0.6317262649536133 -0.08062624931335449
0.43355974555015564 0.7267184257507324 0.019607892259955406
0.44955945014953613 0.7290275692939758 0.004639515187591314
0.46880388259887695 0.7322250604629517 -0.008145074360072613
0.46405744552612305 0.7937328815460205 0.023413613438606262
0.4627945125102997 0.7672000527381897 -0.003961268346756697
0.4634968042373657 0.7530272006988525 -0.00927653443068266
0.4652716815471649 0.7416348457336426 -0.00616544159129262
0.4679607152938843 0.7341009378433228 -0.0041387323290109634
0.43150201439857483 0.7298100590705872 0.022856330499053
0.428170770406723 0.7322666645050049 0.020061926916241646
0.4237082302570343 0.7380715608596802 0.019796758890151978
0.4199829399585724 0.745972752571106 0.02674863301217556
0.3934904932975769 0.6912590861320496 0.012511714361608028
0.28295576572418213 0.5876715779304504 0.2924197018146515
0.4801437258720398 0.6536633968353271 -0.07449930161237717
0.42134565114974976 0.7283401489257812 0.03957202285528183
0.41665947437286377 0.7289668321609497 0.03842438384890556
0.4539251923561096 0.6564006209373474 -0.0452420748770237
0.42010465264320374 0.6433353424072266 -0.018064163625240326
0.4496099352836609 0.650738537311554 -0.047558944672346115
0.4052817225456238 0.5557156205177307 -0.006175368092954159
0.36920541524887085 0.5717642903327942 0.007921296171844006
0.4082781970500946 0.6161486506462097 -0.031066114082932472
0.3174406886100769 0.3166898787021637 -0.003103793365880847
0.3309204876422882 0.3591218590736389 -0.031088214367628098
0.34425586462020874 0.4095608592033386 -0.05176925286650658
0.410885751247406 0.7667336463928223 0.04909948632121086
0.4419208765029907 0.4241963326931 -0.09783802926540375
0.4330516457557678 0.3496890366077423 -0.09726352244615555
0.4258464574813843 0.2863180935382843 -0.09399554133415222
0.34327232837677 0.49707573652267456 0.024688277393579483
0.29601871967315674 0.5202492475509644 0.0716112032532692
0.4347679018974304 0.49001190066337585 -0.0020911137107759714
0.313440203666687 0.46587660908699036 0.02841341868042946
0.44083523750305176 0.5302276015281677 -0.03650287166237831
0.42059826850891113 0.6168043613433838 -0.08116787672042847
0.2770664691925049 0.535264790058136 0.10650631785392761
0.30851221084594727 0.5374834537506104 0.053501687943935394
0.3345922827720642 0.5476924180984497 0.03021993115544319
0.3766452670097351 0.5443192720413208 0.012194575741887093
0.4077668786048889 0.5343281030654907 0.0008644525660201907
0.4292064607143402 0.5242301225662231 -0.012718177400529385
0.46717119216918945 0.5042724013328552 -0.07760431617498398
0.2783471643924713 0.5852128267288208 0.11300952732563019
0.297021746635437 0.46390432119369507 0.03974234685301781
0.46537724137306213 0.6490398049354553 -0.1060144454240799
0.42475640773773193 0.5687022805213928 -0.02468602918088436
0.2737436294555664 0.4811375141143799 0.24362052977085114
0.4446965754032135 0.5139235258102417 -0.02252354472875595
0.40935173630714417 0.6157893538475037 -0.005340358708053827
0.3258792757987976 0.47630664706230164 0.039905015379190445
0.42245885729789734 0.5998224020004272 -0.07479725033044815
0.28990137577056885 0.6454282999038696 0.2957195043563843
0.43327587842941284 0.48193657398223877 0.0020810551941394806
0.4386114478111267 0.5899477005004883 -0.10368155688047409
0.32921212911605835 0.7703068852424622 0.16350522637367249
0.34015366435050964 0.7944490909576416 0.2129172384738922
0.27085620164871216 0.5882291197776794 0.2034231275320053
0.3059970438480377 0.7356462478637695 0.1903008222579956
0.2754693329334259 0.4439796507358551 0.12184442579746246
0.4105565845966339 0.8590735197067261 0.08964058756828308
0.4705379009246826 0.6522172689437866 -0.07195254415273666
0.40652525424957275 0.584608793258667 -0.009096118621528149
0.28113076090812683 0.49299755692481995 0.10039203613996506
0.3630581796169281 0.48710063099861145 0.012702446430921555
0.38402193784713745 0.4887607991695404 0.004926338791847229
0.40651023387908936 0.7356454133987427 0.046508193016052246
0.2827989459037781 0.6331697702407837 0.13352341949939728
0.45431452989578247 0.8934547901153564 0.09825742244720459
0.39312544465065 0.8549950122833252 0.14885276556015015
0.36862584948539734 0.8298141360282898 0.17742149531841278
0.4960280954837799 0.350149929523468 -0.11036588251590729
0.5027564764022827 0.8998567461967468 0.08563725650310516
0.4029843211174011 0.4868960380554199 0.0005792134325020015
0.42013388872146606 0.4833294451236725 0.0005854627233929932
0.42970651388168335 0.4822723865509033 0.0026843082159757614
0.2851727604866028 0.45740562677383423 0.06445299834012985
0.41430577635765076 0.4672112464904785 -0.006360693369060755
0.39494478702545166 0.46177786588668823 -0.010002341121435165
0.3744153380393982 0.4603477716445923 -0.0063995979726314545
0.3540164828300476 0.46312227845191956 0.0024533728137612343
0.3419911861419678 0.4680691361427307 0.01281885989010334
0.2698346972465515 0.4269905388355255 0.18725977838039398
0.3489375114440918 0.4834674298763275 0.020929504185914993
0.4855106770992279 0.6768535375595093 -0.04510413110256195
0.41169026494026184 0.6786602735519409 -0.008585532195866108
0.42437076568603516 0.6323376893997192 -0.05496402457356453
0.453242689371109 0.6766432523727417 -0.03866089880466461
0.4931086599826813 0.47452878952026367 -0.08248741924762726
0.3561962842941284 0.804323673248291 0.14204716682434082
0.3825966715812683 0.8317991495132446 0.11765296012163162
0.448313444852829 0.8784756660461426 0.06336203962564468
0.31967800855636597 0.7557920813560486 0.253604531288147
0.4271319508552551 0.475732684135437 -0.0019155717454850674
0.4501040279865265 0.5417841672897339 -0.07102284580469131
0.4987058937549591 0.8844541311264038 0.052020538598299026
0.4199783205986023 0.8774175643920898 0.1193792000412941
0.2777932584285736 0.640598475933075 0.21322275698184967
0.4478590190410614 0.7319558262825012 0.008326233364641666
0.4442068934440613 0.737349271774292 0.005438013467937708
0.4411318302154541 0.7460650205612183 0.004865818191319704
0.43882685899734497 0.7587217092514038 0.011069542728364468
0.43437620997428894 0.7820581793785095 0.03449508175253868
0.4148496091365814 0.7273091077804565 0.03478820621967316
0.40803447365760803 0.7251222729682922 0.035563837736845016
0.4016082286834717 0.7214247584342957 0.03522329777479172
0.37837228178977966 0.7074238061904907 0.03818783164024353
0.3044765591621399 0.6488084197044373 0.08264673501253128
0.4544687867164612 0.5160036087036133 -0.055406875908374786
0.4501219391822815 0.47307515144348145 -0.023394206538796425
0.4362204670906067 0.47339046001434326 -0.0108164232224226
0.42025768756866455 0.7247848510742188 0.03751372918486595
0.30652692914009094 0.704458475112915 0.13426649570465088
0.4657613933086395 0.47704213857650757 -0.05941341444849968
0.4232122302055359 0.8079472780227661 0.05302831903100014
0.481150358915329 0.5534474849700928 -0.11823493242263794
0.463797926902771 0.5312000513076782 -0.09495384246110916
0.4849293828010559 0.5265713930130005 -0.1043071523308754
0.43311551213264465 0.5780304074287415 -0.05894003063440323
0.4963819980621338 0.8587310910224915 0.031411394476890564
0.4957553446292877 0.8250184655189514 0.02470460906624794
0.4569707214832306 0.8224216103553772 0.03454294428229332
0.3725498914718628 0.7604037523269653 0.07868553698062897
0.3925793170928955 0.6351401209831238 0.006865896284580231
0.3965267539024353 0.7872300148010254 0.06813520938158035
0.3446696996688843 0.6318871378898621 0.024148717522621155
0.3726057708263397 0.6598941683769226 0.021345842629671097
0.32785141468048096 0.6693961024284363 0.05660761147737503
0.4492242932319641 0.8542184829711914 0.04364451766014099
0.42189574241638184 0.5881296992301941 -0.03562774881720543
0.35727474093437195 0.7785574197769165 0.1077825054526329
0.385541170835495 0.8078577518463135 0.09265927225351334
0.35266411304473877 0.7305938005447388 0.07772453874349594
0.2897964119911194 0.6737106442451477 0.15190769731998444
0.32976484298706055 0.7326487302780151 0.10493358224630356
0.28805267810821533 0.6893839836120605 0.21460653841495514
0.35600095987319946 0.6900096535682678 0.04303896427154541
0.43771985173225403 0.5548273324966431 -0.04638369008898735
0.427084743976593 0.627954363822937 -0.08598267287015915
0.4150022268295288 0.6299555897712708 -0.05611725151538849
0.4345702528953552 0.6153411269187927 -0.1076764389872551
0.43338483572006226 0.46086880564689636 -0.033373113721609116
0.3963095545768738 0.4516372084617615 -0.038096606731414795
0.36392512917518616 0.44792625308036804 -0.03295127674937248
0.33750301599502563 0.44822120666503906 -0.018085286021232605
0.3203571140766144 0.45360392332077026 0.0011906881118193269
0.3126986026763916 0.48313653469085693 0.05132417008280754
0.26744675636291504 0.5375745892524719 0.1854676455259323
0.32860612869262695 0.5142457485198975 0.040613334625959396
0.3508056700229645 0.521923840045929 0.023887528106570244
0.38058602809906006 0.5217808485031128 0.0109363729134202
0.40863391757011414 0.515945553779602 0.003497015219181776
0.4289456605911255 0.508846640586853 -0.0048825726844370365
0.44225797057151794 0.5026636123657227 -0.009583555161952972
0.2796575725078583 0.533774733543396 0.2762084901332855
0.4175173044204712 0.634395182132721 -0.04277689754962921
0.44600340723991394 0.5654744505882263 -0.0835387334227562
0.4405645430088043 0.6325031518936157 -0.1067797914147377
0.45590507984161377 0.6431173086166382 -0.09584102034568787
0.4427645206451416 0.6346415877342224 -0.09401052445173264
0.4252947270870209 0.6410605311393738 -0.03402623161673546
0.4588407576084137 0.6464248895645142 -0.10224757343530655
0.46363452076911926 0.6496520042419434 -0.07212463021278381
0.44079020619392395 0.48498451709747314 -0.0031391961965709925
0.45267435908317566 0.492390513420105 -0.01894228532910347
0.4567470848560333 0.4984772801399231 -0.03720021992921829
0.3354870080947876 0.47156110405921936 0.02230217307806015
0.3260262906551361 0.46716564893722534 0.02302730642259121
0.502738893032074 0.5567284226417542 -0.11197394877672195
0.6767464876174927 0.4831608533859253 -0.016661904752254486
0.5048515796661377 0.6459853053092957 -0.07685191184282303
0.7894546985626221 0.3807716369628906 0.05261332914233208
0.6004083156585693 0.502132773399353 -0.02772805653512478
0.6249123811721802 0.5046574473381042 -0.029276976361870766
0.6500417590141296 0.504562497138977 -0.026484528556466103
0.6872508525848389 0.4912736415863037 -0.012790735810995102
0.5811336040496826 0.49647194147109985 -0.024907100945711136
0.638978123664856 0.45837104320526123 -0.05336541309952736
0.6135462522506714 0.4586883783340454 -0.04982157424092293
0.662638247013092 0.46056291460990906 -0.04823274165391922
0.678912341594696 0.46529972553253174 -0.0386836975812912
0.7073268294334412 0.5058019161224365 7.908298721304163e-05
0.5931050777435303 0.8392461538314819 0.04808486998081207
0.6880591511726379 0.4777681827545166 -0.012078920379281044
0.7948195934295654 0.48757410049438477 0.09256961196660995
0.7400134205818176 0.4913887679576874 0.015552552416920662
0.6171266436576843 0.6058001518249512 -0.025579653680324554
0.5186339616775513 0.7103020548820496 -0.04366299882531166
0.5178937315940857 0.7315773367881775 -0.026554781943559647
0.5544270277023315 0.7136468887329102 -0.031170113012194633
0.5795307159423828 0.718700110912323 -0.012790897861123085
0.5443858504295349 0.7298876047134399 -0.019228504970669746
0.5664551854133606 0.7287532687187195 -0.00244387099519372
0.6164791584014893 0.7505100965499878 0.03325527906417847
0.4960671663284302 0.6384525299072266 -0.12347505241632462
0.49882590770721436 0.6155169606208801 -0.1360282301902771
0.7207022905349731 0.4453623294830322 -0.0491730161011219
0.5677448511123657 0.5444859862327576 -0.040388621389865875
0.5655006170272827 0.6228930950164795 -0.07044779509305954
0.5680550336837769 0.6087979078292847 -0.06545061618089676
0.6950268745422363 0.6005771160125732 -0.006917148362845182
0.5001845359802246 0.5840973258018494 -0.12878482043743134
0.6535598635673523 0.43192172050476074 -0.08904068917036057
0.6922301650047302 0.43487244844436646 -0.07448219507932663
0.759772539138794 0.3423563241958618 -0.002360986080020666
0.5426588654518127 0.4546810984611511 -0.09210789948701859
0.5911155343055725 0.46259623765945435 -0.038082003593444824
0.6370339393615723 0.7277222871780396 0.030791208148002625
0.7810456156730652 0.7130117416381836 0.2223220020532608
0.5478606224060059 0.6363528966903687 -0.0559864342212677
0.5263609290122986 0.6452392339706421 -0.05415378510951996
0.611002504825592 0.7257416844367981 0.03147188574075699
0.6009632349014282 0.725003182888031 0.02653735876083374
0.7084622383117676 0.4169790744781494 -0.06864476203918457
0.5687788128852844 0.6310253143310547 -0.05439415201544762
0.6035298109054565 0.438165545463562 -0.09519282728433609
0.6085997819900513 0.4168665409088135 -0.10610289871692657
0.6461870670318604 0.29345664381980896 -0.0932324081659317
0.7321785688400269 0.37763339281082153 -0.04045272618532181
0.6237168908119202 0.35066384077072144 -0.10141866654157639
0.7391353845596313 0.4319221079349518 -0.03366898372769356
0.7634516358375549 0.40715232491493225 0.007050647865980864
0.5184251666069031 0.7239913940429688 -0.03769800066947937
0.5480545163154602 0.7245649099349976 -0.025948666036128998
0.5722044110298157 0.7244755625724792 -0.009292199276387691
0.5421647429466248 0.6404280662536621 -0.04997287318110466
0.6054036617279053 0.7253923416137695 0.028697429224848747
0.5911591649055481 0.7312374711036682 0.017528872936964035
0.5988926291465759 0.7245811223983765 0.02571873925626278
0.529051661491394 0.633041501045227 -0.09228891134262085
0.5638868808746338 0.7258836627006531 0.002235877327620983
0.5415750741958618 0.729013979434967 -0.008171332068741322
0.5169770121574402 0.7321518063545227 -0.015244046226143837
0.528702437877655 0.7945910692214966 0.0164763443171978
0.5226779580116272 0.7677992582321167 -0.011744066141545773
0.5205219388008118 0.7535533905029297 -0.01706339418888092
0.5189235210418701 0.7419763803482056 -0.013962735421955585
0.5179281830787659 0.7344962358474731 -0.011302697472274303
0.5663049817085266 0.7296814322471619 0.005447897128760815
0.5688793659210205 0.73231440782547 0.0027501697186380625
0.5731410980224609 0.7382929921150208 0.0017982347635552287
0.577646791934967 0.7467389106750488 0.0077389623038470745
0.6001268625259399 0.6923172473907471 -0.011949146166443825
0.807489812374115 0.5901492238044739 0.22089523077011108
0.5819043517112732 0.7279156446456909 0.01781686209142208
0.5858424305915833 0.7285854816436768 0.016495248302817345
0.5170290470123291 0.6571581959724426 -0.051341742277145386
0.5618333220481873 0.644729733467102 -0.031406525522470474
0.5214155912399292 0.6514402627944946 -0.05396245792508125
0.5929830074310303 0.5568877458572388 -0.03128519654273987
0.6335551738739014 0.5733904838562012 -0.026411371305584908
0.574111819267273 0.6176467537879944 -0.04947611317038536
0.7131448984146118 0.31249794363975525 -0.05364789441227913
0.6867380738258362 0.35762786865234375 -0.07485782355070114
0.6630918979644775 0.4102458357810974 -0.09019304811954498
0.5923728942871094 0.7685803174972534 0.02635650895535946
0.5508301258087158 0.42401033639907837 -0.11019454151391983
0.5629605054855347 0.34905946254730225 -0.1125020980834961
0.5775676965713501 0.2846485674381256 -0.11156586557626724
0.6731680631637573 0.5003371834754944 -0.019771957769989967
0.734747052192688 0.521942675113678 0.014723685570061207
0.5699003338813782 0.49152621626853943 -0.022049441933631897
0.709491491317749 0.4684627056121826 -0.022979822009801865
0.549867570400238 0.5309760570526123 -0.05151686817407608
0.545758068561554 0.618169903755188 -0.09515060484409332
0.7646782398223877 0.5371919274330139 0.042107194662094116
0.7134631872177124 0.5392659902572632 0.0004507178673520684
0.6781739592552185 0.5493916273117065 -0.015037587843835354
0.6294490694999695 0.5457937717437744 -0.02198331616818905
0.594866156578064 0.5356007218360901 -0.02493923157453537
0.5703146457672119 0.5253782272338867 -0.031931791454553604
0.5136996507644653 0.5044471025466919 -0.08404827117919922
0.7596908807754517 0.5882015228271484 0.049079958349466324
0.7327836751937866 0.46543458104133606 -0.016773667186498642
0.4899350106716156 0.6493239998817444 -0.1091269850730896
0.5640255808830261 0.569702684879303 -0.04268670082092285
0.8124443888664246 0.47940725088119507 0.1696043461561203
0.5515206456184387 0.5147063732147217 -0.037260882556438446
0.5784876346588135 0.616970419883728 -0.023099934682250023
0.6961750984191895 0.4798955023288727 -0.008986813947558403
0.548907458782196 0.6009284853935242 -0.08896065503358841
0.7994959950447083 0.6502904295921326 0.227229043841362
0.5731246471405029 0.4835749864578247 -0.018874475732445717
0.5246108770370483 0.5906389951705933 -0.11398450285196304
0.7128380537033081 0.7786407470703125 0.11596308648586273
0.7164218425750732 0.804219126701355 0.16454458236694336
0.793616533279419 0.5916356444358826 0.13368964195251465
0.747467577457428 0.743504524230957 0.13438691198825836
0.7804151773452759 0.44222211837768555 0.05521887168288231
0.6000840067863464 0.8650684356689453 0.06719430536031723
0.4901503026485443 0.6523314118385315 -0.0737825408577919
0.5867937207221985 0.5858913660049438 -0.0312972217798233
0.7638736963272095 0.4938177764415741 0.037343479692935944
0.6473990678787231 0.490178644657135 -0.025819746777415276
0.624683678150177 0.49108457565307617 -0.02932865545153618
0.5971806049346924 0.7355754971504211 0.021909963339567184
0.758118212223053 0.6375018358230591 0.0720614492893219
0.5545504689216614 0.8969442844390869 0.08605999499559402
0.6360129117965698 0.8635011911392212 0.11783915013074875
0.6729743480682373 0.8396158218383789 0.13830116391181946
0.6049230694770813 0.4886646866798401 -0.0288014505058527
0.5871689319610596 0.48487961292266846 -0.024603981524705887
0.5770730376243591 0.4839715361595154 -0.019862527027726173
0.7540704011917114 0.45761412382125854 0.0035874410532414913
0.595135509967804 0.46927791833877563 -0.0321749709546566
0.6165423393249512 0.46431294083595276 -0.04003183916211128
0.6373978853225708 0.4637291729450226 -0.04146614298224449
0.6589889526367188 0.46715471148490906 -0.03751552104949951
0.6728209257125854 0.4720107316970825 -0.02970004640519619
0.8050746917724609 0.42347702383995056 0.11448843032121658
0.6641398668289185 0.4870927333831787 -0.021133707836270332
0.5740489959716797 0.679898202419281 -0.026873737573623657
0.5469937324523926 0.6338252425193787 -0.06696721166372299
0.5209665894508362 0.677451491355896 -0.04623805359005928
0.6752988696098328 0.8127285242080688 0.1033606231212616
0.6395373344421387 0.8398944735527039 0.08742999285459518
0.5527415871620178 0.8817196488380432 0.05111666023731232
0.7515264749526978 0.7646067142486572 0.19618815183639526
0.5800040364265442 0.4775788187980652 -0.02502482756972313
0.5278749465942383 0.5422974824905396 -0.08090735971927643
0.5971826910972595 0.8838129043579102 0.09650762379169464
0.7873678803443909 0.6458433270454407 0.14643174409866333
0.5433099269866943 0.7320331335067749 -0.004545337986201048
0.5461668372154236 0.7374743819236755 -0.007886676117777824
0.5488313436508179 0.7465399503707886 -0.00906106922775507
0.552077054977417 0.7593804001808167 -0.003440074622631073
0.5634932518005371 0.7837425470352173 0.01819254830479622
0.5874050855636597 0.726697564125061 0.011880606412887573
0.5932837128639221 0.7249477505683899 0.010385451838374138
0.6000121831893921 0.7213782072067261 0.008680193684995174
0.6234490871429443 0.7081453204154968 0.00734219653531909
0.7205970883369446 0.6526156663894653 0.030168946832418442
0.5314610600471497 0.5164836645126343 -0.0662473812699318
0.5503922700881958 0.4740050435066223 -0.03679657354950905
0.5685769319534302 0.4744682312011719 -0.030127618461847305
0.5832820534706116 0.7238501310348511 0.015524057671427727
0.7303251028060913 0.71000075340271 0.0812850371003151
0.5258824825286865 0.4774816632270813 -0.06731917709112167
0.5796382427215576 0.8114388585090637 0.03511891886591911
0.5084043741226196 0.5315670371055603 -0.100511334836483
0.5445995330810547 0.5789234638214111 -0.0719643384218216
0.5381869077682495 0.8243894577026367 0.025675592944025993
0.6408332586288452 0.7641515135765076 0.04675019159913063
0.6001068353652954 0.6365568041801453 -0.016445759683847427
0.6127355098724365 0.7913813591003418 0.04316344112157822
0.65969318151474 0.634261429309845 -0.01341063529253006
0.6254367232322693 0.6616615653038025 -0.008338081650435925
0.6857718825340271 0.6725254654884338 0.013472753576934338
0.5473719835281372 0.8567172288894653 0.03223876282572746
0.5621112585067749 0.5892447829246521 -0.05195946618914604
0.6640644669532776 0.7846584320068359 0.07092707604169846
0.6292842030525208 0.814091682434082 0.06432151794433594
0.6618919372558594 0.7335189580917358 0.03877957910299301
0.7547938227653503 0.6792954206466675 0.09300823509693146
0.6959020495414734 0.7381054759025574 0.05995849147439003
0.7752477526664734 0.6961148977279663 0.1513853520154953
0.649759829044342 0.6915179491043091 0.007128906901925802
0.5458229184150696 0.5555939674377441 -0.06050260737538338
0.5367845892906189 0.6293073296546936 -0.09870512038469315
0.5576209425926208 0.6314917206764221 -0.07056935131549835
0.5230527520179749 0.6162222623825073 -0.11845024675130844
0.5684281587600708 0.46239039301872253 -0.0520017184317112
0.6078763604164124 0.4533202052116394 -0.06466171890497208
0.6427516937255859 0.4498276710510254 -0.06809142231941223
0.6732662916183472 0.45032408833503723 -0.06079220771789551
0.6962978839874268 0.4560795724391937 -0.046432361006736755
0.7149072885513306 0.4856886863708496 -0.0005740653141401708
0.7971680760383606 0.5391587615013123 0.11395343393087387
0.6907206773757935 0.5165040493011475 -0.007077611982822418
0.662485659122467 0.5238961577415466 -0.0174541138112545
0.6283175349235535 0.5234649777412415 -0.02303413674235344
0.5971807837486267 0.5174484848976135 -0.02309414930641651
0.5746693015098572 0.5102094411849976 -0.02477610670030117
0.5591475963592529 0.5037962794303894 -0.02574518322944641
0.8107153177261353 0.5338634848594666 0.2025725245475769
0.5586047172546387 0.6360312104225159 -0.057085584849119186
0.5240989923477173 0.5659542083740234 -0.09370914846658707
0.5156278014183044 0.6332756876945496 -0.11475618183612823
0.5038158893585205 0.6439539790153503 -0.1006566658616066
0.5174449682235718 0.6357119083404541 -0.1022196039557457
0.5527116656303406 0.6427109241485596 -0.0461183600127697
0.49841833114624023 0.6470013856887817 -0.1062014028429985
0.4987276792526245 0.6502450108528137 -0.07531046867370605
0.5633668899536133 0.486267626285553 -0.020540030673146248
0.5469863414764404 0.4932715594768524 -0.03157535940408707
0.5371980667114258 0.4990217089653015 -0.04757607728242874
0.6811866164207458 0.47551608085632324 -0.022211715579032898
0.6934699416160583 0.4703851342201233 -0.02424750104546547
