ply
format ascii 1.0
element vertex 468
property float x
property float y
property float z
end_header
0.500688910484314 0.7088489532470703 -0.049322083592414856
0.4948342740535736 0.6597960591316223 -0.12396083027124405
0.4986090064048767 0.676051139831543 -0.0637378841638565
0.48047199845314026 0.5639833807945251 -0.09914974123239517
0.49517396092414856 0.6321476697921753 -0.13337808847427368
0.49675416946411133 0.5932126045227051 -0.12688708305358887
0.5025235414505005 0.4984210729598999 -0.0721719041466713
0.34552663564682007 0.4795707166194916 0.02182806096971035
0.5053961277008057 0.42812687158584595 -0.05865737795829773
0.5065872669219971 0.39191949367523193 -0.06519024074077606
0.5102257132530212 0.26073288917541504 -0.05649726465344429
0.5013683438301086 0.7184662818908691 -0.045584045350551605
0.5019422769546509 0.7235037088394165 -0.03936885669827461
0.5027927756309509 0.7224814295768738 -0.030448414385318756
0.5034559369087219 0.7535833716392517 -0.024005645886063576
0.5028377771377563 0.7613199949264526 -0.02782859094440937
0.5023090839385986 0.7715603709220886 -0.03319605067372322
0.5019822120666504 0.784411609172821 -0.031782738864421844
0.501566469669342 0.8117649555206299 -0.015093931928277016
0.4953365623950958 0.6726120114326477 -0.11148960143327713
0.47424066066741943 0.6660228371620178 -0.07997851818799973
0.27294206619262695 0.3746136426925659 0.11737451702356339
0.4146248400211334 0.5026980042457581 -0.0016090100398287177
0.3915873169898987 0.5038232207298279 0.0009260758524760604
0.3689589500427246 0.5019674897193909 0.007700118701905012
0.33660775423049927 0.4866316318511963 0.026662757620215416
0.43247321248054504 0.49809837341308594 0.0003943196206819266
0.37972891330718994 0.4351348876953125 -0.01074693351984024
0.4043600559234619 0.4381842613220215 -0.01141795702278614
0.3566100299358368 0.43894559144973755 -0.0023766334634274244
0.3412318825721741 0.44878318905830383 0.007142465561628342
0.3200402557849884 0.5013341903686523 0.039847590029239655
0.41956663131713867 0.8478248715400696 0.025022346526384354
0.33618295192718506 0.4725434184074402 0.029153864830732346
0.261033296585083 0.4871320426464081 0.1381140947341919
0.2976996600627899 0.48513275384902954 0.06099177896976471
0.38231807947158813 0.6060101389884949 -0.0161313246935606
0.4645039439201355 0.7031568288803101 -0.046304915100336075
0.4677692651748657 0.7203664183616638 -0.03382726386189461
0.42889803647994995 0.7010990381240845 -0.029206644743680954
0.40707436203956604 0.6997913122177124 -0.004305197391659021
0.440899133682251 0.7155176401138306 -0.02007506601512432
0.42124035954475403 0.7116925716400146 0.0020550377666950226
0.3880217373371124 0.7360049486160278 0.04089031368494034
0.4756571352481842 0.6583071947097778 -0.1217488944530487
0.4742554724216461 0.6305379867553711 -0.13042163848876953
0.31147104501724243 0.42217695713043213 0.01078385952860117
0.43582093715667725 0.5477203726768494 -0.023522958159446716
0.4243018925189972 0.632860004901886 -0.06555145233869553
0.4247446060180664 0.6164979934692383 -0.05955520272254944
0.3117670714855194 0.5932326912879944 0.0165120679885149
0.4769478440284729 0.5947030782699585 -0.11916711926460266
0.36268624663352966 0.39570918679237366 -0.03010771982371807
0.33237776160240173 0.40343689918518066 -0.0110010439530015
0.29441404342651367 0.3301129639148712 0.07002310454845428
0.4581913352012634 0.421700119972229 -0.05117784067988396
0.4253058135509491 0.44880014657974243 -0.005305840168148279
0.3665475845336914 0.7056472301483154 0.04212518781423569
0.28555893898010254 0.7218698263168335 0.21636392176151276
0.43944525718688965 0.6487643122673035 -0.056338120251894
0.4583841860294342 0.6596282720565796 -0.05757822096347809
0.3812192678451538 0.7016280293464661 0.044818997383117676
0.3923777937889099 0.7054594159126282 0.039411675184965134
0.32133039832115173 0.38602787256240845 -0.002196752466261387
0.42223304510116577 0.6388304829597473 -0.05210336670279503
0.40359628200531006 0.3995506167411804 -0.04403674229979515
0.400062620639801 0.37810227274894714 -0.05111251026391983
0.3806957006454468 0.2721859812736511 -0.023032812401652336
0.30812692642211914 0.35836970806121826 0.02908196672797203
0.3929014205932617 0.3242286741733551 -0.038277555257081985
0.29915302991867065 0.40926992893218994 0.028726888820528984
0.2859218716621399 0.39412492513656616 0.07043670862913132
0.4656287729740143 0.7141899466514587 -0.04159756749868393
0.4357517957687378 0.7104344964027405 -0.024365359917283058
0.41438034176826477 0.7057978510856628 -0.0022264523431658745
0.44419533014297485 0.6525090932846069 -0.0513831302523613
0.3861764073371887 0.7027648687362671 0.04204121232032776
0.4017063081264496 0.7222403883934021 0.029184401035308838
0.3967970609664917 0.7075968384742737 0.03883017599582672
0.45192399621009827 0.6514957547187805 -0.08896677941083908
0.4252651333808899 0.7092444896697998 0.004889520816504955
0.4455133080482483 0.7140873670578003 -0.011625789105892181
0.47080451250076294 0.7197712063789368 -0.025033090263605118
0.4667302370071411 0.8087131381034851 -0.00958063080906868
0.4688042402267456 0.7802190780639648 -0.025341559201478958
0.46936339139938354 0.7667135000228882 -0.026486314833164215
0.4707658886909485 0.7571955919265747 -0.02075744792819023
0.4731552004814148 0.7505376935005188 -0.01719060353934765
0.4268457293510437 0.733255922794342 0.011593482457101345
0.4232228696346283 0.7348371744155884 0.008722475729882717
0.4189799427986145 0.7393684387207031 0.0059850336983799934
0.415791392326355 0.7467133402824402 0.011272494681179523
0.3910065293312073 0.6840471625328064 -0.0013551770243793726
0.26411035656929016 0.5958588719367981 0.23622924089431763
0.4964594542980194 0.67548668384552 -0.08085961639881134
0.41349104046821594 0.7241883873939514 0.0293504036962986
0.40713655948638916 0.7220608592033386 0.0277373306453228
0.4667787551879883 0.6710487604141235 -0.057037513703107834
0.4276704490184784 0.6509711146354675 -0.03442556783556938
0.4625391662120819 0.666015625 -0.05812126398086548
0.411043643951416 0.558094322681427 -0.014119448140263557
0.37049102783203125 0.5697932839393616 -0.006094683893024921
0.42001625895500183 0.62394118309021 -0.04565802589058876
0.3277939558029175 0.2949775457382202 0.021506011486053467
0.34190118312835693 0.3337184190750122 -0.006910589057952166
0.35567939281463623 0.3747919201850891 -0.028844118118286133
0.40828385949134827 0.766419529914856 0.026482490822672844
0.4518813490867615 0.3867444694042206 -0.06259052455425262
0.4463402330875397 0.3241952955722809 -0.05642581731081009
0.4392571747303009 0.26213210821151733 -0.04902884364128113
0.3483875095844269 0.4965485632419586 0.017849532887339592
0.29622453451156616 0.5169317722320557 0.0539526492357254
0.4430878460407257 0.4927377998828888 0.0026269122026860714
0.32008594274520874 0.45706379413604736 0.026495927944779396
0.4522065222263336 0.5344406962394714 -0.03326084092259407
0.438811331987381 0.6315756440162659 -0.08907448500394821
0.2726660370826721 0.5336319208145142 0.08126852661371231
0.30986079573631287 0.532137930393219 0.03532109409570694
0.337352991104126 0.5416025519371033 0.014639298431575298
0.380872905254364 0.5423538684844971 0.003157867817208171
0.41413018107414246 0.536260187625885 -0.0037083758506923914
0.43736785650253296 0.5274145007133484 -0.011340713128447533
0.48175331950187683 0.5043789744377136 -0.06215419992804527
0.2677367329597473 0.5832167863845825 0.07942799478769302
0.30355459451675415 0.45207393169403076 0.03649057075381279
0.4835785925388336 0.670723021030426 -0.10994450747966766
0.4348659813404083 0.5746440887451172 -0.032561399042606354
0.2578481435775757 0.48088905215263367 0.20870307087898254
0.4539331793785095 0.5162986516952515 -0.016680950298905373
0.41713976860046387 0.6216347217559814 -0.022763269022107124
0.3299286365509033 0.47359395027160645 0.03398776054382324
0.4397740364074707 0.6109706163406372 -0.08168252557516098
0.27097493410110474 0.6579564809799194 0.2313566505908966
0.4416741728782654 0.4840167760848999 0.007307559251785278
0.4584025740623474 0.6008671522140503 -0.10504713654518127
0.3269144296646118 0.7805145978927612 0.10794702917337418
0.3358057141304016 0.8115832805633545 0.14633534848690033
0.25469398498535156 0.5934619903564453 0.15868015587329865
0.2951056957244873 0.7480028867721558 0.13060934841632843
0.2725670337677002 0.437077134847641 0.11010335385799408
0.418712854385376 0.8741928339004517 0.03734859451651573
0.4868663251399994 0.6740633845329285 -0.07913573831319809
0.41271671652793884 0.5886214375495911 -0.022792242467403412
0.28003251552581787 0.4892154335975647 0.08353393524885178
0.37089309096336365 0.48823434114456177 0.0081096813082695
0.3917802572250366 0.49019861221313477 0.0025358195416629314
0.3968634009361267 0.724485456943512 0.03331923857331276
0.26640650629997253 0.6351191401481628 0.09127698838710785
0.4574522376060486 0.9097560048103333 0.040379807353019714
0.3983432650566101 0.8713951110839844 0.08926939219236374
0.3713538348674774 0.8461136817932129 0.11591962724924088
0.508253276348114 0.3260883688926697 -0.06314311921596527
0.4996700584888458 0.916307806968689 0.03190097585320473
0.4108736217021942 0.4892174005508423 0.0010278874542564154
0.4283907413482666 0.4863262474536896 0.0035667025949805975
0.4380672872066498 0.48499545454978943 0.007462711539119482
0.2886766195297241 0.44500547647476196 0.0584513284265995
0.42164719104766846 0.46409595012664795 -0.0006463482859544456
0.4018361568450928 0.45518332719802856 -0.003644991433247924
0.3820221722126007 0.45272165536880493 -0.002079628175124526
0.36154261231422424 0.4564431309700012 0.003707536030560732
0.34886136651039124 0.4636193513870239 0.011369548738002777
0.2608602046966553 0.42187559604644775 0.16775637865066528
0.35614776611328125 0.484328031539917 0.015462609007954597
0.4998975694179535 0.6863259077072144 -0.05396817624568939
0.41432860493659973 0.6785593628883362 -0.022923137992620468
0.4391893148422241 0.6480532288551331 -0.0658499225974083
0.4640584886074066 0.6833192110061646 -0.04993809014558792
0.5041482448577881 0.4616773724555969 -0.05769706144928932
0.3621060252189636 0.8151414394378662 0.09053892642259598
0.3908059298992157 0.8440971374511719 0.06622576713562012
0.45536375045776367 0.8949613571166992 0.01311134360730648
0.30798256397247314 0.773389995098114 0.18402786552906036
0.4352923333644867 0.47655367851257324 0.004194696433842182
0.46559494733810425 0.5474317073822021 -0.06585443019866943
0.5000301003456116 0.9007390737533569 0.0062520685605704784
0.42523646354675293 0.8939772844314575 0.06046983227133751
0.2593539357185364 0.650081992149353 0.15969571471214294
0.4476678669452667 0.7430025339126587 -0.004209714941680431
0.4440004825592041 0.7473502159118652 -0.00703723169863224
0.4416373670101166 0.7551906108856201 -0.010234953835606575
0.4399629831314087 0.7673962712287903 -0.0067095342092216015
0.433546245098114 0.7917673587799072 0.008302000351250172
0.40264779329299927 0.7069640159606934 0.022811565548181534
0.39574846625328064 0.7028603553771973 0.023769978433847427
0.3895255923271179 0.6983017921447754 0.02250595949590206
0.3718869984149933 0.6913328766822815 0.021962301805615425
0.28967568278312683 0.6485475301742554 0.04686839506030083
0.4676649570465088 0.5183876156806946 -0.045872196555137634
0.4578700661659241 0.46531012654304504 -0.01024047564715147
0.4444608688354492 0.46905985474586487 -0.0006107056979089975
0.40866556763648987 0.705670177936554 0.024173440411686897
0.2933025360107422 0.7091333866119385 0.08694896101951599
0.47576388716697693 0.4651917815208435 -0.04128192365169525
0.42662370204925537 0.8184364438056946 0.016580594703555107
0.49892762303352356 0.5611255764961243 -0.10754598677158356
0.4810805022716522 0.5359824299812317 -0.08314613252878189
0.500771701335907 0.5314931869506836 -0.08909571915864944
0.4478915333747864 0.5862666964530945 -0.06305909901857376
0.500757098197937 0.8750941753387451 -0.007128560449928045
0.5013474822044373 0.8410711884498596 -0.01092470157891512
0.46219316124916077 0.837759792804718 -0.0031960629858076572
0.37696099281311035 0.7533870935440063 0.05031207576394081
0.39785492420196533 0.6382498145103455 -0.012352648191154003
0.4007556438446045 0.7892690896987915 0.03614586964249611
0.3401196599006653 0.6314833164215088 -0.002440705429762602
0.37359434366226196 0.6587139368057251 0.00047230313066393137
0.31950563192367554 0.6669219136238098 0.02365938015282154
0.4566958546638489 0.8704806566238403 0.0007686213357374072
0.433951735496521 0.5957120060920715 -0.045211050659418106
0.36366933584213257 0.7810249328613281 0.06750530004501343
0.3931330442428589 0.8149518370628357 0.049684423953294754
0.3529830873012543 0.7181638479232788 0.04797440394759178
0.27312445640563965 0.6792444586753845 0.10332562774419785
0.32606959342956543 0.731842041015625 0.0651586502790451
0.2720317542552948 0.7022135257720947 0.1557038277387619
0.35233938694000244 0.6788089275360107 0.019809536635875702
0.4509614109992981 0.5613772869110107 -0.04768116772174835
0.4448014497756958 0.6463344097137451 -0.09374586492776871
0.4302681088447571 0.6436501741409302 -0.06791184842586517
0.45544958114624023 0.6315617561340332 -0.1101340502500534
0.4402478337287903 0.44204607605934143 -0.01726391911506653
0.40477749705314636 0.4253648519515991 -0.020708467811346054
0.3731647729873657 0.42123788595199585 -0.017791662365198135
0.3468611240386963 0.4255067706108093 -0.007319153286516666
0.32872962951660156 0.43717101216316223 0.006977459415793419
0.31697729229927063 0.4793880581855774 0.04418196156620979
0.255723774433136 0.5400912761688232 0.15003840625286102
0.33227261900901794 0.5113024115562439 0.028806092217564583
0.35649698972702026 0.5193449258804321 0.01561219897121191
0.3868897557258606 0.5214430093765259 0.005758881103247404
0.4156302511692047 0.518096923828125 -0.0006136830197647214
0.4364268183708191 0.5117192268371582 -0.0022083150688558817
0.4500243663787842 0.5050739645957947 -0.0050301458686590195
0.26108574867248535 0.5374497175216675 0.23025229573249817
0.43026208877563477 0.6460551619529724 -0.056274060159921646
0.4634936451911926 0.5733566880226135 -0.082293801009655
0.460458904504776 0.6528435349464417 -0.11119477450847626
0.4726239740848541 0.6646059155464172 -0.10104064643383026
0.46056681871414185 0.6554874181747437 -0.1001271903514862
0.43501606583595276 0.6516427993774414 -0.04798000305891037
0.47666501998901367 0.6682406067848206 -0.10674703866243362
0.479438453912735 0.6709972023963928 -0.07948136329650879
0.44931429624557495 0.485869824886322 0.0035280107986181974
0.4606720805168152 0.4920586347579956 -0.009971925057470798
0.466665118932724 0.49763473868370056 -0.025574304163455963
0.34148040413856506 0.4688403010368347 0.019259732216596603
0.3310397267341614 0.459628701210022 0.02018130011856556
0.5181146860122681 0.5645170211791992 -0.10028575360774994
0.6754770874977112 0.48281246423721313 0.013810197822749615
0.5201717019081116 0.6669663190841675 -0.08089230954647064
0.7640279531478882 0.3759913444519043 0.10415748506784439
0.602078914642334 0.5058063268661499 -0.0070161460898816586
0.6257188320159912 0.5070705413818359 -0.00541115365922451
0.6494643688201904 0.5053889155387878 6.569974357262254e-05
0.6850947737693787 0.48966899514198303 0.018063418567180634
0.5835422873497009 0.5006274580955505 -0.003529876470565796
0.6399101614952087 0.43592384457588196 -0.01678392104804516
0.6139280796051025 0.43914341926574707 -0.016536811366677284
0.6645753979682922 0.4402906894683838 -0.009554603137075901
0.6812670230865479 0.45047470927238464 -0.000959553406573832
0.7018153667449951 0.5045280456542969 0.03035166673362255
0.5901859402656555 0.8517249226570129 0.01977812685072422
0.6862245798110962 0.47531187534332275 0.021072059869766235
0.7726173400878906 0.4894291162490845 0.1256568282842636
0.7280361652374268 0.4878893494606018 0.05112524703145027
0.6282973885536194 0.6083735823631287 -0.02285388857126236
0.540148913860321 0.7040519714355469 -0.04923754557967186
0.5402203798294067 0.7208698391914368 -0.03717058151960373
0.5814539790153503 0.7033341526985168 -0.034770939499139786
0.6089180111885071 0.7021243572235107 -0.01179233193397522
0.5708824396133423 0.7168891429901123 -0.025723539292812347
0.5948807001113892 0.712810754776001 -0.005429127719253302
0.632742702960968 0.7387950420379639 0.03167010471224785
0.5148723721504211 0.6589033603668213 -0.12243278324604034
0.5173798203468323 0.6311752796173096 -0.1311846226453781
0.714732825756073 0.42281627655029297 0.0014381674118340015
0.5738089084625244 0.5497697591781616 -0.027730731293559074
0.5757848620414734 0.6353339552879333 -0.06948268413543701
0.5772498846054077 0.6187909841537476 -0.06348750740289688
0.7039902210235596 0.5962873697280884 0.006127493921667337
0.517352283000946 0.5954232811927795 -0.1204373836517334
0.6586900949478149 0.3950251042842865 -0.0357326865196228
0.6917048096656799 0.4035401940345764 -0.018719637766480446
0.7413442134857178 0.3309791684150696 0.05841794237494469
0.5556789040565491 0.42118752002716064 -0.05252812057733536
0.5922062993049622 0.44986820220947266 -0.00922006368637085
0.6564344763755798 0.7083742618560791 0.03252263367176056
0.7444469928741455 0.7280483841896057 0.2045823335647583
0.5597788095474243 0.6510816812515259 -0.06010085716843605
0.5397348403930664 0.6608471274375916 -0.05945451930165291
0.6422426700592041 0.7034366130828857 0.03527102991938591
0.6308432221412659 0.7066501975059509 0.0302597489207983
0.7053171396255493 0.3856748938560486 -0.010838689282536507
0.579269528388977 0.6410648226737976 -0.056140411645174026
0.6142600774765015 0.3987843692302704 -0.04780702665448189
0.6189019083976746 0.37696582078933716 -0.054970987141132355
0.6458159685134888 0.2723987400531769 -0.028834177181124687
0.7228759527206421 0.35849690437316895 0.019150203093886375
0.6295363903045654 0.3238901197910309 -0.043071482330560684
0.729230523109436 0.41002488136291504 0.018368350341916084
0.746405839920044 0.3952735662460327 0.059140488505363464
0.5409329533576965 0.7151699066162109 -0.04464567452669144
0.5757746696472168 0.7123005986213684 -0.03034546971321106
0.6019787192344666 0.7076693177223206 -0.009947801008820534
0.555142879486084 0.6543982028961182 -0.05380939319729805
0.6370086073875427 0.7042347192764282 0.03285295516252518
0.619327187538147 0.7235819697380066 0.020672274753451347
0.6265673041343689 0.7086573243141174 0.0295904241502285
0.54332035779953 0.6538642048835754 -0.09139472991228104
0.591659665107727 0.7096103429794312 -0.0022535931784659624
0.5672267079353333 0.7147148251533508 -0.017486868426203728
0.5385093092918396 0.7198854088783264 -0.028376717120409012
0.5397718548774719 0.809683620929718 -0.013178917579352856
0.5390998125076294 0.7810366749763489 -0.029887329787015915
0.5387285351753235 0.767604649066925 -0.031222820281982422
0.5384117364883423 0.758019745349884 -0.0251365527510643
0.5369863510131836 0.7514534592628479 -0.02167438343167305
0.5912202596664429 0.734140932559967 0.0040037864819169044
0.5947042107582092 0.7359110116958618 0.0006903823814354837
0.5986716747283936 0.740516185760498 -0.0017238326836377382
0.6016219258308411 0.7480320930480957 0.0034144832752645016
0.6233059167861938 0.6859760880470276 -0.00872990395873785
0.7711117267608643 0.5997053384780884 0.22283881902694702
0.6073796153068542 0.725195050239563 0.020814480260014534
0.6137309074401855 0.722974419593811 0.019289294257760048
0.5316804051399231 0.6719005107879639 -0.05849125236272812
0.575016438961029 0.6525421738624573 -0.037696897983551025
0.5353742241859436 0.6669556498527527 -0.05984816327691078
0.599509596824646 0.5605280995368958 -0.019613800570368767
0.6421090960502625 0.5724231600761414 -0.013455887325108051
0.5834466218948364 0.6261307001113892 -0.04988115653395653
0.7039628624916077 0.2953284680843353 0.012190786190330982
0.6858906745910645 0.333281010389328 -0.014294284395873547
0.6673372387886047 0.37380272150039673 -0.03522130101919174
0.6088408827781677 0.7685883641242981 0.018209081143140793
0.5640832185745239 0.385547935962677 -0.06371121853590012
0.572733998298645 0.32416513562202454 -0.05834374576807022
0.5834370255470276 0.26224154233932495 -0.051844507455825806
0.6716934442520142 0.49995678663253784 0.009358907118439674
0.726804256439209 0.5204301476478577 0.04376410320401192
0.5726603269577026 0.4947786033153534 -0.001040030037984252
0.7044758796691895 0.45922040939331055 0.017626577988266945
0.5568865537643433 0.5358667969703674 -0.03653154894709587
0.5583188533782959 0.6339319348335266 -0.09201440960168839
0.7524722814559937 0.5373460054397583 0.06959149986505508
0.7099493741989136 0.5358853340148926 0.025304405018687248
0.6793965697288513 0.5449978709220886 0.005918954033404589
0.6333903074264526 0.5452595353126526 -0.0037920211907476187
0.5987763404846191 0.5388625860214233 -0.008893030695617199
0.5747765898704529 0.5295739769935608 -0.01553137507289648
0.524806797504425 0.5048363208770752 -0.0635862946510315
0.7538310289382935 0.5872166752815247 0.067677341401577
0.7227612733840942 0.4537237584590912 0.026172379031777382
0.5078839063644409 0.6713544726371765 -0.11070012301206589
0.5721540451049805 0.576618492603302 -0.036702852696180344
0.7801748514175415 0.4829011559486389 0.19482438266277313
0.5574137568473816 0.5178676843643188 -0.019509198144078255
0.5880110859870911 0.6236006617546082 -0.026708874851465225
0.6932805180549622 0.47624796628952026 0.025621961802244186
0.5595679879188538 0.6130704283714294 -0.08465740084648132
0.761841893196106 0.6632682085037231 0.21898731589317322
0.5751935243606567 0.4859275221824646 0.0038225864991545677
0.5384907126426697 0.6022946834564209 -0.1071617603302002
0.6958968639373779 0.7876324653625488 0.09957091510295868
0.6875061392784119 0.8197839260101318 0.1379518359899521
0.7737321853637695 0.5976146459579468 0.145918071269989
0.7297391891479492 0.7547094225883484 0.12061584740877151
0.7603667378425598 0.4386661648750305 0.0980527475476265
0.5895828008651733 0.8790823817253113 0.03332297503948212
0.5062188506126404 0.6742883324623108 -0.0796315148472786
0.5956611037254333 0.5905815958976746 -0.02780376933515072
0.748281717300415 0.49186256527900696 0.0723477303981781
0.6478396654129028 0.49184444546699524 0.001435639220289886
0.625939130783081 0.4935840666294098 -0.003582228673622012
0.6245735883712769 0.7260269522666931 0.024324117228388786
0.7548540830612183 0.6394336819648743 0.0791095644235611
0.544339120388031 0.9127963781356812 0.0375247560441494
0.614027202129364 0.8782241940498352 0.08355139940977097
0.646842896938324 0.8541179895401001 0.1088155135512352
0.606667160987854 0.49225860834121704 -0.004327769391238689
0.5889666080474854 0.4889710247516632 -0.0008863214170560241
0.5788662433624268 0.4873464107513428 0.0034323562867939472
0.7401589155197144 0.4465603828430176 0.04726003110408783
0.5968997478485107 0.46599137783050537 -0.005470393691211939
0.6174513697624207 0.4567623734474182 -0.009175574406981468
0.637759804725647 0.454177588224411 -0.00888209417462349
0.6588252782821655 0.4581233859062195 -0.0034847829956561327
0.6724191904067993 0.4656118154525757 0.0036127727944403887
0.7763466835021973 0.4233851432800293 0.1540796458721161
0.6637713313102722 0.4878729581832886 0.007926187478005886
0.593704879283905 0.6802826523780823 -0.02865537256002426
0.5591304302215576 0.6505906581878662 -0.06838100403547287
0.538361668586731 0.6845036745071411 -0.05243019759654999
0.6568003296852112 0.8221573829650879 0.08311612159013748
0.6235782504081726 0.8506396412849426 0.0601121261715889
0.5476797819137573 0.8976551294326782 0.010032208636403084
0.718539834022522 0.7804761528968811 0.1730380654335022
0.5820713043212891 0.4785124659538269 3.468883005552925e-05
0.5389440059661865 0.5485460162162781 -0.06772729754447937
0.5813590884208679 0.8990212678909302 0.05609821900725365
0.7677839398384094 0.6549954414367676 0.1474437117576599
0.5664328932762146 0.7442058324813843 -0.010684232227504253
0.5695086121559143 0.7485324144363403 -0.013901212252676487
0.5713071823120117 0.756249189376831 -0.01729322038590908
0.5726174712181091 0.7682701349258423 -0.013504392467439175
0.578325092792511 0.7934691309928894 0.0011487588053569198
0.6183118224143982 0.7081006765365601 0.01379462331533432
0.6249910593032837 0.7046002745628357 0.014156262390315533
0.6312429904937744 0.7005553245544434 0.0133959436789155
0.6477938890457153 0.6933834552764893 0.013066522777080536
0.7286050319671631 0.652161717414856 0.03490465134382248
0.540225088596344 0.519446849822998 -0.0485166572034359
0.5566431283950806 0.46630150079727173 -0.012681092135608196
0.5717546343803406 0.4704328775405884 -0.0033161647152155638
0.6126146912574768 0.706328272819519 0.015599818900227547
0.7289077639579773 0.7141024470329285 0.07597148418426514
0.5349979996681213 0.4655393958091736 -0.042534518986940384
0.5851877331733704 0.8214741945266724 0.010779477655887604
0.5215640664100647 0.5366668701171875 -0.08415355533361435
0.5547803640365601 0.5878855586051941 -0.06567830592393875
0.5441069006919861 0.8394686579704285 -0.006193432956933975
0.6430801153182983 0.75772625207901 0.04135926067829132
0.6108472943305969 0.6403447985649109 -0.018470369279384613
0.6157455444335938 0.7934148907661438 0.028573153540492058
0.6737869381904602 0.6341586709022522 -0.011456906795501709
0.6403943300247192 0.661096453666687 -0.007197926286607981
0.6975681781768799 0.6701278686523438 0.013447900302708149
0.5481454730033875 0.8725978136062622 -0.0020924746058881283
0.5704273581504822 0.597717821598053 -0.04890429228544235
0.6554067134857178 0.7866408824920654 0.058957330882549286
0.622362494468689 0.8204306364059448 0.043244026601314545
0.6687218546867371 0.7219608426094055 0.03716908395290375
0.7496461868286133 0.6843151450157166 0.09132901579141617
0.6953451633453369 0.7370006442070007 0.054708853363990784
0.7544708251953125 0.707992672920227 0.14351508021354675
0.6665985584259033 0.681154191493988 0.009272294119000435
0.554755449295044 0.5629602670669556 -0.05074310302734375
0.5507274866104126 0.648889422416687 -0.09632211178541183
0.5689713358879089 0.6462276577949524 -0.07107177376747131
0.5385808944702148 0.6332681775093079 -0.11298295110464096
0.5755304098129272 0.44267958402633667 -0.02078123204410076
0.6130424737930298 0.42593759298324585 -0.024897132068872452
0.6466608047485352 0.42188262939453125 -0.02332311123609543
0.6751891374588013 0.42653781175613403 -0.014298471622169018
0.6950347423553467 0.4386823773384094 -0.0009648887207731605
0.7074968218803406 0.48229312896728516 0.03488278388977051
0.7755283713340759 0.543491005897522 0.13749273121356964
0.6877073049545288 0.5146676301956177 0.019719647243618965
0.6613407731056213 0.522770345211029 0.0075857690535485744
0.629218578338623 0.5246798992156982 -0.0008476598304696381
0.5996086001396179 0.5208650231361389 -0.00556602980941534
0.5780394673347473 0.5142033100128174 -0.00600911770015955
0.5638169646263123 0.5068873763084412 -0.007883056998252869
0.7760820984840393 0.5404460430145264 0.21589209139347076
0.5700230002403259 0.6483698487281799 -0.05949316546320915
0.536991536617279 0.5744868516921997 -0.08429189026355743
0.5322313904762268 0.654492199420929 -0.11271995306015015
0.5204615592956543 0.6657270193099976 -0.10194563120603561
0.5332950949668884 0.6574483513832092 -0.1016310527920723
0.5658261775970459 0.6533563733100891 -0.05077042803168297
0.5156644582748413 0.6690899729728699 -0.10762152820825577
0.5143816471099854 0.6716415882110596 -0.08024467527866364
0.566497802734375 0.48756080865859985 0.0008686026558279991
0.5528689622879028 0.4935266673564911 -0.011973092332482338
0.5446587204933167 0.49872109293937683 -0.027324533089995384
0.6804901957511902 0.47124478220939636 0.011377955786883831
0.6925122737884521 0.46169644594192505 0.011756512336432934
