ply
format ascii 1.0
element vertex 468
property float x
property float y
property float z
end_header
0.545428454875946 0.6856167316436768 -0.08042869716882706
0.5654230713844299 0.6114712357521057 -0.13247747719287872
0.5465190410614014 0.6380264163017273 -0.07713992148637772
0.5324001312255859 0.5377607345581055 -0.10057099908590317
0.5669448375701904 0.5866971015930176 -0.13769525289535522
0.5609344840049744 0.5572879910469055 -0.12517698109149933
0.5391733646392822 0.4877675175666809 -0.054332185536623
0.3390985429286957 0.4816390872001648 -0.01748988963663578
0.5319947004318237 0.43251436948776245 -0.0320466123521328
0.5327470898628235 0.40201666951179504 -0.03176761418581009
0.5240835547447205 0.2917640507221222 0.005737183149904013
0.5440483093261719 0.6966425180435181 -0.07945691049098969
0.5407175421714783 0.7055066227912903 -0.07400926202535629
0.5361940860748291 0.7095024585723877 -0.06510801613330841
0.5316680669784546 0.7907944917678833 -0.03614546358585358
0.5331987738609314 0.8028545379638672 -0.04069456458091736
0.5333147644996643 0.8164085149765015 -0.04420690983533859
0.5313116312026978 0.8303857445716858 -0.03643416613340378
0.5243847370147705 0.8447309732437134 -0.013590926304459572
0.5597913265228271 0.6253489851951599 -0.12198706716299057
0.5300307869911194 0.6263999938964844 -0.09735053777694702
0.20569592714309692 0.39486435055732727 0.07216391712427139
0.41398510336875916 0.5031551122665405 -0.022805972024798393
0.3890026807785034 0.5046495795249939 -0.028604984283447266
0.36353015899658203 0.5034348964691162 -0.029553571715950966
0.325042724609375 0.48984548449516296 -0.018829939886927605
0.43505650758743286 0.4972819685935974 -0.012816591188311577
0.3832072615623474 0.43385136127471924 -0.03480290248990059
0.4110341966152191 0.43678104877471924 -0.024826908484101295
0.3553208112716675 0.4376389980316162 -0.03475432097911835
0.3352092206478119 0.4474242329597473 -0.030186492949724197
0.3016051948070526 0.5069395303726196 -0.013864604756236076
0.4187891483306885 0.858920693397522 -0.02125219628214836
0.3276526629924774 0.4753531217575073 -0.011817109771072865
0.1950289011001587 0.49970245361328125 0.06684975326061249
0.2674691081047058 0.4921390414237976 0.0037916458677500486
0.40224727988243103 0.5991322994232178 -0.05790409818291664
0.5092936158180237 0.6835004687309265 -0.08623244613409042
0.5086517333984375 0.7067768573760986 -0.07916445285081863
0.4679657816886902 0.6939612627029419 -0.08206487447023392
0.43938252329826355 0.7064003944396973 -0.06748252362012863
0.47931644320487976 0.711622416973114 -0.075837641954422
0.4550807476043701 0.7177102565765381 -0.060960687696933746
0.3926236033439636 0.7664227485656738 -0.028427790850400925
0.5453178882598877 0.6113066673278809 -0.13526202738285065
0.5434166789054871 0.5875732898712158 -0.14091970026493073
0.2972155809402466 0.42858147621154785 -0.03203263506293297
0.4536052346229553 0.54019695520401 -0.04210774227976799
0.4702155590057373 0.6083827018737793 -0.096324123442173
0.46480798721313477 0.596230685710907 -0.08876118063926697
0.3151698410511017 0.598037600517273 -0.053907670080661774
0.5387454628944397 0.560207188129425 -0.12563151121139526
0.3710564970970154 0.401819109916687 -0.04880622774362564
0.3300808370113373 0.41023826599121094 -0.04329809918999672
0.24802303314208984 0.3511214554309845 0.041273318231105804
0.4816232919692993 0.4259670376777649 -0.03936372697353363
0.4335111677646637 0.4469943046569824 -0.011975524947047234
0.37667685747146606 0.7326637506484985 -0.034444887191057205
0.19348493218421936 0.7385326027870178 0.10544335097074509
0.4870128035545349 0.6221057176589966 -0.08266004920005798
0.5074019432067871 0.6294854879379272 -0.07845007628202438
0.3993772864341736 0.7362622022628784 -0.030683495104312897
0.4125456213951111 0.7368375658988953 -0.03231675550341606
0.3130311965942383 0.3954877555370331 -0.03413037583231926
0.46447640657424927 0.6191981434822083 -0.08424366265535355
0.42108169198036194 0.4059563875198364 -0.04756815358996391
0.4177835285663605 0.3873176872730255 -0.05113940313458443
0.37797218561172485 0.2968395948410034 -0.008889083750545979
0.2829933762550354 0.37351447343826294 -0.0012610217090696096
0.40239983797073364 0.3403847813606262 -0.03049195557832718
0.27596765756607056 0.41940632462501526 -0.015298187732696533
0.2422214150428772 0.4086873233318329 0.02718525193631649
0.5090229511260986 0.6968379616737366 -0.08504140377044678
0.4746176600456238 0.7042810916900635 -0.07961879670619965
0.4475497007369995 0.7121071815490723 -0.06604248285293579
0.4916577935218811 0.6266510486602783 -0.07569709420204163
0.40605708956718445 0.736945629119873 -0.031410641968250275
0.41902369260787964 0.7592010498046875 -0.034488577395677567
0.4161180853843689 0.736024796962738 -0.03167099878191948
0.5080469846725464 0.6138342618942261 -0.11221548914909363
0.45728233456611633 0.7162659168243408 -0.057464346289634705
0.4809257388114929 0.7123302221298218 -0.0669497698545456
0.5073396563529968 0.7100065350532532 -0.07081986963748932
0.48282691836357117 0.8411440253257751 -0.021979911252856255
0.49042531847953796 0.8253647089004517 -0.045001957565546036
0.4950329661369324 0.8121837377548218 -0.050708964467048645
0.49843379855155945 0.7985365390777588 -0.04681182652711868
0.5003674030303955 0.7883554697036743 -0.04251481965184212
0.449442982673645 0.7698343396186829 -0.035971395671367645
0.44467124342918396 0.7729287147521973 -0.03901921585202217
0.43665656447410583 0.7785881757736206 -0.04173226282000542
0.4291653037071228 0.7848988175392151 -0.039555925875902176
0.4211830794811249 0.6838929653167725 -0.06282762438058853
0.16350838541984558 0.6108919978141785 0.14272192120552063
0.5533028244972229 0.6314761638641357 -0.09337237477302551
0.43344464898109436 0.7580111622810364 -0.031082889065146446
0.42632412910461426 0.7582986354827881 -0.03345555067062378
0.5145986080169678 0.6395863890647888 -0.07898851484060287
0.4677066206932068 0.6339037418365479 -0.06359101086854935
0.5114444494247437 0.634800374507904 -0.07925352454185486
0.4250936508178711 0.553148627281189 -0.04467914626002312
0.38193628191947937 0.5685734152793884 -0.0516178272664547
0.456387996673584 0.6073603630065918 -0.07732158899307251
0.30387988686561584 0.3174325227737427 0.011667466722428799
0.33439120650291443 0.3493572175502777 -0.0195534098893404
0.36152151226997375 0.3839176297187805 -0.04493746906518936
0.41400253772735596 0.7951745986938477 -0.029586857184767723
0.47611063718795776 0.39522749185562134 -0.04573137313127518
0.46442466974258423 0.34115657210350037 -0.028092127293348312
0.448474258184433 0.28972846269607544 -0.009976091794669628
0.3397085666656494 0.4987775683403015 -0.025239676237106323
0.2704007625579834 0.5245614051818848 -0.009913296438753605
0.44900357723236084 0.4910884499549866 -0.006067654583603144
0.30380356311798096 0.46005257964134216 -0.019039979204535484
0.47372251749038696 0.5251845717430115 -0.04419826716184616
0.49212485551834106 0.5985573530197144 -0.11331576853990555
0.23355163633823395 0.5424461960792542 0.0034151561558246613
0.2936164438724518 0.5393491983413696 -0.02856823243200779
0.33242374658584595 0.5466240048408508 -0.04051290825009346
0.3843017518520355 0.5432050228118896 -0.03746538609266281
0.42104047536849976 0.5341556072235107 -0.030756087973713875
0.4483470916748047 0.5235750675201416 -0.027683457359671593
0.5150399804115295 0.4937554597854614 -0.05370302498340607
0.23636920750141144 0.5927216410636902 -0.008634097874164581
0.2796570658683777 0.4583044648170471 -0.013468664139509201
0.5475832223892212 0.6247608065605164 -0.12469514459371567
0.4602063000202179 0.5622389316558838 -0.054805509746074677
0.1634615659713745 0.4999122619628906 0.13681776821613312
0.4693209230899811 0.5108708143234253 -0.02438187785446644
0.4475867748260498 0.6094174981117249 -0.05347321555018425
0.315297394990921 0.4756685495376587 -0.010659951716661453
0.4864303469657898 0.5838690400123596 -0.10334545373916626
0.17060187458992004 0.671696126461029 0.1291951835155487
0.44735363125801086 0.48297685384750366 0.00021355540957301855
0.512839138507843 0.5695564150810242 -0.11894059926271439
0.2857396900653839 0.798529863357544 0.01656978204846382
0.2707483768463135 0.8314430117607117 0.04668324813246727
0.1873006820678711 0.6039303541183472 0.06494898349046707
0.2453852891921997 0.7639012932777405 0.02903658151626587
0.21636702120304108 0.4505515694618225 0.05328721925616264
0.4106443524360657 0.8855412602424622 -0.015816261991858482
0.5442191362380981 0.6306833624839783 -0.09441251307725906
0.4346451461315155 0.5794204473495483 -0.053585149347782135
0.23799525201320648 0.4977979063987732 0.019100144505500793
0.36814606189727783 0.48941534757614136 -0.024848999455571175
0.3905496895313263 0.49155521392822266 -0.024647079408168793
0.4110511839389801 0.7605471611022949 -0.033683449029922485
0.2362019270658493 0.6438764929771423 -0.004262159578502178
0.4552517533302307 0.9233653545379639 -0.002767939353361726
0.3618902266025543 0.8874194622039795 0.016711313277482986
0.3199525475502014 0.8642492294311523 0.02953203022480011
0.5298008322715759 0.34523439407348633 -0.014104475267231464
0.5106605291366577 0.9268353581428528 0.006969909183681011
0.41062042117118835 0.49058324098587036 -0.019174957647919655
0.4293326437473297 0.4872919023036957 -0.010967216454446316
0.4415340721607208 0.48508602380752563 -0.0023978969547897577
0.2535669505596161 0.45445889234542847 0.004585331305861473
0.42672082781791687 0.46728941798210144 -0.012466447427868843
0.4054831266403198 0.46043241024017334 -0.021276040002703667
0.3850736916065216 0.4589548110961914 -0.026421811431646347
0.3625946640968323 0.46192407608032227 -0.0272807739675045
0.3470461964607239 0.46748387813568115 -0.02372032217681408
0.1787785291671753 0.44136711955070496 0.10888023674488068
0.3517782390117645 0.48578721284866333 -0.021497856825590134
0.5445632934570312 0.6541926860809326 -0.07146374136209488
0.4502851665019989 0.6681684255599976 -0.07053833454847336
0.4893973171710968 0.6181082725524902 -0.08965285867452621
0.5075632333755493 0.6577969789505005 -0.07839003205299377
0.5322448015213013 0.45993947982788086 -0.03420192748308182
0.3268803358078003 0.8316844701766968 0.010139914229512215
0.36629390716552734 0.8586010932922363 -0.0009266699198633432
0.4626893401145935 0.9045820236206055 -0.023781683295965195
0.22983422875404358 0.7931333780288696 0.07347603142261505
0.4414461553096771 0.4768286943435669 -0.004964475054293871
0.5020653009414673 0.5299199819564819 -0.06994085758924484
0.5182006359100342 0.9089192152023315 -0.013186336494982243
0.40669524669647217 0.9083081483840942 0.0021339594386518
0.191899374127388 0.6606968641281128 0.058827776461839676
0.47338390350341797 0.7808332443237305 -0.04106663540005684
0.4683266580104828 0.7875977754592896 -0.04479358717799187
0.4622424244880676 0.7976853847503662 -0.047763336449861526
0.45622432231903076 0.8091998100280762 -0.044003263115882874
0.44286563992500305 0.8219006657600403 -0.03023921698331833
0.430451899766922 0.7252022624015808 -0.04686969891190529
0.4227132499217987 0.7225294709205627 -0.04821883141994476
0.41521549224853516 0.7185211777687073 -0.0498645082116127
0.3954784870147705 0.7049177885055542 -0.050194188952445984
0.2857590317726135 0.6547736525535583 -0.03813624754548073
0.49498021602630615 0.5078254342079163 -0.04710826650261879
0.4711887538433075 0.4647635817527771 -0.00554592814296484
0.45356956124305725 0.4669613838195801 -0.003863302292302251
0.435271292924881 0.7219542860984802 -0.04402201250195503
0.27142831683158875 0.7211196422576904 -0.006139544770121574
0.4984855055809021 0.46357735991477966 -0.029031580314040184
0.42928850650787354 0.8368048071861267 -0.022743957117199898
0.5532881617546082 0.5338712930679321 -0.10034992545843124
0.5236877202987671 0.5172246694564819 -0.07771291583776474
0.5462939739227295 0.5118733644485474 -0.07585371285676956
0.48529061675071716 0.5653285384178162 -0.07849088311195374
0.5220654010772705 0.8849084377288818 -0.01940089836716652
0.5233066082000732 0.8608501553535461 -0.015133102424442768
0.47595301270484924 0.8569329977035522 -0.02190971001982689
0.3694436848163605 0.7751929759979248 -0.021572746336460114
0.42388230562210083 0.6299270987510681 -0.05343656241893768
0.3944467604160309 0.8089711666107178 -0.020993150770664215
0.35910946130752563 0.6299434900283813 -0.05980537459254265
0.3968043029308319 0.6561187505722046 -0.05514823645353317
0.33219581842422485 0.6717072129249573 -0.0481739342212677
0.4694395661354065 0.8803824782371521 -0.028349027037620544
0.4654267728328705 0.5790449380874634 -0.06842347234487534
0.34345749020576477 0.798750102519989 -0.009674114175140858
0.3788386285305023 0.8301584124565125 -0.011752652004361153
0.3523113429546356 0.7383620142936707 -0.031765736639499664
0.23936668038368225 0.6892547011375427 0.004384115803986788
0.31234830617904663 0.7486317753791809 -0.01976734958589077
0.2088233083486557 0.7147295475006104 0.048814695328474045
0.3714640736579895 0.688292920589447 -0.049964383244514465
0.4811355471611023 0.5459562540054321 -0.061245501041412354
0.5014950633049011 0.6095209121704102 -0.11733517795801163
0.4790950119495392 0.6160494089126587 -0.09640280157327652
0.5177591443061829 0.5922614336013794 -0.1294403225183487
0.45457661151885986 0.44257545471191406 -0.01619524508714676
0.41576310992240906 0.42639243602752686 -0.030051976442337036
0.37948259711265564 0.4221137762069702 -0.0388776957988739
0.3464990258216858 0.42685967683792114 -0.03980027139186859
0.3206123113632202 0.43906116485595703 -0.03242863342165947
0.295151025056839 0.484369158744812 -0.005834744777530432
0.18847009539604187 0.5510224103927612 0.06502643972635269
0.3186560571193695 0.5158438682556152 -0.022739391773939133
0.34869176149368286 0.5223147869110107 -0.029161911457777023
0.3846156895160675 0.5224415063858032 -0.029354218393564224
0.41720423102378845 0.5175106525421143 -0.023533297702670097
0.44194936752319336 0.5098868012428284 -0.015900595113635063
0.4593842029571533 0.5021341443061829 -0.01211122702807188
0.1618058681488037 0.5551742911338806 0.14677941799163818
0.47603893280029297 0.6226956844329834 -0.08515314012765884
0.5089534521102905 0.5491575002670288 -0.09142141789197922
0.5246028900146484 0.6097553372383118 -0.12931159138679504
0.5325235724449158 0.6226226687431335 -0.11731919646263123
0.5204367637634277 0.6147140860557556 -0.11908922344446182
0.47946909070014954 0.6299706101417542 -0.07492125034332275
0.5390343070030212 0.6238852739334106 -0.122528575360775
0.5360049605369568 0.6297431588172913 -0.095765620470047
0.4584196209907532 0.48321032524108887 0.00025463089696131647
0.47353070974349976 0.48895859718322754 -0.00896576140075922
0.4852851331233978 0.4924388527870178 -0.023644370958209038
0.3369233310222626 0.4718281626701355 -0.018825987353920937
0.31951600313186646 0.4598245918750763 -0.021051548421382904
0.5698232650756836 0.5377756953239441 -0.08562775701284409
0.6642040610313416 0.48575347661972046 0.09353210777044296
0.570112407207489 0.6257192492485046 -0.08563242107629776
0.7084798812866211 0.41386568546295166 0.24247878789901733
0.6052995920181274 0.505835771560669 0.04864456504583359
0.6268065571784973 0.5077784061431885 0.056836653500795364
0.646955668926239 0.5069122910499573 0.0696788802742958
0.6699256896972656 0.4944137632846832 0.09863022714853287
0.5878459811210632 0.49984991550445557 0.043359410017728806
0.637205958366394 0.4403174817562103 0.05457862839102745
0.6125783324241638 0.4428466558456421 0.045848339796066284
0.6591889262199402 0.4446178674697876 0.06877469271421432
0.6715859174728394 0.45485514402389526 0.08167196065187454
0.6844691038131714 0.5124577879905701 0.11260085552930832
0.5962775945663452 0.8494972586631775 0.030723555013537407
0.6701571941375732 0.48043471574783325 0.10432638972997665
0.714452862739563 0.5097336173057556 0.24039623141288757
0.6986961364746094 0.4989151954650879 0.14541411399841309
0.6359517574310303 0.5995606780052185 0.01417551375925541
0.5748474597930908 0.6821789741516113 -0.0668240413069725
0.5644499659538269 0.7057244181632996 -0.060821011662483215
0.5987403988838196 0.6897371411323547 -0.042419593781232834
0.6091041564941406 0.7018454670906067 -0.012959322892129421
0.5809659957885742 0.708407461643219 -0.040850088000297546
0.5907306671142578 0.7140411734580994 -0.01435095351189375
0.6192235946655273 0.760504961013794 0.04077843204140663
0.5815037488937378 0.6112151741981506 -0.12553535401821136
0.5850322246551514 0.5876058340072632 -0.1293320655822754
0.6967812776565552 0.4372636079788208 0.10104130953550339
0.5906032919883728 0.5413368940353394 0.005009927321225405
0.6094145774841309 0.6071435213088989 -0.051712702959775925
0.6079086065292358 0.5952756404876709 -0.042806997895240784
0.6910499334335327 0.5994787812232971 0.06546901166439056
0.5784664154052734 0.560147762298584 -0.11076457798480988
0.6592178344726562 0.40989384055137634 0.042950697243213654
0.6831392049789429 0.41862767934799194 0.07180845737457275
0.6984907388687134 0.3705584406852722 0.19350291788578033
0.5742452144622803 0.42856457829475403 -0.009327641688287258
0.5916260480880737 0.45204976201057434 0.04519762098789215
0.6330650448799133 0.7269037961959839 0.04834338277578354
0.6731703877449036 0.7314102053642273 0.264198362827301
0.5924198627471924 0.6206009387969971 -0.049588967114686966
0.5767825841903687 0.6285625696182251 -0.06201506406068802
0.6164858341217041 0.7318450212478638 0.0412873737514019
0.603573203086853 0.7323386669158936 0.03170964866876602
0.6911748647689819 0.40573617815971375 0.08908885717391968
0.6054747104644775 0.6178656816482544 -0.04045802727341652
0.6238447427749634 0.4119369685649872 0.015425404533743858
0.6287003755569458 0.39411309361457825 0.01360772829502821
0.6376649141311646 0.31057462096214294 0.07802177220582962
0.6957301497459412 0.38764411211013794 0.1351543664932251
0.6329032778739929 0.35048192739486694 0.0443648062646389
0.7038406133651733 0.42989373207092285 0.12769639492034912
0.7072662115097046 0.42333459854125977 0.18201406300067902
0.5710698962211609 0.6952962279319763 -0.06591061502695084
0.5903913974761963 0.7005478143692017 -0.0423293374478817
0.6009953022003174 0.7076799869537354 -0.015622454695403576
0.5863265991210938 0.6250988245010376 -0.04850912466645241
0.6107302904129028 0.7325601577758789 0.03574102371931076
0.6050679087638855 0.7551252841949463 0.023072587326169014
0.5981669425964355 0.731286883354187 0.030657391995191574
0.5913910865783691 0.6129371523857117 -0.0819220319390297
0.5827560424804688 0.712894082069397 -0.012976526282727718
0.5725954174995422 0.7096289396286011 -0.03401872143149376
0.5574977993965149 0.7090348601341248 -0.05230182036757469
0.5592044591903687 0.8390879034996033 -0.004041432868689299
0.5650341510772705 0.8235851526260376 -0.024551939219236374
0.56486976146698 0.8103752732276917 -0.029357872903347015
0.5614157319068909 0.796785831451416 -0.025677522644400597
0.5565284490585327 0.7866798043251038 -0.02251102775335312
0.5835989713668823 0.7659733891487122 0.009041877463459969
0.5895795822143555 0.7695048451423645 0.005922327283769846
0.5975186824798584 0.7749269008636475 0.004740800242871046
0.6030139923095703 0.7810340523719788 0.010272172279655933
0.6226201057434082 0.6804760694503784 -0.0003873672685585916
0.6911114454269409 0.6149176359176636 0.32024094462394714
0.5895324349403381 0.7540473341941833 0.023737000301480293
0.5980653762817383 0.7543409466743469 0.02191520482301712
0.5709892511367798 0.6383677124977112 -0.06269858032464981
0.596346378326416 0.6321396827697754 -0.028673717752099037
0.5738002061843872 0.633987545967102 -0.06322263181209564
0.6116139888763428 0.5547125339508057 0.018285242840647697
0.6465269923210144 0.5704763531684875 0.03351874276995659
0.6078503727912903 0.606208086013794 -0.029861316084861755
0.6768164038658142 0.3355638086795807 0.1355505883693695
0.6724209785461426 0.3624780774116516 0.08968669921159744
0.6656912565231323 0.3931041657924652 0.05246370658278465
0.6062331795692444 0.7894701957702637 0.027668625116348267
0.5831605195999146 0.3994591236114502 -0.012956070713698864
0.5870578289031982 0.3469333350658417 0.010608945973217487
0.588905930519104 0.29749757051467896 0.03347277268767357
0.6622878313064575 0.5027291178703308 0.08510388433933258
0.7031588554382324 0.5302315950393677 0.13032957911491394
0.5768036842346191 0.49318045377731323 0.0439738929271698
0.686591386795044 0.46722346544265747 0.10902281850576401
0.5777707695960999 0.5262095928192139 -0.006520358379930258
0.6042301654815674 0.5981189608573914 -0.0775001123547554
0.7186834216117859 0.5481060743331909 0.16255885362625122
0.6966180801391602 0.5440106391906738 0.10312239825725555
0.6758542060852051 0.55050128698349 0.0713207796216011
0.637699544429779 0.546022355556488 0.048038531094789505
0.6078362464904785 0.5362247824668884 0.03432554006576538
0.5863252878189087 0.5250589847564697 0.020881062373518944
0.5571671724319458 0.49458757042884827 -0.037949174642562866
0.7219241857528687 0.5952728986740112 0.14939749240875244
0.6981122493743896 0.4662639796733856 0.12633129954338074
0.569648802280426 0.6247734427452087 -0.11684804409742355
0.593671441078186 0.5626972913742065 -0.009056163020431995
0.7017515897750854 0.5123652219772339 0.320200115442276
0.5718926191329956 0.5123136639595032 0.013320554979145527
0.6052399277687073 0.6086061000823975 -0.006054879166185856
0.6761196255683899 0.4814133048057556 0.11091631650924683
0.6006453633308411 0.5835137367248535 -0.06701560318470001
0.686739444732666 0.6707040071487427 0.29892221093177795
0.5751075148582458 0.48465263843536377 0.052580855786800385
0.5907384157180786 0.569281816482544 -0.09250524640083313
0.6584774851799011 0.7846425175666809 0.13349725306034088
0.6454927921295166 0.8153226375579834 0.1657639443874359
0.7193905115127563 0.6070154905319214 0.237848699092865
0.6782503128051758 0.7531348466873169 0.16747893393039703
0.7113924026489258 0.46391066908836365 0.21925580501556396
0.5958999395370483 0.8737294673919678 0.04031550511717796
0.561285674571991 0.6305857300758362 -0.089519202709198
0.6102745532989502 0.5797579288482666 0.0024463387671858072
0.7096558213233948 0.5054934024810791 0.17555980384349823
0.6459202766418457 0.49309754371643066 0.07241746038198471
0.6273748278617859 0.49502336978912354 0.06121677905321121
0.610511064529419 0.7562485933303833 0.027580177411437035
0.7156794667243958 0.6430321931838989 0.14805923402309418
0.5576044917106628 0.9162815809249878 0.028648044914007187
0.6082004308700562 0.8716467618942261 0.09407288581132889
0.6255739331245422 0.8468024134635925 0.12658856809139252
0.6087008714675903 0.4937673807144165 0.05401849374175072
0.5915355682373047 0.4900127649307251 0.0521308109164238
0.5805644989013672 0.4873840808868408 0.05382784083485603
0.7064955234527588 0.46435463428497314 0.15619874000549316
0.5923949480056763 0.47033995389938354 0.05212068185210228
0.610312819480896 0.46463191509246826 0.05365607514977455
0.6298103928565979 0.46280863881111145 0.06071465089917183
0.6485910415649414 0.46604955196380615 0.07227978855371475
0.6598668694496155 0.4721461832523346 0.08298133313655853
0.7093477249145508 0.4584817886352539 0.28820541501045227
0.6570650339126587 0.48972541093826294 0.08395686745643616
0.6081908941268921 0.665310800075531 -0.02322767861187458
0.5958073139190674 0.6169300079345703 -0.05842401087284088
0.5745494365692139 0.6561895608901978 -0.05863435938954353
0.6369343400001526 0.8163115978240967 0.10465391725301743
0.6163458228111267 0.8434128761291504 0.07388225197792053
0.5646369457244873 0.89805668592453 0.006825155112892389
0.6589916348457336 0.7806966304779053 0.21514581143856049
0.5807600021362305 0.47887924313545227 0.052359819412231445
0.5743680000305176 0.5304240584373474 -0.04457412287592888
0.5878857374191284 0.8960983157157898 0.05910102650523186
0.7123100161552429 0.6593348979949951 0.22463464736938477
0.5729297399520874 0.7778810262680054 -0.006668232847005129
0.5791182518005371 0.784801185131073 -0.009004865773022175
0.5853360295295715 0.7948222160339355 -0.010145889595150948
0.5888916254043579 0.8062776327133179 -0.005121186375617981
0.5883258581161499 0.8178818821907043 0.012146619148552418
0.5985945463180542 0.7206894159317017 0.010629408992826939
0.6077761650085449 0.7177394032478333 0.013772943988442421
0.6148255467414856 0.7138557434082031 0.015934141352772713
0.6313179731369019 0.7006480097770691 0.02661958336830139
0.6976079940795898 0.65296870470047 0.09082998335361481
0.5667816996574402 0.5088320970535278 -0.020992228761315346
0.5647607445716858 0.4667654037475586 0.02772851660847664
0.5737574100494385 0.4696279764175415 0.04419013857841492
0.5906214118003845 0.7178705930709839 0.011055011302232742
0.6852878332138062 0.7140653133392334 0.12425075471401215
0.5552032589912415 0.46471306681632996 -0.008971789851784706
0.5911161303520203 0.8294695615768433 0.023288726806640625
0.5639811754226685 0.517589807510376 -0.06413049250841141
0.5896098613739014 0.5655314922332764 -0.045314498245716095
0.5614035725593567 0.8528959155082703 0.00022596634516958147
0.6304686665534973 0.7665737867355347 0.0575912743806839
0.6201305389404297 0.6285937428474426 0.006356750149279833
0.6125490665435791 0.8000854849815369 0.04217285290360451
0.665062427520752 0.6295167803764343 0.032413549721241
0.6371492743492126 0.6541459560394287 0.01910051703453064
0.6730107069015503 0.6685617566108704 0.057434361428022385
0.5658226609230042 0.874915361404419 0.00028504684451036155
0.5970108509063721 0.5790302157402039 -0.02620566263794899
0.6396492719650269 0.7867444157600403 0.08031610399484634
0.6173866987228394 0.8181371688842773 0.057848233729600906
0.6466524004936218 0.7312626242637634 0.06307388842105865
0.7037302255630493 0.6848077178001404 0.15039986371994019
0.664455235004425 0.7396787405014038 0.08954954892396927
0.6977564692497253 0.7087570428848267 0.20589464902877808
0.6462702751159668 0.6846733689308167 0.03782966732978821
0.583087682723999 0.5464078187942505 -0.025594351813197136
0.5987021923065186 0.6086441278457642 -0.08463132381439209
0.6041809916496277 0.614772617816925 -0.058617446571588516
0.5965525507926941 0.5916467905044556 -0.10330504179000854
0.5818711519241333 0.4453693926334381 0.029834723100066185
0.61681067943573 0.4313112497329712 0.03728170320391655
0.6473303437232971 0.42908358573913574 0.04927070811390877
0.670663058757782 0.4348239302635193 0.06781700253486633
0.6834685802459717 0.44707611203193665 0.08768333494663239
0.6857256889343262 0.49017685651779175 0.12365113198757172
0.7189807295799255 0.5578606128692627 0.2426324486732483
0.6771915555000305 0.5207319855690002 0.0962158814072609
0.6588506102561951 0.5261589288711548 0.07423672825098038
0.6318689584732056 0.5255044102668762 0.055645812302827835
0.6050358414649963 0.5199657678604126 0.043407149612903595
0.5850345492362976 0.5118276476860046 0.03453228995203972
0.5720797181129456 0.5039324760437012 0.029057973995804787
0.693862795829773 0.5634862184524536 0.3295614719390869
0.5995972156524658 0.6211090683937073 -0.0481521300971508
0.5813610553741455 0.5492488741874695 -0.0653381422162056
0.5913985371589661 0.6089166402816772 -0.10845726728439331
0.5756847858428955 0.6217198967933655 -0.10541317611932755
0.5869621634483337 0.6137749552726746 -0.09765201061964035
0.5925673246383667 0.6283934712409973 -0.0434907041490078
0.5745178461074829 0.6235992908477783 -0.11265145242214203
0.5666040778160095 0.6291815638542175 -0.08753558248281479
0.5690484642982483 0.48502394556999207 0.0437152124941349
0.5620905756950378 0.4905702471733093 0.023138705641031265
0.5611830949783325 0.4938637912273407 0.002981760771945119
0.6657781600952148 0.4766883850097656 0.09259156137704849
0.6780136227607727 0.4665941596031189 0.09732379019260406
