ply
format ascii 1.0
element vertex 468
property float x
property float y
property float z
end_header
0.4510822892189026 0.7517197728157043 -0.04077175259590149
0.39551451802253723 0.681585967540741 -0.13985486328601837
0.4387465715408325 0.6990934014320374 -0.06215408444404602
0.39668893814086914 0.5842769742012024 -0.11372790485620499
0.3908066153526306 0.6547832489013672 -0.1547926515340805
0.3998715281486511 0.6162651181221008 -0.15317721664905548
0.4363296627998352 0.515944242477417 -0.11115281283855438
0.32841798663139343 0.4631083011627197 0.10096289962530136
0.44408172369003296 0.44604599475860596 -0.11078313738107681
0.43976980447769165 0.41047757863998413 -0.12686726450920105
0.45292431116104126 0.2532269358634949 -0.14176899194717407
0.4556286931037903 0.763690173625946 -0.03487014025449753
0.4622761011123657 0.7713595628738403 -0.025432372465729713
0.4701893925666809 0.7723727226257324 -0.012623966671526432
0.46827054023742676 0.815615177154541 0.009697344154119492
0.4658432602882385 0.8294676542282104 0.008488926105201244
0.4655992388725281 0.8446518182754517 0.007980802096426487
0.4686986207962036 0.8599796295166016 0.018978331238031387
0.4806969165802002 0.8734935522079468 0.053307775408029556
0.4069308638572693 0.6933013200759888 -0.12345373630523682
0.4021773338317871 0.6842606663703918 -0.07534783333539963
0.3155366778373718 0.35126030445098877 0.24064795672893524
0.39280813932418823 0.49703073501586914 0.04174071550369263
0.37010708451271057 0.49610862135887146 0.05729140341281891
0.34891968965530396 0.49328872561454773 0.07634736597537994
0.32771578431129456 0.47117334604263306 0.11342325806617737
0.40835142135620117 0.49428462982177734 0.02675284631550312
0.34872475266456604 0.4261316657066345 0.03671286255121231
0.3763503432273865 0.4323670268058777 0.017001869156956673
0.327127069234848 0.4271087646484375 0.05962834879755974
0.31701961159706116 0.4343207776546478 0.07970677316188812
0.31660035252571106 0.4904399514198303 0.13840581476688385
0.4200322926044464 0.8744724988937378 0.14733684062957764
0.3235971927642822 0.4546002745628357 0.11260513961315155
0.3214762806892395 0.46187150478363037 0.29346078634262085
0.3108033835887909 0.46924710273742676 0.17288832366466522
0.3522741198539734 0.6200588941574097 0.049582332372665405
0.4226081371307373 0.7427431344985962 -0.02039938233792782
0.43904274702072144 0.7661634683609009 -0.003969909623265266
0.40328866243362427 0.7396446466445923 0.017660122364759445
0.39886510372161865 0.7407810091972351 0.05977035313844681
0.42505931854248047 0.7603816390037537 0.025724628940224648
0.4183802008628845 0.7572566866874695 0.06145600602030754
0.3990747332572937 0.779004693031311 0.14364853501319885
0.37951093912124634 0.6771839261054993 -0.1284807026386261
0.3733642101287842 0.651680052280426 -0.14084456861019135
0.29475438594818115 0.4150591492652893 0.09444358944892883
0.39664849638938904 0.5566613078117371 0.000629838730674237
0.3666973114013672 0.6506037712097168 -0.03270021453499794
0.3710992932319641 0.6338904500007629 -0.02645072154700756
0.30252090096473694 0.6011627912521362 0.12560075521469116
0.38293492794036865 0.6159284114837646 -0.13078269362449646
0.3180220127105713 0.4007200598716736 0.0031306471209973097
0.29933780431747437 0.4020884037017822 0.047326043248176575
0.31071677803993225 0.31224939227104187 0.15999312698841095
0.4008293151855469 0.43656593561172485 -0.0743352621793747
0.3997732400894165 0.4446987509727478 0.012965108267962933
0.3828158974647522 0.7447645664215088 0.15003785490989685
0.39331522583961487 0.689726710319519 0.42905378341674805
0.3844470977783203 0.667748212814331 -0.029030879959464073
0.4017919898033142 0.6814256906509399 -0.04432521015405655
0.39939022064208984 0.751349687576294 0.13884226977825165
0.4107883870601654 0.7546511292457581 0.12455180287361145
0.2951013743877411 0.38336682319641113 0.061457209289073944
0.3752949833869934 0.6594246625900269 -0.015723809599876404
0.3498893678188324 0.4109562039375305 -0.03835306316614151
0.34293487668037415 0.38935279846191406 -0.04959128051996231
0.34078991413116455 0.2629232108592987 -0.018611837178468704
0.30194291472435 0.34806692600250244 0.10350830852985382
0.34111812710762024 0.3247128129005432 -0.03774988651275635
0.2925727665424347 0.40118202567100525 0.12073859572410583
0.3020496070384979 0.37852901220321655 0.17640440165996552
0.42918556928634644 0.7566810250282288 -0.014097730629146099
0.41384124755859375 0.7520062923431396 0.021627152338624
0.4070906639099121 0.7490265965461731 0.05878491327166557
0.3917306363582611 0.6735803484916687 -0.029012858867645264
0.40439000725746155 0.7530730962753296 0.13059502840042114
0.40821516513824463 0.7741512656211853 0.11185871809720993
0.4161597490310669 0.7542868852615356 0.12197079509496689
0.37609559297561646 0.6657387614250183 -0.07240912318229675
0.4280480146408081 0.7559585571289062 0.06361189484596252
0.43586206436157227 0.7610127329826355 0.035131730139255524
0.4493288993835449 0.7674475908279419 0.008612406440079212
0.44814836978912354 0.8648501038551331 0.0726872906088829
0.4377371072769165 0.8491687774658203 0.04047325253486633
0.4362654685974121 0.8345005512237549 0.031740620732307434
0.43965035676956177 0.8199169039726257 0.031656600534915924
0.44534116983413696 0.8087579011917114 0.0320047102868557
0.42433369159698486 0.7853856086730957 0.08167695254087448
0.4184609055519104 0.7888379693031311 0.08044188469648361
0.4115784764289856 0.7944341897964478 0.08305318653583527
0.40853938460350037 0.8009991645812988 0.09452980011701584
0.37640276551246643 0.7146177291870117 0.06750404089689255
0.37343689799308777 0.5589054226875305 0.4391553997993469
0.4213067293167114 0.6961808204650879 -0.0855373814702034
0.4214107394218445 0.7739259600639343 0.10754198580980301
0.41372281312942505 0.7739644646644592 0.10742852091789246
0.41168278455734253 0.6944686770439148 -0.03902348875999451
0.38772231340408325 0.6751969456672668 0.0014416774502024055
0.406463086605072 0.6886987090110779 -0.043692998588085175
0.3791661560535431 0.5666027665138245 0.030115459114313126
0.3440147936344147 0.5794604420661926 0.06266921013593674
0.3752545416355133 0.6427631974220276 -0.006822016090154648
0.31616541743278503 0.2819254994392395 0.070639967918396
0.31386950612068176 0.32859277725219727 0.03334389254450798
0.3122706115245819 0.3788145184516907 0.005969082936644554
0.4097420275211334 0.8104724884033203 0.12569019198417664
0.3865732252597809 0.40299999713897705 -0.09197765588760376
0.383278489112854 0.3265955448150635 -0.09280659258365631
0.38454514741897583 0.2543521523475647 -0.09071892499923706
0.3339262306690216 0.48424699902534485 0.09797447174787521
0.3038778007030487 0.5070152282714844 0.1705205738544464
0.41737303137779236 0.4904639720916748 0.02236948534846306
0.3094211518764496 0.442039430141449 0.11624198406934738
0.4061731696128845 0.5442947745323181 -0.022318830713629723
0.36405816674232483 0.6469938158988953 -0.06965035945177078
0.2981090247631073 0.5190993547439575 0.22362464666366577
0.3036620318889618 0.5301575064659119 0.1451989859342575
0.31944137811660767 0.5459607839584351 0.10544843971729279
0.3567924499511719 0.5470102429389954 0.0671084076166153
0.38628244400024414 0.5397719740867615 0.03904499486088753
0.40418541431427 0.5320850610733032 0.011934943497180939
0.4196048974990845 0.5191712379455566 -0.08392780274152756
0.2899525761604309 0.5740953087806702 0.23209397494792938
0.3027447760105133 0.43877601623535156 0.13670949637889862
0.396498441696167 0.6901131868362427 -0.11480750143527985
0.3911583423614502 0.5875433087348938 -0.0037730468902736902
0.3524201810359955 0.4492396414279938 0.3852331042289734
0.41564422845840454 0.5228813886642456 -0.007530160713940859
0.382688045501709 0.6406359672546387 0.021393831819295883
0.3214985728263855 0.4548451006412506 0.12330693751573563
0.37118422985076904 0.6270453333854675 -0.0632147565484047
0.38087159395217896 0.6208009719848633 0.440962016582489
0.41873010993003845 0.47969362139701843 0.02802116610109806
0.3746224045753479 0.6191370487213135 -0.10180220752954483
0.3840731978416443 0.7783014178276062 0.2812572121620178
0.41183221340179443 0.7998505234718323 0.33432257175445557
0.320150226354599 0.5681034326553345 0.3412267863750458
0.3650377094745636 0.7351257801055908 0.31718727946281433
0.31090855598449707 0.4163782000541687 0.24216383695602417
0.4268900752067566 0.8949887156486511 0.17258091270923615
0.41232770681381226 0.6938832998275757 -0.07935663312673569
0.37839096784591675 0.6020697951316833 0.021943315863609314
0.30962100625038147 0.47012364864349365 0.21315529942512512
0.3467051088809967 0.47619742155075073 0.0742872878909111
0.36699405312538147 0.4807857275009155 0.0575098991394043
0.4044645428657532 0.7750661969184875 0.1212586984038353
0.30085089802742004 0.6252001523971558 0.2531781494617462
0.464983195066452 0.9370846748352051 0.16462790966033936
0.43306952714920044 0.8786810636520386 0.24733871221542358
0.42603635787963867 0.8444368839263916 0.28723520040512085
0.4435342252254486 0.3300802707672119 -0.13691137731075287
0.50629723072052 0.9543241262435913 0.12920339405536652
0.38751405477523804 0.4815913736820221 0.043191079050302505
0.4050165116786957 0.4800730347633362 0.035122670233249664
0.414995014667511 0.48025453090667725 0.03251107782125473
0.3019062280654907 0.4303738474845886 0.17123475670814514
0.40158772468566895 0.4569563865661621 0.02869078703224659
0.38276201486587524 0.4455939829349518 0.03331897035241127
0.358284056186676 0.440391480922699 0.046659912914037704
0.337374746799469 0.4418368339538574 0.0652974396944046
0.3280375599861145 0.44750770926475525 0.08221772313117981
0.32851698994636536 0.39478957653045654 0.31956467032432556
0.33477136492729187 0.46991032361984253 0.08946786820888519
0.445529043674469 0.7154755592346191 -0.04756437987089157
0.3849029541015625 0.7072689533233643 0.02955540642142296
0.37800976634025574 0.6649423241615295 -0.044312648475170135
0.41493624448776245 0.7123653888702393 -0.02502254582941532
0.4472363591194153 0.47681862115859985 -0.1015777438879013
0.4033315181732178 0.819828987121582 0.24997150897979736
0.4166579246520996 0.8561954498291016 0.21371088922023773
0.44954192638397217 0.9269188642501831 0.12830273807048798
0.40310224890708923 0.7511947154998779 0.38704565167427063
0.4123294949531555 0.4715133607387543 0.027889860793948174
0.40051811933517456 0.5630429983139038 -0.06906255334615707
0.49245214462280273 0.9441405534744263 0.09437725692987442
0.44315195083618164 0.9113226532936096 0.20444905757904053
0.33084675669670105 0.6245196461677551 0.34924569725990295
0.43161261081695557 0.7983226776123047 0.05679839104413986
0.42524445056915283 0.8053767681121826 0.056720152497291565
0.4199117124080658 0.8162134289741516 0.060089029371738434
0.4183856248855591 0.8287979364395142 0.07081178575754166
0.42415398359298706 0.8407727479934692 0.10190347582101822
0.4138028025627136 0.753554105758667 0.09625866264104843
0.404668927192688 0.7485313415527344 0.1009729877114296
0.39758265018463135 0.7428004741668701 0.1028454527258873
0.375146746635437 0.7265139818191528 0.11122839152812958
0.3066002428531647 0.6508362293243408 0.18338017165660858
0.41337138414382935 0.5305805206298828 -0.05182519927620888
0.4237172603607178 0.4685671925544739 -0.013926316052675247
0.41731423139572144 0.466230571269989 0.010950606316328049
0.4227507710456848 0.751751720905304 0.0966196283698082
0.3388902246952057 0.7067720890045166 0.24805982410907745
0.42701852321624756 0.47566524147987366 -0.06246557831764221
0.42382121086120605 0.8544934988021851 0.12558361887931824
0.4123404026031494 0.583116888999939 -0.13781195878982544
0.4072552025318146 0.5541201829910278 -0.10412118583917618
0.42416924238204956 0.5516397953033447 -0.12409087270498276
0.3865474462509155 0.6018104553222656 -0.04941113293170929
0.4853334128856659 0.9231393933296204 0.07312308996915817
0.48343706130981445 0.895458459854126 0.06329185515642166
0.4472716152667999 0.8833250999450684 0.09085462242364883
0.3912951946258545 0.7822834253311157 0.1697058528661728
0.3706352710723877 0.658502995967865 0.047796741127967834
0.40804916620254517 0.8204442262649536 0.1522342413663864
0.3253255784511566 0.6450983285903931 0.09149271994829178
0.35696175694465637 0.6802723407745361 0.08004869520664215
0.3266567289829254 0.6793574690818787 0.1420559585094452
0.4436778426170349 0.9076309204101562 0.10693731158971786
0.38566893339157104 0.6110031008720398 -0.01743248477578163
0.3888067603111267 0.7962830066680908 0.20857106149196625
0.4084610342979431 0.835262656211853 0.1824745386838913
0.37014347314834595 0.7444395422935486 0.17209479212760925
0.3216133415699005 0.6681938767433167 0.2728106677532196
0.35857653617858887 0.7428603172302246 0.20908024907112122
0.3476140797138214 0.6794143915176392 0.35023847222328186
0.35582512617111206 0.7049739956855774 0.11944993585348129
0.39653584361076355 0.5747628808021545 -0.03431987017393112
0.3681049644947052 0.6607109904289246 -0.07686174660921097
0.3706015944480896 0.6610519886016846 -0.04038237780332565
0.365812748670578 0.648373544216156 -0.10502379387617111
0.40304046869277954 0.4451162815093994 -0.014276844449341297
0.3651362359523773 0.42629316449165344 -0.0010705679887905717
0.3335580825805664 0.4192381501197815 0.021677693352103233
0.3124714195728302 0.4200058579444885 0.05221501365303993
0.304729163646698 0.4270671606063843 0.08241073042154312
0.3168141543865204 0.4627988338470459 0.14169611036777496
0.31927719712257385 0.5139855146408081 0.3230399787425995
0.32130125164985657 0.5039983987808228 0.12104460597038269
0.3381490111351013 0.5165819525718689 0.09273206442594528
0.36578309535980225 0.519498348236084 0.06519075483083725
0.39213690161705017 0.5164234042167664 0.042441923171281815
0.4090774655342102 0.5116848945617676 0.021085508167743683
0.41929304599761963 0.5070202350616455 0.00791136920452118
0.3675019443035126 0.5024864077568054 0.4224754869937897
0.37879306077957153 0.6661021113395691 -0.0260735135525465
0.38857340812683105 0.5909813642501831 -0.0815264955163002
0.37086787819862366 0.6684861183166504 -0.10731048136949539
0.39178913831710815 0.681812047958374 -0.10107821226119995
0.3783329725265503 0.6702941656112671 -0.09333447366952896
0.38812893629074097 0.6745202541351318 -0.019859885796904564
0.39202553033828735 0.686403214931488 -0.1093914583325386
0.4062783718109131 0.6899845004081726 -0.0773424357175827
0.4229811429977417 0.4842270612716675 0.01532022375613451
0.4275323152542114 0.4956226944923401 -0.00993459764868021
0.42450112104415894 0.505407452583313 -0.03215901926159859
0.3244730234146118 0.4516981244087219 0.09608318656682968
0.3154478967189789 0.44246894121170044 0.10292179882526398
0.4363231956958771 0.5876824259757996 -0.14266462624073029
0.6783971786499023 0.49536606669425964 -0.11403077840805054
0.44869378209114075 0.6920697093009949 -0.09763496369123459
0.8696279525756836 0.3651618957519531 -0.08897123485803604
0.5879130959510803 0.5164157152175903 -0.09587867558002472
0.6163682341575623 0.5191813707351685 -0.10788101702928543
0.6480100750923157 0.5194856524467468 -0.11513734608888626
0.6982163190841675 0.5041669011116028 -0.11406999081373215
0.5638840198516846 0.5101562738418579 -0.08096780627965927
0.6274715065956116 0.4462500810623169 -0.13811619579792023
0.5934597253799438 0.4467812776565552 -0.1203673705458641
0.6603844165802002 0.4525001049041748 -0.14197511970996857
0.6848247051239014 0.46317845582962036 -0.13807134330272675
0.7303121089935303 0.5226520299911499 -0.10519418120384216
0.6006057858467102 0.9062273502349854 0.04740013927221298
0.6956210732460022 0.48836010694503784 -0.11206036806106567
0.8815663456916809 0.49551963806152344 -0.04053277149796486
0.7769673466682434 0.5040504932403564 -0.10037694126367569
0.6082081198692322 0.6403157114982605 -0.09017666429281235
0.490970253944397 0.7509126663208008 -0.05720938742160797
0.5004662275314331 0.7732861042022705 -0.03808567300438881
0.5427567362785339 0.7562472820281982 -0.05687028542160988
0.583980143070221 0.7602830529212952 -0.04323826730251312
0.537811815738678 0.7733916640281677 -0.04073100909590721
0.5714520215988159 0.7717138528823853 -0.02690744958817959
0.6438677906990051 0.8052043914794922 0.009520122781395912
0.41858944296836853 0.6831594705581665 -0.1472228765487671
0.41785526275634766 0.6565386652946472 -0.16287001967430115
0.7268379330635071 0.44617313146591187 -0.16428832709789276
0.5445351600646973 0.5687932968139648 -0.08930136263370514
0.5209615230560303 0.6662358045578003 -0.11634808033704758
0.5286432504653931 0.6477082967758179 -0.11287380754947662
0.7162925601005554 0.635087251663208 -0.10544761270284653
0.42545562982559204 0.6197384595870972 -0.15903788805007935
0.626316249370575 0.4207107126712799 -0.1768021434545517
0.6803739070892334 0.4286162853240967 -0.1788230836391449
0.8058727979660034 0.32026928663253784 -0.13658057153224945
0.49799254536628723 0.442832350730896 -0.13370312750339508
0.5674881935119629 0.4555417597293854 -0.09752169251441956
0.6656861901283264 0.772571325302124 -0.011028176173567772
0.9033299684524536 0.7522751688957214 0.12546180188655853
0.5043075680732727 0.6822042465209961 -0.09162089228630066
0.4806835949420929 0.6896420121192932 -0.07553161680698395
0.6441443562507629 0.7706506252288818 -0.0008929489995352924
0.630203366279602 0.7711580395698547 0.0010020937770605087
0.7014685273170471 0.40958118438720703 -0.17952030897140503
0.533018946647644 0.6732031106948853 -0.09760939329862595
0.5643748641014099 0.4244069457054138 -0.162597194314003
0.5660567879676819 0.4019938111305237 -0.17693479359149933
0.6276167631149292 0.2638413906097412 -0.18839570879936218
0.7487847805023193 0.36526748538017273 -0.16229847073554993
0.588993489742279 0.3316754996776581 -0.18397612869739532
0.7566452622413635 0.4307205379009247 -0.15567801892757416
0.8100382685661316 0.4005725681781769 -0.1232851967215538
0.495361328125 0.7650606036186218 -0.05039866641163826
0.5387637615203857 0.7671814560890198 -0.04910845682024956
0.5767699480056763 0.7665592432022095 -0.03635886311531067
0.5003515481948853 0.685674786567688 -0.07986658811569214
0.6370251178741455 0.7709168791770935 0.0003396126558072865
0.614721417427063 0.7918025255203247 0.002118743257597089
0.6266955733299255 0.7706232666969299 0.0018460898427292705
0.47092151641845703 0.6813533902168274 -0.12916216254234314
0.5717098712921143 0.7673780918121338 -0.020607411861419678
0.5389251708984375 0.7710630893707275 -0.027357466518878937
0.5055992603302002 0.7731004953384399 -0.0262770913541317
0.5249875783920288 0.8749352097511292 0.0376451350748539
0.5127074718475342 0.8589375019073486 0.0025425050407648087
0.5079067945480347 0.8441445827484131 -0.007348154205828905
0.5053133964538574 0.8284217119216919 -0.006723180413246155
0.5046684145927429 0.8164835572242737 -0.0043891118839383125
0.5755984783172607 0.7996959090232849 -0.0028149650897830725
0.579322338104248 0.8041234016418457 -0.004475351423025131
0.586336612701416 0.8117821216583252 -0.00409744493663311
0.5934001207351685 0.8201358318328857 0.000457877351436764
0.5979263186454773 0.7351704835891724 -0.05035238340497017
0.9412428140640259 0.6060786247253418 0.09936921298503876
0.6001228094100952 0.7888155579566956 0.0027617928571999073
0.606325626373291 0.7898191809654236 0.001956773456186056
0.473644882440567 0.7004883289337158 -0.06969612091779709
0.533286452293396 0.6861148476600647 -0.06397005170583725
0.4764558672904968 0.695523738861084 -0.07395922392606735
0.5780518054962158 0.5821852087974548 -0.09105745702981949
0.6294178366661072 0.6015509366989136 -0.10215774923563004
0.5423867106437683 0.6562687754631042 -0.0959191769361496
0.7259238362312317 0.28564417362213135 -0.171047642827034
0.6764916181564331 0.341164231300354 -0.1803211122751236
0.6365368366241455 0.39809471368789673 -0.18517175316810608
0.6107323169708252 0.8348545432090759 0.01581955887377262
0.49953746795654297 0.40786734223365784 -0.15599757432937622
0.5155991911888123 0.3298153877258301 -0.16872373223304749
0.5401471257209778 0.2540338933467865 -0.17636297643184662
0.6789780855178833 0.5145708322525024 -0.11634116619825363
0.7726455926895142 0.5424207448959351 -0.09922682493925095
0.5479104518890381 0.504310667514801 -0.07348765432834625
0.7245006561279297 0.47517064213752747 -0.13242891430854797
0.5188841223716736 0.5538102388381958 -0.09410101920366287
0.48810863494873047 0.662081241607666 -0.13710805773735046
0.8237296342849731 0.5587403774261475 -0.08235105127096176
0.7401126623153687 0.5630024671554565 -0.1084524393081665
0.6892825961112976 0.573301374912262 -0.11013723909854889
0.6249090433120728 0.5679688453674316 -0.09790971875190735
0.5820837020874023 0.5560770630836487 -0.08552539348602295
0.5516382455825806 0.5448545217514038 -0.08146413415670395
0.4647297263145447 0.5229159593582153 -0.11474847048521042
0.8213003873825073 0.6183456182479858 -0.07246121019124985
0.7566268444061279 0.4718177616596222 -0.1352827548980713
0.42104074358940125 0.694171667098999 -0.12953148782253265
0.5363849997520447 0.5988057255744934 -0.09070266038179398
0.9366259574890137 0.47775834798812866 0.03316275775432587
0.5260996222496033 0.5325726866722107 -0.07988355308771133
0.5566262602806091 0.6535567045211792 -0.06755936145782471
0.7106218338012695 0.489078551530838 -0.11251426488161087
0.49748873710632324 0.6392143964767456 -0.13169147074222565
0.9319009780883789 0.676618754863739 0.11685756593942642
0.5515663623809814 0.4950384795665741 -0.07286139577627182
0.45972296595573425 0.6275187730789185 -0.15184400975704193
0.7707592248916626 0.8390589356422424 0.05453173443675041
0.7927313446998596 0.8641929626464844 0.10556428879499435
0.8931598663330078 0.6171197891235352 0.009475776925683022
0.8261464834213257 0.7984817028045654 0.05089729651808739
0.8507626056671143 0.44233086705207825 -0.07805129140615463
0.6086922883987427 0.9307557344436646 0.06539662182331085
0.4320524036884308 0.6959970593452454 -0.08826886862516403
0.5689781904220581 0.6163288950920105 -0.08585940301418304
0.8183815479278564 0.5063965916633606 -0.08787938207387924
0.639157235622406 0.5035116672515869 -0.1136682778596878
0.6122226119041443 0.5043331384658813 -0.10863221436738968
0.6242232918739319 0.7944917678833008 0.0034036929719150066
0.8265055418014526 0.6754112839698792 -0.04032420367002487
0.5605772733688354 0.9575749635696411 0.10460343956947327
0.668721616268158 0.9261562824249268 0.09939181059598923
0.7241483926773071 0.9017983675003052 0.10099566727876663
0.5901271104812622 0.5018249154090881 -0.09835342317819595
0.5692110657691956 0.49736514687538147 -0.08591475337743759
0.5563480257987976 0.4959717392921448 -0.07647039741277695
0.7936801314353943 0.46231478452682495 -0.1215800791978836
0.5770533084869385 0.47336798906326294 -0.09709056466817856
0.6032045483589172 0.46428757905960083 -0.11241839081048965
0.6287881731987 0.46484440565109253 -0.12347312271595001
0.6557921767234802 0.4708411693572998 -0.12777207791805267
0.6734892725944519 0.4788523018360138 -0.12468873709440231
0.9111068248748779 0.41429728269577026 -0.026058148592710495
0.660611629486084 0.5000748634338379 -0.1152128204703331
0.5569391846656799 0.7224529385566711 -0.05994901806116104
0.4988466501235962 0.6809870004653931 -0.10295987874269485
0.486214816570282 0.7198578119277954 -0.06214836612343788
0.7145388126373291 0.8753974437713623 0.06627113372087479
0.6638983488082886 0.9038175940513611 0.06917466223239899
0.5493863821029663 0.9472544193267822 0.06937719881534576
0.8524025082588196 0.8165390491485596 0.11593927443027496
0.55897456407547 0.4875530004501343 -0.08353660255670547
0.47868049144744873 0.569729745388031 -0.11759716272354126
0.6136804819107056 0.9464313983917236 0.09503917396068573
0.8904508352279663 0.6807757616043091 0.03165590763092041
0.5403636693954468 0.8109008073806763 -0.006764206103980541
0.5442447662353516 0.819145679473877 -0.009158261120319366
0.5490698218345642 0.8309767246246338 -0.009009472094476223
0.5545039772987366 0.8448222279548645 -0.001658893539570272
0.5716602802276611 0.8596087694168091 0.020670581609010696
0.6076579689979553 0.7689883708953857 -0.014660868793725967
0.614524245262146 0.7665550112724304 -0.01957061141729355
0.6220281720161438 0.7624325156211853 -0.024709299206733704
0.6381546258926392 0.750607967376709 -0.03629297390580177
0.7629361748695374 0.6952283978462219 -0.0680185928940773
0.4911207854747772 0.5371942520141602 -0.10255599021911621
0.5222018361091614 0.4772722125053406 -0.07877209037542343
0.5446405410766602 0.4775945544242859 -0.0815076231956482
0.6032559871673584 0.7652515769004822 -0.009465436451137066
0.7894580960273743 0.7612171173095703 -0.005314910318702459
0.4873444736003876 0.4803037643432617 -0.10099255293607712
0.5889964699745178 0.8804425001144409 0.037188611924648285
0.4502256214618683 0.5579047203063965 -0.13002604246139526
0.5010793209075928 0.6118167638778687 -0.11278796195983887
0.5345488786697388 0.897335410118103 0.04813070222735405
0.6666089296340942 0.8193448781967163 0.015583720989525318
0.5879087448120117 0.6752829551696777 -0.06608866155147552
0.6331772208213806 0.8538029193878174 0.030368970707058907
0.6651129722595215 0.675435483455658 -0.0896611362695694
0.6240668892860413 0.7037755250930786 -0.06292177736759186
0.7074006199836731 0.7177627086639404 -0.06509237736463547
0.5416486263275146 0.9253817200660706 0.051131535321474075
0.5296570062637329 0.6223798990249634 -0.0970502644777298
0.6952228546142578 0.8447146415710449 0.03332369029521942
0.6501614451408386 0.8773014545440674 0.048388246446847916
0.6893091201782227 0.7821968793869019 -0.01435360498726368
0.8276975750923157 0.7236300110816956 -0.008910231292247772
0.7363737225532532 0.7928485870361328 -0.005297101568430662
0.8721723556518555 0.741331160068512 0.048677291721105576
0.6636662483215332 0.7340652942657471 -0.0517885647714138
0.5077423453330994 0.5841058492660522 -0.10294575244188309
0.47725868225097656 0.6774919033050537 -0.138401061296463
0.5110046863555908 0.6774125099182129 -0.11072417348623276
0.4521063566207886 0.6595147252082825 -0.1551630049943924
0.5374885201454163 0.45615434646606445 -0.10414660722017288
0.5803672075271606 0.4427500367164612 -0.13376083970069885
0.6234749555587769 0.4401155710220337 -0.15108804404735565
0.6644941568374634 0.4451775550842285 -0.1572864055633545
0.6990211606025696 0.45645132660865784 -0.1516430377960205
0.7385393381118774 0.4971868395805359 -0.10909188538789749
0.8904122114181519 0.5560898184776306 -0.017499957233667374
0.7065516114234924 0.5345284938812256 -0.10758227854967117
0.667980432510376 0.5425814986228943 -0.10712680965662003
0.623343825340271 0.5411688089370728 -0.09902762621641159
0.5857488512992859 0.534047544002533 -0.0865352526307106
0.5583945512771606 0.5257822871208191 -0.07572025060653687
0.5383573770523071 0.5186168551445007 -0.0704762414097786
0.9424340724945068 0.5402323603630066 0.0723695233464241
0.5183653235435486 0.6805152297019958 -0.09514041244983673
0.46721524000167847 0.5980080366134644 -0.13129952549934387
0.4450644254684448 0.6810868382453918 -0.14633484184741974
0.4416176676750183 0.6909207701683044 -0.12371548265218735
0.4542582631111145 0.6840616464614868 -0.13320651650428772
0.5167992115020752 0.6858611106872559 -0.07785170525312424
0.43225663900375366 0.6932626366615295 -0.12768171727657318
0.44191884994506836 0.6954768300056458 -0.09287016093730927
0.538799524307251 0.49668803811073303 -0.06784658133983612
0.5216993689537048 0.50482577085495 -0.07122529298067093
0.5062098503112793 0.512647807598114 -0.08354032039642334
0.6849434971809387 0.48446497321128845 -0.11986836791038513
0.7042303681373596 0.47486209869384766 -0.1276664137840271
