ply
format ascii 1.0
element vertex 468
property float x
property float y
property float z
end_header
0.49512213468551636 0.7096520662307739 -0.07465044409036636
0.4865327477455139 0.6346765160560608 -0.14026591181755066
0.4915003776550293 0.660474419593811 -0.07722768187522888
0.4689868092536926 0.5428983569145203 -0.10211483389139175
0.4861088693141937 0.6056480407714844 -0.14812377095222473
0.48719900846481323 0.5684667825698853 -0.13702735304832458
0.49187231063842773 0.48134106397628784 -0.06606782227754593
0.32380780577659607 0.47388237714767456 0.04487219080328941
0.49329859018325806 0.4207148551940918 -0.04629660025238991
0.4933972656726837 0.3851667046546936 -0.04964502900838852
0.49651631712913513 0.24824371933937073 -0.0187090951949358
0.4958876073360443 0.7218021154403687 -0.07222209870815277
0.4968423545360565 0.7302587628364563 -0.06552629172801971
0.49779197573661804 0.7322971224784851 -0.05551992729306221
0.4982488453388214 0.7765171527862549 -0.04239744320511818
0.4979877769947052 0.7870727777481079 -0.04724692925810814
0.49796366691589355 0.8003405332565308 -0.0527474507689476
0.49800774455070496 0.8156760334968567 -0.0488613098859787
0.4978276193141937 0.8429672122001648 -0.02688746154308319
0.48779571056365967 0.6497851014137268 -0.12792642414569855
0.46776652336120605 0.6472715139389038 -0.09277693182229996
0.2387702763080597 0.3779259920120239 0.17055675387382507
0.39592164754867554 0.49707746505737305 0.01580994389951229
0.370914101600647 0.4988636374473572 0.018380343914031982
0.3465689420700073 0.4976707696914673 0.026183443143963814
0.3136747479438782 0.4836023151874542 0.04862784966826439
0.4162277281284332 0.4909524619579315 0.01676652766764164
0.3616368770599365 0.4301479458808899 0.010344556532800198
0.387991726398468 0.43243443965911865 0.008960559032857418
0.3367108404636383 0.4340726137161255 0.019018687307834625
0.3199240565299988 0.4436038136482239 0.029783645644783974
0.2933034896850586 0.5018344521522522 0.06156030669808388
0.4035284221172333 0.8783103227615356 0.007254284806549549
0.3146187663078308 0.4679476022720337 0.05364375188946724
0.2251194417476654 0.4957352876663208 0.1775432825088501
0.26747578382492065 0.48729783296585083 0.08851049095392227
0.368073046207428 0.6062021851539612 -0.0134830791503191
0.4594842791557312 0.7051041126251221 -0.06938827782869339
0.46452510356903076 0.7290332317352295 -0.05927199870347977
0.42473551630973816 0.7106726169586182 -0.0512850247323513
0.403398722410202 0.7185201048851013 -0.026054836809635162
0.4392460584640503 0.7292585968971252 -0.04457578435540199
0.4202597141265869 0.730983555316925 -0.021227026358246803
0.3778272569179535 0.770115077495575 0.021114084869623184
0.4666083753108978 0.6339101195335388 -0.13714788854122162
0.46378275752067566 0.60572350025177 -0.1442379355430603
0.2829285264015198 0.41985487937927246 0.037863634526729584
0.42237740755081177 0.5409606695175171 -0.016493842005729675
0.4154004454612732 0.6225056052207947 -0.0721636414527893
0.414700984954834 0.6074492931365967 -0.06388624012470245
0.2915976643562317 0.6013845205307007 0.02263324335217476
0.46618083119392395 0.5713598728179932 -0.12778963148593903
0.3412564992904663 0.39149779081344604 -0.008485933765769005
0.3067874014377594 0.4001765847206116 0.01271246001124382
0.2627495229244232 0.3286826014518738 0.12143854796886444
0.4455149173736572 0.41562867164611816 -0.03569847345352173
0.41069644689559937 0.44152629375457764 0.01492437906563282
0.3575262725353241 0.7371558547019958 0.025409238412976265
0.25000470876693726 0.7589970827102661 0.23114953935146332
0.4334098696708679 0.6383416652679443 -0.06317327916622162
0.45288121700286865 0.6473386883735657 -0.06824023276567459
0.3790279030799866 0.7356531620025635 0.02499706856906414
0.3918648958206177 0.736799418926239 0.018186211585998535
0.29367098212242126 0.38300269842147827 0.026185767725110054
0.41484180092811584 0.6325032114982605 -0.05860385671257973
0.3868926763534546 0.39506468176841736 -0.025000140070915222
0.3821033239364624 0.3729635775089264 -0.02966776303946972
0.35813671350479126 0.26312947273254395 0.02083972468972206
0.27866148948669434 0.3549026846885681 0.06788329780101776
0.37227949500083923 0.31505823135375977 -0.005378077272325754
0.26867666840553284 0.4084940552711487 0.06112334132194519
0.2534523010253906 0.3945266604423523 0.11313539743423462
0.46145376563072205 0.7195295095443726 -0.0666290819644928
0.43267932534217834 0.722082257270813 -0.04846997559070587
0.4117707312107086 0.7249486446380615 -0.02547946199774742
0.4392717480659485 0.6426243782043457 -0.059406448155641556
0.38528960943222046 0.7359007596969604 0.021154949441552162
0.3976895809173584 0.7533724904060364 0.006977932993322611
0.3961825668811798 0.7370225191116333 0.017235489562153816
0.4443128705024719 0.6332542896270752 -0.09892979264259338
0.42515379190444946 0.7291379570960999 -0.018268903717398643
0.44447726011276245 0.7292826771736145 -0.035749293863773346
0.46824440360069275 0.7311034798622131 -0.049427133053541183
0.4595226049423218 0.8400834798812866 -0.022465050220489502
0.4615080654621124 0.8114227652549744 -0.043249715119600296
0.4630815088748932 0.7956522703170776 -0.04591790586709976
0.4650634229183197 0.7826221585273743 -0.039846520870923996
0.4679815471172333 0.773902416229248 -0.03569820150732994
0.42338597774505615 0.7602642774581909 -0.007469188887625933
0.41888299584388733 0.7628281116485596 -0.011501144617795944
0.41295480728149414 0.768862783908844 -0.014612166211009026
0.40804117918014526 0.7775318026542664 -0.009520391933619976
0.3836725950241089 0.6959940195083618 -0.017647024244070053
0.22747883200645447 0.621461808681488 0.2735403776168823
0.4893849790096283 0.6553552746772766 -0.09524446725845337
0.41098499298095703 0.7526066303253174 0.008509047329425812
0.4041706323623657 0.751774787902832 0.006367056164890528
0.4606775939464569 0.6588756442070007 -0.06913219392299652
0.4225768446922302 0.6473158001899719 -0.040903616696596146
0.45689553022384644 0.6534586548805237 -0.06958629935979843
0.3960007429122925 0.5550836324691772 -0.007468167692422867
0.3525586426258087 0.5708522200584412 0.00026372665888629854
0.41065746545791626 0.618361234664917 -0.04940652847290039
0.3003377318382263 0.28947940468788147 0.06869614869356155
0.31643158197402954 0.3272183835506439 0.028956502676010132
0.332791805267334 0.37017861008644104 -0.0026995919179171324
0.39748263359069824 0.7983371615409851 0.006759784184396267
0.437243789434433 0.3799894154071808 -0.0440962091088295
0.42949536442756653 0.3128264546394348 -0.02665081061422825
0.42112618684768677 0.25085896253585815 -0.008707058615982533
0.3254850506782532 0.4929615259170532 0.03799283504486084
0.266460120677948 0.521149218082428 0.07630335539579391
0.4285629987716675 0.48403581976890564 0.019562125205993652
0.293658584356308 0.4539584219455719 0.05207846686244011
0.43936392664909363 0.5244156122207642 -0.026225119829177856
0.4290672540664673 0.6149853467941284 -0.09748905152082443
0.2401401400566101 0.5416513681411743 0.10477141290903091
0.28223681449890137 0.5367943048477173 0.052360258996486664
0.3131874203681946 0.5452330112457275 0.02772543951869011
0.360882043838501 0.5423837304115295 0.013797893188893795
0.3970835506916046 0.5330606698989868 0.006897951941937208
0.42306461930274963 0.5213495492935181 -0.0012401338899508119
0.46951422095298767 0.4887737035751343 -0.05461117625236511
0.23865944147109985 0.5964556336402893 0.09582555294036865
0.2741420865058899 0.4515025317668915 0.06504207849502563
0.4757158160209656 0.6486111283302307 -0.1257839798927307
0.42308539152145386 0.5672392249107361 -0.028851786628365517
0.2217385172843933 0.4966771602630615 0.2601693272590637
0.4412459433078766 0.5074394941329956 -0.00585465831682086
0.4086122512817383 0.6192429661750793 -0.023342380300164223
0.3064255714416504 0.470061719417572 0.05865926668047905
0.42922502756118774 0.596462070941925 -0.08712796121835709
0.23356658220291138 0.6888717412948608 0.25883594155311584
0.42795661091804504 0.47455352544784546 0.026787996292114258
0.44701001048088074 0.5813162922859192 -0.11213552951812744
0.29833346605300903 0.8155445456504822 0.10233102738857269
0.303886353969574 0.8522109985351562 0.1414671093225479
0.21944108605384827 0.6114212870597839 0.18560874462127686
0.26526179909706116 0.7809449434280396 0.13204003870487213
0.23858872056007385 0.44114699959754944 0.1527852714061737
0.4003028869628906 0.9076380729675293 0.01815638691186905
0.4798997938632965 0.6541573405265808 -0.09313532710075378
0.4003864526748657 0.5854189395904541 -0.019519327208399773
0.24693608283996582 0.49356380105018616 0.11455456912517548
0.34921085834503174 0.48123347759246826 0.028653321787714958
0.3712092638015747 0.4833753705024719 0.02158666029572487
0.39168238639831543 0.7568005919456482 0.011091429740190506
0.2397947907447815 0.6530985832214355 0.10149326175451279
0.44589507579803467 0.9476382732391357 0.017925051972270012
0.3736554980278015 0.9104893803596497 0.07427000999450684
0.342138409614563 0.8864201307296753 0.10479713976383209
0.4949694871902466 0.31401631236076355 -0.03566412255167961
0.4979091286659241 0.954139232635498 0.0074518704786896706
0.39189863204956055 0.4822404980659485 0.01946888491511345
0.41109544038772583 0.47872036695480347 0.022331230342388153
0.4227106273174286 0.47655606269836426 0.02662890963256359
0.25698551535606384 0.4466644525527954 0.09146204590797424
0.4071049988269806 0.45736926794052124 0.019854554906487465
0.38630303740501404 0.45040377974510193 0.016720257699489594
0.36522436141967773 0.44828659296035767 0.018841134384274483
0.3435707986354828 0.4520368278026581 0.025710387155413628
0.32946479320526123 0.45887720584869385 0.03418973460793495
0.22578349709510803 0.4306229054927826 0.22150549292564392
0.3342522978782654 0.4778037965297699 0.03733581677079201
0.4931333363056183 0.6766542196273804 -0.06982167810201645
0.40811073780059814 0.682666003704071 -0.03713904321193695
0.432580828666687 0.6354458332061768 -0.07309533655643463
0.457303524017334 0.6773149967193604 -0.0651266947388649
0.4933484196662903 0.4500761032104492 -0.04630696028470993
0.33474791049957275 0.8507410287857056 0.07840797305107117
0.3669624328613281 0.8790909647941589 0.05001961067318916
0.4436051845550537 0.928013801574707 -0.009789819829165936
0.27476823329925537 0.8137307167053223 0.18763819336891174
0.4213031828403473 0.46752625703811646 0.02419605851173401
0.4531528055667877 0.5317479968070984 -0.06262224912643433
0.4971136152744293 0.933640718460083 -0.01865619607269764
0.40642669796943665 0.9318051338195801 0.04136062413454056
0.22487717866897583 0.6736457347869873 0.17871849238872528
0.44322043657302856 0.7678359746932983 -0.022618236020207405
0.43881577253341675 0.7739330530166626 -0.0266466923058033
0.43458467721939087 0.7839639782905579 -0.029978791251778603
0.43127939105033875 0.7979015111923218 -0.0260769035667181
0.4236759543418884 0.8228869438171387 -0.0092990193516016
0.4028944969177246 0.732376217842102 0.0001514508476248011
0.39469724893569946 0.7292500734329224 0.0010373946279287338
0.3872402310371399 0.7251686453819275 0.000927233777474612
0.3647310733795166 0.7130966186523438 0.005421247333288193
0.2699457108974457 0.6639541387557983 0.049674142152071
0.45511719584465027 0.5051307678222656 -0.03851139172911644
0.44578394293785095 0.45612049102783203 0.007817082107067108
0.4316183030605316 0.4596870541572571 0.01891971193253994
0.40920746326446533 0.7298974990844727 0.0016432346310466528
0.2706046998500824 0.7346733808517456 0.08697063475847244
0.4639202952384949 0.4548492431640625 -0.027023090049624443
0.4134361743927002 0.849163830280304 0.0003081505710724741
0.48882851004600525 0.5386580228805542 -0.11180160194635391
0.46892112493515015 0.517267644405365 -0.0806826576590538
0.49037742614746094 0.5111902356147766 -0.0877259224653244
0.43640244007110596 0.5735718011856079 -0.06361860036849976
0.4970380663871765 0.9049259424209595 -0.029959017410874367
0.49743983149528503 0.870912492275238 -0.02831179089844227
0.45300257205963135 0.8677390813827515 -0.019899168983101845
0.35927706956863403 0.785801112651825 0.03343631327152252
0.3878171443939209 0.6405726671218872 -0.01451380830258131
0.38419508934020996 0.8213473558425903 0.018857356160879135
0.32515496015548706 0.6378198862075806 -0.0016487105749547482
0.3619513511657715 0.6668328046798706 -0.005467649083584547
0.30441758036613464 0.6818232536315918 0.021823516115546227
0.4457889795303345 0.90047287940979 -0.020096253603696823
0.42325693368911743 0.5876186490058899 -0.04522082582116127
0.340617299079895 0.8134612441062927 0.05335778370499611
0.3726844787597656 0.8473668694496155 0.03341579809784889
0.3368224501609802 0.7476262450218201 0.03495459631085396
0.24701330065727234 0.702465295791626 0.1091398298740387
0.30491387844085693 0.7605142593383789 0.05728895589709282
0.2390507161617279 0.7310986518859863 0.16591496765613556
0.34109166264533997 0.6975526213645935 0.010316576808691025
0.4388659596443176 0.5496227145195007 -0.04434110224246979
0.436402291059494 0.62837815284729 -0.10352712124586105
0.4225847125053406 0.6323133707046509 -0.07602634280920029
0.44503939151763916 0.6096906065940857 -0.12156987190246582
0.42727911472320557 0.43467772006988525 0.0024029568303376436
0.38834571838378906 0.41929858922958374 -0.0003750406904146075
0.35355430841445923 0.41582605242729187 0.002442015102133155
0.3241007924079895 0.4205635190010071 0.01431531086564064
0.3036579489707947 0.43266409635543823 0.03056078962981701
0.2898745536804199 0.47871148586273193 0.06959032267332077
0.21942973136901855 0.5528444051742554 0.18350942432880402
0.30661648511886597 0.51186203956604 0.0480911061167717
0.33242857456207275 0.5189402103424072 0.03166966885328293
0.3656461834907532 0.5193544030189514 0.019809123128652573
0.3974243998527527 0.5140889286994934 0.013873117044568062
0.4213087856769562 0.5055438876152039 0.011300078593194485
0.4369048774242401 0.4969034790992737 0.008931390009820461
0.2247573733329773 0.558704674243927 0.2759706377983093
0.4237225651741028 0.6376596689224243 -0.06354182213544846
0.4514731764793396 0.5558041930198669 -0.08388672769069672
0.45131146907806396 0.6302874088287354 -0.12416625767946243
0.4652644097805023 0.643928587436676 -0.11509980261325836
0.4525068700313568 0.6349364519119263 -0.11209478229284286
0.4299267828464508 0.6446930170059204 -0.05561721324920654
0.46872884035110474 0.64663165807724 -0.12211515009403229
0.4726215600967407 0.651777446269989 -0.0928356721997261
0.4364505708217621 0.4761063754558563 0.021787138655781746
0.44877129793167114 0.48237621784210205 0.005078702699393034
0.45481765270233154 0.48675012588500977 -0.013972122222185135
0.3210239112377167 0.46400296688079834 0.042573124170303345
0.3076193928718567 0.4549826979637146 0.04430156201124191
0.5096482634544373 0.5430875420570374 -0.10458526760339737
0.678176760673523 0.4775145649909973 0.026471896097064018
0.5127091407775879 0.6479403972625732 -0.09479381144046783
0.7845215201377869 0.37989377975463867 0.14194607734680176
0.6027674078941345 0.49885332584381104 0.00341666117310524
0.6286762952804565 0.5009139776229858 0.003733609104529023
0.6541023254394531 0.4999799132347107 0.00915110856294632
0.6899615526199341 0.4872398376464844 0.02901981584727764
0.5814440250396729 0.49239158630371094 0.007199476473033428
0.6365580558776855 0.4319215416908264 -0.004818189889192581
0.6096064448356628 0.4335973262786865 -0.0028849272057414055
0.6625406742095947 0.43644315004348755 0.0019715013913810253
0.6806727647781372 0.4464752972126007 0.010901365429162979
0.7119348645210266 0.504667341709137 0.040039148181676865
0.5965972542762756 0.8817927837371826 -0.0023018838837742805
0.6884323954582214 0.47183889150619507 0.034438226372003555
0.798012375831604 0.4993332326412201 0.14883922040462494
0.7418394088745117 0.4901755452156067 0.06484755873680115
0.6266408562660217 0.607052743434906 -0.026658404618501663
0.5325927734375 0.7052949666976929 -0.07333668321371078
0.5315506458282471 0.7293335795402527 -0.0631597563624382
0.5728962421417236 0.7109469175338745 -0.05923779681324959
0.6000906229019165 0.7187985181808472 -0.03663279488682747
0.5606876611709595 0.7297250032424927 -0.05221137776970863
0.5844606161117554 0.7310754060745239 -0.031228138133883476
0.6319769620895386 0.771337628364563 0.007803166285157204
0.5074370503425598 0.6342839598655701 -0.13878807425498962
0.5093910098075867 0.6058393716812134 -0.14604470133781433
0.719855546951294 0.422191858291626 0.016026966273784637
0.5699204206466675 0.5414488315582275 -0.02518998086452484
0.5696939826011658 0.6223642826080322 -0.07985895127058029
0.5715665221214294 0.6072859168052673 -0.07184766978025436
0.7094010710716248 0.6032842993736267 0.001164208515547216
0.5093075037002563 0.571524977684021 -0.13033273816108704
0.6534881591796875 0.3921549618244171 -0.023436179384589195
0.691647469997406 0.40189188718795776 -0.006241197232156992
0.7532223463058472 0.3294132649898529 0.09595654159784317
0.543626606464386 0.415538489818573 -0.04038664698600769
0.5867288112640381 0.44256579875946045 0.005448032636195421
0.6536068916320801 0.738213837146759 0.009997016750276089
0.779217004776001 0.765353262424469 0.20488791167736053
0.5522714853286743 0.6383487582206726 -0.06988473981618881
0.5319786071777344 0.6473559737205505 -0.07144676893949509
0.6334590911865234 0.7359923124313354 0.01068905834108591
0.6210629940032959 0.7368882298469543 0.005469723138958216
0.7067121267318726 0.3845815658569336 0.0058138202875852585
0.5732278227806091 0.6322259306907654 -0.06642332673072815
0.6046223640441895 0.3950508236885071 -0.035119589418172836
0.6093770861625671 0.37261858582496643 -0.0398605614900589
0.6423048377037048 0.2623753547668457 0.0067350491881370544
0.7290819883346558 0.3559291958808899 0.045102085918188095
0.622821569442749 0.3146541118621826 -0.017509011551737785
0.7376779913902283 0.41090524196624756 0.03726198524236679
0.7611044645309448 0.39677590131759644 0.08724251389503479
0.5325130224227905 0.7198492288589478 -0.07075556367635727
0.5660616159439087 0.7224115133285522 -0.05629382282495499
0.5920984745025635 0.7249532341957092 -0.035870909690856934
0.5471169352531433 0.6426052451133728 -0.06401612609624863
0.6275058388710022 0.7361981272697449 0.008185110986232758
0.6120366454124451 0.7540915012359619 -0.004187983460724354
0.6170129776000977 0.737247884273529 0.004877924453467131
0.536008358001709 0.633638322353363 -0.10399574041366577
0.580546498298645 0.72900390625 -0.027651209384202957
0.5566835999488831 0.7296514511108398 -0.042989712208509445
0.5298388600349426 0.7312756776809692 -0.053561534732580185
0.5382097363471985 0.8412960171699524 -0.0267595574259758
0.5364305377006531 0.8124479055404663 -0.04798220470547676
0.5348585247993469 0.7966029644012451 -0.05090266093611717
0.5327987670898438 0.7837820053100586 -0.04470890387892723
0.5303305983543396 0.7749353647232056 -0.04041888937354088
0.5824937224388123 0.760998010635376 -0.016746491193771362
0.586916983127594 0.7638208866119385 -0.020766058936715126
0.5929566621780396 0.7700163125991821 -0.023866193369030952
0.5980267524719238 0.7786487340927124 -0.01920907571911812
0.6166976094245911 0.696295440196991 -0.028998173773288727
0.8068330883979797 0.626547634601593 0.24433356523513794
0.5984536409378052 0.7532961368560791 -0.0022589205764234066
0.6052883863449097 0.7524408102035522 -0.00456088874489069
0.5245164632797241 0.6590320467948914 -0.07202260941267014
0.567682683467865 0.6470351219177246 -0.0470561683177948
0.5280047655105591 0.6534656882286072 -0.07263736426830292
0.5982035398483276 0.5555804371833801 -0.018930554389953613
0.6436441540718079 0.5718645453453064 -0.015219860710203648
0.5781521201133728 0.6179843544960022 -0.057781778275966644
0.7075284719467163 0.28923532366752625 0.04807120934128761
0.6847975254058838 0.3271659016609192 0.010954794473946095
0.6628860235214233 0.37059685587882996 -0.018532315269112587
0.6084600687026978 0.8001455068588257 -0.004207575228065252
0.5515652894973755 0.3795470893383026 -0.04916852340102196
0.5624626874923706 0.3124365508556366 -0.03257591277360916
0.5747711658477783 0.2505316436290741 -0.015842482447624207
0.6767469048500061 0.49602288007736206 0.019203219562768936
0.741287350654602 0.5238032341003418 0.05250643566250801
0.5682750344276428 0.48551812767982483 0.011170665733516216
0.7102813720703125 0.4570283889770508 0.03072131611406803
0.5512217283248901 0.5247218012809753 -0.03307134658098221
0.5514984130859375 0.6151775121688843 -0.10364153981208801
0.7725341320037842 0.5449844598770142 0.07813423871994019
0.7220382690429688 0.5390194654464722 0.029932934790849686
0.6874381303787231 0.5465621948242188 0.008041497319936752
0.6369097828865051 0.5435747504234314 -0.001229256740771234
0.5988301038742065 0.5339710712432861 -0.00465049734339118
0.5716003179550171 0.522171139717102 -0.00992649793624878
0.5159340500831604 0.48898178339004517 -0.05750294774770737
0.7723040580749512 0.5997467041015625 0.0693385899066925
0.7326563596725464 0.4542488753795624 0.041664864867925644
0.5004282593727112 0.648806095123291 -0.12692327797412872
0.5670214295387268 0.5675432682037354 -0.03719143569469452
0.8113372325897217 0.5004966259002686 0.22946049273014069
0.5517469644546509 0.5079947113990784 -0.01218023058027029
0.5830398201942444 0.6189382672309875 -0.03145763278007507
0.6976296901702881 0.4737808108329773 0.03865840286016464
0.5529981255531311 0.5965116620063782 -0.09349775314331055
0.7990550994873047 0.6950021386146545 0.23055300116539001
0.5698438286781311 0.47635501623153687 0.01816517859697342
0.5312288999557495 0.5814701914787292 -0.11660350859165192
0.7154932022094727 0.821453332901001 0.08282557129859924
0.7140765190124512 0.8594489693641663 0.12167520821094513
0.8028796911239624 0.616412878036499 0.156971737742424
0.7522926330566406 0.7870218753814697 0.10918742418289185
0.7811635732650757 0.44387710094451904 0.12538574635982513
0.5996651649475098 0.9118994474411011 0.00856856256723404
0.4990144371986389 0.6543350219726562 -0.09411927312612534
0.5921850800514221 0.5856074690818787 -0.02958645299077034
0.7667816281318665 0.4967867434024811 0.08863197267055511
0.6505441665649414 0.48421382904052734 0.012495651841163635
0.6277899742126465 0.48576733469963074 0.007263649255037308
0.6183979511260986 0.757576584815979 -0.0008623932371847332
0.7721565961837769 0.6572315096855164 0.07543457299470901
0.5512558817863464 0.9502789974212646 0.012479845434427261
0.6324930191040039 0.916270911693573 0.061173032969236374
0.6696872711181641 0.8929522037506104 0.08855635672807693
0.6067529320716858 0.48428887128829956 0.007058692630380392
0.5871452689170837 0.48044711351394653 0.011354200541973114
0.5751881003379822 0.47825247049331665 0.017036329954862595
0.7544868588447571 0.4493352770805359 0.06622711569070816
0.5921183824539185 0.4593169689178467 0.008729977533221245
0.6138200759887695 0.4527955651283264 0.003767444286495447
0.6350874900817871 0.4512411952018738 0.0037198825739324093
0.6571502685546875 0.45532357692718506 0.008988033048808575
0.6719624996185303 0.4623701572418213 0.016419602558016777
0.8032028675079346 0.4335041046142578 0.1916169971227646
0.6666697859764099 0.48134225606918335 0.019828442484140396
0.5866141319274902 0.6826292872428894 -0.04591123387217522
0.5517168641090393 0.6353870034217834 -0.0785311907529831
0.5313589572906494 0.6774923205375671 -0.06901918351650238
0.6749671697616577 0.8561329245567322 0.062024518847465515
0.6384379863739014 0.8842325210571289 0.03702958673238754
0.5519953966140747 0.9304788112640381 -0.015325802378356457
0.7490420341491699 0.8206778764724731 0.1638898104429245
0.5766693353652954 0.4694673418998718 0.014112912118434906
0.5313584208488464 0.5320829153060913 -0.06698810309171677
0.5944039225578308 0.9362484216690063 0.03190796077251434
0.7972265481948853 0.6792362332344055 0.1513049602508545
0.5584553480148315 0.7689920663833618 -0.0303373821079731
0.5627596378326416 0.7751147747039795 -0.03427892178297043
0.5668393969535828 0.7853366732597351 -0.03809084743261337
0.5702053308486938 0.7993249893188477 -0.03414325416088104
0.5779198408126831 0.8248281478881836 -0.018083151429891586
0.6071231365203857 0.7325595617294312 -0.011780747212469578
0.6145427823066711 0.7296649813652039 -0.011595201678574085
0.6217357516288757 0.7254607081413269 -0.011847340501844883
0.6416182518005371 0.7138844728469849 -0.008789267390966415
0.7362368702888489 0.6671910285949707 0.025887228548526764
0.533034086227417 0.5054275989532471 -0.04360319301486015
0.5484156608581543 0.45685240626335144 0.0022626074496656656
0.5648530721664429 0.46100741624832153 0.011134646832942963
0.6014615893363953 0.7300175428390503 -0.009551437571644783
0.741511881351471 0.7390637993812561 0.06426320970058441
0.5257105231285095 0.4551435112953186 -0.03028501197695732
0.5878591537475586 0.8516183495521545 -0.008709071204066277
0.5129296183586121 0.5173777341842651 -0.08297665417194366
0.5483755469322205 0.5735234022140503 -0.06930376589298248
0.5438104867935181 0.8693432807922363 -0.02443968690931797
0.6493576765060425 0.7883661985397339 0.018625397235155106
0.607399046421051 0.6406778693199158 -0.025500468909740448
0.6213294863700867 0.823982834815979 0.007122940383851528
0.6732491254806519 0.6395710706710815 -0.018521340563893318
0.6372396945953369 0.6679575443267822 -0.018965376541018486
0.6991531252861023 0.6842688322067261 0.002437263960018754
0.5498379468917847 0.902431845664978 -0.025354525074362755
0.5650103092193604 0.5874750018119812 -0.05269714444875717
0.667665958404541 0.8173879384994507 0.037458550184965134
0.6325320601463318 0.8512340784072876 0.02098740078508854
0.6725637912750244 0.7496280670166016 0.01713508926331997
0.7672286033630371 0.7072694897651672 0.08398262411355972
0.7049949169158936 0.7643048763275146 0.03749141842126846
0.782232403755188 0.7368133664131165 0.13969427347183228
0.663992166519165 0.6989389061927795 -0.006544990930706263
0.5484669208526611 0.54990553855896 -0.05071180686354637
0.543700098991394 0.6286652684211731 -0.10891814529895782
0.5621265172958374 0.6323396563529968 -0.08235801011323929
0.5313515663146973 0.6101388931274414 -0.12655408680438995
0.5669974088668823 0.435400128364563 -0.005475337617099285
0.6066564321517944 0.42032599449157715 -0.011410830542445183
0.6425132155418396 0.41726404428482056 -0.011878078803420067
0.6738344430923462 0.4225251078605652 -0.0033494390081614256
0.6971842050552368 0.4353860020637512 0.011112461797893047
0.7164027094841003 0.4819246232509613 0.04775763675570488
0.8034024238586426 0.5574070811271667 0.15441973507404327
0.6967531442642212 0.5142287015914917 0.027863455936312675
0.6686972379684448 0.5206921696662903 0.013807835057377815
0.633581280708313 0.520810067653656 0.005074838642030954
0.6003318428993225 0.5153020024299622 0.0023731524124741554
0.575488805770874 0.5066814422607422 0.002695007948204875
0.5587399005889893 0.49781376123428345 0.0020386280957609415
0.8094882965087891 0.563193678855896 0.24545079469680786
0.5630511045455933 0.6375605463981628 -0.07019026577472687
0.5296793580055237 0.5558341145515442 -0.08828675746917725
0.5252008438110352 0.6308979988098145 -0.12762001156806946
0.5130741000175476 0.6444562077522278 -0.11711759865283966
0.5260924100875854 0.6355517506599426 -0.1154290959239006
0.5581156015396118 0.6446455717086792 -0.061196763068437576
0.5084313750267029 0.6470088362693787 -0.12372411787509918
0.5073051452636719 0.652285099029541 -0.09432940185070038
0.5599774718284607 0.47746336460113525 0.014685720205307007
0.545623779296875 0.4832761883735657 2.6902487206825754e-06
0.5370961427688599 0.4872986674308777 -0.018411017954349518
0.6811177730560303 0.46781349182128906 0.02410127781331539
0.6950147151947021 0.4582672715187073 0.024661213159561157
