ply
format ascii 1.0
element vertex 468
property float x
property float y
property float z
end_header
0.4801553785800934 0.7027170062065125 -0.0752895325422287
0.4704095423221588 0.6186767816543579 -0.12895594537258148
0.4806123673915863 0.6464486718177795 -0.06953801214694977
0.4599617123603821 0.5406073331832886 -0.08993350714445114
0.46975716948509216 0.5932111740112305 -0.1364404857158661
0.4734915494918823 0.5616650581359863 -0.12579800188541412
0.4872417151927948 0.48706504702568054 -0.05854102224111557
0.3404333293437958 0.4858096241950989 0.06885674595832825
0.49159207940101624 0.424261212348938 -0.040548037737607956
0.4913405179977417 0.39110782742500305 -0.044158950448036194
0.49768903851509094 0.2832106053829193 -0.014563138596713543
0.48073461651802063 0.715425968170166 -0.0732787474989891
0.48245295882225037 0.7260757684707642 -0.06550184637308121
0.48518380522727966 0.7315609455108643 -0.05487101152539253
0.4856458902359009 0.7629255056381226 -0.046604059636592865
0.4846859574317932 0.7761099338531494 -0.05005413293838501
0.48442351818084717 0.791843593120575 -0.05311441794037819
0.48539280891418457 0.8076579570770264 -0.04557456076145172
0.48983827233314514 0.8267198801040649 -0.01730833202600479
0.473432719707489 0.6323582530021667 -0.11730532348155975
0.46073007583618164 0.6319908499717712 -0.08150707930326462
0.28443020582199097 0.40553128719329834 0.20460699498653412
0.40396198630332947 0.5065665245056152 0.031243275851011276
0.3814215660095215 0.5087829232215881 0.03736495599150658
0.3604651391506195 0.5078398585319519 0.04832849279046059
0.3343435823917389 0.49504655599594116 0.07436233013868332
0.42249739170074463 0.49985334277153015 0.029386814683675766
0.37309280037879944 0.44097429513931274 0.02962428703904152
0.3975784182548523 0.44319307804107666 0.02336750365793705
0.35072487592697144 0.44491899013519287 0.042108532041311264
0.3366038501262665 0.45455697178840637 0.054520901292562485
0.31863147020339966 0.5123745799064636 0.08903483301401138
0.41154685616493225 0.8483362197875977 0.023075880482792854
0.3336757719516754 0.48021435737609863 0.07864037901163101
0.2756235599517822 0.5061604976654053 0.21070434153079987
0.2996267080307007 0.49619847536087036 0.11892121285200119
0.38146403431892395 0.6058422923088074 0.005677282810211182
0.45405465364456177 0.698678195476532 -0.06540049612522125
0.46131110191345215 0.7257238626480103 -0.05651288107037544
0.430221289396286 0.7068096995353699 -0.04516017809510231
0.417713463306427 0.7185183167457581 -0.02276412583887577
0.44545289874076843 0.7276354432106018 -0.04173107072710991
0.4344501495361328 0.7315452694892883 -0.020906483754515648
0.3971094489097595 0.7654322981834412 0.02243036776781082
0.4533635079860687 0.6181697845458984 -0.12393362820148468
0.4495764374732971 0.5942453145980835 -0.1300593614578247
0.3048088550567627 0.42850130796432495 0.07129345834255219
0.42688846588134766 0.5442386269569397 -0.0035121175460517406
0.416981965303421 0.6155170202255249 -0.05485335737466812
0.4168316125869751 0.603018045425415 -0.047062505036592484
0.32044517993927 0.6057555675506592 0.050509560853242874
0.45405417680740356 0.564810037612915 -0.11363815516233444
0.34791573882102966 0.39868244528770447 0.017488382756710052
0.32123857736587524 0.4083269238471985 0.04382283613085747
0.29811549186706543 0.3609039783477783 0.15336789190769196
0.442481130361557 0.41903960704803467 -0.02391684427857399
0.41889435052871704 0.45215457677841187 0.025870833545923233
0.3828801214694977 0.7377445697784424 0.02954673580825329
0.31321951746940613 0.7292171716690063 0.262123167514801
0.43464896082878113 0.6290665864944458 -0.04990236088633537
0.45155656337738037 0.6366443037986755 -0.05731022357940674
0.40583884716033936 0.7404780387878418 0.022828005254268646
0.4186412990093231 0.7394925951957703 0.013922645710408688
0.31105005741119385 0.3934083580970764 0.05768756940960884
0.41994500160217285 0.6272497773170471 -0.04241631552577019
0.3867682218551636 0.400452196598053 -0.0060881380923092365
0.3821708559989929 0.3811565339565277 -0.009838742204010487
0.3717688322067261 0.29987719655036926 0.042264968156814575
0.30368828773498535 0.37690114974975586 0.09876220673322678
0.3780081272125244 0.33969801664352417 0.014415033161640167
0.29514914751052856 0.4199366569519043 0.09514199197292328
0.2891447842121124 0.4142933487892151 0.14614509046077728
0.4565718173980713 0.7138034105300903 -0.06361811608076096
0.43787050247192383 0.7188848257064819 -0.044596925377845764
0.4252815246582031 0.7251097559928894 -0.024027856066823006
0.441051721572876 0.6337629556655884 -0.04643335938453674
0.41198474168777466 0.7405292391777039 0.017851000651717186
0.41719701886177063 0.751494288444519 0.0027368050068616867
0.42240196466445923 0.7377721667289734 0.012851236388087273
0.4392394721508026 0.6192142367362976 -0.08303844928741455
0.44151797890663147 0.7308245897293091 -0.018199065700173378
0.45242568850517273 0.7300442457199097 -0.03345998749136925
0.4669163227081299 0.7305952310562134 -0.04666072502732277
0.45843690633773804 0.8231629133224487 -0.011589094065129757
0.4557197093963623 0.802876353263855 -0.03789199888706207
0.4566812515258789 0.7871130704879761 -0.04353265091776848
0.4599381685256958 0.7712425589561462 -0.04037651792168617
0.46377792954444885 0.7606493234634399 -0.03731616958975792
0.43647462129592896 0.7517483830451965 -0.010289227589964867
0.4313425123691559 0.7558022737503052 -0.013686022721230984
0.4243413209915161 0.7629066705703735 -0.01560123823583126
0.41907867789268494 0.7713802456855774 -0.009713399223983288
0.40000325441360474 0.6921217441558838 -0.010716432705521584
0.2922956347465515 0.612575113773346 0.3061009645462036
0.4771488904953003 0.6383013129234314 -0.08644697815179825
0.43020156025886536 0.7473240494728088 0.00422943290323019
0.42367464303970337 0.748734176158905 0.002071656286716461
0.45726338028907776 0.6474444270133972 -0.058251284062862396
0.4290948510169983 0.6427094340324402 -0.027624674141407013
0.4546346366405487 0.6424252390861511 -0.05851874500513077
0.40441155433654785 0.5589133501052856 0.009186903946101665
0.3680334985256195 0.5758994817733765 0.02273263782262802
0.41591396927833557 0.6146628260612488 -0.03317440301179886
0.3247241973876953 0.32465410232543945 0.09588183462619781
0.3310858905315399 0.35060915350914 0.055432695895433426
0.340476930141449 0.38024380803108215 0.023505987599492073
0.41093021631240845 0.787060022354126 0.01059527788311243
0.43397635221481323 0.38723692297935486 -0.031345974653959274
0.4306888282299042 0.3381836712360382 -0.014389410614967346
0.4275979995727539 0.2878805100917816 0.004469950217753649
0.34337902069091797 0.5036258697509766 0.06248045712709427
0.2978304326534271 0.5308283567428589 0.1057889312505722
0.43427667021751404 0.4929174780845642 0.030533285811543465
0.3164668381214142 0.4634898900985718 0.08122540265321732
0.4412000775337219 0.5277959108352661 -0.014587943442165852
0.425002783536911 0.6049606800079346 -0.08042793720960617
0.27988937497138977 0.5484565496444702 0.13752861320972443
0.3081809878349304 0.5470889806747437 0.08068515360355377
0.3328791558742523 0.5549507737159729 0.05219603329896927
0.3738880157470703 0.5498021841049194 0.03357434645295143
0.4053401052951813 0.5389911532402039 0.022048678249120712
0.42830342054367065 0.5270183682441711 0.010839595459401608
0.4667537808418274 0.4940224885940552 -0.04476296901702881
0.28130030632019043 0.5985381007194519 0.12861400842666626
0.3016129732131958 0.4604531526565552 0.09702172130346298
0.46359074115753174 0.631422221660614 -0.11359735578298569
0.42697638273239136 0.5671762824058533 -0.015306218527257442
0.28240013122558594 0.5080068111419678 0.29339390993118286
0.4445926547050476 0.5132485628128052 0.00443843100219965
0.4167170822620392 0.6170327067375183 -0.00918580498546362
0.32780420780181885 0.4811588525772095 0.08524489402770996
0.42635929584503174 0.5899739265441895 -0.07081683725118637
0.298719584941864 0.6693505048751831 0.29120078682899475
0.43537619709968567 0.4837871789932251 0.03755087032914162
0.43884485960006714 0.574591338634491 -0.096360944211483
0.33857405185699463 0.7859959006309509 0.12415369600057602
0.34764063358306885 0.8130025863647461 0.16673195362091064
0.2751501202583313 0.6063919067382812 0.2187751680612564
0.31708040833473206 0.7531511783599854 0.1591847687959671
0.2822549641132355 0.4576115012168884 0.18600016832351685
0.409519761800766 0.8722167611122131 0.037392497062683105
0.46950778365135193 0.6373608708381653 -0.08338204771280289
0.4087260961532593 0.5858011841773987 -0.0040022036992013454
0.28565311431884766 0.5022389888763428 0.14723381400108337
0.3610802888870239 0.4931733310222626 0.049881331622600555
0.3805806040763855 0.49523091316223145 0.04042539745569229
0.4112987816333771 0.7552635669708252 0.007744853384792805
0.288519948720932 0.646344780921936 0.13246752321720123
0.44955816864967346 0.9105476140975952 0.03585445135831833
0.3932621479034424 0.8690575957298279 0.09504278749227524
0.37201613187789917 0.8451073169708252 0.12644252181053162
0.4936913251876831 0.33764562010765076 -0.03148334100842476
0.49775758385658264 0.919806718826294 0.019672708585858345
0.39976242184638977 0.49378299713134766 0.03546326607465744
0.41769957542419434 0.4895070195198059 0.035556361079216
0.4294411242008209 0.4865344166755676 0.03843573108315468
0.2904142737388611 0.45741963386535645 0.12490889430046082
0.41663169860839844 0.46942055225372314 0.03225374221801758
0.3975813388824463 0.46385884284973145 0.031888242810964584
0.37728017568588257 0.4625147581100464 0.03692372143268585
0.3576163649559021 0.46606436371803284 0.046914201229810715
0.345389187335968 0.4720305800437927 0.056998271495103836
0.2794567346572876 0.45186513662338257 0.25548163056373596
0.34860140085220337 0.48964935541152954 0.06027296558022499
0.48146852850914 0.6646102666854858 -0.06450746208429337
0.41733717918395996 0.6770412921905518 -0.026745541021227837
0.4323090612888336 0.6247231364250183 -0.05890510976314545
0.4532414376735687 0.6674968600273132 -0.05612018331885338
0.49167266488075256 0.45595598220825195 -0.040420785546302795
0.36194509267807007 0.8180295825004578 0.09613600373268127
0.38529258966445923 0.8439751267433167 0.06829123944044113
0.44416543841362 0.8941558003425598 0.007823385298252106
0.33014100790023804 0.7775633931159973 0.21655987203121185
0.42944109439849854 0.4777260720729828 0.03549597039818764
0.4496908187866211 0.5322543978691101 -0.051049403846263885
0.492954820394516 0.9030499458312988 -0.007058096583932638
0.4170773923397064 0.8921269178390503 0.0619410015642643
0.2835749089717865 0.6588886380195618 0.21099510788917542
0.44776275753974915 0.7563747763633728 -0.024042345583438873
0.44258514046669006 0.7638444304466248 -0.027473226189613342
0.4371100664138794 0.7756754755973816 -0.029019072651863098
0.4334368109703064 0.7897190451622009 -0.023539189249277115
0.43041902780532837 0.8074953556060791 -0.001876067603006959
0.42548730969429016 0.7345990538597107 -0.0019656866788864136
0.41669610142707825 0.7320064902305603 -0.0004744103061966598
0.4094422161579132 0.7280946373939514 0.0007938300841487944
0.38788819313049316 0.712486982345581 0.009920388460159302
0.31107327342033386 0.6585301160812378 0.0768192932009697
0.45441150665283203 0.5093188285827637 -0.028233123943209648
0.44951021671295166 0.4646393060684204 0.014599465765058994
0.4381164610385895 0.4693821668624878 0.02859119139611721
0.4323018193244934 0.731657862663269 -0.0005194506957195699
0.31713879108428955 0.7177860736846924 0.11174667626619339
0.46436625719070435 0.4613456726074219 -0.0189826637506485
0.42118939757347107 0.8259238004684448 0.01286771334707737
0.4783886969089508 0.5362458229064941 -0.10248308628797531
0.4626646339893341 0.5187297463417053 -0.07000511139631271
0.4827060103416443 0.5127507448196411 -0.07967382669448853
0.43478408455848694 0.5702397227287292 -0.050029460340738297
0.4907492995262146 0.8786302804946899 -0.01847153529524803
0.4903477132320404 0.8499075770378113 -0.01753862388432026
0.4524855613708496 0.8443325161933899 -0.006120384205132723
0.37842535972595215 0.7732792496681213 0.040380723774433136
0.39917463064193726 0.637622058391571 0.0005657272995449603
0.3974452316761017 0.8024495244026184 0.028071755543351173
0.3494797945022583 0.6357348561286926 0.021190358325839043
0.3792652189731598 0.6624942421913147 0.008846483193337917
0.3371506929397583 0.6755697727203369 0.04246308282017708
0.44532468914985657 0.870750904083252 -0.003815589239820838
0.4257856607437134 0.5849613547325134 -0.030994100496172905
0.3632942736148834 0.7913665771484375 0.0668918564915657
0.38767126202583313 0.820440411567688 0.04767540842294693
0.3625376522541046 0.7405754327774048 0.0453728586435318
0.2985638976097107 0.6876879334449768 0.1378633826971054
0.3398917317390442 0.7449422478675842 0.0739716961979866
0.29691141843795776 0.7080121040344238 0.19697347283363342
0.3664531707763672 0.6947784423828125 0.022561781108379364
0.438929945230484 0.5494216084480286 -0.03200598806142807
0.4316985011100769 0.6152569651603699 -0.08683499693870544
0.42340144515037537 0.6231815218925476 -0.0599120669066906
0.4357304573059082 0.5979424715042114 -0.10538292676210403
0.4304262399673462 0.4417946934700012 0.011872577480971813
0.39386850595474243 0.42744237184524536 0.015440382994711399
0.3625057339668274 0.4251343905925751 0.024685150012373924
0.33771437406539917 0.4301064610481262 0.040807224810123444
0.3222339153289795 0.4424329400062561 0.05972578004002571
0.31577441096305847 0.48843932151794434 0.09770232439041138
0.27243396639823914 0.5558648705482483 0.2171623408794403
0.32801124453544617 0.5219840407371521 0.07374420762062073
0.34885168075561523 0.5283812284469604 0.05437836796045303
0.37751197814941406 0.5276482701301575 0.03881178796291351
0.4056546986103058 0.5215612649917603 0.028500091284513474
0.42722463607788086 0.5127986073493958 0.02310316637158394
0.4414980411529541 0.5040949583053589 0.018473248928785324
0.2886117696762085 0.5600874423980713 0.3086087107658386
0.42677003145217896 0.6302108764648438 -0.04843424633145332
0.4455057680606842 0.5528486371040344 -0.07036223262548447
0.44183725118637085 0.6150906085968018 -0.10893501341342926
0.45656144618988037 0.6277334094047546 -0.10254901647567749
0.4451081156730652 0.6195616722106934 -0.0974370613694191
0.43430203199386597 0.6380327343940735 -0.042166393250226974
0.45828357338905334 0.6297610998153687 -0.10958298295736313
0.4640740156173706 0.6357520818710327 -0.08230570703744888
0.44246968626976013 0.4847227931022644 0.030804596841335297
0.4529385268688202 0.49007362127304077 0.012992853298783302
0.456842839717865 0.4933388829231262 -0.005179745610803366
0.33866584300994873 0.47656574845314026 0.06664860248565674
0.32742881774902344 0.4654608964920044 0.07043933868408203
0.4993930160999298 0.5404996275901794 -0.09933459013700485
0.6783220767974854 0.4819311797618866 0.00019137297931592911
0.4976641833782196 0.632343590259552 -0.0887623056769371
0.7927781939506531 0.3960249423980713 0.09994833171367645
0.6058671474456787 0.503907322883606 -0.013034388422966003
0.6305097341537476 0.5058239698410034 -0.015764085575938225
0.6549208760261536 0.5049203634262085 -0.012995542027056217
0.6894506216049194 0.4913865923881531 0.0016245809383690357
0.5852081179618835 0.4975270628929138 -0.005650728940963745
0.6370133757591248 0.43578076362609863 -0.02570132538676262
0.6103106737136841 0.43847227096557617 -0.01997756026685238
0.6629296541213989 0.4394741654396057 -0.021810337901115417
0.6811912059783936 0.4491889774799347 -0.014730637893080711
0.7109416723251343 0.5091179609298706 0.010587193071842194
0.5886126160621643 0.8558886051177979 -0.008375728502869606
0.6882544755935669 0.47579729557037354 0.007062604185193777
0.8011571764945984 0.5015509128570557 0.10331518203020096
0.7419559955596924 0.4921168088912964 0.030826935544610023
0.6147059202194214 0.606616735458374 -0.038447149097919464
0.5099881291389465 0.6997969746589661 -0.07756466418504715
0.5080522298812866 0.7270500063896179 -0.06721241027116776
0.5429761409759521 0.7104265689849854 -0.06960246711969376
0.5648545622825623 0.7227555513381958 -0.05614723265171051
0.5309975743293762 0.730546236038208 -0.06310559064149857
0.5496789216995239 0.7350630760192871 -0.049229901283979416
0.6047527194023132 0.7713897824287415 -0.0191806610673666
0.4902375638484955 0.6181681752204895 -0.12998150289058685
0.49292275309562683 0.5941625833511353 -0.1371661275625229
0.7219956517219543 0.4222445785999298 -0.011221012100577354
0.5671120285987854 0.5437237620353699 -0.03263891488313675
0.5539437532424927 0.6166839599609375 -0.08245600759983063
0.5584168434143066 0.6041938662528992 -0.07549618929624557
0.6955934762954712 0.606074333190918 -0.02319055050611496
0.4957212507724762 0.5647796392440796 -0.12290944159030914
0.6565985083580017 0.3919951915740967 -0.038896430283784866
0.6939675211906433 0.40171509981155396 -0.027332670986652374
0.7595786452293396 0.3499796688556671 0.059496793895959854
0.5456239581108093 0.4166216254234314 -0.04234659671783447
0.5879674553871155 0.44832533597946167 -0.009448748081922531
0.621212899684906 0.7433467507362366 -0.02032729983329773
0.7825299501419067 0.7367886900901794 0.164091557264328
0.5362054109573364 0.6301649212837219 -0.06993050873279572
0.5163016319274902 0.6376831531524658 -0.06715955585241318
0.5927389860153198 0.7458722591400146 -0.020798949524760246
0.5807172656059265 0.7442550659179688 -0.024765517562627792
0.7102528214454651 0.3860854208469391 -0.018004437908530235
0.5565113425254822 0.6289447546005249 -0.0693243071436882
0.6081047058105469 0.39521458745002747 -0.04463823884725571
0.6120707988739014 0.3754456043243408 -0.04951806738972664
0.642794668674469 0.2914581298828125 -0.011193765327334404
0.7340633273124695 0.36794015765190125 0.014771959744393826
0.6239610314369202 0.3325689136981964 -0.03185969218611717
0.7407102584838867 0.412950336933136 0.007097481284290552
0.7661123275756836 0.4061281383037567 0.05050674080848694
0.5090094804763794 0.7151273488998413 -0.07541868090629578
0.5358973145484924 0.722136914730072 -0.06782758980989456
0.5570996999740601 0.7289418578147888 -0.05466427654027939
0.530623197555542 0.6351120471954346 -0.06304073333740234
0.5864117741584778 0.7455906867980957 -0.02268490009009838
0.576479971408844 0.7559107542037964 -0.031942304223775864
0.5783702731132507 0.7425534725189209 -0.02481173910200596
0.5202466249465942 0.6195182204246521 -0.10164626687765121
0.5464969873428345 0.7339308261871338 -0.04510792717337608
0.5281519293785095 0.7324264049530029 -0.05326684191823006
0.5076639652252197 0.7315095663070679 -0.057708147913217545
0.5252836346626282 0.8253529667854309 -0.022139934822916985
0.5191323161125183 0.8046769499778748 -0.0501507893204689
0.5158982276916504 0.7886766195297241 -0.0560549721121788
0.5130070447921753 0.7729557752609253 -0.05291125550866127
0.5110481977462769 0.7621947526931763 -0.04922933876514435
0.5524517893791199 0.755119264125824 -0.03746268153190613
0.5567177534103394 0.7593096494674683 -0.0407341867685318
0.5632348656654358 0.7667734622955322 -0.04380517080426216
0.5696561932563782 0.7754598259925842 -0.03966716676950455
0.5875471234321594 0.69541335105896 -0.04878709092736244
0.8144406080245972 0.6131975054740906 0.19680097699165344
0.5649250745773315 0.7513046860694885 -0.028911983594298363
0.5700684189796448 0.7530035376548767 -0.03156149387359619
0.5089737176895142 0.6485062837600708 -0.0679941475391388
0.550169825553894 0.644989550113678 -0.04931764677166939
0.5122029781341553 0.6433292627334595 -0.06804332882165909
0.5940921306610107 0.5584250688552856 -0.02984527498483658
0.6354896426200867 0.5754349231719971 -0.029628321528434753
0.5640721917152405 0.61618971824646 -0.06266099214553833
0.711418092250824 0.3139048218727112 0.01930565945804119
0.6889858245849609 0.3417058289051056 -0.012004485353827477
0.6663599610328674 0.372831791639328 -0.03643600270152092
0.5859946608543396 0.7924113273620605 -0.024194715544581413
0.552249014377594 0.38411858677864075 -0.051437195390462875
0.561275839805603 0.33429184556007385 -0.03821532428264618
0.5738459229469299 0.28308480978012085 -0.022554675117135048
0.6766618490219116 0.5002982020378113 -0.005885044112801552
0.7391290068626404 0.5279685258865356 0.01884918287396431
0.5717192888259888 0.4906690716743469 -0.0003889171057380736
0.7110857963562012 0.45863211154937744 0.0015877691330388188
0.5487971305847168 0.5272781252861023 -0.037915121763944626
0.5365846157073975 0.6054529547691345 -0.1026686280965805
0.7697269916534424 0.5462002158164978 0.039105501025915146
0.7187185287475586 0.544849693775177 -0.0009579390753060579
0.6832923889160156 0.5532217621803284 -0.017257919535040855
0.6339339017868042 0.5484322309494019 -0.019449371844530106
0.5982659459114075 0.5377742648124695 -0.018396515399217606
0.5717511773109436 0.5259996056556702 -0.019382581114768982
0.5116039514541626 0.49348706007003784 -0.0543893501162529
0.7637040615081787 0.5986818075180054 0.03063451685011387
0.7340424656867981 0.45507940649986267 0.009864035993814468
0.4848124086856842 0.6315375566482544 -0.1182725727558136
0.5607028007507324 0.5673352479934692 -0.04369835928082466
0.8213495016098022 0.5028950572013855 0.18055731058120728
0.5517968535423279 0.5121341943740845 -0.01915040612220764
0.5699570178985596 0.618670642375946 -0.038864023983478546
0.6981438994407654 0.47670090198516846 0.009955688379704952
0.5410244464874268 0.5904927253723145 -0.09340868890285492
0.8047536015510559 0.6733217835426331 0.18678027391433716
0.5727457404136658 0.4816674590110779 0.00504444632679224
0.5186727643013 0.5748094320297241 -0.11262078583240509
0.7070735692977905 0.7970014214515686 0.05222791060805321
0.7150087356567383 0.8259708881378174 0.09290821850299835
0.800244927406311 0.6071109771728516 0.11186876893043518
0.7424643039703369 0.7624217867851257 0.0741768404841423
0.785252571105957 0.45083874464035034 0.08362240344285965
0.5957722067832947 0.8812167048454285 0.0030979777220636606
0.4854621887207031 0.6373858451843262 -0.08634188771247864
0.5839172005653381 0.5862571597099304 -0.03853899985551834
0.7673771381378174 0.49800175428390503 0.05026650056242943
0.6518698930740356 0.4896416962146759 -0.010236559435725212
0.6303983926773071 0.4916311204433441 -0.012679880484938622
0.5838295221328735 0.7600555419921875 -0.029220182448625565
0.7584110498428345 0.6492377519607544 0.03819815441966057
0.5510278940200806 0.9162068367004395 0.016744814813137054
0.6349445581436157 0.8814386129379272 0.04726429283618927
0.6719738841056824 0.8586810231208801 0.06645738333463669
0.6099587082862854 0.4904012680053711 -0.009850870817899704
0.5910896062850952 0.48651963472366333 -0.0032667412888258696
0.5789529085159302 0.48416614532470703 0.0036772191524505615
0.7564063668251038 0.451463520526886 0.031019827350974083
0.5931773781776428 0.4664567708969116 -0.007285859901458025
0.6140761971473694 0.4602983593940735 -0.014249359257519245
0.634648323059082 0.45868945121765137 -0.016827203333377838
0.6564875841140747 0.46198028326034546 -0.014371093362569809
0.6711111664772034 0.4677497148513794 -0.008963551372289658
0.8124696016311646 0.44421207904815674 0.14537134766578674
0.6672995686531067 0.48596301674842834 -0.005007331725209951
0.5628294944763184 0.6799906492233276 -0.055647432804107666
0.5356952548027039 0.6254547238349915 -0.07800227403640747
0.5137361884117126 0.6686704158782959 -0.06807442009449005
0.6705353260040283 0.829856276512146 0.03782209753990173
0.6351045370101929 0.8557531237602234 0.022149089723825455
0.5477379560470581 0.8993250131607056 -0.010641276836395264
0.750541090965271 0.7883150577545166 0.12920254468917847
0.5788222551345825 0.47554755210876465 -8.887946023605764e-06
0.5251376628875732 0.5319919586181641 -0.06679896265268326
0.5952621102333069 0.9017344117164612 0.026498904451727867
0.791513204574585 0.6625402569770813 0.10887619107961655
0.5333694219589233 0.7590905427932739 -0.045031141489744186
0.5375431776046753 0.7665974497795105 -0.048874784260988235
0.5426332950592041 0.7785788178443909 -0.051675956696271896
0.5475486516952515 0.7928224802017212 -0.04698522388935089
0.5596955418586731 0.8117110133171082 -0.02732345461845398
0.567460834980011 0.7389283776283264 -0.03659128025174141
0.5749070048332214 0.7368184924125671 -0.038099370896816254
0.5824734568595886 0.7329638600349426 -0.039332009851932526
0.6079304218292236 0.7169725298881531 -0.037019725888967514
0.7161974310874939 0.6614668369293213 -0.0024431885685771704
0.5300000905990601 0.5086120963096619 -0.044488575309515
0.5506958961486816 0.46275395154953003 -0.006076787132769823
0.5671156644821167 0.4668293595314026 -0.0013406499056145549
0.5631354451179504 0.7356299757957458 -0.033698029816150665
0.7229982614517212 0.7241225838661194 0.03193162754178047
0.525343120098114 0.46032148599624634 -0.0314340703189373
0.5758245587348938 0.832085371017456 -0.014606278389692307
0.5056648254394531 0.5183344483375549 -0.07843119651079178
0.5401063561439514 0.570488691329956 -0.0706905648112297
0.533875048160553 0.8476823568344116 -0.019253119826316833
0.6320350170135498 0.7804504632949829 -0.00782537367194891
0.5920798182487488 0.6396053433418274 -0.036050692200660706
0.6078168749809265 0.8098189234733582 -0.01011110283434391
0.6543601155281067 0.637367308139801 -0.035319507122039795
0.6165503859519958 0.6649740934371948 -0.03657982125878334
0.6762790679931641 0.6790554523468018 -0.022144995629787445
0.5422512888908386 0.8748282194137573 -0.02111371047794819
0.5564605593681335 0.5855752229690552 -0.057144034653902054
0.6575723886489868 0.8007597923278809 0.011746423318982124
0.6244595050811768 0.830001711845398 0.005311564076691866
0.6494444012641907 0.7467746734619141 -0.01231791265308857
0.7517076730728149 0.6928097009658813 0.04797792434692383
0.6865607500076294 0.7524556517601013 0.006893739104270935
0.7749178409576416 0.7144571542739868 0.099949911236763
0.6368877291679382 0.6985717415809631 -0.030528251081705093
0.542841374874115 0.5493429899215698 -0.0543234758079052
0.5275450348854065 0.6157983541488647 -0.10690390318632126
0.5456429719924927 0.6241693496704102 -0.08316045254468918
0.5155997276306152 0.5982261896133423 -0.12100183963775635
0.5695425271987915 0.439181923866272 -0.016507698222994804
0.6087689399719238 0.4229211211204529 -0.02592683769762516
0.6438795328140259 0.4194020628929138 -0.029842335730791092
0.6746281981468201 0.42422524094581604 -0.025770390406250954
0.6977037191390991 0.4366878271102905 -0.014780641533434391
0.7169902920722961 0.48421910405158997 0.016970904543995857
0.8041976690292358 0.553689181804657 0.10738452523946762
0.6956229209899902 0.5190898180007935 -1.3226815099187661e-05
0.6681226491928101 0.5260260701179504 -0.009621324017643929
0.6337473392486572 0.5254263877868652 -0.0139418700709939
0.6019871830940247 0.5196397304534912 -0.01328946277499199
0.5778562426567078 0.5110231041908264 -0.008462094701826572
0.5609280467033386 0.5025556087493896 -0.007394886575639248
0.8190851211547852 0.5577839612960815 0.1963091641664505
0.5462276339530945 0.6317291855812073 -0.07116689532995224
0.5204452276229858 0.5527786612510681 -0.08659391850233078
0.5080582499504089 0.615397572517395 -0.12182684242725372
0.4973628520965576 0.6280838251113892 -0.10994257777929306
0.5098005533218384 0.6200186014175415 -0.11054643243551254
0.5407766103744507 0.6400672197341919 -0.061390578746795654
0.49242329597473145 0.6299329400062561 -0.11560016125440598
0.4928206205368042 0.6361192464828491 -0.08743394911289215
0.5627802014350891 0.48263996839523315 0.003917256370186806
0.547397792339325 0.4886610805988312 -0.007416506763547659
0.5368053317070007 0.49229514598846436 -0.02174096554517746
0.6802300214767456 0.47198736667633057 -0.00209426530636847
0.6954573392868042 0.46047699451446533 -0.002938848687335849
