ply
format ascii 1.0
element vertex 468
property float x
property float y
property float z
end_header
0.5148956179618835 0.7051540613174438 -0.05484212562441826
0.5225865840911865 0.6377261281013489 -0.1342172622680664
0.516903817653656 0.6573323011398315 -0.06868881732225418
0.4975889325141907 0.5502750873565674 -0.10850832611322403
0.5228323936462402 0.6116842031478882 -0.14409871399402618
0.5209140181541443 0.5759997367858887 -0.13676787912845612
0.5145182013511658 0.49131858348846436 -0.07768389582633972
0.33736151456832886 0.48439836502075195 0.011534730903804302
0.5127318501472473 0.4439620077610016 -0.06415577977895737
0.5129628777503967 0.4132179617881775 -0.07102558761835098
0.510056734085083 0.2826642394065857 -0.05309578403830528
0.5141645669937134 0.7151798009872437 -0.050088658928871155
0.5132951736450195 0.7196353673934937 -0.04239759221673012
0.5122560262680054 0.7179039716720581 -0.0319959856569767
0.5119284391403198 0.7191507816314697 -0.03261234611272812
0.5122425556182861 0.724475085735321 -0.03763234615325928
0.5121102929115295 0.7325170040130615 -0.04584075137972832
0.5118640065193176 0.7447783946990967 -0.047690313309431076
0.5109642744064331 0.7788412570953369 -0.031922563910484314
0.5210788249969482 0.6503549814224243 -0.12054251879453659
0.4918786287307739 0.6455321311950684 -0.08762849867343903
0.23600925505161285 0.3960399627685547 0.10934319347143173
0.40906786918640137 0.5012924075126648 -0.0062994277104735374
0.38497069478034973 0.503160834312439 -0.006604526657611132
0.3607926666736603 0.5027028918266296 -0.0022760354913771152
0.32566460967063904 0.4932538866996765 0.014827820472419262
0.42849260568618774 0.4962751865386963 -0.0029250048100948334
0.3757949769496918 0.45824044942855835 -0.022264350205659866
0.39966869354248047 0.45769333839416504 -0.01879138872027397
0.35275548696517944 0.4614830017089844 -0.01648680493235588
0.33652395009994507 0.46748167276382446 -0.006784890778362751
0.30407530069351196 0.5072789788246155 0.026996606960892677
0.415100634098053 0.8358922004699707 0.0019538451451808214
0.32725685834884644 0.48110324144363403 0.017839103937149048
0.22189629077911377 0.5022151470184326 0.12966880202293396
0.2741043269634247 0.49657177925109863 0.04785393550992012
0.38154900074005127 0.598927915096283 -0.025083063170313835
0.4766465723514557 0.7001399397850037 -0.055622924119234085
0.4769797921180725 0.7174356579780579 -0.0405755490064621
0.4357212781906128 0.7000360488891602 -0.04145674407482147
0.40728023648262024 0.7012643814086914 -0.019671473652124405
0.44601860642433167 0.7138262987136841 -0.030039766803383827
0.42092955112457275 0.710649311542511 -0.01078874059021473
0.37954527139663696 0.7302478551864624 0.018638916313648224
0.5001837611198425 0.6369915008544922 -0.1329999715089798
0.4982275366783142 0.610953688621521 -0.14257265627384186
0.29629942774772644 0.4469169080257416 -0.008729752153158188
0.43749743700027466 0.5416195392608643 -0.02947426587343216
0.43009644746780396 0.6181654334068298 -0.07547410577535629
0.4289712607860565 0.6034515500068665 -0.06827063858509064
0.30193716287612915 0.5919414758682251 0.0014012943720445037
0.49822908639907837 0.5781291127204895 -0.13083839416503906
0.3603607416152954 0.42463141679763794 -0.04844890534877777
0.3234187960624695 0.4322538375854492 -0.032502513378858566
0.26436254382133484 0.35287249088287354 0.05994017422199249
0.4666855037212372 0.4405405521392822 -0.06008831784129143
0.4212450385093689 0.46136486530303955 -0.008791076950728893
0.35405874252319336 0.7070155143737793 0.022576557472348213
0.22939348220825195 0.7385363578796387 0.21337401866912842
0.4470241069793701 0.6326623558998108 -0.06344716995954514
0.469556599855423 0.6418197154998779 -0.06450333446264267
0.37455302476882935 0.7017794251441956 0.025987431406974792
0.3850952684879303 0.7027535438537598 0.02130427211523056
0.30850040912628174 0.4156408905982971 -0.02189832180738449
0.42542800307273865 0.6250134110450745 -0.06069827452301979
0.40821242332458496 0.4257327914237976 -0.05775491148233414
0.4031459391117096 0.4045984745025635 -0.06476063281297684
0.3692357540130615 0.2949593663215637 -0.029936157166957855
0.28773656487464905 0.38220494985580444 0.014151409268379211
0.38902926445007324 0.34568583965301514 -0.04768926650285721
0.2794054448604584 0.4351117014884949 0.010285797528922558
0.2581733465194702 0.41635680198669434 0.05812019109725952
0.4764709174633026 0.7121594548225403 -0.05021800473332405
0.44217464327812195 0.7095946073532104 -0.03591949865221977
0.41492992639541626 0.7065301537513733 -0.01690099574625492
0.45242956280708313 0.6361243724822998 -0.05835673585534096
0.3796864449977875 0.7015741467475891 0.02362741343677044
0.39781486988067627 0.7095595598220825 0.007742803078144789
0.3883577883243561 0.704367995262146 0.020392924547195435
0.4667885899543762 0.6325654983520508 -0.09931903332471848
0.42374858260154724 0.7075913548469543 -0.006460833363234997
0.4491861164569855 0.7117146253585815 -0.019965874031186104
0.47860151529312134 0.7160415053367615 -0.03005080483853817
0.47519925236701965 0.7782152891159058 -0.030792653560638428
0.47851496934890747 0.7431111335754395 -0.04604624584317207
0.47954443097114563 0.7299706935882568 -0.04504036158323288
0.4797905683517456 0.7226144075393677 -0.03580993413925171
0.48071980476379395 0.7180798053741455 -0.03088102675974369
0.4252704083919525 0.7119720578193665 -0.006997496820986271
0.42269793152809143 0.7128599286079407 -0.011734923347830772
0.41943618655204773 0.7168756127357483 -0.01587228663265705
0.4164915084838867 0.7245200872421265 -0.011886145919561386
0.38884302973747253 0.6802754402160645 -0.01695091277360916
0.20887798070907593 0.6150869131088257 0.23771867156028748
0.5191847085952759 0.6537806391716003 -0.08697409927845001
0.40808603167533875 0.7096327543258667 0.009634115733206272
0.40306779742240906 0.7078781127929688 0.007002984173595905
0.47957029938697815 0.6534386873245239 -0.06434772908687592
0.4317842125892639 0.6376580595970154 -0.04057471826672554
0.474730908870697 0.6480291485786438 -0.06528131663799286
0.41039007902145386 0.553385317325592 -0.02184390462934971
0.3676958680152893 0.5665275454521179 -0.017485331743955612
0.4219319522380829 0.6115255951881409 -0.05340621992945671
0.3067172169685364 0.3183320164680481 0.01096334308385849
0.32968634366989136 0.3578055500984192 -0.01964574307203293
0.3510251045227051 0.40395456552505493 -0.04513076692819595
0.40591901540756226 0.7503911852836609 0.00230705039575696
0.4588855803012848 0.40829920768737793 -0.07239209860563278
0.44716206192970276 0.3420338034629822 -0.061433229595422745
0.43454861640930176 0.2840520739555359 -0.051013730466365814
0.33868175745010376 0.49977603554725647 0.006485430523753166
0.2751227021217346 0.523229718208313 0.040761109441518784
0.44008973240852356 0.490918904542923 0.0007104563410393894
0.30591732263565063 0.4725153148174286 0.011350730434060097
0.45621639490127563 0.5276180505752563 -0.03921031579375267
0.45091113448143005 0.6150710582733154 -0.1000458300113678
0.24500195682048798 0.5417822003364563 0.0672561302781105
0.2942371964454651 0.5359078049659729 0.021471774205565453
0.32775503396987915 0.5425692200660706 0.002365542110055685
0.3759084939956665 0.5411157608032227 -0.007144168950617313
0.4114772081375122 0.5333763360977173 -0.010375775396823883
0.437165230512619 0.5236783027648926 -0.016605744138360023
0.49088889360427856 0.497694730758667 -0.06872723251581192
0.24233891069889069 0.5893880128860474 0.06519067287445068
0.2836203873157501 0.4696810841560364 0.020241402089595795
0.5070937275886536 0.6490498185157776 -0.12000907212495804
0.43808120489120483 0.5660315752029419 -0.037739116698503494
0.20980623364448547 0.5015745759010315 0.20840850472450256
0.456245481967926 0.511995792388916 -0.02040097676217556
0.41762983798980713 0.6108949780464172 -0.02699926309287548
0.31885725259780884 0.48386260867118835 0.021692264825105667
0.4495047330856323 0.5965465307235718 -0.0915040373802185
0.2138674259185791 0.676338255405426 0.23137728869915009
0.43778297305107117 0.48324206471443176 0.006196212023496628
0.4745342433452606 0.5854772925376892 -0.11631304770708084
0.28995561599731445 0.7855177521705627 0.09407826513051987
0.2927558422088623 0.8217064738273621 0.13646817207336426
0.21437352895736694 0.6057307124137878 0.15163449943065643
0.2529556155204773 0.7557082772254944 0.11951039731502533
0.23937170207500458 0.45470964908599854 0.10013197362422943
0.41025346517562866 0.8675106763839722 0.0157536119222641
0.5077664256095886 0.6525454521179199 -0.08574843406677246
0.41332530975341797 0.5810573101043701 -0.028557369485497475
0.25056323409080505 0.5018985271453857 0.07127164304256439
0.36391952633857727 0.48827770352363586 -0.0003069281519856304
0.38553959131240845 0.4892914891242981 -0.004858110100030899
0.3928695023059845 0.7136781215667725 0.011668198741972446
0.23826326429843903 0.6409280896186829 0.07834421098232269
0.45842185616493225 0.9017536044120789 0.023078082129359245
0.37675195932388306 0.8746583461761475 0.0725950375199318
0.3384507894515991 0.8532257080078125 0.10184929519891739
0.5116954445838928 0.34366628527641296 -0.06273679435253143
0.5099670886993408 0.903769850730896 0.019105155020952225
0.40517279505729675 0.4879535436630249 -0.004594496451318264
0.42306777834892273 0.485044002532959 -0.0002690853434614837
0.4332965314388275 0.4840003252029419 0.005123951472342014
0.2632843852043152 0.4642193913459778 0.04327244684100151
0.4169706404209137 0.4706992208957672 -0.0046645537950098515
0.3966854512691498 0.4670029878616333 -0.011377074755728245
0.37725916504859924 0.46656399965286255 -0.012052969075739384
0.3566504120826721 0.47002941370010376 -0.007674442604184151
0.3428382873535156 0.4750989079475403 -9.756860526977107e-05
0.21911582350730896 0.442203551530838 0.1635371744632721
0.3485812246799469 0.48642557859420776 0.005789694841951132
0.5158714652061462 0.6724908947944641 -0.05939985811710358
0.4175190329551697 0.67010098695755 -0.03603581339120865
0.44824397563934326 0.6314089298248291 -0.07364650815725327
0.4757128059864044 0.6708988547325134 -0.05975749343633652
0.5125977396965027 0.4657254219055176 -0.061151713132858276
0.33240118622779846 0.8175586462020874 0.07241464406251907
0.37031999230384827 0.8437256217002869 0.045919302850961685
0.45797374844551086 0.880776584148407 -0.008724388666450977
0.25750619173049927 0.7866331934928894 0.17699752748012543
0.43122223019599915 0.4777511656284332 0.0015851345378905535
0.47555696964263916 0.537041425704956 -0.07243319600820541
0.5115089416503906 0.8820168972015381 -0.01166038028895855
0.4154989719390869 0.8916536569595337 0.042078662663698196
0.21705561876296997 0.6616560816764832 0.1524113118648529
0.4511948227882385 0.7151670455932617 -0.020387690514326096
0.44878941774368286 0.7182823419570923 -0.025852471590042114
0.44753679633140564 0.7243387699127197 -0.03170771896839142
0.44600215554237366 0.7359772324562073 -0.029812395572662354
0.4372851550579071 0.7670124769210815 -0.016599679365754128
0.3976001739501953 0.706270694732666 0.006325981579720974
0.39141833782196045 0.7042096853256226 0.005670097656548023
0.3846912980079651 0.7007328271865845 0.004658955615013838
0.36334189772605896 0.6912615895271301 0.004019837826490402
0.27067941427230835 0.6489152312278748 0.03157033771276474
0.4744148552417755 0.5115030407905579 -0.051995694637298584
0.45954689383506775 0.4693613350391388 -0.010160636156797409
0.4426232576370239 0.47293007373809814 -0.0022264132276177406
0.4026834964752197 0.7041252851486206 0.008654145523905754
0.2629319429397583 0.7123706340789795 0.07325918972492218
0.48178455233573914 0.4694123864173889 -0.04394364729523659
0.42565804719924927 0.8015178442001343 -0.007278354838490486
0.5186406970024109 0.5466991066932678 -0.11574877798557281
0.49415600299835205 0.5250207185745239 -0.09088736772537231
0.5165954232215881 0.5198217630386353 -0.09564880281686783
0.45662370324134827 0.5744510293006897 -0.06964383274316788
0.5119346976280212 0.8512169718742371 -0.027692023664712906
0.511401891708374 0.8127519488334656 -0.03046374022960663
0.46866920590400696 0.8134344816207886 -0.02634473145008087
0.3608260750770569 0.7505403757095337 0.02820451185107231
0.39595311880111694 0.6290774941444397 -0.020821588113904
0.3918522298336029 0.780190110206604 0.012453923933207989
0.3340607285499573 0.6256470680236816 -0.015571054071187973
0.3679606318473816 0.6519961357116699 -0.012825851328670979
0.3050529360771179 0.6641186475753784 0.009251588955521584
0.4613281190395355 0.8510208129882812 -0.023286083713173866
0.43801626563072205 0.5850624442100525 -0.05127087980508804
0.34090834856033325 0.7797338366508484 0.04699142277240753
0.3785061836242676 0.8101126551628113 0.028254223987460136
0.33435675501823425 0.719054102897644 0.027994489297270775
0.24007415771484375 0.6855463981628418 0.09105265885591507
0.3006805181503296 0.7326472997665405 0.04767754301428795
0.22740378975868225 0.7124207615852356 0.14656610786914825
0.3400225043296814 0.6773084998130798 0.002536649815738201
0.45750871300697327 0.5515760183334351 -0.0536404550075531
0.4589967429637909 0.628057062625885 -0.10491166263818741
0.437516450881958 0.6279004812240601 -0.07721694558858871
0.4739285111427307 0.6132179498672485 -0.12356540560722351
0.4422842562198639 0.45574280619621277 -0.020205331966280937
0.40447765588760376 0.44738972187042236 -0.03002633899450302
0.3708922863006592 0.44589483737945557 -0.03249047324061394
0.34157460927963257 0.44910138845443726 -0.02482796274125576
0.31923484802246094 0.45766812562942505 -0.010243076831102371
0.2994464933872223 0.4901217222213745 0.030780168250203133
0.2154330313205719 0.5532590746879578 0.141745463013649
0.31961166858673096 0.5153279304504395 0.01679118536412716
0.3466057777404785 0.5206998586654663 0.004317299462854862
0.38004055619239807 0.5208962559700012 -0.0035255393013358116
0.4109708070755005 0.5164856314659119 -0.005173202604055405
0.4342646896839142 0.5094076991081238 -0.00586555153131485
0.4499717652797699 0.5023117661476135 -0.006868327036499977
0.209018737077713 0.5578193664550781 0.23117157816886902
0.4357014000415802 0.6309934854507446 -0.06432806700468063
0.4771434962749481 0.5604339838027954 -0.09064020216464996
0.4803159534931183 0.6326048970222473 -0.12275971472263336
0.4922841787338257 0.6437750458717346 -0.11065784841775894
0.4784815013408661 0.6356319189071655 -0.11043249070644379
0.44103774428367615 0.636661946773529 -0.05480485036969185
0.4980943202972412 0.6468163132667542 -0.11683919280767441
0.49849167466163635 0.650018036365509 -0.08674000203609467
0.44714006781578064 0.48515790700912476 0.003515072399750352
0.46218734979629517 0.49046289920806885 -0.010400649160146713
0.47063809633255005 0.49477773904800415 -0.028775161132216454
0.3342024087905884 0.4788307547569275 0.007364118006080389
0.32196855545043945 0.474118709564209 0.007169034797698259
0.538331925868988 0.5502888560295105 -0.10472723096609116
0.6703326106071472 0.4845266044139862 0.03841514512896538
0.5446897149085999 0.6452621221542358 -0.08481069654226303
0.7501204609870911 0.39742040634155273 0.15095287561416626
0.603039026260376 0.5019872188568115 0.011037703603506088
0.62652587890625 0.5035512447357178 0.014174205251038074
0.6494523286819458 0.5027859210968018 0.021747928112745285
0.6799391508102417 0.4932958483695984 0.043291687965393066
0.5840566754341125 0.4968111515045166 0.01055148709565401
0.6376497745513916 0.459214985370636 -0.0005706158117391169
0.6141226291656494 0.45841285586357117 -0.0017343906220048666
0.6590951681137085 0.46290716528892517 0.008744372986257076
0.6732039451599121 0.46890437602996826 0.020311761647462845
0.7000465989112854 0.5069753527641296 0.05778849869966507
0.6021310687065125 0.8334119319915771 0.015398767776787281
0.6789418458938599 0.48145580291748047 0.046091627329587936
0.7636111974716187 0.500831127166748 0.17186544835567474
0.7256497144699097 0.4960406720638275 0.08242953568696976
0.6370485424995422 0.5983461141586304 -0.0070981960743665695
0.5514762997627258 0.6999366283416748 -0.05067196860909462
0.5475014448165894 0.7170138955116272 -0.03582942113280296
0.5877512097358704 0.6994951963424683 -0.03125760331749916
0.6110264658927917 0.7005650401115417 -0.005866349674761295
0.5750259757041931 0.7131713628768921 -0.02126568742096424
0.5962933301925659 0.7098935842514038 0.001157931867055595
0.6318665742874146 0.7292101979255676 0.03677137941122055
0.543751060962677 0.6367011070251465 -0.1306755393743515
0.5457442998886108 0.6108886003494263 -0.1398368924856186
0.711176872253418 0.4476756751537323 0.023920902982354164
0.5822003483772278 0.5417943000793457 -0.018089070916175842
0.6003412008285522 0.6178034543991089 -0.06458647549152374
0.599312424659729 0.6032223105430603 -0.05748353153467178
0.7078636884689331 0.5903437733650208 0.03134206682443619
0.5423032641410828 0.5780970454216003 -0.1270437240600586
0.6563670635223389 0.4257124662399292 -0.025656530633568764
0.6891363263130188 0.4332587718963623 -0.003942711744457483
0.7299562096595764 0.3550521433353424 0.09703566879034042
0.5565266013145447 0.4409206211566925 -0.05245675519108772
0.5925057530403137 0.461936354637146 0.005049925297498703
0.6560872793197632 0.7057008743286133 0.044247403740882874
0.7478040456771851 0.7324808835983276 0.2529790699481964
0.5834556818008423 0.632230818271637 -0.055582527071237564
0.5620744228363037 0.6416200399398804 -0.060277268290519714
0.6361252069473267 0.701164960861206 0.04481757804751396
0.6257545948028564 0.7020679712295532 0.037764668464660645
0.701878547668457 0.41680505871772766 0.008484786376357079
0.6022584438323975 0.6245373487472534 -0.0501675009727478
0.6122325658798218 0.426649808883667 -0.04212478920817375
0.6177424192428589 0.4055519700050354 -0.048784296959638596
0.6422237753868103 0.2971600592136383 -0.008914929814636707
0.715260922908783 0.3837970495223999 0.046979259699583054
0.6280572414398193 0.3471297323703766 -0.02956703118979931
0.7245936393737793 0.4359523355960846 0.04500477761030197
0.73769211769104 0.41732364892959595 0.09565677493810654
0.5501675009727478 0.7118719220161438 -0.04520292580127716
0.5802991986274719 0.7089608907699585 -0.026438524946570396
0.603265106678009 0.7058644890785217 -0.004110132809728384
0.5776492357254028 0.6357797980308533 -0.05175796523690224
0.631094217300415 0.7009896636009216 0.04118483513593674
0.6151944398880005 0.709017276763916 0.022343972697854042
0.6220631003379822 0.7036533951759338 0.036683257669210434
0.5697702765464783 0.6319402456283569 -0.0919933170080185
0.5918499827384949 0.7068057656288147 0.0047763981856405735
0.5700374841690063 0.7110919952392578 -0.011464941315352917
0.5439439415931702 0.7155512571334839 -0.025317449122667313
0.5455588698387146 0.7777503132820129 -0.026113133877515793
0.5436586737632751 0.7430826425552368 -0.041193701326847076
0.5432964563369751 0.7299857139587402 -0.03989638388156891
0.5429667830467224 0.7226436138153076 -0.030728109180927277
0.5415235757827759 0.7179897427558899 -0.02594948559999466
0.5907414555549622 0.7112507820129395 0.004334316588938236
0.5934760570526123 0.7121413946151733 -0.0005146304611116648
0.5966729521751404 0.7164400815963745 -0.0041526989080011845
0.5995424389839172 0.7242186665534973 0.0008084397995844483
0.630077600479126 0.6790119409561157 -0.001356157474219799
0.7633745670318604 0.6114809513092041 0.28126025199890137
0.6051229238510132 0.7087815999984741 0.02362712472677231
0.6102178692817688 0.7072694301605225 0.021157799288630486
0.5525960326194763 0.6532658934593201 -0.0602131113409996
0.5941699743270874 0.6372882723808289 -0.032158128917217255
0.5572287440299988 0.6478275060653687 -0.0613265186548233
0.6075484156608582 0.5533468127250671 -0.006513205356895924
0.6481549739837646 0.5661180019378662 0.00361639610491693
0.604072630405426 0.6112221479415894 -0.04196387529373169
0.6959806680679321 0.32075396180152893 0.04095598682761192
0.6803457736968994 0.3596876859664917 0.00686044292524457
0.6650328636169434 0.4049825966358185 -0.02120855264365673
0.6086171865463257 0.7491385340690613 0.01706668548285961
0.5653223991394043 0.4088502526283264 -0.06419090181589127
0.5741615295410156 0.3428948223590851 -0.052018068730831146
0.5826700329780579 0.2854759991168976 -0.040403369814157486
0.6690350770950317 0.4996821880340576 0.033224985003471375
0.7263473868370056 0.5225021243095398 0.07498916238546371
0.5728864669799805 0.49145615100860596 0.012705904431641102
0.6996181011199951 0.47302159667015076 0.04265369102358818
0.5653677582740784 0.5278143882751465 -0.030173810198903084
0.5842223167419434 0.614713728427887 -0.09146452695131302
0.7512871026992798 0.5402761101722717 0.10601452738046646
0.7113199830055237 0.5353497862815857 0.0537462942302227
0.6826249957084656 0.542253851890564 0.029875602573156357
0.6381027698516846 0.5410807728767395 0.013861286453902721
0.6041294932365417 0.5335474014282227 0.005360029637813568
0.5795819759368896 0.5239090323448181 -0.004841891583055258
0.5361733436584473 0.497689425945282 -0.0647936761379242
0.7553922533988953 0.5868990421295166 0.10407428443431854
0.7193223237991333 0.46977972984313965 0.0544288344681263
0.5343702435493469 0.6487539410591125 -0.11800581961870193
0.5847727656364441 0.5661615133285522 -0.026765907183289528
0.7643003463745117 0.5002954602241516 0.25344181060791016
0.5621533989906311 0.5122109651565552 -0.011313457041978836
0.6051205396652222 0.6105895042419434 -0.015532267279922962
0.6861547231674194 0.48429203033447266 0.051517993211746216
0.5828174948692322 0.5965253114700317 -0.08261427283287048
0.7598176002502441 0.6715694665908813 0.27331310510635376
0.5741955637931824 0.48347538709640503 0.018765386193990707
0.5623883008956909 0.5854768753051758 -0.1097802147269249
0.7086524963378906 0.7798318862915039 0.12362799793481827
0.6997782588005066 0.8151447176933289 0.16649837791919708
0.7709006071090698 0.6024682521820068 0.19380681216716766
0.7395035028457642 0.7494765520095825 0.1542503982782364
0.7507005929946899 0.4546225070953369 0.14053907990455627
0.6060330271720886 0.8642073273658752 0.03034324385225773
0.5301864147186279 0.6523551940917969 -0.08461358398199081
0.6070393919944763 0.5809606313705444 -0.014850872568786144
0.7446846961975098 0.5010210275650024 0.10925513505935669
0.6466123461723328 0.4887505769729614 0.023296868428587914
0.6261416673660278 0.48993656039237976 0.01623096503317356
0.6198074817657471 0.713215708732605 0.027439851313829422
0.7583508491516113 0.6373235583305359 0.11611908674240112
0.5598118901252747 0.9001152515411377 0.03121895343065262
0.6309094429016113 0.8699359893798828 0.09235459566116333
0.6625405550003052 0.8474268317222595 0.12652701139450073
0.6067065000534058 0.48864924907684326 0.013230999931693077
0.5887818336486816 0.4856564998626709 0.014978237450122833
0.5785652995109558 0.4843566417694092 0.018610838800668716
0.7353518009185791 0.46415823698043823 0.0800493061542511
0.5946096181869507 0.47094613313674927 0.010777761228382587
0.6145580410957336 0.46734505891799927 0.006586491595953703
0.6337637901306152 0.467009961605072 0.009013155475258827
0.6532917022705078 0.47049033641815186 0.016431037336587906
0.6657689213752747 0.4755837023258209 0.02560407668352127
0.7605311870574951 0.4424782693386078 0.20756830275058746
0.6605998277664185 0.48660993576049805 0.03152338042855263
0.6059265732765198 0.6692407131195068 -0.024120481684803963
0.5840153694152832 0.6307985782623291 -0.06601415574550629
0.5541048645973206 0.6706308126449585 -0.05463524907827377
0.6721161007881165 0.8126111030578613 0.09661687910556793
0.6396241784095764 0.8393698930740356 0.06496632844209671
0.5629748702049255 0.8792667388916016 -0.0009392250212840736
0.7268182635307312 0.7800062298774719 0.2127215564250946
0.580697774887085 0.47787928581237793 0.015180366113781929
0.5533273220062256 0.5370698571205139 -0.06630410254001617
0.5985590219497681 0.8882266283035278 0.05662107095122337
0.7683068513870239 0.6571791768074036 0.19336429238319397
0.5683302283287048 0.7146527767181396 -0.01216467097401619
0.5709840655326843 0.7179123163223267 -0.0172545425593853
0.5724843144416809 0.7241964340209961 -0.02260272204875946
0.5736085176467896 0.7358652949333191 -0.020294392481446266
0.5806025266647339 0.7661208510398865 -0.005828493274748325
0.6155803203582764 0.705559253692627 0.020961642265319824
0.6222178936004639 0.703414261341095 0.022035693749785423
0.6289358139038086 0.7001845240592957 0.02157256379723549
0.6506289839744568 0.6898049116134644 0.023814305663108826
0.733687698841095 0.6456453800201416 0.06399927288293839
0.549957275390625 0.5117202401161194 -0.04542306065559387
0.5569452047348022 0.46955716609954834 -0.00237653823569417
0.5710093975067139 0.47318220138549805 0.00912152323871851
0.6096967458724976 0.703433096408844 0.022914277389645576
0.7364374399185181 0.7074429392814636 0.10619201511144638
0.5401743650436401 0.4695016145706177 -0.039526455104351044
0.5912362337112427 0.7997108697891235 0.004623584449291229
0.5376542210578918 0.5249829888343811 -0.08747509866952896
0.5721720457077026 0.5744048357009888 -0.06170067936182022
0.5524152517318726 0.812511146068573 -0.020558873191475868
0.6491790413856506 0.7483609318733215 0.04889707267284393
0.6241316795349121 0.6284860372543335 -0.006072666496038437
0.6210855841636658 0.778138279914856 0.028937168419361115
0.6805610656738281 0.6238750219345093 0.00792771764099598
0.6491544246673584 0.650648832321167 0.006020213942974806
0.7047502994537354 0.6610116362571716 0.0361751988530159
0.5604905486106873 0.8497440814971924 -0.015756690874695778
0.5872828960418701 0.585078239440918 -0.04120512679219246
0.6667706370353699 0.775993824005127 0.07028678059577942
0.6334654688835144 0.8069762587547302 0.04615950211882591
0.6744589805603027 0.7165907025337219 0.05291609466075897
0.755174994468689 0.6808472275733948 0.12730255722999573
0.7037819623947144 0.7285342216491699 0.07588274776935577
0.7596741914749146 0.7070708870887756 0.18568436801433563
0.6725424528121948 0.6751393675804138 0.025239553302526474
0.5679996013641357 0.5516976714134216 -0.04499007388949394
0.5775856375694275 0.6274635195732117 -0.09695734828710556
0.5941779017448425 0.6273365020751953 -0.06809286773204803
0.566403865814209 0.6129491329193115 -0.11714041978120804
0.5747488737106323 0.4560396075248718 -0.009479714557528496
0.6121789216995239 0.4480632543563843 -0.013562822714447975
0.6444891095161438 0.447211891412735 -0.010809952393174171
0.6714024543762207 0.4506123661994934 0.0014588760677725077
0.6900292634963989 0.45889127254486084 0.01905638538300991
0.7034739255905151 0.4900944232940674 0.062367238104343414
0.7695735692977905 0.5510331988334656 0.18528735637664795
0.6868338584899902 0.515220582485199 0.045599035918712616
0.6633697152137756 0.5205472707748413 0.029336581006646156
0.6321258544921875 0.5212033987045288 0.01712496392428875
0.6024175882339478 0.5168107748031616 0.011088469997048378
0.58002769947052 0.5098401308059692 0.0063216835260391235
0.5652465224266052 0.502610445022583 0.0031262128613889217
0.7629052400588989 0.5555347800254822 0.276002436876297
0.5935384035110474 0.630535900592804 -0.05547916144132614
0.5558444857597351 0.56048184633255 -0.08424665033817291
0.5610103011131287 0.6319863796234131 -0.1177355945110321
0.5464677214622498 0.6433226466178894 -0.10785382986068726
0.5603193640708923 0.6350138187408447 -0.10524575412273407
0.5870431661605835 0.6363241076469421 -0.04721455276012421
0.5423182249069214 0.646452009677887 -0.1144866868853569
0.5388228893280029 0.6497674584388733 -0.08471785485744476
0.5662057399749756 0.4854048192501068 0.013644162565469742
0.5540966391563416 0.490680992603302 -0.0027074774261564016
0.5490912795066833 0.49505287408828735 -0.02218792960047722
0.6732909083366394 0.47920045256614685 0.03457290306687355
0.6849864721298218 0.4748700261116028 0.03564595431089401
