ply
format ascii 1.0
element vertex 468
property float x
property float y
property float z
end_header
0.452780544757843 0.6937389969825745 -0.08881683647632599
0.43245354294776917 0.6005242466926575 -0.12908516824245453
0.4540252089500427 0.6352775692939758 -0.07626213878393173
0.43144291639328003 0.5245034694671631 -0.07377129048109055
0.43136247992515564 0.5734747052192688 -0.13304845988750458
0.43908342719078064 0.5427610874176025 -0.11817435175180435
0.4649817943572998 0.47264963388442993 -0.0411895327270031
0.3467877507209778 0.49052098393440247 0.1254177838563919
0.47239217162132263 0.4255527853965759 -0.016118571162223816
0.47142720222473145 0.3940086364746094 -0.013978649862110615
0.48396652936935425 0.2676942050457001 0.03803732991218567
0.45412003993988037 0.7074793577194214 -0.088162861764431
0.45784056186676025 0.7196395397186279 -0.0824085995554924
0.4628515839576721 0.7262663245201111 -0.07298211753368378
0.46395641565322876 0.7504473924636841 -0.06691563874483109
0.46177369356155396 0.7617045640945435 -0.07222795486450195
0.4609512686729431 0.7765779495239258 -0.07816588133573532
0.4625663757324219 0.793523907661438 -0.07503090798854828
0.4697825312614441 0.8212519884109497 -0.053701166063547134
0.43897855281829834 0.6169931888580322 -0.11924157291650772
0.429720938205719 0.6203222870826721 -0.08085241168737411
0.3156440556049347 0.4230215847492218 0.29284191131591797
0.4021948277950287 0.5059273838996887 0.07384758442640305
0.3815169930458069 0.5096843838691711 0.08377159386873245
0.36265403032302856 0.5103943943977356 0.09817546606063843
0.3423334062099457 0.501652181148529 0.13054096698760986
0.4192163944244385 0.49750906229019165 0.06613411009311676
0.37290236353874207 0.44798243045806885 0.08371052145957947
0.3950316309928894 0.4474995732307434 0.07249077409505844
0.3535485863685608 0.45350706577301025 0.09926994889974594
0.34237906336784363 0.46325474977493286 0.11366362124681473
0.3285031020641327 0.5212739706039429 0.14473167061805725
0.39879781007766724 0.8610143661499023 -0.00420473562553525
0.34225228428840637 0.48678821325302124 0.13701912760734558
0.3080720007419586 0.5273764133453369 0.28197982907295227
0.31589508056640625 0.5114246606826782 0.18144947290420532
0.3702549934387207 0.6054444313049316 0.03129845857620239
0.42754918336868286 0.691298246383667 -0.0724663957953453
0.4376232922077179 0.7210511565208435 -0.06715963780879974
0.406181275844574 0.7033565640449524 -0.04690026119351387
0.39680081605911255 0.7199159860610962 -0.021093221381306648
0.42316246032714844 0.7252997756004333 -0.04698405787348747
0.41405725479125977 0.7325953245162964 -0.023155152797698975
0.3856383264064789 0.7730894684791565 0.018549375236034393
0.4159054160118103 0.6015850901603699 -0.12039518356323242
0.4122241735458374 0.5760320425033569 -0.12268441170454025
0.3167368471622467 0.45105576515197754 0.13726700842380524
0.41485148668289185 0.5393595099449158 0.02242271602153778
0.38866424560546875 0.6057963967323303 -0.03937031328678131
0.39136165380477905 0.5939286351203918 -0.029118776321411133
0.3197169303894043 0.6124898791313171 0.09023751318454742
0.4208824038505554 0.5473840832710266 -0.1013256385922432
0.353202760219574 0.41894418001174927 0.07242858409881592
0.32915908098220825 0.43084025382995605 0.10434938222169876
0.32160165905952454 0.37284421920776367 0.2437167763710022
0.4351656436920166 0.42692679166793823 0.0110818175598979
0.4153730273246765 0.45260924100875854 0.07035272568464279
0.37131649255752563 0.7473481893539429 0.03537179157137871
0.34426185488700867 0.7716974020004272 0.2832356095314026
0.4066283404827118 0.619758665561676 -0.03933115676045418
0.42362552881240845 0.6269897222518921 -0.05669739097356796
0.392514169216156 0.7472153902053833 0.026395346969366074
0.40454989671707153 0.7453301548957825 0.015008263289928436
0.3226538896560669 0.418279230594635 0.12512412667274475
0.3937663435935974 0.6189407110214233 -0.02916596829891205
0.3881142735481262 0.4164718985557556 0.041079629212617874
0.38294482231140137 0.39688628911972046 0.0418349914252758
0.37551096081733704 0.2976447641849518 0.1216404065489769
0.3217054009437561 0.39338284730911255 0.17745955288410187
0.3791443109512329 0.34262576699256897 0.0806824266910553
0.31160232424736023 0.44451290369033813 0.16715407371520996
0.31260865926742554 0.43417930603027344 0.22688406705856323
0.43085628747940063 0.7077351212501526 -0.07222449779510498
0.41423892974853516 0.7161918878555298 -0.04807718098163605
0.40455102920532227 0.7262571454048157 -0.024711061269044876
0.413363516330719 0.6245915293693542 -0.040513984858989716
0.39811986684799194 0.7466035485267639 0.019719650968909264
0.4026615023612976 0.7526184320449829 -0.0012884699972346425
0.4091474711894989 0.744002640247345 0.012878915295004845
0.40708136558532715 0.6071454286575317 -0.0723239853978157
0.42232978343963623 0.7321673035621643 -0.02152523770928383
0.43183058500289917 0.7281662821769714 -0.04026712477207184
0.44518983364105225 0.7267955541610718 -0.05837128683924675
0.4411114454269409 0.8198319673538208 -0.0420621857047081
0.43568742275238037 0.790819525718689 -0.06083892285823822
0.43604138493537903 0.7736232876777649 -0.06238934397697449
0.43930065631866455 0.7585280537605286 -0.0557476170361042
0.44367462396621704 0.7493594884872437 -0.05143383890390396
0.4198776185512543 0.7482261657714844 -0.016475480049848557
0.4149857759475708 0.7515960335731506 -0.021311769261956215
0.40838301181793213 0.7589079141616821 -0.024567926302552223
0.40369361639022827 0.7683418989181519 -0.019223229959607124
0.38125887513160706 0.6935405731201172 -0.0034730511251837015
0.33394700288772583 0.6492169499397278 0.35533642768859863
0.44672536849975586 0.6254235506057739 -0.09109516441822052
0.4151681661605835 0.7478548288345337 0.001148559502325952
0.4086504578590393 0.7489596009254456 -0.001740874140523374
0.42972350120544434 0.6377628445625305 -0.060016606003046036
0.40522342920303345 0.635282576084137 -0.02051376737654209
0.42669224739074707 0.6325938105583191 -0.059060629457235336
0.394540399312973 0.5567326545715332 0.03749864175915718
0.36153823137283325 0.5767862796783447 0.05492471158504486
0.39246559143066406 0.6072178483009338 -0.016793375834822655
0.3401273488998413 0.33064594864845276 0.18239425122737885
0.3435470163822174 0.3623026907444 0.12968574464321136
0.3475930392742157 0.4009522795677185 0.08576511591672897
0.3983156085014343 0.7905430793762207 -0.0009944656630977988
0.4254698157310486 0.3956272602081299 0.009701153263449669
0.42145705223083496 0.3319851756095886 0.041554488241672516
0.42130452394485474 0.278062105178833 0.07189597189426422
0.3489399552345276 0.5084392428398132 0.11597155779600143
0.3110595643520355 0.5419789552688599 0.1644289195537567
0.4298088550567627 0.4890778064727783 0.06655577570199966
0.3268817663192749 0.47705894708633423 0.14372064173221588
0.42740964889526367 0.5204412341117859 0.009862958453595638
0.39391887187957764 0.592707097530365 -0.06611078977584839
0.2979016900062561 0.5644919872283936 0.19765834510326385
0.3157143294811249 0.5551136136054993 0.13430052995681763
0.33428874611854553 0.5592412352561951 0.09894014149904251
0.3702831268310547 0.5510937571525574 0.0710330456495285
0.3989613652229309 0.5378295183181763 0.054666973650455475
0.4199867248535156 0.5232296586036682 0.03977220505475998
0.4468960762023926 0.4816855788230896 -0.022740205749869347
0.29412657022476196 0.6154139041900635 0.18077974021434784
0.3161699175834656 0.4790196418762207 0.16372846066951752
0.4287004768848419 0.6167088747024536 -0.11291665583848953
0.4102697968482971 0.5610908269882202 0.007760107982903719
0.3263367712497711 0.5357482433319092 0.3659408688545227
0.4343727231025696 0.5071707963943481 0.03178422152996063
0.39690765738487244 0.6115721464157104 0.00715794088318944
0.3372974693775177 0.48987823724746704 0.14442729949951172
0.39831697940826416 0.5785126090049744 -0.054108720272779465
0.3363845944404602 0.7096565365791321 0.32650452852249146
0.4317128658294678 0.48011043667793274 0.07629655301570892
0.4083344340324402 0.5599230527877808 -0.08121461421251297
0.3428564965724945 0.8138338327407837 0.12860606610774994
0.36002686619758606 0.8500784039497375 0.16340051591396332
0.30300700664520264 0.6337603330612183 0.27176937460899353
0.32882335782051086 0.7841179966926575 0.1752622276544571
0.3109362721443176 0.47719210386276245 0.26311618089675903
0.3970528542995453 0.8905946016311646 0.005050670355558395
0.4385865330696106 0.6249133944511414 -0.08628148585557938
0.39458170533180237 0.5825735926628113 0.019914381206035614
0.3077545464038849 0.5201061964035034 0.21402513980865479
0.3633614182472229 0.49484023451805115 0.10190903395414352
0.38094496726989746 0.4953024983406067 0.08906292170286179
0.39726465940475464 0.7579478025436401 0.004430715460330248
0.29979565739631653 0.6671617031097412 0.1737244427204132
0.4364762306213379 0.9314082264900208 -0.011863146908581257
0.39003849029541016 0.8989728689193726 0.06949637830257416
0.37507331371307373 0.8787727355957031 0.1115923523902893
0.47580593824386597 0.32670456171035767 0.011509448289871216
0.4830746054649353 0.9384757280349731 -0.0388604961335659
0.398738831281662 0.4927053451538086 0.07969838380813599
0.41524606943130493 0.4871143698692322 0.07669521123170853
0.4260791540145874 0.4833773672580719 0.07772015780210495
0.3109227418899536 0.4788767099380493 0.19593635201454163
0.41482818126678467 0.4678802192211151 0.07816918194293976
0.3976495862007141 0.464557409286499 0.081106036901474
0.3792440891265869 0.46426501870155334 0.08973100036382675
0.3616562783718109 0.46941104531288147 0.10244207084178925
0.3513239622116089 0.4764220714569092 0.114169180393219
0.3180066645145416 0.47361671924591064 0.33754655718803406
0.35306182503700256 0.4928683638572693 0.11510741710662842
0.4555211663246155 0.6547808051109314 -0.0740109533071518
0.3947911858558655 0.6738130450248718 -0.022583382204174995
0.40296071767807007 0.6146599650382996 -0.04828759282827377
0.4267817735671997 0.6594127416610718 -0.060122475028038025
0.47320130467414856 0.44948810338974 -0.018678773194551468
0.3605736494064331 0.8435882329940796 0.08643633872270584
0.37851482629776 0.8671046495437622 0.046182289719581604
0.42679542303085327 0.9078588485717773 -0.03596198186278343
0.35212141275405884 0.8186032772064209 0.22517628967761993
0.4260026812553406 0.47440069913864136 0.07745835930109024
0.4284823536872864 0.5204291343688965 -0.029932063072919846
0.4732078015804291 0.9138028025627136 -0.06166638806462288
0.40799978375434875 0.9170229434967041 0.026108870282769203
0.30864477157592773 0.6897098422050476 0.2519044876098633
0.4291447401046753 0.7482424378395081 -0.033457741141319275
0.424010694026947 0.7551204562187195 -0.038183894008398056
0.4188164472579956 0.7664550542831421 -0.04141651466488838
0.41565632820129395 0.7815221548080444 -0.03852306678891182
0.41552528738975525 0.8070367574691772 -0.021937847137451172
0.4082365036010742 0.7390913367271423 -0.0018662689253687859
0.39947840571403503 0.7372233867645264 0.0016904508229345083
0.39230191707611084 0.7335251569747925 0.004806654527783394
0.37235498428344727 0.7187077403068542 0.019607488065958023
0.31238341331481934 0.6725616455078125 0.11007800698280334
0.43808019161224365 0.49945539236068726 -0.004836604930460453
0.44325387477874756 0.4614015817642212 0.049869634211063385
0.43356794118881226 0.46594762802124023 0.0678027793765068
0.41601240634918213 0.7362456321716309 -0.0014084276044741273
0.32168903946876526 0.7398375868797302 0.13416096568107605
0.4518747925758362 0.4571629762649536 0.009985005483031273
0.4080083668231964 0.8329858779907227 -0.011851577088236809
0.44827911257743835 0.518743097782135 -0.09141362458467484
0.4382331669330597 0.5039379000663757 -0.05131642892956734
0.4564271569252014 0.4963235855102539 -0.06492521613836288
0.4121745824813843 0.5602947473526001 -0.030809758231043816
0.46894586086273193 0.8830505609512329 -0.06848761439323425
0.4692487120628357 0.849193811416626 -0.06147833168506622
0.43491673469543457 0.8468677997589111 -0.042367879301309586
0.3698548674583435 0.786174476146698 0.03653620183467865
0.3833123445510864 0.635545551776886 0.016900232061743736
0.3876546621322632 0.8130693435668945 0.013351411558687687
0.34107279777526855 0.6396623849868774 0.04793959856033325
0.36602097749710083 0.6648103594779968 0.025209100916981697
0.3311407268047333 0.6855681538581848 0.06776591390371323
0.42694681882858276 0.8786587715148926 -0.04314563050866127
0.4051888883113861 0.577539324760437 -0.0114222951233387
0.3583053946495056 0.8097131252288818 0.06197379529476166
0.37935900688171387 0.8367419242858887 0.029635151848196983
0.35405802726745605 0.7538050413131714 0.05419059097766876
0.30885744094848633 0.7121928930282593 0.16961537301540375
0.3374437391757965 0.7631822824478149 0.08642631024122238
0.3171056807041168 0.7408697009086609 0.22550532221794128
0.3548617362976074 0.702656626701355 0.038430050015449524
0.42032188177108765 0.5406420230865479 -0.009649910032749176
0.39930540323257446 0.6028861403465271 -0.07432813197374344
0.3939952850341797 0.6132155656814575 -0.047954119741916656
0.4012680649757385 0.5826329588890076 -0.09424301236867905
0.42718619108200073 0.44439131021499634 0.05427311360836029
0.39305299520492554 0.4356902241706848 0.06341157108545303
0.36386436223983765 0.43649357557296753 0.07722404599189758
0.3414362668991089 0.4435420036315918 0.09816980361938477
0.3292163610458374 0.4571627974510193 0.1204223483800888
0.3279035687446594 0.5005238056182861 0.158051535487175
0.30267247557640076 0.5800185203552246 0.28090545535087585
0.3346920609474182 0.5286349654197693 0.1264951378107071
0.3507559895515442 0.5321445465087891 0.1016279011964798
0.37618938088417053 0.5290971398353577 0.07995767891407013
0.40211546421051025 0.520908772945404 0.06639259308576584
0.4221403896808624 0.5101327896118164 0.05515652149915695
0.43487024307250977 0.49966228008270264 0.04919571429491043
0.3331070840358734 0.592922568321228 0.37067916989326477
0.3991811275482178 0.6214175820350647 -0.03786831349134445
0.4200761318206787 0.5397136211395264 -0.05192939564585686
0.40621113777160645 0.6001848578453064 -0.10120849311351776
0.42359817028045654 0.6147722601890564 -0.10025304555892944
0.41149529814720154 0.6065227389335632 -0.09006906300783157
0.4080822467803955 0.6297493577003479 -0.03519197553396225
0.4242996275424957 0.6160905957221985 -0.10815532505512238
0.433117151260376 0.6239224076271057 -0.08364520967006683
0.43738043308258057 0.48003190755844116 0.06615941226482391
0.445279061794281 0.4845885634422302 0.04327185079455376
0.44538432359695435 0.48631659150123596 0.02081066556274891
0.3459460139274597 0.48196637630462646 0.1245761290192604
0.33564043045043945 0.47527968883514404 0.1305837631225586
0.46959853172302246 0.5228811502456665 -0.09341630339622498
0.6717123985290527 0.4715226888656616 -0.015203175134956837
0.47143125534057617 0.6194490790367126 -0.09600570052862167
0.8190535306930542 0.38571351766586304 0.07833462953567505
0.5964562892913818 0.49398571252822876 -0.01715107075870037
0.6214579939842224 0.4957088828086853 -0.025354530662298203
0.6474205255508423 0.49465644359588623 -0.02792438119649887
0.6866268515586853 0.48203033208847046 -0.018436182290315628
0.5757248997688293 0.487713098526001 -0.005420758854597807
0.6230475306510925 0.42703181505203247 -0.029683977365493774
0.5969675779342651 0.4295927882194519 -0.01689976640045643
0.6508340239524841 0.430437833070755 -0.03232729062438011
0.6719174981117249 0.4394109547138214 -0.02851659245789051
0.711445689201355 0.5007457733154297 -0.015316465869545937
0.575801432132721 0.8666770458221436 -0.07000423222780228
0.6832209825515747 0.4657145142555237 -0.010218249633908272
0.8284165263175964 0.5007006525993347 0.06242319568991661
0.7487713098526001 0.4874311089515686 0.0013272716896608472
0.6007373929023743 0.5973904132843018 -0.060754165053367615
0.4849168062210083 0.6902211904525757 -0.09685032069683075
0.4861602485179901 0.7206827402114868 -0.08966191112995148
0.5237550139427185 0.7029593586921692 -0.09696238487958908
0.5515913963317871 0.7184426188468933 -0.08950718492269516
0.5143460631370544 0.7254088521003723 -0.09063923358917236
0.538291871547699 0.7319101095199585 -0.08128645271062851
0.5977442860603333 0.7726964950561523 -0.06754792481660843
0.4538222551345825 0.6002172231674194 -0.1329255849123001
0.4558713138103485 0.5743823647499084 -0.13757550716400146
0.7147096991539001 0.42193734645843506 -0.031239833682775497
0.552690327167511 0.5328644514083862 -0.03764871135354042
0.5355862379074097 0.6013543009757996 -0.09657126665115356
0.5409466028213501 0.5892126560211182 -0.08821594715118408
0.6891355514526367 0.5989154577255249 -0.06126425415277481
0.46212446689605713 0.5457782745361328 -0.12052775174379349
0.6320432424545288 0.39310598373413086 -0.04344426095485687
0.6772190928459167 0.40211057662963867 -0.041283078491687775
0.7719426155090332 0.3347563147544861 0.05123236030340195
0.5188374519348145 0.4178539514541626 -0.026482319459319115
0.5758883357048035 0.43819981813430786 -0.0022301068529486656
0.6173874735832214 0.7449867129325867 -0.06827613711357117
0.831640362739563 0.7686986327171326 0.08222778141498566
0.5185263156890869 0.6166713237762451 -0.08225797861814499
0.49661150574684143 0.6253396272659302 -0.07790523022413254
0.5878638625144958 0.745259702205658 -0.0636114850640297
0.5773891806602478 0.7439677119255066 -0.06446154415607452
0.6961190700531006 0.3870401084423065 -0.030240783467888832
0.5419996976852417 0.6153343319892883 -0.08523150533437729
0.5784857869148254 0.39701974391937256 -0.0385785773396492
0.5818644165992737 0.3759000301361084 -0.040314931422472
0.6315351128578186 0.27108222246170044 0.01189839281141758
0.7307164669036865 0.359211266040802 0.005284723825752735
0.6017570495605469 0.3193076550960541 -0.014432266354560852
0.7381982803344727 0.4132789075374603 -0.013472339138388634
0.7767022252082825 0.40019941329956055 0.03135496750473976
0.4848165512084961 0.7072367668151855 -0.09643678367137909
0.5172533988952637 0.7159790396690369 -0.095591239631176
0.5438389778137207 0.725333571434021 -0.08752672374248505
0.5135166645050049 0.6223214864730835 -0.07535678148269653
0.5818832516670227 0.744855523109436 -0.06392628699541092
0.5677915811538696 0.7511692047119141 -0.07225222885608673
0.576336681842804 0.7427816987037659 -0.0641155019402504
0.49460822343826294 0.6044542789459229 -0.11116237938404083
0.5376661419868469 0.7315225005149841 -0.07695349305868149
0.5137948989868164 0.7280859351158142 -0.08120997250080109
0.4883241653442383 0.7263122797012329 -0.08147412538528442
0.5056023597717285 0.8206956386566162 -0.06423795968294144
0.4958614706993103 0.7911686897277832 -0.08563221991062164
0.49231722950935364 0.7739135026931763 -0.08801058679819107
0.4907694160938263 0.7589560747146606 -0.08160443603992462
0.4902259111404419 0.7498486638069153 -0.07561683654785156
0.5410147309303284 0.7477465271949768 -0.0718470886349678
0.543757438659668 0.7510281801223755 -0.07666033506393433
0.5489945411682129 0.7582053542137146 -0.08187960088253021
0.5551356077194214 0.767805814743042 -0.08045050501823425
0.5756961107254028 0.6904255151748657 -0.08195130527019501
0.8667789697647095 0.6323006749153137 0.13095051050186157
0.5581699013710022 0.747191309928894 -0.06680788844823837
0.561805248260498 0.7480515241622925 -0.07040251791477203
0.4876244068145752 0.6371017694473267 -0.08066678047180176
0.5370240211486816 0.6331763863563538 -0.06532532721757889
0.49170583486557007 0.6315308213233948 -0.0794251412153244
0.5811164379119873 0.5484158992767334 -0.042591072618961334
0.622397243976593 0.5657610297203064 -0.05317748337984085
0.549997866153717 0.6027697920799255 -0.0779222920536995
0.7101302742958069 0.29534009099006653 0.025870081037282944
0.6738500595092773 0.3312949538230896 -0.008722975850105286
0.64215087890625 0.373014897108078 -0.037465304136276245
0.5734389424324036 0.7915626764297485 -0.07243207842111588
0.5237163305282593 0.38386470079421997 -0.03149382025003433
0.5391048789024353 0.3194447159767151 -0.007653655018657446
0.5591528415679932 0.26327234506607056 0.016475005075335503
0.6717093586921692 0.4906153082847595 -0.0244895052164793
0.743392825126648 0.5207825899124146 -0.013817035593092442
0.5619754195213318 0.4805760383605957 0.002769797807559371
0.7085630893707275 0.45242154598236084 -0.0191684328019619
0.5319786071777344 0.5152051448822021 -0.038010988384485245
0.5110959410667419 0.588816225528717 -0.1120942011475563
0.7823561429977417 0.542396605014801 -0.0036462745629251003
0.7170438766479492 0.5361971855163574 -0.03318770229816437
0.6754029989242554 0.5433955192565918 -0.043430596590042114
0.6227496862411499 0.5388529300689697 -0.03787452355027199
0.5868453979492188 0.5282279253005981 -0.027967514470219612
0.5591431260108948 0.5158727765083313 -0.022564053535461426
0.48987331986427307 0.4788747727870941 -0.04296896234154701
0.7756723761558533 0.5979841947555542 -0.020195884630084038
0.7351446151733398 0.4522826671600342 -0.014668268151581287
0.45139968395233154 0.6160333752632141 -0.1228027194738388
0.5452740788459778 0.5556665658950806 -0.050821322947740555
0.866668701171875 0.5081095099449158 0.13516440987586975
0.5376615524291992 0.5013118982315063 -0.01660330221056938
0.558438777923584 0.6072968244552612 -0.053775109350681305
0.6962006092071533 0.4676694869995117 -0.010151042602956295
0.517673909664154 0.5742650032043457 -0.10099197179079056
0.8572274446487427 0.699074387550354 0.11218216270208359
0.5640274286270142 0.47170913219451904 0.009648486040532589
0.488965779542923 0.5569152235984802 -0.11530137807130814
0.7240185737609863 0.8184651136398315 -0.020268108695745468
0.7419872283935547 0.8586958646774292 0.011417335830628872
0.8317795991897583 0.6158128976821899 0.0521896630525589
0.7691566944122314 0.7844260334968567 -0.0007129038567654788
0.8054108619689941 0.44611120223999023 0.053494274616241455
0.5860268473625183 0.898517906665802 -0.0657433569431305
0.45619308948516846 0.624168872833252 -0.09249916672706604
0.5706679224967957 0.5760805606842041 -0.05221356824040413
0.7805556058883667 0.4951307475566864 0.015760285779833794
0.6426335573196411 0.47867071628570557 -0.02160472981631756
0.6200675368309021 0.4805752635002136 -0.020482799038290977
0.575161874294281 0.7564908266067505 -0.07161715626716614
0.7743147015571594 0.6545448899269104 -0.020383629947900772
0.5392023921012878 0.9371488094329834 -0.05142122507095337
0.6393401026725769 0.9100252389907837 -0.02868216671049595
0.6864448189735413 0.8896481394767761 -0.011895454488694668
0.5998680591583252 0.4795469641685486 -0.01330400351434946
0.5820474624633789 0.47620320320129395 -0.00315758865326643
0.5703152418136597 0.4741549491882324 0.006036755163222551
0.7636163830757141 0.4500996470451355 0.0036629405803978443
0.5828006863594055 0.45560330152511597 -0.0039147199131548405
0.6026615500450134 0.44913017749786377 -0.014325831085443497
0.622518002986908 0.44707584381103516 -0.02111080475151539
0.6451420783996582 0.45008477568626404 -0.023712990805506706
0.6616531014442444 0.45607662200927734 -0.02070526033639908
0.8489824533462524 0.43993276357650757 0.1122332215309143
0.6591743230819702 0.4751811623573303 -0.019067883491516113
0.5482941269874573 0.6717085838317871 -0.08228863030672073
0.515819787979126 0.6111412048339844 -0.08882483094930649
0.4908457100391388 0.6583801507949829 -0.08490333706140518
0.6787250638008118 0.8512958288192749 -0.03417947515845299
0.634523332118988 0.8762970566749573 -0.04890388622879982
0.5307343006134033 0.9125946760177612 -0.07467585802078247
0.7900026440620422 0.8222057819366455 0.045336026698350906
0.5692306160926819 0.4650602340698242 0.00399544183164835
0.5016915798187256 0.5170007348060608 -0.06267756223678589
0.5898697376251221 0.9263275861740112 -0.0467049777507782
0.8254778981208801 0.6777338981628418 0.04159846529364586
0.5165162682533264 0.7485365867614746 -0.07597484439611435
0.5194231867790222 0.7551828622817993 -0.08177626132965088
0.5230273008346558 0.7664666771888733 -0.08735118061304092
0.5273935198783875 0.7815744876861572 -0.08600037544965744
0.5428294539451599 0.808436930179596 -0.07416258007287979
0.5617146492004395 0.7380927205085754 -0.07350079715251923
0.5673909187316895 0.7356894612312317 -0.07647301256656647
0.5748583674430847 0.7316561937332153 -0.07777631282806396
0.600335419178009 0.715320348739624 -0.07694127410650253
0.7201350331306458 0.6624671816825867 -0.05376416817307472
0.5104112029075623 0.49510595202445984 -0.03845749795436859
0.5362709760665894 0.4539438784122467 0.007081064861267805
0.5560460090637207 0.45641061663627625 0.0067911893129348755
0.5591477751731873 0.7353299260139465 -0.06976060569286346
0.7374520301818848 0.7355248928070068 -0.03153902664780617
0.5067552328109741 0.4524071216583252 -0.015137281268835068
0.561059296131134 0.8367100954055786 -0.06901111453771591
0.479719877243042 0.501798152923584 -0.06843248009681702
0.5184631943702698 0.5561456680297852 -0.0740005150437355
0.5141159296035767 0.8490883708000183 -0.06996247172355652
0.6280006170272827 0.7870651483535767 -0.06255606561899185
0.5811009407043457 0.6306735873222351 -0.05924881994724274
0.5984320640563965 0.816455066204071 -0.06549879908561707
0.6433718800544739 0.6306928396224976 -0.06959020346403122
0.6057299971580505 0.6593159437179565 -0.06858544051647186
0.6729203462600708 0.6782724857330322 -0.06623079627752304
0.5228300094604492 0.8821209073066711 -0.07953304052352905
0.5399675369262695 0.5728100538253784 -0.06578730046749115
0.6586862802505493 0.8136483430862427 -0.05201822891831398
0.618735671043396 0.842745840549469 -0.057901956140995026
0.6480028033256531 0.7517527937889099 -0.06592535972595215
0.7717236280441284 0.7042542695999146 -0.01639447920024395
0.6920526027679443 0.7620652914047241 -0.05250207334756851
0.8084495067596436 0.7349681854248047 0.025858012959361076
0.6306281089782715 0.6974226832389832 -0.07197215408086777
0.523443341255188 0.5360028147697449 -0.056036680936813354
0.5014994144439697 0.5994884371757507 -0.11652703583240509
0.5263890624046326 0.6092683672904968 -0.0965038314461708
0.48363763093948364 0.5799379348754883 -0.12786200642585754
0.5512046813964844 0.4334745407104492 -0.004649688024073839
0.5887117385864258 0.41822192072868347 -0.021861519664525986
0.6248013377189636 0.4138287305831909 -0.034225571900606155
0.6597529649734497 0.41813451051712036 -0.038136761635541916
0.6889881491661072 0.43068647384643555 -0.03257744386792183
0.7188996076583862 0.4775083661079407 -0.007132538594305515
0.833526611328125 0.5570833683013916 0.05602473393082619
0.6927292346954346 0.5099945664405823 -0.023951681330800056
0.6611852049827576 0.5161648392677307 -0.02976120077073574
0.6246417760848999 0.5157193541526794 -0.028240056708455086
0.5921860337257385 0.510075032711029 -0.01910550892353058
0.5673611164093018 0.5015937089920044 -0.009381027892231941
0.549432635307312 0.4927697777748108 -0.0033523496240377426
0.8690509796142578 0.5706457495689392 0.1402897834777832
0.5299857258796692 0.6181034445762634 -0.08526622503995895
0.49352163076400757 0.5365187525749207 -0.08546645194292068
0.47591033577919006 0.5981348156929016 -0.12777408957481384
0.4677998423576355 0.6137966513633728 -0.11558174341917038
0.4809202253818512 0.6046813130378723 -0.11745673418045044
0.5256869196891785 0.6275529265403748 -0.07511569559574127
0.46067118644714355 0.6149132251739502 -0.12080327421426773
0.4651123285293579 0.6232907772064209 -0.09429749846458435
0.5524492263793945 0.47225332260131836 0.010823255404829979
0.5348577499389648 0.4784531593322754 0.0022159568034112453
0.5213557481765747 0.48126161098480225 -0.013248351402580738
0.6725981831550598 0.4610680937767029 -0.01664213463664055
0.6903790235519409 0.4514797329902649 -0.020229503512382507
