ply
format ascii 1.0
element vertex 468
property float x
property float y
property float z
end_header
0.4992544651031494 0.7295538187026978 -0.05648219585418701
0.4912281036376953 0.6500653028488159 -0.12190540134906769
0.4976971745491028 0.6717202067375183 -0.05991543456912041
0.4722835421562195 0.5634450912475586 -0.09558414667844772
0.48967087268829346 0.6245152354240417 -0.13187699019908905
0.49000638723373413 0.5894224047660828 -0.1252482682466507
0.49373966455459595 0.5017207264900208 -0.06955532729625702
0.3387485146522522 0.4836854338645935 0.03726441413164139
0.4936050474643707 0.4313054084777832 -0.05772494152188301
0.49221691489219666 0.3958965837955475 -0.06518857181072235
0.49118363857269287 0.27094149589538574 -0.05195695534348488
0.49997684359550476 0.7415891885757446 -0.05248023942112923
0.5010802149772644 0.7499591708183289 -0.04368437081575394
0.5023943781852722 0.7526890635490417 -0.032774049788713455
0.5026183128356934 0.7604984045028687 -0.03112754039466381
0.5025791525840759 0.7717694640159607 -0.03405071794986725
0.5028390884399414 0.7854036688804626 -0.03746693208813667
0.5039918422698975 0.7992002964019775 -0.03260328620672226
0.5074585676193237 0.8184616565704346 -0.007896519266068935
0.4931659698486328 0.6617547869682312 -0.10909627377986908
0.4753774404525757 0.658112108707428 -0.07511289417743683
0.26456567645072937 0.3805469572544098 0.1466386467218399
0.4058974087238312 0.506295919418335 0.00873654056340456
0.38331538438796997 0.5081011652946472 0.01278288196772337
0.36137866973876953 0.5073825120925903 0.02134822867810726
0.3319878578186035 0.49237099289894104 0.042449548840522766
0.42396414279937744 0.5008227229118347 0.008936681784689426
0.37067103385925293 0.4421353042125702 -0.00012223422527313232
0.39598143100738525 0.44400954246520996 -0.003249117871746421
0.3481138348579407 0.4462301731109619 0.009743462316691875
0.3337979316711426 0.4550267159938812 0.020848574116826057
0.3150002658367157 0.5090087056159973 0.05689878761768341
0.42788058519363403 0.8478227853775024 0.032745860517024994
0.3303877115249634 0.47714489698410034 0.04501152038574219
0.257518470287323 0.4889833927154541 0.16645504534244537
0.2913975119590759 0.48954832553863525 0.08094199001789093
0.3870820999145508 0.6167430281639099 -0.004635757766664028
0.47152507305145264 0.7250605821609497 -0.051279693841934204
0.47756287455558777 0.7488200664520264 -0.03819248080253601
0.44482341408729553 0.7301505208015442 -0.03416965529322624
0.42898207902908325 0.7366740703582764 -0.014266853220760822
0.45856648683547974 0.7484798431396484 -0.026860306039452553
0.4439440965652466 0.7484315037727356 -0.008959096856415272
0.40536177158355713 0.7693294286727905 0.028239909559488297
0.4731587767601013 0.6489153504371643 -0.11862601339817047
0.468278169631958 0.6245307922363281 -0.12740713357925415
0.30044227838516235 0.4284064769744873 0.0287939440459013
0.4315222501754761 0.5534132122993469 -0.016457797959446907
0.42806246876716614 0.637405514717102 -0.05651085451245308
0.42664340138435364 0.6229898929595947 -0.05024850741028786
0.32136455178260803 0.6102931499481201 0.03166644275188446
0.4696919918060303 0.5917453169822693 -0.11561127007007599
0.34743547439575195 0.403073787689209 -0.0183272622525692
0.3189406991004944 0.41120707988739014 0.0036677911411970854
0.28145208954811096 0.33892717957496643 0.09456228464841843
0.4442792236804962 0.4241727292537689 -0.04639046639204025
0.4180377125740051 0.4529135823249817 0.0017469191225245595
0.38736000657081604 0.7454114556312561 0.03335978463292122
0.2977716028690338 0.7142357230186462 0.24910025298595428
0.4452802836894989 0.6512690186500549 -0.048482831567525864
0.46315762400627136 0.6596260666847229 -0.05172539874911308
0.4113345742225647 0.7474246025085449 0.028873329982161522
0.4220448136329651 0.7466229200363159 0.02078612521290779
0.30702146887779236 0.39380165934562683 0.013998196460306644
0.4294159710407257 0.64715176820755 -0.0429246723651886
0.3874918818473816 0.40476518869400024 -0.03573721647262573
0.38215482234954834 0.3844524621963501 -0.04212557524442673
0.36110520362854004 0.2844758927822113 -0.008322006091475487
0.29369139671325684 0.36614930629730225 0.04791949316859245
0.3736180067062378 0.33431926369667053 -0.027073873206973076
0.2874111533164978 0.4155840277671814 0.048700880259275436
0.27526578307151794 0.39978551864624023 0.09402719140052795
0.473926305770874 0.7391860485076904 -0.04738415405154228
0.4521142244338989 0.7414352893829346 -0.03151577338576317
0.4360860288143158 0.7429842352867126 -0.013527209870517254
0.45132511854171753 0.6557421088218689 -0.0439041405916214
0.416731595993042 0.7474098801612854 0.024498282000422478
0.4255774915218353 0.7542668581008911 0.009534942917525768
0.42480647563934326 0.7450509071350098 0.01995636709034443
0.4529770612716675 0.645287036895752 -0.0818902850151062
0.44937339425086975 0.74665367603302 -0.0054365540854632854
0.4642033576965332 0.749021053314209 -0.017689693719148636
0.48177221417427063 0.7511854767799377 -0.028003554791212082
0.4770880341529846 0.8167495727539062 -0.0044121029786765575
0.475359708070755 0.7959592342376709 -0.02861994132399559
0.4756695628166199 0.7817116379737854 -0.03275056928396225
0.4772840142250061 0.7683759927749634 -0.02891402691602707
0.4796464741230011 0.758969783782959 -0.026182962581515312
0.44531410932540894 0.752907931804657 -0.003901861608028412
0.4415133595466614 0.756218671798706 -0.007069920189678669
0.43648892641067505 0.7626217603683472 -0.009157860651612282
0.43240612745285034 0.7705686092376709 -0.0035687058698385954
0.40798842906951904 0.7078785300254822 -0.007397782523185015
0.26984331011772156 0.590477705001831 0.27368053793907166
0.49536338448524475 0.6653188467025757 -0.0772656798362732
0.43607717752456665 0.7501758337020874 0.010192064568400383
0.4309341609477997 0.7516040205955505 0.008417255245149136
0.47063541412353516 0.6709228157997131 -0.05149490386247635
0.4377601444721222 0.6617770195007324 -0.026058373972773552
0.4671081304550171 0.6656282544136047 -0.05225314944982529
0.40944045782089233 0.5667485594749451 -0.004676968790590763
0.3722856640815735 0.5829049944877625 0.006560499779880047
0.42480215430259705 0.6329367756843567 -0.036032646894454956
0.31125608086586 0.3062748312950134 0.040249742567539215
0.3244582414627075 0.34329894185066223 0.008580724708735943
0.33859917521476746 0.38276126980781555 -0.015873584896326065
0.4236725866794586 0.7875897884368896 0.016342515125870705
0.43502652645111084 0.3908022940158844 -0.05775543674826622
0.42750248312950134 0.33391159772872925 -0.04988952726125717
0.41918954253196716 0.2740616500377655 -0.03960542753338814
0.34251028299331665 0.5022103190422058 0.03278416022658348
0.2918541133403778 0.5264537334442139 0.07300394773483276
0.43520674109458923 0.4947918653488159 0.010842127725481987
0.3121591806411743 0.4613129496574402 0.043044038116931915
0.4456482231616974 0.5382055640220642 -0.02741123177111149
0.4380902945995331 0.6299659013748169 -0.08143981546163559
0.2706277668476105 0.5410822629928589 0.10353483259677887
0.3056980073451996 0.546285092830658 0.05225301906466484
0.33387041091918945 0.5575150847434998 0.02822224050760269
0.37742531299591064 0.5537623167037964 0.014083568006753922
0.4089672565460205 0.5435283184051514 0.005006933119148016
0.4310491979122162 0.5327227115631104 -0.0045103030279278755
0.47273439168930054 0.5074782967567444 -0.05773112550377846
0.2743983566761017 0.5944161415100098 0.10126379132270813
0.2944018840789795 0.4560803771018982 0.05534343048930168
0.4822258949279785 0.6604723930358887 -0.10663894563913345
0.4335508942604065 0.5803876519203186 -0.02451305091381073
0.2582886517047882 0.48129913210868835 0.244937926530838
0.4470650553703308 0.5202520489692688 -0.010689737275242805
0.42395734786987305 0.6329533457756042 -0.012788277119398117
0.32429495453834534 0.47798556089401245 0.05056753754615784
0.437486857175827 0.6124134063720703 -0.07399890571832657
0.27988702058792114 0.6506300568580627 0.26784515380859375
0.4347047209739685 0.48503655195236206 0.01591840758919716
0.4523581862449646 0.5994250178337097 -0.09925805032253265
0.3377964496612549 0.7845661044120789 0.12326134741306305
0.3452300429344177 0.8070740103721619 0.16873154044151306
0.260844886302948 0.5936354398727417 0.1883653700351715
0.3098139464855194 0.7488494515419006 0.1525088995695114
0.2653651535511017 0.44057101011276245 0.13656723499298096
0.4265233874320984 0.8695557117462158 0.04978517070412636
0.48670101165771484 0.6642475724220276 -0.07496525347232819
0.41500934958457947 0.597648024559021 -0.012916726991534233
0.27408042550086975 0.4926282465457916 0.10671991109848022
0.36200690269470215 0.4917224943637848 0.02181384153664112
0.3822319805622101 0.493745356798172 0.014752925373613834
0.42012453079223633 0.7582108974456787 0.014581617899239063
0.2818976640701294 0.6436018347740173 0.11283067613840103
0.46908754110336304 0.9022322297096252 0.05505004897713661
0.40594249963760376 0.8646548390388489 0.10552940517663956
0.3784843385219574 0.8409970998764038 0.1331751048564911
0.4912353754043579 0.3348137438297272 -0.060900669544935226
0.515421450138092 0.9088764190673828 0.04434942454099655
0.40129077434539795 0.4924491047859192 0.01183045282959938
0.4190298318862915 0.48884907364845276 0.013222374022006989
0.42997241020202637 0.4868558645248413 0.016651883721351624
0.27943524718284607 0.4491420388221741 0.08010123670101166
0.4148760735988617 0.46790260076522827 0.007843892090022564
0.39493682980537415 0.4606744050979614 0.005597264971584082
0.37387287616729736 0.4591418504714966 0.008554518222808838
0.3536069989204407 0.4629034996032715 0.016294267028570175
0.3415707051753998 0.4693524241447449 0.025072012096643448
0.2569734454154968 0.4254510998725891 0.20095545053482056
0.3482746481895447 0.4879959523677826 0.030357375741004944
0.49855440855026245 0.6895595192909241 -0.05332695320248604
0.4270266592502594 0.696020245552063 -0.023027488961815834
0.44373515248298645 0.6480522155761719 -0.05795053765177727
0.46815571188926697 0.6913636922836304 -0.048410091549158096
0.49498000741004944 0.4650818705558777 -0.05481359362602234
0.3686988353729248 0.8172696232795715 0.10105015337467194
0.3968069553375244 0.8431349992752075 0.07714945822954178
0.46421265602111816 0.8897656798362732 0.024568814784288406
0.31998783349990845 0.7672628164291382 0.21203641593456268
0.4283077120780945 0.4784870445728302 0.012537799775600433
0.45783552527427673 0.5491542816162109 -0.060766782611608505
0.5122835636138916 0.8957148790359497 0.014814342372119427
0.4347168803215027 0.8861422538757324 0.07636117935180664
0.2707589566707611 0.6483202576637268 0.18862204253673553
0.4605276882648468 0.7559921741485596 -0.01584593392908573
0.456853449344635 0.7625105381011963 -0.019417891278862953
0.4534062147140503 0.772655725479126 -0.02173672802746296
0.4511948227882385 0.7855074405670166 -0.016878046095371246
0.44727879762649536 0.8043903708457947 0.003594466717913747
0.43090978264808655 0.7472670674324036 0.007087527308613062
0.42354756593704224 0.745103657245636 0.007714047096669674
0.4167249798774719 0.741144061088562 0.00782308541238308
0.3931523561477661 0.7248913049697876 0.012645449489355087
0.30853983759880066 0.6613450646400452 0.0627853199839592
0.4593718945980072 0.5213785767555237 -0.040992289781570435
0.44997090101242065 0.4681791067123413 -0.004584666341543198
0.43759584426879883 0.47144076228141785 0.00660678930580616
0.43645840883255005 0.7441429495811462 0.009062451310455799
0.3132472038269043 0.7179386615753174 0.1033582091331482
0.4667499363422394 0.4683403968811035 -0.03607660159468651
0.43671733140945435 0.8254513740539551 0.019693750888109207
0.4912501573562622 0.5599260330200195 -0.10602689534425735
0.4719926714897156 0.5373472571372986 -0.07960352301597595
0.49246615171432495 0.5324316024780273 -0.08723049610853195
0.4440184533596039 0.5888471603393555 -0.0560673363506794
0.5101298093795776 0.8733558058738708 -0.000642152561340481
0.5087834000587463 0.8441978693008423 -0.0035068567376583815
0.47109919786453247 0.8410415053367615 0.0041676233522593975
0.38594919443130493 0.777306318283081 0.04453288018703461
0.4051526188850403 0.6516376733779907 -0.003922636620700359
0.40945547819137573 0.8043006658554077 0.033591095358133316
0.3525448739528656 0.6449066996574402 0.010244774632155895
0.3842758536338806 0.6749918460845947 0.004624121822416782
0.3376753032207489 0.6826560497283936 0.0339917428791523
0.4649951159954071 0.8684310913085938 0.009662912227213383
0.4337746798992157 0.6014935970306396 -0.0368221253156662
0.370616614818573 0.7933743000030518 0.07044771313667297
0.39929258823394775 0.8216115832328796 0.0549621656537056
0.3661659359931946 0.7467247843742371 0.046010252088308334
0.2918132543563843 0.6852075457572937 0.12409154325723648
0.34106504917144775 0.7477880120277405 0.07162987440824509
0.2855232357978821 0.6997353434562683 0.1821724772453308
0.3694321811199188 0.7049680948257446 0.020045310258865356
0.44593924283981323 0.564345121383667 -0.04134400188922882
0.44558602571487427 0.641506016254425 -0.08662494271993637
0.4348424971103668 0.6459034085273743 -0.059682074934244156
0.4516695439815521 0.6262693405151367 -0.10504204034805298
0.43040353059768677 0.4451208710670471 -0.011481018736958504
0.39322662353515625 0.4310048222541809 -0.01280220691114664
0.3613298237323761 0.4289330542087555 -0.007578148506581783
0.3358783423900604 0.4331187605857849 0.005318274721503258
0.3193361163139343 0.4433206617832184 0.021697135642170906
0.3104470670223236 0.48385539650917053 0.06153202801942825
0.25618869066238403 0.5407859683036804 0.1791132390499115
0.3267519176006317 0.5207391977310181 0.04425180330872536
0.34975099563598633 0.5292122960090637 0.02852022461593151
0.3799489140510559 0.5290504693984985 0.01645759865641594
0.40820786356925964 0.5232897400856018 0.00870927982032299
0.4289308786392212 0.515637218952179 0.005271072965115309
0.44299474358558655 0.5082410573959351 0.00169076316524297
0.26455041766166687 0.5348010659217834 0.26701679825782776
0.4370739459991455 0.651557445526123 -0.047587800770998
0.4564846158027649 0.5736626386642456 -0.07684458792209625
0.45870456099510193 0.6443754434585571 -0.10608921200037003
0.4724865257740021 0.6553030610084534 -0.09674017131328583
0.4602738618850708 0.6471254229545593 -0.0944301187992096
0.44380664825439453 0.6587474942207336 -0.03990549594163895
0.47579002380371094 0.65828537940979 -0.10300655663013458
0.4800110459327698 0.6622119545936584 -0.07497818768024445
0.44227147102355957 0.4873923063278198 0.011492515914142132
0.45392125844955444 0.49484896659851074 -0.00374157284386456
0.4592878818511963 0.5009123682975769 -0.02015681192278862
0.3350664973258972 0.47391277551651 0.03384064882993698
0.3241528868675232 0.46416333317756653 0.03555912896990776
0.5117767453193665 0.5632588267326355 -0.10019100457429886
0.6704856157302856 0.48256340622901917 0.003826051950454712
0.516525149345398 0.6585872173309326 -0.07852613925933838
0.7686874866485596 0.37338703870773315 0.09491565823554993
0.6008331179618835 0.5058263540267944 -0.012803832069039345
0.624339759349823 0.5071547627449036 -0.01290347520262003
0.6479681730270386 0.5060727596282959 -0.0086598489433527
0.6809497475624084 0.49116578698158264 0.007140790112316608
0.5809956789016724 0.5007076859474182 -0.008093181066215038
0.6316853761672974 0.4403904676437378 -0.02745925262570381
0.6056904792785645 0.44251924753189087 -0.02492457628250122
0.6558818817138672 0.4441918432712555 -0.021638797596096992
0.6726077795028687 0.45308607816696167 -0.013431098312139511
0.702671229839325 0.507095217704773 0.01846991665661335
0.5988557934761047 0.8503835797309875 0.018035966902971268
0.6803537607192993 0.4759373068809509 0.010042066685855389
0.7846449613571167 0.4846670925617218 0.11335527896881104
0.7314788699150085 0.48696959018707275 0.0379934161901474
0.6209762692451477 0.6160446405410767 -0.02537611871957779
0.5278797745704651 0.725040078163147 -0.056270670145750046
0.5260322690010071 0.7489385604858398 -0.04243119806051254
0.5589407086372375 0.7304286360740662 -0.04446949437260628
0.5795942544937134 0.7367074489593506 -0.028501814231276512
0.5482661724090576 0.7486171126365662 -0.03558867797255516
0.5662059187889099 0.7483119964599609 -0.020748646929860115
0.615088701248169 0.7701690793037415 0.009487250819802284
0.5104942917823792 0.6490179300308228 -0.1214340329170227
0.512240469455719 0.624331533908844 -0.1308676302433014
0.7076520323753357 0.42544203996658325 -0.011785252951085567
0.5709668397903442 0.5529376268386841 -0.030325114727020264
0.568918764591217 0.6374374032020569 -0.06929738819599152
0.571706235408783 0.622889518737793 -0.06356093287467957
0.696872353553772 0.6092468500137329 -0.0033767432905733585
0.5118501782417297 0.5915383100509644 -0.11998981237411499
0.6471396684646606 0.4003842771053314 -0.04628309607505798
0.6814591884613037 0.40837717056274414 -0.03134359046816826
0.7380737066268921 0.33159250020980835 0.04795201122760773
0.5446350574493408 0.4235079288482666 -0.055523212999105453
0.584003210067749 0.451873242855072 -0.015673331916332245
0.6317929625511169 0.7458804845809937 0.010267188772559166
0.7725402116775513 0.7166634798049927 0.20170529186725616
0.552584707736969 0.651701807975769 -0.05782189220190048
0.5337041616439819 0.6598341464996338 -0.05639060586690903
0.6052972674369812 0.7473031282424927 0.009126563556492329
0.5942972302436829 0.7463955879211426 0.0037641495000571012
0.694934606552124 0.3905855417251587 -0.023461131379008293
0.5713059902191162 0.6472069621086121 -0.055297814309597015
0.6027207970619202 0.40287357568740845 -0.05485483631491661
0.6060576438903809 0.3821607530117035 -0.06201055273413658
0.6315065026283264 0.27933168411254883 -0.03540033847093582
0.7158665657043457 0.360870361328125 0.0062759434804320335
0.6154894828796387 0.3307212293148041 -0.05049055814743042
0.7244835495948792 0.41195449233055115 0.005382774397730827
0.746711015701294 0.3943490982055664 0.04673449322581291
0.527173638343811 0.7392998337745667 -0.05218527093529701
0.552681565284729 0.7417817711830139 -0.04109370335936546
0.572652280330658 0.7429797053337097 -0.026291072368621826
0.5472978949546814 0.6560959815979004 -0.05155906826257706
0.5994737148284912 0.7472156882286072 0.0064564417116343975
0.5891976356506348 0.7542933821678162 -0.005554375238716602
0.5918603539466858 0.7450842261314392 0.0033157358411699533
0.5380831956863403 0.6457803249359131 -0.09063486009836197
0.5623791217803955 0.7461976408958435 -0.016611434519290924
0.5447116494178772 0.7489718198776245 -0.02557763084769249
0.5245381593704224 0.7511824369430542 -0.03222445771098137
0.539147675037384 0.8172143697738647 -0.00880338903516531
0.5338059663772583 0.7965899109840393 -0.03308428078889847
0.5313694477081299 0.7820555567741394 -0.037246037274599075
0.528939425945282 0.7687129974365234 -0.03340735659003258
0.5269001722335815 0.7592450380325317 -0.030387861654162407
0.5672119855880737 0.752709686756134 -0.014883029274642467
0.5706931948661804 0.7562139630317688 -0.017979640513658524
0.5761087536811829 0.7630088925361633 -0.020407525822520256
0.5813117623329163 0.7711655497550964 -0.01590975746512413
0.6005474328994751 0.7077636122703552 -0.024276509881019592
0.7974473237991333 0.5889443755149841 0.22018614411354065
0.5789735317230225 0.7500672340393066 -0.0039199902676045895
0.5834496021270752 0.7515488862991333 -0.0059378258883953094
0.5263928174972534 0.6710200309753418 -0.056043561547994614
0.5652203559875488 0.6617395281791687 -0.03586079552769661
0.52968829870224 0.6656468510627747 -0.05684769153594971
0.5967727899551392 0.5659269690513611 -0.0232621431350708
0.637198805809021 0.5819213390350342 -0.018401173874735832
0.5766955018043518 0.6328380703926086 -0.049697473645210266
0.6942660808563232 0.29930761456489563 0.0019036473240703344
0.6742384433746338 0.3384273648262024 -0.025091303512454033
0.6553614139556885 0.3795573115348816 -0.045424602925777435
0.5955181121826172 0.7886716723442078 0.0011740498011931777
0.5501506328582764 0.38967466354370117 -0.06791189312934875
0.5566388964653015 0.3318832516670227 -0.06201719865202904
0.5661574006080627 0.27117931842803955 -0.053120627999305725
0.6689873933792114 0.5008357763290405 -0.0003630890278145671
0.731474757194519 0.5241791605949402 0.030559364706277847
0.5682392120361328 0.494975745677948 -0.004411216825246811
0.7001460790634155 0.4591856598854065 0.0037756473757326603
0.5529613494873047 0.5378928780555725 -0.038701463490724564
0.5529020428657532 0.6301101446151733 -0.09194615483283997
0.7610615491867065 0.5387986898422241 0.05514830723404884
0.7132607698440552 0.5443114042282104 0.012690846808254719
0.6800991296768188 0.5557281970977783 -0.00533183291554451
0.6320675015449524 0.552526593208313 -0.011400561779737473
0.5978699922561646 0.5427351593971252 -0.014262456446886063
0.572781503200531 0.5322256684303284 -0.01909440942108631
0.5171381831169128 0.50733882188797 -0.06256021559238434
0.7589025497436523 0.5931637287139893 0.053781554102897644
0.7217599749565125 0.4532066285610199 0.012747442349791527
0.5046690106391907 0.6605542898178101 -0.10878216475248337
0.567797839641571 0.5799283981323242 -0.03776504099369049
0.7981988787651062 0.47624537348747253 0.18959803879261017
0.5535464286804199 0.5200622081756592 -0.02193821407854557
0.5811477899551392 0.6326676607131958 -0.026252886280417442
0.6885309815406799 0.4765167236328125 0.013644671067595482
0.5553387403488159 0.6123411655426025 -0.08457095921039581
0.7903192043304443 0.6511744260787964 0.21681208908557892
0.5692235827445984 0.48537400364875793 1.7939359167939983e-05
0.5339271426200867 0.5992330312728882 -0.10700806230306625
0.707933247089386 0.7881219983100891 0.08802147209644318
0.7118735313415527 0.8113884329795837 0.13255095481872559
0.7895885705947876 0.5926069617271423 0.13612975180149078
0.7417004108428955 0.7517027854919434 0.11117830127477646
0.7673079967498779 0.43533116579055786 0.08610282838344574
0.6050031781196594 0.8727312684059143 0.03344351053237915
0.5044025182723999 0.6642496585845947 -0.07643231749534607
0.5905424952507019 0.5971295237541199 -0.0290702972561121
0.7555373311042786 0.48936688899993896 0.05913235992193222
0.6444016695022583 0.4906781017780304 -0.0072876205667853355
0.6236046552658081 0.49279120564460754 -0.011052553541958332
0.5956532955169678 0.7583757042884827 -0.0016349112847819924
0.7562280297279358 0.6435323357582092 0.06747926026582718
0.5636636018753052 0.9042830467224121 0.046365849673748016
0.6372116804122925 0.8689551949501038 0.08253403753042221
0.6711027026176453 0.845811665058136 0.1038859635591507
0.6041741371154785 0.49176350235939026 -0.010425765067338943
0.5857402682304382 0.4886015057563782 -0.006004200782626867
0.5743155479431152 0.4869576096534729 -0.0006673841271549463
0.7422223091125488 0.4453209638595581 0.03404628485441208
0.5892871022224426 0.4676000475883484 -0.011768059805035591
0.6099411845207214 0.4598253667354584 -0.0172883253544569
0.6308568716049194 0.4582143723964691 -0.017860952764749527
0.6521453261375427 0.46199050545692444 -0.013761833310127258
0.6657030582427979 0.46825170516967773 -0.007205687463283539
0.7880625128746033 0.4189555048942566 0.14664871990680695
0.6593584418296814 0.4869081377983093 -0.0014937901869416237
0.5776739716529846 0.6957916021347046 -0.035908766090869904
0.5523273348808289 0.648357093334198 -0.06691905856132507
0.5302656888961792 0.6912928819656372 -0.0536917969584465
0.6726589202880859 0.821430504322052 0.07242051512002945
0.6400156021118164 0.8471700549125671 0.054713089019060135
0.562355637550354 0.8916282057762146 0.015893274918198586
0.7449414134025574 0.7708863019943237 0.16969752311706543
0.5752585530281067 0.478638231754303 -0.005103715229779482
0.5333495140075684 0.5489228963851929 -0.06836801767349243
0.6023251414299011 0.8895448446273804 0.059531036764383316
0.7835801243782043 0.6489033102989197 0.13922876119613647
0.5486206412315369 0.7561471462249756 -0.023882435634732246
0.5522267818450928 0.7627654075622559 -0.027496671304106712
0.5562827587127686 0.7731629610061646 -0.030302997678518295
0.5599934458732605 0.7861838936805725 -0.02608553133904934
0.5706220865249634 0.8053947687149048 -0.00692650955170393
0.5829350352287292 0.746900200843811 -0.007722894195467234
0.5896009206771851 0.74489426612854 -0.00887695886194706
0.5964857935905457 0.7410324811935425 -0.010023222304880619
0.6201321482658386 0.7247819900512695 -0.008618426509201527
0.719556450843811 0.6614384055137634 0.025039374828338623
0.5347551703453064 0.5211608409881592 -0.04898018389940262
0.548995316028595 0.46811342239379883 -0.014683330431580544
0.5642300844192505 0.4712561368942261 -0.008165521547198296
0.5778623819351196 0.7437771558761597 -0.005095950793474913
0.7252727150917053 0.7194752097129822 0.0650312528014183
0.5266596674919128 0.4682067632675171 -0.04219551756978035
0.5861595273017883 0.827197790145874 0.007280783262103796
0.5148240327835083 0.5372354388237 -0.08365242928266525
0.5507234930992126 0.5885286331176758 -0.0658654123544693
0.5485182404518127 0.8421297073364258 -0.0019023822387680411
0.6393062472343445 0.7791624665260315 0.022422384470701218
0.602748692035675 0.6511697769165039 -0.020644767209887505
0.6157094240188599 0.8065136671066284 0.01615232229232788
0.6611054539680481 0.6445026993751526 -0.01676248013973236
0.6263434886932373 0.6747220754623413 -0.016529781743884087
0.6837654709815979 0.6828911900520325 0.0032446938566863537
0.5573940873146057 0.8698267936706543 0.0015911901136860251
0.5664209723472595 0.6011711955070496 -0.04890713840723038
0.6618696451187134 0.7963971495628357 0.04417496174573898
0.6310421228408813 0.8249461054801941 0.0349259153008461
0.657534122467041 0.7479123473167419 0.01918141543865204
0.7504015564918518 0.6861739158630371 0.08089001476764679
0.6913344860076904 0.7498326301574707 0.039491552859544754
0.7701675891876221 0.7016227841377258 0.13545125722885132
0.6465111970901489 0.7050352096557617 -0.004653287120163441
0.5504581332206726 0.5640735626220703 -0.051971204578876495
0.5451098084449768 0.6418866515159607 -0.09619158506393433
0.5617408156394958 0.6461971998214722 -0.07024013996124268
0.5336841940879822 0.6262858510017395 -0.11259596049785614
0.5666030049324036 0.4446180462837219 -0.02562945894896984
0.6038166880607605 0.4297582507133484 -0.033451978117227554
0.6370928287506104 0.42689186334609985 -0.03460659459233284
0.6655825972557068 0.4307771921157837 -0.02769475243985653
0.6868366003036499 0.440873384475708 -0.014947793446481228
0.7069151997566223 0.48174452781677246 0.02204974554479122
0.7906163930892944 0.5381110310554504 0.1253190040588379
0.6884491443634033 0.5188692212104797 0.008511980064213276
0.6624494194984436 0.5275835990905762 -0.002487859921529889
0.6292791962623596 0.5278160572052002 -0.008985823951661587
0.5989351272583008 0.5225569605827332 -0.011435105465352535
0.5760798454284668 0.5153958797454834 -0.00989215075969696
0.5598210692405701 0.5082273483276367 -0.010810843668878078
0.7987129092216492 0.5314711928367615 0.21239615976810455
0.5620753765106201 0.6518513560295105 -0.05816413089632988
0.5319653153419495 0.5734140872955322 -0.08464884012937546
0.5274200439453125 0.6446675062179565 -0.11229483783245087
0.5166338682174683 0.6557032465934753 -0.1003679484128952
0.5286409854888916 0.6476679444313049 -0.10063143819570541
0.5566570162773132 0.6590037941932678 -0.04877133294939995
0.5120810270309448 0.658501386642456 -0.105952188372612
0.5116989612579346 0.6625208854675293 -0.07741846144199371
0.5601894855499268 0.48762714862823486 -0.0019597294740378857
0.5466822385787964 0.49498385190963745 -0.013504798524081707
0.5383692979812622 0.5007691979408264 -0.0280904583632946
0.673870325088501 0.4728097915649414 0.00018266699044033885
0.6857175230979919 0.4624175727367401 -0.0003264458500780165
