ply
format ascii 1.0
element vertex 468
property float x
property float y
property float z
end_header
0.5420126914978027 0.6923223733901978 -0.07393058389425278
0.5645952820777893 0.624586820602417 -0.1419914960861206
0.5487645864486694 0.6489486694335938 -0.08028573542833328
0.5304208993911743 0.5435375571250916 -0.10990560799837112
0.5651544332504272 0.5980129837989807 -0.14919696748256683
0.5593865513801575 0.5649972558021545 -0.13791999220848083
0.5391784906387329 0.48846620321273804 -0.0656706690788269
0.33331888914108276 0.48890870809555054 -0.005082821939140558
0.5318930745124817 0.4321931004524231 -0.04258013144135475
0.5312798619270325 0.3995901942253113 -0.044516850262880325
0.5208758115768433 0.2762555480003357 -0.01323997974395752
0.5402302742004395 0.7033081650733948 -0.07092812657356262
0.5374351143836975 0.7102557420730591 -0.06497018784284592
0.5340471267700195 0.7108286619186401 -0.05564025416970253
0.5368514060974121 0.7573496103286743 -0.042443547397851944
0.5380414724349976 0.7658582925796509 -0.04800385236740112
0.5382089614868164 0.7766547203063965 -0.05492579936981201
0.5375450849533081 0.790097177028656 -0.05341017246246338
0.5338277220726013 0.8154665231704712 -0.03598122298717499
0.5607072114944458 0.6389738917350769 -0.129588320851326
0.529064416885376 0.6384317874908447 -0.10072322934865952
0.21393509209156036 0.4029233157634735 0.09106741100549698
0.41212937235832214 0.506278395652771 -0.01609426736831665
0.38645103573799133 0.5084511041641235 -0.020007427781820297
0.3607589900493622 0.5082319974899292 -0.01865297555923462
0.3199881911277771 0.49788910150527954 -0.004747665021568537
0.43327105045318604 0.5010989904403687 -0.007519859354943037
0.3782219886779785 0.4440997838973999 -0.028499295935034752
0.40614020824432373 0.44597867131233215 -0.020531224086880684
0.35010606050491333 0.4487845003604889 -0.02641524001955986
0.32979971170425415 0.4588199555873871 -0.019862450659275055
0.2993531823158264 0.5135030746459961 0.0037151933647692204
0.42983895540237427 0.8560712933540344 -0.022236032411456108
0.32114648818969727 0.48391371965408325 0.0013224352151155472
0.2037685215473175 0.5122653841972351 0.09608665853738785
0.2673702836036682 0.5014170408248901 0.02366776578128338
0.39356014132499695 0.6028924584388733 -0.05028128996491432
0.49959132075309753 0.6896651983261108 -0.07912495732307434
0.4960101544857025 0.7103815078735352 -0.06780800968408585
0.45095402002334595 0.6948280930519104 -0.0700015276670456
0.4158344268798828 0.7000446319580078 -0.04921749606728554
0.4601369798183441 0.710515022277832 -0.06035847216844559
0.4302792251110077 0.7106746435165405 -0.04089931398630142
0.3811354637145996 0.7484161853790283 -0.008456233888864517
0.5428786277770996 0.6250534653663635 -0.14337080717086792
0.5401099920272827 0.5989214777946472 -0.15075278282165527
0.2926523983478546 0.4374372363090515 -0.021289749071002007
0.45227012038230896 0.5441755056381226 -0.03909914568066597
0.4627799391746521 0.6162302494049072 -0.09569688886404037
0.45799073576927185 0.6025683283805847 -0.08773095905780792
0.3037893772125244 0.6003022193908691 -0.03403753042221069
0.5362693071365356 0.5683367848396301 -0.13564522564411163
0.3665989637374878 0.4077168107032776 -0.04590341076254845
0.32483455538749695 0.41746100783348083 -0.03654937446117401
0.2507919669151306 0.35516682267189026 0.05256633833050728
0.4799734354019165 0.42730414867401123 -0.0452885739505291
0.42893186211586 0.45485472679138184 -0.008586948737502098
0.35609057545661926 0.7160241007804871 -0.010752171277999878
0.21628989279270172 0.7550860047340393 0.150807186961174
0.48039764165878296 0.6306034922599792 -0.0824073851108551
0.5030010342597961 0.6384017467498779 -0.07942797243595123
0.3720419108867645 0.7123607993125916 -0.004253994207829237
0.3846297860145569 0.7135947346687317 -0.006556984502822161
0.30836164951324463 0.4020084738731384 -0.027177825570106506
0.45579636096954346 0.6249669790267944 -0.08197250217199326
0.4179888069629669 0.40932750701904297 -0.04952443763613701
0.41441574692726135 0.38885927200317383 -0.05483993887901306
0.3743676543235779 0.2900279760360718 -0.013580371625721455
0.2817499339580536 0.37790241837501526 0.008295469917356968
0.3985133171081543 0.336741179227829 -0.03401636332273483
0.2729126811027527 0.4276668429374695 -0.00329116964712739
0.24460823833942413 0.41676390171051025 0.0430687740445137
0.497549444437027 0.702665388584137 -0.075569286942482
0.4563504457473755 0.70465487241745 -0.06525950133800507
0.42349499464035034 0.7055259346961975 -0.04639153182506561
0.4850260317325592 0.6345106363296509 -0.07497454434633255
0.37801092863082886 0.7123583555221558 -0.0050962017849087715
0.3995087146759033 0.7323510646820068 -0.014919416978955269
0.3888113796710968 0.7146475911140442 -0.006595684681087732
0.5042424201965332 0.626436710357666 -0.1152505874633789
0.43222907185554504 0.7078393697738647 -0.036868251860141754
0.46200960874557495 0.7092087268829346 -0.05075198411941528
0.49517589807510376 0.7107304334640503 -0.05860114097595215
0.4902895390987396 0.8151656985282898 -0.03975438326597214
0.49502527713775635 0.7880798578262329 -0.05718333274126053
0.4970754384994507 0.7743803262710571 -0.0584554523229599
0.49835440516471863 0.7638506889343262 -0.050665974617004395
0.49952712655067444 0.756465494632721 -0.045455850660800934
0.4343199133872986 0.7417517900466919 -0.026007894426584244
0.43063589930534363 0.7438608407974243 -0.030065763741731644
0.42515841126441956 0.748995304107666 -0.034046877175569534
0.42073336243629456 0.7568358778953552 -0.030259976163506508
0.4018215537071228 0.6813268065452576 -0.045522142201662064
0.18407979607582092 0.6290177702903748 0.18473762273788452
0.5554521679878235 0.6442689895629883 -0.0976557806134224
0.4132039248943329 0.7326477766036987 -0.012420483864843845
0.40635666251182556 0.7313423752784729 -0.014919212087988853
0.5117713212966919 0.6484996676445007 -0.08039610087871552
0.4589241147041321 0.6380100846290588 -0.060993414372205734
0.50786954164505 0.6438319683074951 -0.08055160939693451
0.4220545291900635 0.5566820502281189 -0.03780701756477356
0.3750406801700592 0.5710891485214233 -0.04079115018248558
0.4484659731388092 0.6123729348182678 -0.07451481372117996
0.30296510457992554 0.3164961636066437 0.015505500137805939
0.33135169744491577 0.35015127062797546 -0.016280442476272583
0.357444167137146 0.3882479667663574 -0.042748160660266876
0.41042304039001465 0.777046799659729 -0.019176431000232697
0.4733375310897827 0.393823504447937 -0.05396050214767456
0.4607200026512146 0.33379295468330383 -0.03812224045395851
0.4443451762199402 0.2780027389526367 -0.022845042869448662
0.3355602025985718 0.5052077770233154 -0.012573091313242912
0.26958686113357544 0.5311467051506042 0.011391906067728996
0.44668298959732056 0.4952079951763153 -0.0017923435661941767
0.2997274696826935 0.4702206552028656 -0.0050421953201293945
0.4729655385017395 0.5291271209716797 -0.04386367276310921
0.4868662655353546 0.6092931032180786 -0.11634904891252518
0.23571144044399261 0.5512706637382507 0.030740628018975258
0.2912883758544922 0.5433685779571533 -0.008594940416514874
0.32877445220947266 0.5488443374633789 -0.0242775846272707
0.38120049238204956 0.5458412170410156 -0.02620825543999672
0.4196775257587433 0.537566065788269 -0.023358149453997612
0.4478476941585541 0.5271596312522888 -0.023663001134991646
0.5139275789260864 0.49571681022644043 -0.06157103553414345
0.2346787452697754 0.5999460816383362 0.021461645141243935
0.27766507863998413 0.46819764375686646 0.001550581306219101
0.5471982955932617 0.6384320855140686 -0.13123875856399536
0.45725107192993164 0.5671519041061401 -0.051831044256687164
0.18053793907165527 0.5138977766036987 0.17001871764659882
0.4689468741416931 0.5141723155975342 -0.02252526767551899
0.4399304687976837 0.6130992770195007 -0.048416998237371445
0.3107459545135498 0.4858291745185852 0.004020943306386471
0.4815160632133484 0.5923685431480408 -0.10622964054346085
0.19417360424995422 0.6910586357116699 0.17311328649520874
0.4441254734992981 0.4870463013648987 0.004849056713283062
0.5094712972640991 0.578132688999176 -0.12608063220977783
0.29620420932769775 0.8033022284507751 0.04541079327464104
0.2944323420524597 0.839353084564209 0.08114740252494812
0.1981860101222992 0.6182206273078918 0.1021527498960495
0.2529561519622803 0.7734163999557495 0.06424019485712051
0.22272835671901703 0.46098536252975464 0.07570483535528183
0.4283197820186615 0.8833637237548828 -0.013911454938352108
0.5451433658599854 0.643523633480072 -0.09779042750597
0.42931273579597473 0.583406388759613 -0.04827510192990303
0.24069462716579437 0.5084878206253052 0.04236342012882233
0.3637121915817261 0.4936048984527588 -0.014612718485295773
0.38687223196029663 0.49427568912506104 -0.016345173120498657
0.3929350972175598 0.7353852391242981 -0.012654592283070087
0.2322363555431366 0.6529383659362793 0.028506401926279068
0.4771963953971863 0.9144179821014404 -0.0050872378051280975
0.3889247477054596 0.888312578201294 0.03216513618826866
0.3464145362377167 0.8688822388648987 0.05483654886484146
0.5265541076660156 0.33534494042396545 -0.029842885211110115
0.5283093452453613 0.9148538112640381 -0.0009677062625996768
0.40762215852737427 0.4929949641227722 -0.012463468126952648
0.4268437325954437 0.49014878273010254 -0.0048402766697108746
0.43883734941482544 0.4886702597141266 0.002772026928141713
0.2543070316314697 0.46442872285842896 0.021985648199915886
0.42165809869766235 0.4712976813316345 -0.00736740417778492
0.3997921943664551 0.4646032750606537 -0.015486244112253189
0.3786734640598297 0.46315813064575195 -0.019413776695728302
0.35566046833992004 0.4670955240726471 -0.018565064296126366
0.33976274728775024 0.47418996691703796 -0.013222789391875267
0.1921047568321228 0.4527839422225952 0.13539567589759827
0.3464911878108978 0.4915962219238281 -0.01021256111562252
0.545127809047699 0.6636947989463806 -0.07251410186290741
0.4373353123664856 0.6696337461471558 -0.06114593893289566
0.4832738935947418 0.6282198429107666 -0.090502068400383
0.5024328231811523 0.6652740240097046 -0.07772141695022583
0.5328921675682068 0.45992130041122437 -0.044878020882606506
0.3429256081581116 0.8343029618263245 0.031405702233314514
0.38427212834358215 0.8592858910560608 0.010643836110830307
0.4791359007358551 0.8979805707931519 -0.03153352439403534
0.2521955668926239 0.8048756718635559 0.11511794477701187
0.43739521503448486 0.4808850884437561 -0.000251681893132627
0.5003475546836853 0.5347282290458679 -0.07467839866876602
0.5333805680274963 0.8978737592697144 -0.026224028319120407
0.4318101704120636 0.9045616388320923 0.007708901539444923
0.20340847969055176 0.6756883859634399 0.0976720079779625
0.46545374393463135 0.7504531145095825 -0.03810632601380348
0.46167266368865967 0.7556279897689819 -0.04260838031768799
0.45845216512680054 0.7639848589897156 -0.04771121218800545
0.45596635341644287 0.7763277888298035 -0.04479088634252548
0.44603288173675537 0.800416886806488 -0.03254382312297821
0.4009226858615875 0.710316002368927 -0.023115601390600204
0.3938264846801758 0.7074851393699646 -0.02388121746480465
0.3871031403541565 0.7039657235145569 -0.025694262236356735
0.37082064151763916 0.6953051090240479 -0.02740166336297989
0.27187374234199524 0.6603888869285583 -0.013108725659549236
0.4941527247428894 0.5111544132232666 -0.050761424005031586
0.4692187011241913 0.4678843021392822 -0.005413802806288004
0.45038658380508423 0.47249722480773926 -0.0006026384653523564
0.4062170386314392 0.7078897356987 -0.020596863701939583
0.2644979953765869 0.7275710701942444 0.023670444265007973
0.4977428615093231 0.4648260474205017 -0.03423044830560684
0.4361894726753235 0.8271235227584839 -0.026080427691340446
0.5522469878196716 0.5390971899032593 -0.11251047253608704
0.5223549604415894 0.5211992859840393 -0.08698730915784836
0.5457546710968018 0.515099048614502 -0.08767770230770111
0.48232951760292053 0.5721085071563721 -0.08062358945608139
0.5352538824081421 0.8729557394981384 -0.0368901863694191
0.5343825221061707 0.8417918682098389 -0.03617770969867706
0.48499926924705505 0.8425158262252808 -0.0378909669816494
0.3672032952308655 0.7663842439651489 -0.002705019898712635
0.4136471450328827 0.6327320337295532 -0.04575229436159134
0.39897483587265015 0.8010507225990295 -0.012079396285116673
0.34309548139572144 0.6329976320266724 -0.04804328829050064
0.38107022643089294 0.6572432518005371 -0.04169085994362831
0.31306859850883484 0.6738088130950928 -0.02997048757970333
0.4809802770614624 0.87340247631073 -0.04053528234362602
0.46136459708213806 0.584950864315033 -0.0670401081442833
0.35004013776779175 0.7966285943984985 0.01032032910734415
0.38965269923210144 0.828020453453064 -0.002047385787591338
0.34060588479042053 0.7299017906188965 -0.009376407600939274
0.236317977309227 0.6993765234947205 0.03844832256436348
0.30687087774276733 0.7478972673416138 0.004887872375547886
0.21949748694896698 0.7286027073860168 0.08837566524744034
0.3497390151023865 0.6834319233894348 -0.031617894768714905
0.4793710708618164 0.5511957406997681 -0.062084246426820755
0.49681079387664795 0.6218094229698181 -0.1208294928073883
0.47179073095321655 0.6253310441970825 -0.09637174755334854
0.5135971307754517 0.6038876175880432 -0.1359010934829712
0.45121899247169495 0.44768452644348145 -0.015508963726460934
0.4119175970554352 0.4337552487850189 -0.02728218398988247
0.3748798072338104 0.4310600757598877 -0.03367864340543747
0.3413350582122803 0.4364318251609802 -0.03128315508365631
0.3148810565471649 0.44905519485473633 -0.02141886204481125
0.2927916646003723 0.4934113621711731 0.010883034206926823
0.19831353425979614 0.5647302269935608 0.09895817190408707
0.3161454200744629 0.5215733647346497 -0.0065832375548779964
0.34715068340301514 0.5265745520591736 -0.01591736078262329
0.383155882358551 0.5261101722717285 -0.019060060381889343
0.41614192724227905 0.5211868286132812 -0.016490137204527855
0.4412834346294403 0.5137006044387817 -0.0110692847520113
0.4586200416088104 0.5057755708694458 -0.008852353319525719
0.18058225512504578 0.5710363984107971 0.18468517065048218
0.4680866003036499 0.6299001574516296 -0.08403825759887695
0.5067622661590576 0.5556315779685974 -0.09705343842506409
0.5213273763656616 0.6231356859207153 -0.13551461696624756
0.5309971570968628 0.6355814337730408 -0.12276366353034973
0.5173617601394653 0.6277980804443359 -0.12408193200826645
0.4713500738143921 0.6360057592391968 -0.07371382415294647
0.538003146648407 0.6372972726821899 -0.12857940793037415
0.5358724594116211 0.6421670913696289 -0.09921007603406906
0.4552173614501953 0.48783940076828003 0.003631264204159379
0.47217801213264465 0.4921538531780243 -0.008028055541217327
0.4845505654811859 0.4951987564563751 -0.025143345817923546
0.3295709490776062 0.4796306788921356 -0.007375516928732395
0.3143324851989746 0.4707915186882019 -0.008618000894784927
0.5699732303619385 0.542593777179718 -0.0983240157365799
0.6749534606933594 0.48030292987823486 0.07763507962226868
0.5760647654533386 0.6368548274040222 -0.09162069857120514
0.7175899744033813 0.39892616868019104 0.21848979592323303
0.6128828525543213 0.5022069215774536 0.03746144846081734
0.6347976922988892 0.5024299621582031 0.04420561343431473
0.6555513143539429 0.5008498430252075 0.055729761719703674
0.6819484233856201 0.4888896346092224 0.08339033275842667
0.5947862863540649 0.49796146154403687 0.034105539321899414
0.6427028179168701 0.4422195851802826 0.039005789905786514
0.6184317469596863 0.44509366154670715 0.03264570236206055
0.6651086211204529 0.445381760597229 0.051855187863111496
0.6791377663612366 0.45396244525909424 0.06427548080682755
0.6970787048339844 0.504339873790741 0.09805677086114883
0.6166937351226807 0.8430050611495972 0.018221236765384674
0.6817513704299927 0.47556012868881226 0.08792998641729355
0.7306156158447266 0.5012784004211426 0.22400949895381927
0.7123799324035645 0.4924408793449402 0.1293310672044754
0.6512457728385925 0.5952376127243042 0.005087676458060741
0.5784188508987427 0.6863465905189514 -0.06332384049892426
0.5707237720489502 0.7072148323059082 -0.05282897502183914
0.6115445494651794 0.6872833371162415 -0.03791350498795509
0.629844069480896 0.6911658644676208 -0.005416022147983313
0.5954042077064514 0.7045977711677551 -0.031775712966918945
0.6127871870994568 0.7035560607910156 -0.003163924440741539
0.6453714370727539 0.7376997470855713 0.04698047414422035
0.5832489728927612 0.6235392093658447 -0.1360154002904892
0.5849238634109497 0.5976055860519409 -0.14197367429733276
0.7045092582702637 0.4334025979042053 0.0787876769900322
0.5974297523498535 0.5407429933547974 -0.003191400086507201
0.6221080422401428 0.6109902262687683 -0.06154526397585869
0.619804859161377 0.5975572466850281 -0.05252470448613167
0.7129727602005005 0.5877861380577087 0.05595073476433754
0.5785875916481018 0.567261815071106 -0.12460243701934814
0.6610089540481567 0.4086536765098572 0.022671770304441452
0.6879464387893677 0.4159567356109619 0.04981643706560135
0.7041243314743042 0.3549879789352417 0.16696633398532867
0.5744363069534302 0.4283546209335327 -0.02310369536280632
0.5980656743049622 0.4538367986679077 0.0345488041639328
0.6643286347389221 0.7042171955108643 0.05549556389451027
0.7058660984039307 0.7303561568260193 0.2692810297012329
0.6059346199035645 0.6262056231498718 -0.056634288281202316
0.5874035358428955 0.6356230974197388 -0.06631314009428024
0.6506088376045227 0.702842652797699 0.05371895059943199
0.638624370098114 0.7052992582321167 0.04521011561155319
0.6952420473098755 0.4015099108219147 0.06538145989179611
0.6214765310287476 0.6195656657218933 -0.04869050532579422
0.6243119239807129 0.41112253069877625 -0.0023058976512402296
0.628303050994873 0.39131438732147217 -0.006240895949304104
0.6383150219917297 0.2929615080356598 0.05098304525017738
0.6996576189994812 0.3772208094596863 0.11009950935840607
0.6318144798278809 0.3392886817455292 0.021461185067892075
0.7123372554779053 0.4237924814224243 0.10351628810167313
0.715691089630127 0.41259586811065674 0.15851201117038727
0.5756641626358032 0.6992073655128479 -0.05972591042518616
0.6030701398849487 0.6978312134742737 -0.03486832603812218
0.6219123005867004 0.6972604990005493 -0.006110931281000376
0.6001566648483276 0.63038170337677 -0.05438040569424629
0.6454641222953796 0.7035866975784302 0.049139730632305145
0.6337360739707947 0.7243584394454956 0.0313565693795681
0.632805585861206 0.7068395614624023 0.043819352984428406
0.5993245840072632 0.6226583123207092 -0.09209690988063812
0.6060428023338318 0.7016088962554932 -0.0010043054353445768
0.588142454624176 0.7041942477226257 -0.023587625473737717
0.5647270083427429 0.7078942656517029 -0.043494563549757004
0.5715233087539673 0.8109346628189087 -0.02516874484717846
0.5733635425567627 0.7846922874450684 -0.040761444717645645
0.5732567310333252 0.7709031105041504 -0.04106622561812401
0.5712604522705078 0.7607185244560242 -0.03377086669206619
0.5675395131111145 0.7534393072128296 -0.029378879815340042
0.6092348098754883 0.735329270362854 0.01010517030954361
0.613969087600708 0.7371770739555359 0.006035404745489359
0.6197609305381775 0.7420158982276917 0.003290087217465043
0.6235323548316956 0.7492706775665283 0.008892612531781197
0.6456056833267212 0.6719987988471985 0.0036724696401506662
0.7180664539337158 0.6115069389343262 0.31585681438446045
0.6198278665542603 0.7256439924240112 0.0319393128156662
0.6277222037315369 0.7237415313720703 0.029885612428188324
0.5800012946128845 0.6462597846984863 -0.06765737384557724
0.6134635806083679 0.6330195069313049 -0.034515611827373505
0.5838713645935059 0.6414171457290649 -0.06802575290203094
0.6214099526405334 0.5515991449356079 0.009840825572609901
0.6599611639976501 0.5633965134620667 0.023917948827147484
0.6223307251930237 0.6068387627601624 -0.03819333016872406
0.679585337638855 0.3189734220504761 0.10831896215677261
0.6729518175125122 0.35196536779403687 0.06528475880622864
0.6665699481964111 0.3899618983268738 0.030084878206253052
0.6276146173477173 0.7666944861412048 0.026394391432404518
0.5821003913879395 0.39635613560676575 -0.02988552860915661
0.5850318670272827 0.3351950943470001 -0.00938719604164362
0.5879366993904114 0.28004390001296997 0.009480191394686699
0.6728652715682983 0.4966058135032654 0.07078796625137329
0.7175881862640381 0.5206652879714966 0.11626648157835007
0.5836535096168518 0.4925432503223419 0.03545530512928963
0.6967188715934753 0.4631942808628082 0.09068557620048523
0.5822093486785889 0.5266696810722351 -0.015360584482550621
0.6121323704719543 0.6052157282829285 -0.08893012255430222
0.7355525493621826 0.5384233593940735 0.14888916909694672
0.7097948789596558 0.5330826640129089 0.09004780650138855
0.6878678798675537 0.539910078048706 0.0600515753030777
0.6478691101074219 0.5392370223999023 0.038298044353723526
0.6159053444862366 0.5329251885414124 0.025669176131486893
0.5928004384040833 0.5238800644874573 0.01335883978754282
0.55838942527771 0.49516886472702026 -0.04956793785095215
0.7446234822273254 0.5839617252349854 0.13943296670913696
0.7092272043228149 0.4613965153694153 0.10661983489990234
0.5717813968658447 0.6376041173934937 -0.12533386051654816
0.6019889116287231 0.563342809677124 -0.01721874624490738
0.7209051251411438 0.5034478902816772 0.3059788644313812
0.577085554599762 0.5120211839675903 0.006083378102630377
0.6217389106750488 0.6074473261833191 -0.012645239941775799
0.6874232292175293 0.47737544775009155 0.09479527175426483
0.6084032654762268 0.5885239243507385 -0.07831534743309021
0.7152799367904663 0.6695778369903564 0.2987793982028961
0.5827026963233948 0.48398223519325256 0.043506089597940445
0.5937877893447876 0.5756368637084961 -0.10568840801715851
0.6890522241592407 0.7789686918258667 0.13463231921195984
0.6735042333602905 0.8132373094558716 0.17097224295139313
0.742788553237915 0.6000556349754333 0.23041574656963348
0.713266909122467 0.7481669187545776 0.16873875260353088
0.7236093282699585 0.4537995457649231 0.1992674171924591
0.6151253581047058 0.8685622215270996 0.029043683782219887
0.5649333000183105 0.643213152885437 -0.09420112520456314
0.6223568916320801 0.5780512690544128 -0.005178166553378105
0.7242204546928406 0.49831485748291016 0.15856699645519257
0.6541810035705566 0.48644983768463135 0.05805493891239166
0.6349936127662659 0.48874813318252563 0.04804638773202896
0.6384304761886597 0.7267589569091797 0.03673285245895386
0.7456954717636108 0.6334325075149536 0.14333118498325348
0.5733433365821838 0.9060362577438354 0.018947653472423553
0.6266977787017822 0.8687535524368286 0.09155311435461044
0.6474577188491821 0.8450965881347656 0.12847816944122314
0.616146445274353 0.48886972665786743 0.04230497032403946
0.5986182689666748 0.4870500862598419 0.041750743985176086
0.5876623392105103 0.48570799827575684 0.044486213475465775
0.7183353900909424 0.4575827121734619 0.13539737462997437
0.6004202961921692 0.4678715765476227 0.04083709418773651
0.618423342704773 0.4608800411224365 0.04091443493962288
0.6376800537109375 0.45828068256378174 0.046300098299980164
0.657714307308197 0.46093276143074036 0.05654335021972656
0.670038104057312 0.46709105372428894 0.06673355400562286
0.722975492477417 0.44566211104393005 0.26868677139282227
0.6666783094406128 0.48354172706604004 0.06885091215372086
0.6255407333374023 0.6622282862663269 -0.023779254406690598
0.6079162955284119 0.623724102973938 -0.06636685132980347
0.5809676051139832 0.6619455218315125 -0.06193561106920242
0.6611238718032837 0.8121034502983093 0.1042587161064148
0.6380143761634827 0.8398048877716064 0.06841044127941132
0.5802819728851318 0.88990718126297 -0.007835554890334606
0.6916321516036987 0.7787832021713257 0.22190825641155243
0.5884472727775574 0.4775804579257965 0.04253167286515236
0.5769189596176147 0.5330723524093628 -0.055515505373477936
0.604485034942627 0.8895782232284546 0.05141312628984451
0.7401861548423767 0.6537675261497498 0.22122374176979065
0.591252863407135 0.7454724311828613 -0.010439912788569927
0.5962076187133789 0.7502874135971069 -0.014432240277528763
0.5999647378921509 0.7585564255714417 -0.017847111448645592
0.6020878553390503 0.770626425743103 -0.014093436300754547
0.6047378778457642 0.7926869988441467 0.00145109579898417
0.6291435956954956 0.7023180723190308 0.023835474625229836
0.637293815612793 0.6986866593360901 0.026776883751153946
0.6438755989074707 0.6945548057556152 0.02738259732723236
0.661137580871582 0.6844629049301147 0.03352653607726097
0.7299463152885437 0.6428205966949463 0.08555693179368973
0.5695044994354248 0.5099061727523804 -0.030550984665751457
0.5697523951530457 0.46671730279922485 0.020149147137999535
0.5802876949310303 0.47044187784194946 0.03532470762729645
0.6209566593170166 0.7006834745407104 0.024527663365006447
0.7219412922859192 0.7059298157691956 0.12303223460912704
0.5578262805938721 0.46458330750465393 -0.019389070570468903
0.6103361248970032 0.8162025213241577 0.010036134161055088
0.5644382238388062 0.520328164100647 -0.07667914777994156
0.595467209815979 0.5688793659210205 -0.05500688776373863
0.5763576030731201 0.836704671382904 -0.020660584792494774
0.6541153192520142 0.7521831393241882 0.05999332293868065
0.6384483575820923 0.6254075169563293 0.0004174979985691607
0.6333252191543579 0.7876874804496765 0.03756079450249672
0.689185380935669 0.6212558746337891 0.023563269525766373
0.6598359942436218 0.6473873853683472 0.016318928450345993
0.7052793502807617 0.6584098935127258 0.05215262249112129
0.5817809104919434 0.8661478757858276 -0.018107019364833832
0.6067558526992798 0.5807677507400513 -0.03479529544711113
0.6637666821479797 0.7778361439704895 0.08051854372024536
0.6389350891113281 0.8112608790397644 0.05213193967938423
0.6756288409233093 0.7152389883995056 0.06595820933580399
0.7378934621810913 0.6774023771286011 0.14857475459575653
0.6964004039764404 0.7281153202056885 0.09013677388429642
0.7303566932678223 0.7042853236198425 0.2064378410577774
0.6768183708190918 0.6712667942047119 0.03825793042778969
0.5883781909942627 0.5484690070152283 -0.034735146909952164
0.6069272756576538 0.6177233457565308 -0.0957028791308403
0.6168419122695923 0.6201621294021606 -0.06728765368461609
0.6003576517105103 0.6010007858276367 -0.11553733050823212
0.5863174796104431 0.4467291831970215 0.019153954461216927
0.6204962134361267 0.4331595003604889 0.023130346089601517
0.6513232588768005 0.4297648072242737 0.03212582319974899
0.6759649515151978 0.43363481760025024 0.04868943989276886
0.6914210915565491 0.4443477690219879 0.06802798807621002
0.6977319717407227 0.4849669933319092 0.10740668326616287
0.7386021614074707 0.5503565073013306 0.23071996867656708
0.688619077205658 0.5124013423919678 0.0826190933585167
0.6682645082473755 0.5187258124351501 0.06187117099761963
0.6405559182167053 0.5199660062789917 0.04479725658893585
0.6127569675445557 0.5168682932853699 0.03378358110785484
0.591849684715271 0.5105733871459961 0.026685068383812904
0.5781709551811218 0.5033099055290222 0.021732939407229424
0.7178692817687988 0.557367205619812 0.32026952505111694
0.6144521236419678 0.6248051524162292 -0.055710602551698685
0.5840609073638916 0.5536138415336609 -0.07719731330871582
0.5958052277565002 0.6202049851417542 -0.11993200331926346
0.5800902247428894 0.633384108543396 -0.11381112039089203
0.5928546190261841 0.6246955990791321 -0.10775229334831238
0.6080120801925659 0.6313546895980835 -0.04966592788696289
0.5778433084487915 0.6358069181442261 -0.12125440686941147
0.5717556476593018 0.6409353613853455 -0.09271635115146637
0.5763913989067078 0.4855109453201294 0.03585733100771904
0.5676448345184326 0.49059951305389404 0.015933403745293617
0.5652779936790466 0.494008332490921 -0.0049258070066571236
0.6769601106643677 0.4718274176120758 0.07627858221530914
0.6879715323448181 0.46402961015701294 0.0801001638174057
