ply
format ascii 1.0
element vertex 468
property float x
property float y
property float z
end_header
0.4664706587791443 0.687066912651062 -0.07989370822906494
0.45219069719314575 0.6133771538734436 -0.1327817142009735
0.46559298038482666 0.6407008171081543 -0.0787959173321724
0.4463938772678375 0.5392374992370605 -0.08891074359416962
0.4520966112613678 0.588859498500824 -0.13819155097007751
0.4575474262237549 0.5592555403709412 -0.12582315504550934
0.47593188285827637 0.4890679121017456 -0.05338789150118828
0.33742672204971313 0.491254061460495 0.06849946081638336
0.483452171087265 0.43412718176841736 -0.029314637184143066
0.4845864474773407 0.40281444787979126 -0.028590407222509384
0.4926134943962097 0.2914090156555176 0.008718414232134819
0.4675641655921936 0.6984086632728577 -0.07859279960393906
0.4702720642089844 0.7071839570999146 -0.07319821417331696
0.4732029139995575 0.7105073928833008 -0.06496969610452652
0.4794791042804718 0.7900023460388184 -0.040007613599300385
0.47805655002593994 0.8018888235092163 -0.04465239867568016
0.47782015800476074 0.8154548406600952 -0.04907916858792305
0.4783855676651001 0.829986572265625 -0.042975474148988724
0.48101407289505005 0.8480861186981201 -0.022588197141885757
0.4554489850997925 0.6275465488433838 -0.12272105365991592
0.44101953506469727 0.6273921728134155 -0.08898066729307175
0.2910989224910736 0.4151889681816101 0.20047833025455475
0.4000101387500763 0.507876992225647 0.03317652642726898
0.37894290685653687 0.510430634021759 0.03823787346482277
0.35816335678100586 0.5102453827857971 0.04794588312506676
0.33084070682525635 0.4992435574531555 0.07232649624347687
0.41686612367630005 0.5023634433746338 0.031640540808439255
0.36652207374572754 0.44422513246536255 0.03612947463989258
0.39113518595695496 0.44636279344558716 0.03144754469394684
0.34441524744033813 0.44887226819992065 0.04655736684799194
0.33055731654167175 0.45941972732543945 0.05708213895559311
0.3180687129497528 0.5144782662391663 0.08405608683824539
0.3978968560695648 0.8576803803443909 0.01639951579272747
0.32978159189224243 0.48616737127304077 0.07762721180915833
0.2847561538219452 0.5120522975921631 0.19724729657173157
0.30222195386886597 0.5015608668327332 0.1126304343342781
0.36629539728164673 0.5980387926101685 -0.0019071147544309497
0.4320357143878937 0.6825239658355713 -0.07017580419778824
0.4405377507209778 0.7063975930213928 -0.06310813128948212
0.40149620175361633 0.6886934041976929 -0.048562467098236084
0.38715219497680664 0.6982803344726562 -0.019165778532624245
0.4186196029186249 0.7074130773544312 -0.04459346830844879
0.4051048755645752 0.711179256439209 -0.018341178074479103
0.3738996982574463 0.7578575611114502 0.031845252960920334
0.43461039662361145 0.6130202412605286 -0.12820325791835785
0.4323364496231079 0.589596688747406 -0.13239999115467072
0.30722281336784363 0.4404541254043579 0.07097896188497543
0.41527414321899414 0.5417236089706421 -0.004648309666663408
0.3944454491138458 0.606744110584259 -0.06224788725376129
0.39577698707580566 0.5950570106506348 -0.05363915115594864
0.31008070707321167 0.5956640839576721 0.040397707372903824
0.4383368492126465 0.561967134475708 -0.11439143866300583
0.35012418031692505 0.4135206341743469 0.023876385763287544
0.32362228631973267 0.4218442440032959 0.04658878594636917
0.3043920695781708 0.3719402849674225 0.15755583345890045
0.4384932219982147 0.4313124716281891 -0.01467151939868927
0.4120387136936188 0.45534563064575195 0.033797722309827805
0.3585534393787384 0.7213407158851624 0.03689154237508774
0.31730157136917114 0.7324843406677246 0.22265422344207764
0.41155490279197693 0.6203580498695374 -0.05767102539539337
0.4293575882911682 0.6298844814300537 -0.06624250113964081
0.37293708324432373 0.7248124480247498 0.034272439777851105
0.3861464262008667 0.7267392873764038 0.02650400437414646
0.3157064914703369 0.4088292121887207 0.06163395941257477
0.3960683345794678 0.6171135306358337 -0.051117248833179474
0.3873816132545471 0.4146645665168762 0.002921061357483268
0.3839864730834961 0.39654773473739624 0.0009173523867502809
0.37321802973747253 0.3100530207157135 0.05993068963289261
0.30970531702041626 0.3898914158344269 0.10434415191411972
0.3799879848957062 0.3511819541454315 0.030026467517018318
0.299552857875824 0.43206048011779785 0.09460766613483429
0.2949545383453369 0.42536652088165283 0.14564266800880432
0.4349573254585266 0.6960812211036682 -0.06860347837209702
0.40992212295532227 0.6996053457260132 -0.04688412323594093
0.3951376676559448 0.7044916749000549 -0.02050039917230606
0.4174443781375885 0.6253626942634583 -0.05540090426802635
0.3788048028945923 0.7259185910224915 0.030026676133275032
0.3892351984977722 0.7519565224647522 0.018387697637081146
0.3916947841644287 0.7265409231185913 0.025755098089575768
0.4184510111808777 0.6133732199668884 -0.08925820142030716
0.41208964586257935 0.709990382194519 -0.016795869916677475
0.4262050986289978 0.7081483602523804 -0.037728436291217804
0.4463512599468231 0.7094075679779053 -0.054817598313093185
0.44260358810424805 0.8424482345581055 -0.014356859028339386
0.44103050231933594 0.8238974213600159 -0.03267146646976471
0.44207140803337097 0.8097627758979797 -0.036386772990226746
0.44580796360969543 0.7958792448043823 -0.032035376876592636
0.4504518210887909 0.7859711050987244 -0.028599143028259277
0.41469550132751465 0.7643924951553345 0.0031569458078593016
0.40872257947921753 0.768093466758728 0.0002736760361585766
0.40068191289901733 0.7739438414573669 -0.0016870381077751517
0.3949527144432068 0.7808389663696289 0.003942962270230055
0.37473273277282715 0.678234338760376 -0.00969752948731184
0.3002299964427948 0.617548942565918 0.2724806070327759
0.4600743055343628 0.6340930461883545 -0.09405417740345001
0.4053099751472473 0.751659631729126 0.01919904351234436
0.39652329683303833 0.7513027787208557 0.01733802817761898
0.43569427728652954 0.640530526638031 -0.06799579411745071
0.40405815839767456 0.6316272020339966 -0.03807239606976509
0.43250536918640137 0.635535717010498 -0.06803304702043533
0.39308422803878784 0.5537983775138855 0.005172270815819502
0.3574922978878021 0.5680164694786072 0.015409358777105808
0.3937757611274719 0.6055392622947693 -0.04122474044561386
0.32980018854141235 0.3359169065952301 0.10800245404243469
0.3367609679698944 0.3642105758190155 0.06625674664974213
0.34464359283447266 0.39641115069389343 0.03182795271277428
0.38957375288009644 0.7907295823097229 0.019234880805015564
0.4318947196006775 0.4014523923397064 -0.018377071246504784
0.42848318815231323 0.3472827672958374 0.004462790675461292
0.42557698488235474 0.2965526878833771 0.026094092056155205
0.34036785364151 0.506932258605957 0.0610254742205143
0.29977673292160034 0.5301932692527771 0.09870025515556335
0.4272407293319702 0.4964035749435425 0.033655937761068344
0.31514811515808105 0.47119247913360596 0.08000689744949341
0.43045341968536377 0.5276679396629333 -0.014216843992471695
0.4048088788986206 0.5983315110206604 -0.08604572713375092
0.28344467282295227 0.5481367707252502 0.12602342665195465
0.30776891112327576 0.5424139499664307 0.07423792779445648
0.3289867639541626 0.5482826232910156 0.04749410226941109
0.3675186038017273 0.544823169708252 0.02992897480726242
0.397855669260025 0.5363355875015259 0.020428095012903214
0.4196476340293884 0.5261313915252686 0.01120480801910162
0.45616915822029114 0.4961104989051819 -0.04074973613023758
0.2784467041492462 0.5930550694465637 0.1136302798986435
0.3035063147544861 0.46932917833328247 0.09450925141572952
0.4451430141925812 0.6266579627990723 -0.11942075192928314
0.41139328479766846 0.5627930760383606 -0.018991142511367798
0.29221421480178833 0.5147138237953186 0.2710523009300232
0.4350290298461914 0.5143066644668579 0.006097474135458469
0.39420491456985474 0.6073300838470459 -0.01757150888442993
0.3238508105278015 0.486614465713501 0.08315655589103699
0.4069925546646118 0.5839305520057678 -0.0756039097905159
0.3051648736000061 0.6728617548942566 0.2534610629081726
0.42739540338516235 0.4887921214103699 0.04153413325548172
0.42234718799591064 0.5705949664115906 -0.09906096756458282
0.33475106954574585 0.7848266363143921 0.10627765208482742
0.34651851654052734 0.8167095184326172 0.13582336902618408
0.27811869978904724 0.6075161099433899 0.19494563341140747
0.31484442949295044 0.7523661851882935 0.134545236825943
0.2893180251121521 0.46593472361564636 0.17888836562633514
0.3976304233074188 0.8833670020103455 0.023616062477231026
0.4513300359249115 0.6332536935806274 -0.09130320698022842
0.39238792657852173 0.57906174659729 -0.009936654940247536
0.2913272976875305 0.5079118609428406 0.13840070366859436
0.3592280149459839 0.49705326557159424 0.05071725696325302
0.37857118248939514 0.49765947461128235 0.04240811616182327
0.3830040693283081 0.7529831528663635 0.022074492648243904
0.2810719311237335 0.6407789587974548 0.11425330489873886
0.43624910712242126 0.9270287156105042 0.015348329208791256
0.38354089856147766 0.8788663148880005 0.07287474721670151
0.3663645386695862 0.8513739705085754 0.10185965150594711
0.4874902665615082 0.3454208970069885 -0.010872449725866318
0.4845452308654785 0.9377651214599609 0.0003847540938295424
0.3964499831199646 0.49587273597717285 0.03832869976758957
0.4130094051361084 0.4926474690437317 0.038758840411901474
0.4230530560016632 0.4904381036758423 0.04203856363892555
0.2951640486717224 0.4665224552154541 0.12074439227581024
0.4100564122200012 0.47446081042289734 0.038975924253463745
0.3919735550880432 0.46887749433517456 0.038453731685876846
0.37270843982696533 0.4676821231842041 0.04272187128663063
0.35355913639068604 0.4712896943092346 0.05066116154193878
0.3415879011154175 0.4775346517562866 0.05917167291045189
0.2874405086040497 0.46002793312072754 0.24232341349124908
0.34641033411026 0.49462413787841797 0.06031961739063263
0.4672819972038269 0.6567045450210571 -0.07330702990293503
0.39126813411712646 0.6647161245346069 -0.032255616039037704
0.4095557630062103 0.6167147755622864 -0.06598221510648727
0.4327867031097412 0.658038854598999 -0.0639827623963356
0.48165905475616455 0.46226266026496887 -0.0329534187912941
0.35581034421920776 0.8199701309204102 0.08268329501152039
0.3765505850315094 0.8498757481575012 0.05507589131593704
0.43163880705833435 0.9091261625289917 -0.005255247466266155
0.33162921667099 0.7812774777412415 0.17874681949615479
0.42175132036209106 0.4833071231842041 0.040724869817495346
0.4375472664833069 0.5319958329200745 -0.05008060112595558
0.48112237453460693 0.920451819896698 -0.018712827935814857
0.40476667881011963 0.9056797027587891 0.04086409881711006
0.2834639251232147 0.6595160961151123 0.18377625942230225
0.42980995774269104 0.7768518924713135 -0.013383067212998867
0.4235202968120575 0.7836564779281616 -0.015610918402671814
0.41742488741874695 0.7943907380104065 -0.016987303271889687
0.41338932514190674 0.8069636225700378 -0.012711054645478725
0.41035977005958557 0.8207583427429199 0.0027109342627227306
0.3935617506504059 0.7162470817565918 0.006271516438573599
0.3845309615135193 0.7124332785606384 0.008889341726899147
0.37737199664115906 0.7081105709075928 0.009769823402166367
0.36308538913726807 0.6962544322013855 0.016529060900211334
0.29924914240837097 0.6496950387954712 0.06419770419597626
0.4438832402229309 0.5109419822692871 -0.025630086660385132
0.4415324926376343 0.4702950119972229 0.021649451926350594
0.4300329089164734 0.4737318754196167 0.03479599207639694
0.4011707007884979 0.714024543762207 0.006989205721765757
0.30788862705230713 0.7121840119361877 0.09609486907720566
0.4552522301673889 0.46777987480163574 -0.012104098685085773
0.40491142868995667 0.8347784280776978 0.010832403786480427
0.4643673598766327 0.5355148911476135 -0.10035708546638489
0.45104357600212097 0.5189666152000427 -0.06671883910894394
0.4701578617095947 0.5135959982872009 -0.07539302855730057
0.41851162910461426 0.566386878490448 -0.05288248881697655
0.4797770380973816 0.8951501846313477 -0.02510855719447136
0.48062676191329956 0.8677361011505127 -0.022519420832395554
0.4381335377693176 0.8595954179763794 -0.010617688298225403
0.36353838443756104 0.7661471366882324 0.044298142194747925
0.37883713841438293 0.6276421546936035 -0.006969732698053122
0.38175442814826965 0.8030469417572021 0.029812797904014587
0.33470460772514343 0.627079427242279 0.01284305565059185
0.3615606427192688 0.6524122953414917 0.004909595940262079
0.3229982256889343 0.6659977436065674 0.035797275602817535
0.4321707487106323 0.884834885597229 -0.011032188311219215
0.40725430846214294 0.5788808465003967 -0.03597812354564667
0.35330063104629517 0.788819432258606 0.06219160184264183
0.37629270553588867 0.8230138421058655 0.04197109118103981
0.3471856415271759 0.7276502847671509 0.047148287296295166
0.29076671600341797 0.6831879019737244 0.11806201934814453
0.3283604383468628 0.7376613020896912 0.06809200346469879
0.29637661576271057 0.7084298133850098 0.16822902858257294
0.34944257140159607 0.6808234453201294 0.02263631671667099
0.4249495267868042 0.5476109981536865 -0.033204447478055954
0.41060227155685425 0.6089861392974854 -0.09286415576934814
0.4005091190338135 0.6145274639129639 -0.06783976405858994
0.41707730293273926 0.5928675532341003 -0.10943398624658585
0.42501938343048096 0.4489879608154297 0.021410398185253143
0.3903632164001465 0.4345993995666504 0.02408241108059883
0.3595874607563019 0.4321521520614624 0.030927447602152824
0.33515554666519165 0.43799418210983276 0.04482012614607811
0.3197510242462158 0.45087575912475586 0.061136990785598755
0.3153867721557617 0.4939028024673462 0.09376179426908493
0.2796391546726227 0.5592755675315857 0.19843222200870514
0.3263665437698364 0.5223062038421631 0.06964865326881409
0.346493661403656 0.5274041295051575 0.05167020484805107
0.3736330270767212 0.5267120003700256 0.037208687514066696
0.4004710018634796 0.5214789509773254 0.028766263276338577
0.4202500581741333 0.5139029622077942 0.02406815066933632
0.43333742022514343 0.5065280199050903 0.020616061985492706
0.2975071668624878 0.5658214688301086 0.2805512547492981
0.40318864583969116 0.6205983757972717 -0.0570112019777298
0.431226909160614 0.5507535934448242 -0.07136651873588562
0.42243844270706177 0.6100876927375793 -0.11401796340942383
0.437188982963562 0.6235231161117554 -0.10849664360284805
0.42522549629211426 0.6146435141563416 -0.10303942859172821
0.4096454381942749 0.6282621622085571 -0.05162722244858742
0.4396474063396454 0.6254522800445557 -0.11551199108362198
0.44506898522377014 0.6314459443092346 -0.08993679285049438
0.4342557489871979 0.48899680376052856 0.03481893613934517
0.4436122179031372 0.4937359094619751 0.016900235787034035
0.44701454043388367 0.4965428411960602 -0.001969990786164999
0.3346472680568695 0.4823485016822815 0.06746119260787964
0.3229289650917053 0.4715922176837921 0.07079357653856277
0.4853619933128357 0.5393015742301941 -0.09705623984336853
0.6702060699462891 0.487748384475708 0.007656394969671965
0.48471054434776306 0.6283180117607117 -0.0951719880104065
0.7762932181358337 0.40432852506637573 0.10647192597389221
0.5934764742851257 0.5060043334960938 -0.005850400775671005
0.6171936392784119 0.5081201195716858 -0.008568115532398224
0.6419538259506226 0.5080207586288452 -0.006490988191217184
0.6812840700149536 0.49537193775177 0.007844126783311367
0.5749167799949646 0.5006476640701294 0.0012583376374095678
0.6290583610534668 0.4372977018356323 -0.012388751842081547
0.6020240187644958 0.4408538341522217 -0.0065275272354483604
0.6560360193252563 0.441326379776001 -0.009947300888597965
0.6753653883934021 0.4517216682434082 -0.003983492963016033
0.6978512406349182 0.511289119720459 0.014618147164583206
0.5848400592803955 0.8641197085380554 -0.013370567932724953
0.6820285320281982 0.4814818501472473 0.01446724496781826
0.7834234237670898 0.5072088241577148 0.10163402557373047
0.7276667952537537 0.49700990319252014 0.03492040932178497
0.6074188351631165 0.5980296730995178 -0.042317647486925125
0.5080371499061584 0.6833397746086121 -0.08259514719247818
0.5076835751533508 0.7071188688278198 -0.07497352361679077
0.5533084273338318 0.6919374465942383 -0.07305432111024857
0.5828534364700317 0.7019335031509399 -0.053056102246046066
0.5402286648750305 0.7099019885063171 -0.06715014576911926
0.5660383105278015 0.7139259576797485 -0.048004984855651855
0.6223171949386597 0.7619637250900269 -0.010078678838908672
0.47293582558631897 0.6133046746253967 -0.13359586894512177
0.47626811265945435 0.5899096131324768 -0.13865330815315247
0.7087798118591309 0.43126970529556274 -0.0012162637431174517
0.5560289025306702 0.541450023651123 -0.030931895598769188
0.547936201095581 0.6079951524734497 -0.0873175784945488
0.5524227619171143 0.5957667231559753 -0.07922806590795517
0.6864890456199646 0.5954505801200867 -0.026348350569605827
0.4800630211830139 0.5620772242546082 -0.12287120521068573
0.6439124345779419 0.4033333659172058 -0.024682728573679924
0.6811611652374268 0.41193968057632446 -0.014976662583649158
0.7452824115753174 0.3596537113189697 0.07357371598482132
0.5362644195556641 0.4270893931388855 -0.02945668064057827
0.5801976919174194 0.4515380859375 0.002905254950746894
0.640434980392456 0.7255535125732422 -0.012388947419822216
0.7662482261657715 0.7415626645088196 0.13444936275482178
0.5298550724983215 0.6220413446426392 -0.07706472277641296
0.5085784792900085 0.6306042075157166 -0.0759662538766861
0.6234578490257263 0.7281104326248169 -0.009779618121683598
0.6100885272026062 0.7297223806381226 -0.013223799876868725
0.6958655118942261 0.39763128757476807 -0.004964807070791721
0.5531741380691528 0.6184129118919373 -0.0760108232498169
0.596657395362854 0.40660738945007324 -0.03021148219704628
0.6007154583930969 0.38761037588119507 -0.03329239785671234
0.6337571144104004 0.30062082409858704 0.01299209427088499
0.7190855741500854 0.3785483241081238 0.03017674759030342
0.6133494973182678 0.34245699644088745 -0.009992100298404694
0.7258580923080444 0.42239686846733093 0.016672415658831596
0.7499673366546631 0.4152390956878662 0.06058363988995552
0.5081901550292969 0.6972891688346863 -0.08088678121566772
0.5461180806159973 0.7025219202041626 -0.07065994292497635
0.5744680166244507 0.7078286409378052 -0.05208093672990799
0.5252818465232849 0.6268449425697327 -0.07076329737901688
0.6172099709510803 0.7289823889732361 -0.011592119000852108
0.602138102054596 0.7544219493865967 -0.01776292361319065
0.6056869029998779 0.7297272086143494 -0.013272855430841446
0.5086893439292908 0.6148430109024048 -0.10615275055170059
0.5627840757369995 0.7120468020439148 -0.0449858196079731
0.5366923809051514 0.709773600101471 -0.058784935623407364
0.5073723793029785 0.7095765471458435 -0.06692226976156235
0.5253351926803589 0.8432406783103943 -0.02650214359164238
0.5226970911026001 0.8243972063064575 -0.04684703052043915
0.5196463465690613 0.8104599714279175 -0.051178738474845886
0.516987144947052 0.796830415725708 -0.04639335349202156
0.5145987868309021 0.7872783541679382 -0.042609840631484985
0.5693138837814331 0.7668085694313049 -0.025937119498848915
0.5745075941085815 0.770130455493927 -0.02899685874581337
0.5825570225715637 0.775787889957428 -0.031451426446437836
0.5888314843177795 0.7826299667358398 -0.027886992320418358
0.5980246663093567 0.6805535554885864 -0.04696512222290039
0.7968001365661621 0.6185107231140137 0.17366304993629456
0.5862940549850464 0.7544145584106445 -0.01586516574025154
0.5944609045982361 0.7537775039672852 -0.017741423100233078
0.500954806804657 0.641148567199707 -0.07724752277135849
0.5494682788848877 0.6330384016036987 -0.058083828538656235
0.5042408108711243 0.636268675327301 -0.07723218947649002
0.5827288031578064 0.5532787442207336 -0.029849765822291374
0.6242996454238892 0.5672138929367065 -0.03208482638001442
0.5602011680603027 0.6063963770866394 -0.06819764524698257
0.69919753074646 0.3240060806274414 0.040409184992313385
0.6753541231155396 0.35310906171798706 0.0071852062828838825
0.6530746817588806 0.38556110858917236 -0.02030397765338421
0.5990321636199951 0.7937682271003723 -0.016567202284932137
0.5433635115623474 0.39535221457481384 -0.03483707085251808
0.5532788634300232 0.3423513174057007 -0.015559657476842403
0.5671918392181396 0.2913549542427063 0.0024939128197729588
0.6662356853485107 0.5039682984352112 0.000188097677892074
0.7236101627349854 0.5276106595993042 0.02133353054523468
0.5632458925247192 0.4946873188018799 0.006356367375701666
0.7010389566421509 0.4646364450454712 0.010482165962457657
0.5376172661781311 0.527038037776947 -0.03493921086192131
0.5259502530097961 0.5993262529373169 -0.10593301057815552
0.7532049417495728 0.5460320711135864 0.03806621581315994
0.7031248211860657 0.540425181388855 0.0016521608922630548
0.668471097946167 0.5464358925819397 -0.01467753853648901
0.6202310919761658 0.5435041785240173 -0.017137005925178528
0.5853560566902161 0.5354427099227905 -0.015285265631973743
0.5600717663764954 0.5254437327384949 -0.01554030366241932
0.5003220438957214 0.4957166612148285 -0.04919124022126198
0.750246524810791 0.593123197555542 0.026102829724550247
0.7205507755279541 0.46261119842529297 0.017755860462784767
0.4680637717247009 0.6269072890281677 -0.12351018190383911
0.5518982410430908 0.5627986192703247 -0.044666800647974014
0.8033028841018677 0.5092944502830505 0.16948553919792175
0.5411846041679382 0.5135433077812195 -0.014275724068284035
0.5670734643936157 0.6079593896865845 -0.04416917264461517
0.6915604472160339 0.4815223217010498 0.016820235177874565
0.5309441089630127 0.584709644317627 -0.09597466140985489
0.7872498035430908 0.6774923205375671 0.15901798009872437
0.5664066076278687 0.48720526695251465 0.013189881108701229
0.5053769946098328 0.5712867379188538 -0.11354412883520126
0.6992813944816589 0.7981783151626587 0.041748058050870895
0.7029896378517151 0.8323439359664917 0.06954748183488846
0.7850162982940674 0.6081963777542114 0.09902609139680862
0.7330827713012695 0.7641382217407227 0.05801798030734062
0.7680797576904297 0.45811986923217773 0.08741351217031479
0.5878666639328003 0.8920121192932129 -0.007330095861107111
0.46969032287597656 0.633393406867981 -0.09380263090133667
0.5761374235153198 0.5788629055023193 -0.04135382920503616
0.7509981989860535 0.5033585429191589 0.05257238447666168
0.6401695013046265 0.49440962076187134 -0.0019389999797567725
0.6175912618637085 0.4950350522994995 -0.004424408543854952
0.6095426082611084 0.7556228637695312 -0.01619907282292843
0.749944806098938 0.6435427069664001 0.029149862006306648
0.5396731495857239 0.9324430227279663 -0.0023585380986332893
0.6248714327812195 0.891585111618042 0.029999330639839172
0.6613804697990417 0.8664211630821228 0.04778935760259628
0.5985420346260071 0.4935016334056854 -0.0018644961528480053
0.5812894701957703 0.49030935764312744 0.004414158873260021
0.5709340572357178 0.48872077465057373 0.011425425298511982
0.7409582734107971 0.45938390493392944 0.0376591719686985
0.587037980556488 0.47193238139152527 0.003726494498550892
0.6071105003356934 0.4652508497238159 -0.0028611994348466396
0.626967191696167 0.46339109539985657 -0.005497782491147518
0.6489144563674927 0.4664956033229828 -0.003542331513017416
0.664265513420105 0.47273391485214233 0.0011509004980325699
0.7944963574409485 0.45133671164512634 0.14267006516456604
0.6570495963096619 0.4916956126689911 0.0027511660009622574
0.5684073567390442 0.6664502024650574 -0.060790710151195526
0.5280172228813171 0.6183768510818481 -0.08353786170482635
0.5084861516952515 0.6590260863304138 -0.07606279104948044
0.6629108786582947 0.8328756093978882 0.029981965199112892
0.6278544664382935 0.8617700934410095 0.012722902931272984
0.5378974080085754 0.9138533473014832 -0.022467680275440216
0.7364544868469238 0.7942054867744446 0.09972380846738815
0.572856605052948 0.481414258480072 0.00934746116399765
0.5132217407226562 0.5318531394004822 -0.06379176676273346
0.5852233171463013 0.9148737192153931 0.009222131222486496
0.7791556119918823 0.6635227799415588 0.0917646661400795
0.5439428091049194 0.7787938117980957 -0.0361805185675621
0.5490238666534424 0.7854773998260498 -0.03928891941905022
0.5546588897705078 0.7956358790397644 -0.04185112565755844
0.5595118403434753 0.8077359199523926 -0.03802718594670296
0.5680282711982727 0.8226563930511475 -0.02462794817984104
0.5922797918319702 0.7193894386291504 -0.029960809275507927
0.6002484560012817 0.7160800695419312 -0.03031923435628414
0.6075682640075684 0.7118532657623291 -0.031074563041329384
0.6234995126724243 0.6994825005531311 -0.02953002229332924
0.711289644241333 0.6526050567626953 -0.009534531272947788
0.5186598300933838 0.5102287530899048 -0.04050299897789955
0.5427462458610535 0.46845543384552 0.0036308481357991695
0.5603970289230347 0.4715334475040436 0.009131663478910923
0.5864840745925903 0.7165917158126831 -0.027826178818941116
0.7195701003074646 0.7198182940483093 0.022474072873592377
0.516033947467804 0.46630358695983887 -0.022619368508458138
0.5777357220649719 0.8395038843154907 -0.016699429601430893
0.4928939640522003 0.5188601613044739 -0.0741342157125473
0.5295872688293457 0.5666769742965698 -0.07126807421445847
0.5307685732841492 0.8619619607925415 -0.023636016994714737
0.6379071474075317 0.7725652456283569 -0.0025946320965886116
0.5897197723388672 0.6284236311912537 -0.04125838354229927
0.6122482419013977 0.8091491460800171 -0.007886764593422413
0.6495323777198792 0.6279622912406921 -0.03977750986814499
0.6164970993995667 0.6541150808334351 -0.03831692785024643
0.6739583611488342 0.6692847013473511 -0.02462277002632618
0.5354056358337402 0.8881241083145142 -0.02769939973950386
0.5484815835952759 0.5791955590248108 -0.05959015339612961
0.6553807258605957 0.7979944944381714 0.010761400684714317
0.6221529245376587 0.8321641087532043 0.0021194713190197945
0.6563471555709839 0.7333468198776245 -0.008967344649136066
0.7454056143760681 0.6890509128570557 0.03600011393427849
0.686805784702301 0.7458509206771851 0.0051164524629712105
0.7633460760116577 0.7163766622543335 0.08053779602050781
0.6419968008995056 0.6838619112968445 -0.02921222522854805
0.5321871638298035 0.5474010705947876 -0.05323962867259979
0.5162305235862732 0.6103994846343994 -0.11059421300888062
0.5389935374259949 0.6161115765571594 -0.08886075764894485
0.5012925863265991 0.5938075184822083 -0.12446827441453934
0.560839056968689 0.44583141803741455 -0.0038731922395527363
0.5989183187484741 0.4288342595100403 -0.011871540918946266
0.6342330574989319 0.42452090978622437 -0.015813767910003662
0.6654437780380249 0.4296848177909851 -0.012856103479862213
0.6889317631721497 0.4427475929260254 -0.00362274213694036
0.7058104872703552 0.48948657512664795 0.02308231219649315
0.7865465879440308 0.5571463704109192 0.10036930441856384
0.6823446750640869 0.5194087624549866 0.004428734537214041
0.6533984541893005 0.5252465605735779 -0.0051476177759468555
0.6197183728218079 0.5249437093734741 -0.009332790970802307
0.5892311334609985 0.5199350118637085 -0.007685029413551092
0.5669630765914917 0.5127472281455994 -0.0031019377056509256
0.5512931942939758 0.5054239630699158 -0.0014083748683333397
0.8012976050376892 0.5636013150215149 0.17842045426368713
0.5416254997253418 0.6222555041313171 -0.07809726148843765
0.5075346827507019 0.5508217811584473 -0.08558214455842972
0.4933050572872162 0.6111325621604919 -0.12513303756713867
0.482866108417511 0.6242862939834595 -0.11515557765960693
0.4960969090461731 0.6159338355064392 -0.11486399173736572
0.5379040837287903 0.62970370054245 -0.06936301290988922
0.4766680598258972 0.6258906722068787 -0.12093447148799896
0.4783896505832672 0.632087767124176 -0.09447284042835236
0.5557104349136353 0.4873703122138977 0.011392862536013126
0.5391621589660645 0.4925212264060974 0.00014981886488385499
0.52752685546875 0.4954848885536194 -0.0159105584025383
0.6741397380828857 0.47766679525375366 0.006624138914048672
0.6890740394592285 0.46504974365234375 0.006309821270406246
