ply
format ascii 1.0
element vertex 468
property float x
property float y
property float z
end_header
0.48793449997901917 0.6966940760612488 -0.0692671611905098
0.4739142954349518 0.6247598528862 -0.13076861202716827
0.48373648524284363 0.6472791433334351 -0.06879520416259766
0.45933836698532104 0.5433682203292847 -0.09380421787500381
0.4726859927177429 0.5994179844856262 -0.1391015350818634
0.4747728705406189 0.56638103723526 -0.1291084736585617
0.48431330919265747 0.4887484312057495 -0.0636136457324028
0.3321440815925598 0.4752535820007324 0.06304086744785309
0.4872477054595947 0.43428653478622437 -0.0467163510620594
0.48668229579925537 0.4027248024940491 -0.051532283425331116
0.4920926094055176 0.2745296061038971 -0.022758254781365395
0.4890422224998474 0.7079346179962158 -0.06626525521278381
0.4907093644142151 0.7160223722457886 -0.05830756947398186
0.4925907254219055 0.7191259264945984 -0.047675132751464844
0.4928455352783203 0.724504828453064 -0.04780023172497749
0.4924512207508087 0.7336004972457886 -0.051901109516620636
0.49246081709861755 0.7457922697067261 -0.05741113796830177
0.49306949973106384 0.7597439289093018 -0.05447675660252571
0.4959058165550232 0.7871982455253601 -0.03120216354727745
0.4766862690448761 0.637177050113678 -0.11829300969839096
0.46028274297714233 0.6346399188041687 -0.08212096244096756
0.26822036504745483 0.3856503963470459 0.19364355504512787
0.3988037109375 0.4974786043167114 0.02843809314072132
0.3754309415817261 0.49881458282470703 0.03330346941947937
0.35336196422576904 0.497679740190506 0.04326985031366348
0.3249239921569824 0.48423391580581665 0.06789860129356384
0.4177500903606415 0.4922257959842682 0.026972457766532898
0.3666844666004181 0.4405629634857178 0.02364519238471985
0.3915294408798218 0.44297727942466736 0.019237227737903595
0.3438882827758789 0.4428825378417969 0.034831807017326355
0.329423725605011 0.4499207139015198 0.04701290652155876
0.3071300983428955 0.5006585717201233 0.08229794353246689
0.4111972153186798 0.8288497924804688 0.010167139582335949
0.32481199502944946 0.4697592258453369 0.07228032499551773
0.2565951943397522 0.4900386333465576 0.20302534103393555
0.2858125567436218 0.4853284955024719 0.11065134406089783
0.37486425042152405 0.5982612371444702 0.0031841869931668043
0.45972684025764465 0.6929266452789307 -0.06152879819273949
0.46651217341423035 0.7156543731689453 -0.05068045109510422
0.4327899217605591 0.6989858150482178 -0.04282291606068611
0.4169059097766876 0.7075046896934509 -0.02128463238477707
0.447268009185791 0.7162709832191467 -0.036932751536369324
0.4327296316623688 0.7182307243347168 -0.01745770499110222
0.3952522277832031 0.7431352138519287 0.018770365044474602
0.45537132024765015 0.6237757205963135 -0.12635914981365204
0.4514508843421936 0.5993732810020447 -0.13328184187412262
0.2949937582015991 0.42651423811912537 0.05881021171808243
0.42273128032684326 0.5391556024551392 -0.006262316834181547
0.41319847106933594 0.6139102578163147 -0.05718136951327324
0.41332435607910156 0.6005687713623047 -0.04919399693608284
0.3069712519645691 0.5944945812225342 0.04570667818188667
0.45482784509658813 0.5687613487243652 -0.11766541004180908
0.3438297510147095 0.4045937657356262 0.005507579073309898
0.3137567639350891 0.41068533062934875 0.030417904257774353
0.2849743366241455 0.3429906666278839 0.140915185213089
0.44112324714660645 0.42855674028396606 -0.030719028785824776
0.41340216994285583 0.45041078329086304 0.023440726101398468
0.3761628568172455 0.7206980586051941 0.028423424810171127
0.28502723574638367 0.7178872227668762 0.2612374722957611
0.4308149814605713 0.6278536915779114 -0.05048082768917084
0.44942834973335266 0.63565593957901 -0.05759618058800697
0.40191394090652466 0.7201443910598755 0.02348645031452179
0.41327565908432007 0.7190673351287842 0.015010443516075611
0.30303677916526794 0.394220232963562 0.0446627177298069
0.4151671826839447 0.6234377026557922 -0.04388954117894173
0.3855236768722534 0.4093524217605591 -0.015304489061236382
0.38044828176498413 0.3892526626586914 -0.020239530131220818
0.36313366889953613 0.28741055727005005 0.030595434829592705
0.2941204607486725 0.3675568103790283 0.08611064404249191
0.3734774589538574 0.33578595519065857 0.0033690419513732195
0.28375500440597534 0.4157378673553467 0.08274181187152863
0.27567681670188904 0.40162938833236694 0.13455317914485931
0.4623686671257019 0.7062747478485107 -0.05874881148338318
0.44050976634025574 0.7096699476242065 -0.04112463817000389
0.42463889718055725 0.7131924033164978 -0.02161262184381485
0.4373350441455841 0.6318439841270447 -0.04747733473777771
0.40771910548210144 0.719679057598114 0.018923157826066017
0.4166927933692932 0.7240762710571289 0.0005230208043940365
0.41664770245552063 0.7182389497756958 0.01356357242912054
0.43703773617744446 0.6222617626190186 -0.08543730527162552
0.4387555718421936 0.7168640494346619 -0.014106366783380508
0.45328956842422485 0.7171630859375 -0.02812119387090206
0.47115358710289 0.7184345126152039 -0.04032018035650253
0.4655057489871979 0.7854027152061462 -0.025738105177879333
0.46548163890838623 0.7572119235992432 -0.04805788770318031
0.4661921560764313 0.742836594581604 -0.0503365695476532
0.46776750683784485 0.7310563325881958 -0.04446890950202942
0.4701673984527588 0.7236868739128113 -0.040102411061525345
0.43607527017593384 0.721203088760376 -0.013546351343393326
0.4324841797351837 0.7236951589584351 -0.01794464699923992
0.42775610089302063 0.7294602394104004 -0.021339813247323036
0.4236253499984741 0.7378060221672058 -0.016001326963305473
0.3947176933288574 0.6826902031898499 -0.011030319146811962
0.2650929391384125 0.5969558358192444 0.3036011755466461
0.48001715540885925 0.6415430903434753 -0.0861334428191185
0.4272506833076477 0.7207190990447998 0.0023463626857846975
0.42221224308013916 0.7213294506072998 -0.000205175529117696
0.45688241720199585 0.6461207866668701 -0.05860915407538414
0.4244896173477173 0.6375800371170044 -0.028365498408675194
0.4532022178173065 0.6412308812141418 -0.058767132461071014
0.3994511365890503 0.5522024631500244 0.006199611350893974
0.36059093475341797 0.5673344135284424 0.018406743183732033
0.4116898775100708 0.61043781042099 -0.034982915967702866
0.3141879439353943 0.30971646308898926 0.08346197754144669
0.32479327917099 0.3442606031894684 0.043286390602588654
0.3361654579639435 0.3846758008003235 0.011530854739248753
0.4126681089401245 0.7596179842948914 0.002958642551675439
0.43209362030029297 0.3968110680580139 -0.040304508060216904
0.42612528800964355 0.33465704321861267 -0.023709088563919067
0.42039579153060913 0.27682188153266907 -0.005655111279338598
0.3348407745361328 0.49296677112579346 0.056424252688884735
0.2838572561740875 0.5182379484176636 0.0994076058268547
0.4296196401119232 0.4862545132637024 0.028780456632375717
0.3063795566558838 0.4564141035079956 0.07180959731340408
0.43752920627593994 0.5242514610290527 -0.017709974199533463
0.4227391481399536 0.6068026423454285 -0.08337269723415375
0.2626437842845917 0.5348979234695435 0.13068273663520813
0.29595422744750977 0.5349674224853516 0.07488187402486801
0.3233199119567871 0.5442109704017639 0.04757211357355118
0.3673132061958313 0.540944516658783 0.029584525153040886
0.40023869276046753 0.5315245389938354 0.0191086083650589
0.4238104820251465 0.5209799408912659 0.008053109049797058
0.4635961651802063 0.49450260400772095 -0.049639951437711716
0.262177437543869 0.5854771733283997 0.12291855365037918
0.2897006571292877 0.45367616415023804 0.08623014390468597
0.4653632640838623 0.6358669996261597 -0.1151122972369194
0.4232390522956848 0.5632593631744385 -0.01720014028251171
0.26040396094322205 0.4886002540588379 0.28770992159843445
0.4403650164604187 0.5087395310401917 0.0019005947979167104
0.4119461476802826 0.6115432381629944 -0.010030374862253666
0.3183954358100891 0.47127896547317505 0.07815015316009521
0.42386487126350403 0.590449333190918 -0.07364880293607712
0.2711373269557953 0.6560395359992981 0.28948143124580383
0.42987725138664246 0.477176696062088 0.03588147088885307
0.43829336762428284 0.5771328210830688 -0.09998581558465958
0.3186338245868683 0.7746627926826477 0.11970248073339462
0.32674384117126465 0.8035732507705688 0.16347500681877136
0.2523476779460907 0.5924286842346191 0.21452534198760986
0.2914958596229553 0.7421009540557861 0.1561455875635147
0.26599007844924927 0.4423774480819702 0.17598070204257965
0.4081002473831177 0.8553804159164429 0.024637015536427498
0.4710281193256378 0.6404675841331482 -0.08325009047985077
0.40411531925201416 0.5799785852432251 -0.005574306007474661
0.2699888050556183 0.4900137782096863 0.13881021738052368
0.3541424572467804 0.4824991822242737 0.045225970447063446
0.3746047019958496 0.48479464650154114 0.036441005766391754
0.41140252351760864 0.7286995053291321 0.005670590791851282
0.26640352606773376 0.6345934867858887 0.12854669988155365
0.4522484242916107 0.8912134766578674 0.023821160197257996
0.38687238097190857 0.8572991490364075 0.08599232882261276
0.35930395126342773 0.8354173898696899 0.12047877162694931
0.4889325201511383 0.3360856771469116 -0.03879876807332039
0.5014134645462036 0.8977563381195068 0.008685586042702198
0.39459800720214844 0.4839622378349304 0.03225750848650932
0.4130373001098633 0.48084762692451477 0.033232711255550385
0.4245322346687317 0.47894567251205444 0.036403998732566833
0.2765800654888153 0.4487723410129547 0.11400973796844482
0.41073960065841675 0.46245047450065613 0.02995065599679947
0.3911014497280121 0.4564970135688782 0.02825251780450344
0.37045079469680786 0.4543132185935974 0.032309748232364655
0.34996432065963745 0.45715123414993286 0.041143931448459625
0.33733490109443665 0.4626326560974121 0.050991613417863846
0.26067787408828735 0.4314597249031067 0.24713188409805298
0.34090399742126465 0.4789952039718628 0.05496266111731529
0.4857815206050873 0.6627159714698792 -0.06284063309431076
0.41422927379608154 0.6697562336921692 -0.02768196165561676
0.4285909831523895 0.6248050332069397 -0.060141872614622116
0.45520174503326416 0.6638221740722656 -0.056438934057950974
0.48762211203575134 0.46003496646881104 -0.04546986520290375
0.3499303460121155 0.8058832883834839 0.08912252634763718
0.37815380096435547 0.8308771848678589 0.05797509476542473
0.4470628798007965 0.87284255027771 -0.006597242783755064
0.3039572536945343 0.7673792243003845 0.2152653932571411
0.42384693026542664 0.4710529148578644 0.033470816910266876
0.4474969208240509 0.5321909189224243 -0.054625075310468674
0.49741387367248535 0.8790704011917114 -0.020358635112643242
0.4161571264266968 0.8767284154891968 0.05057092383503914
0.2589639127254486 0.6463428139686584 0.2080562710762024
0.4510168433189392 0.7221394181251526 -0.027666231617331505
0.44749587774276733 0.7274143695831299 -0.032246362417936325
0.44425392150878906 0.7362532615661621 -0.03601394593715668
0.44183117151260376 0.7492465376853943 -0.03247701749205589
0.43573257327079773 0.7745509147644043 -0.013457095250487328
0.4208351671695709 0.7188725471496582 0.0001171505864476785
0.41309893131256104 0.7170289754867554 0.00122539303265512
0.40592721104621887 0.7137147784233093 0.0020199259743094444
0.3800696134567261 0.6997902989387512 0.009456921368837357
0.29116830229759216 0.6472048759460449 0.07296652346849442
0.4509572982788086 0.5078741312026978 -0.031817588955163956
0.44549334049224854 0.4629470109939575 0.01292723324149847
0.43305742740631104 0.46544480323791504 0.026309527456760406
0.42692887783050537 0.7161694169044495 0.002067984314635396
0.2946433424949646 0.7059713006019592 0.10860670357942581
0.46068719029426575 0.4632023572921753 -0.022769885137677193
0.4224832355976105 0.8016647100448608 -0.000265658920397982
0.4780052900314331 0.5398849844932556 -0.106145478785038
0.46084079146385193 0.5203362107276917 -0.07465143501758575
0.48111894726753235 0.5153535008430481 -0.08394768089056015
0.4323207139968872 0.5693352222442627 -0.05233779549598694
0.49534744024276733 0.8517683148384094 -0.03362894803285599
0.4953591525554657 0.8177689909934998 -0.03237934783101082
0.45710915327072144 0.8149117827415466 -0.02172917127609253
0.3728766441345215 0.7555748224258423 0.03513249009847641
0.3932868242263794 0.6299681663513184 -0.0013711246429011226
0.39610135555267334 0.7820035219192505 0.018465610221028328
0.337429940700531 0.6259022355079651 0.017268171533942223
0.37089523673057556 0.6530588865280151 0.006401467137038708
0.3205050230026245 0.664472222328186 0.03959469124674797
0.4488038420677185 0.8468359112739563 -0.019428744912147522
0.42224881052970886 0.5820863246917725 -0.03270730748772621
0.35436323285102844 0.7764489650726318 0.06050804629921913
0.38326457142829895 0.8043390512466431 0.03791191428899765
0.35201072692871094 0.7257689237594604 0.042237915098667145
0.2745288610458374 0.6765227317810059 0.13474102318286896
0.32376474142074585 0.731399655342102 0.07031532377004623
0.27080726623535156 0.6964689493179321 0.19404469430446625
0.3543832302093506 0.6831077337265015 0.020507358014583588
0.4358675479888916 0.547446608543396 -0.03449507802724838
0.42937755584716797 0.6181275248527527 -0.08961685746908188
0.419529527425766 0.6223523616790771 -0.06183474883437157
0.43547195196151733 0.6022890210151672 -0.10906451940536499
0.42699071764945984 0.44436776638031006 0.00864600483328104
0.38946300745010376 0.4313984811306 0.009082205593585968
0.35704976320266724 0.42777758836746216 0.01581576280295849
0.3305777311325073 0.43030041456222534 0.030459538102149963
0.31356924772262573 0.4392808675765991 0.04879492521286011
0.30427539348602295 0.47812360525131226 0.09001585096120834
0.2512695789337158 0.5406284928321838 0.2112201303243637
0.31795772910118103 0.5108142495155334 0.06800016015768051
0.34073007106781006 0.5182313323020935 0.04942590743303299
0.3711870312690735 0.5183342099189758 0.03453678637742996
0.40046653151512146 0.5133236050605774 0.02605671063065529
0.42262715101242065 0.505840539932251 0.020622339099645615
0.43712756037712097 0.49843907356262207 0.016760578379034996
0.2636718451976776 0.5424559116363525 0.304675817489624
0.42244958877563477 0.6277397274971008 -0.0497627817094326
0.44412028789520264 0.5540482401847839 -0.0738212838768959
0.4417157471179962 0.6200593113899231 -0.1118059754371643
0.456356406211853 0.6313822269439697 -0.1040668711066246
0.4439055919647217 0.6235364079475403 -0.09972074627876282
0.42989587783813477 0.6345581412315369 -0.04299352690577507
0.4590974748134613 0.6340416073799133 -0.11110441386699677
0.4645596742630005 0.6384087800979614 -0.08259685337543488
0.4374569058418274 0.47932755947113037 0.02956167794764042
0.44858258962631226 0.4860366880893707 0.011448143050074577
0.452862024307251 0.4908711314201355 -0.008182832971215248
0.3302265405654907 0.4666188955307007 0.060478709638118744
0.3188052177429199 0.4583427309989929 0.06286851316690445
0.4992121756076813 0.5439054369926453 -0.10120099037885666
0.6744500398635864 0.4821513295173645 0.008782674558460712
0.5032169818878174 0.6357175707817078 -0.08780506253242493
0.7862679362297058 0.38732194900512695 0.11183872818946838
0.6012791395187378 0.5007972121238708 -0.007303760852664709
0.6264183521270752 0.5028677582740784 -0.00920106191188097
0.6511414051055908 0.5023320317268372 -0.005814000032842159
0.6864913702011108 0.4909851849079132 0.010434127412736416
0.5801210999488831 0.49507033824920654 -0.0013749905629083514
0.6327203512191772 0.4466238021850586 -0.020500067621469498
0.6068072319030762 0.4473838806152344 -0.01570536568760872
0.6573824882507324 0.45024573802948 -0.016142968088388443
0.6750913858413696 0.45769765973091125 -0.007887138985097408
0.7094172835350037 0.5061889886856079 0.01993746869266033
0.590599775314331 0.8354300260543823 -0.014914280734956264
0.6845780611038208 0.47742047905921936 0.015325702726840973
0.8001604080200195 0.49521952867507935 0.11955040693283081
0.7406554818153381 0.4915485978126526 0.04126383736729622
0.6183567047119141 0.6006465554237366 -0.03288764879107475
0.5185283422470093 0.6932455897331238 -0.07064135372638702
0.5180895924568176 0.7158499360084534 -0.05897833779454231
0.5531067252159119 0.6996176242828369 -0.061325911432504654
0.5777180790901184 0.7076948881149292 -0.04677790775895119
0.5432664155960083 0.7166478037834167 -0.05335024744272232
0.5641213059425354 0.7180983424186707 -0.039256490767002106
0.6126385927200317 0.7455806136131287 -0.014425567351281643
0.494446724653244 0.6244173049926758 -0.1309869885444641
0.496082603931427 0.5997304916381836 -0.13886301219463348
0.7137495279312134 0.43553316593170166 -0.006375051103532314
0.5664086937904358 0.540710985660553 -0.029965229332447052
0.560304582118988 0.6152872443199158 -0.07829272001981735
0.5632787942886353 0.6019367575645447 -0.07116222381591797
0.7015658617019653 0.5989617705345154 -0.013632343150675297
0.4971946179866791 0.5691662430763245 -0.12498923391103745
0.6454707384109497 0.4124816656112671 -0.04020489379763603
0.6841040253639221 0.41964012384414673 -0.026390664279460907
0.7522100806236267 0.3439798355102539 0.06750401854515076
0.5371683239936829 0.43135496973991394 -0.046264100819826126
0.584378719329834 0.4535887837409973 -0.005101700313389301
0.6326203346252441 0.7229194045066833 -0.012168682180345058
0.7940399646759033 0.7296186685562134 0.18580104410648346
0.5433134436607361 0.629123330116272 -0.06618070602416992
0.5224357843399048 0.6364367604255676 -0.06549486517906189
0.6058621406555176 0.7199187874794006 -0.011403683573007584
0.5949739813804626 0.7184679508209229 -0.015747252851724625
0.6992642879486084 0.4032403528690338 -0.01565701700747013
0.5634642839431763 0.6245552897453308 -0.06453554332256317
0.5968810319900513 0.415039986371994 -0.046857286244630814
0.6007881760597229 0.39455854892730713 -0.05224613845348358
0.6370474100112915 0.28694984316825867 -0.011649521067738533
0.7241305708885193 0.3722209334373474 0.019937289878726006
0.6150963306427002 0.33797064423561096 -0.03315671533346176
0.732656717300415 0.4238358736038208 0.013149362988770008
0.758847713470459 0.40657511353492737 0.05972151458263397
0.51865553855896 0.7067362070083618 -0.06766293197870255
0.5471242666244507 0.7101611495018005 -0.058419931679964066
0.570458710193634 0.7132617235183716 -0.04499044641852379
0.53757244348526 0.6329734921455383 -0.06017405912280083
0.6000902056694031 0.7192484736442566 -0.01358316745609045
0.5872983336448669 0.724276065826416 -0.026427924633026123
0.5926394462585449 0.7179402112960815 -0.016214516013860703
0.5267120003700256 0.6236891746520996 -0.09978434443473816
0.5609416365623474 0.7162581086158752 -0.03476186841726303
0.5403245687484741 0.7172593474388123 -0.04330826178193092
0.5172603726387024 0.7184045314788818 -0.0490451417863369
0.5281554460525513 0.7868484854698181 -0.03412286937236786
0.52277010679245 0.7582101821899414 -0.05692002549767494
0.5207957029342651 0.7436327338218689 -0.05924539640545845
0.5192391872406006 0.7317925095558167 -0.05313988775014877
0.5179809331893921 0.7242283821105957 -0.048554010689258575
0.5632559061050415 0.7215374112129211 -0.03386909142136574
0.5662821531295776 0.724233865737915 -0.0381985604763031
0.5709406137466431 0.7304723262786865 -0.04216022416949272
0.5755286812782288 0.7392969727516174 -0.038482435047626495
0.5979857444763184 0.6839396357536316 -0.040574003010988235
0.8201695680618286 0.6047545075416565 0.2190951257944107
0.5773327946662903 0.7207958102226257 -0.023285355418920517
0.58162522315979 0.7213917970657349 -0.02604275569319725
0.5141859650611877 0.646611213684082 -0.06623981893062592
0.5570518374443054 0.6383612155914307 -0.044719379395246506
0.5179614424705505 0.6417563557624817 -0.06653258204460144
0.5942395329475403 0.5539820194244385 -0.025655347853899002
0.6371654868125916 0.5700468420982361 -0.024610720574855804
0.5694583654403687 0.6116372346878052 -0.05758022144436836
0.7041307687759399 0.30980566143989563 0.023144586011767387
0.6781270503997803 0.3484138250350952 -0.009942345321178436
0.6543618440628052 0.3921356201171875 -0.03629954531788826
0.5903114676475525 0.7628997564315796 -0.024070192128419876
0.54361891746521 0.3996366262435913 -0.05647936090826988
0.5548133850097656 0.3355640172958374 -0.04255678504705429
0.568999707698822 0.2763703465461731 -0.026833688840270042
0.6733062863349915 0.49889254570007324 0.002121971221640706
0.7393629550933838 0.5234417915344238 0.03060002066195011
0.5666308999061584 0.48922622203826904 0.003824590938165784
0.7062067985534668 0.4642093777656555 0.008953859098255634
0.5470457673072815 0.5256582498550415 -0.036742571741342545
0.5418435335159302 0.6083248257637024 -0.1006682813167572
0.7720269560813904 0.5408110618591309 0.053227197378873825
0.7190061211585999 0.5395917892456055 0.01022153627127409
0.683411717414856 0.5477326512336731 -0.008273540996015072
0.6330150365829468 0.5435971021652222 -0.013443471863865852
0.5965725183486938 0.5337649583816528 -0.013696364127099514
0.5695926547050476 0.5228243470191956 -0.01640869677066803
0.5087835788726807 0.4951176643371582 -0.057736512273550034
0.7702259421348572 0.5920193195343018 0.04582558944821358
0.7295792102813721 0.4609094262123108 0.017931144684553146
0.489205926656723 0.6363780498504639 -0.11864165961742401
0.5617660284042358 0.5646862983703613 -0.039650216698646545
0.8192322254180908 0.49272221326828003 0.2002294659614563
0.5489016175270081 0.5102702975273132 -0.01713857427239418
0.5748504400253296 0.612528920173645 -0.03247053176164627
0.6940256357192993 0.47891801595687866 0.01838591881096363
0.5449298024177551 0.5917240977287292 -0.09124007076025009
0.8132490515708923 0.6662061214447021 0.20860816538333893
0.5678588151931763 0.4806261658668518 0.009817509911954403
0.521079421043396 0.578028678894043 -0.11281479150056839
0.7186461091041565 0.7862630486488342 0.0625816360116005
0.7249706983566284 0.8169563412666321 0.10597581416368484
0.806221067905426 0.6005032658576965 0.13125260174274445
0.7570200562477112 0.7537155747413635 0.08921618014574051
0.7811012268066406 0.4466741681098938 0.09631042927503586
0.5980475544929504 0.8633158802986145 -0.0023469445295631886
0.48952364921569824 0.6406779885292053 -0.08561093360185623
0.586086630821228 0.5815642476081848 -0.03332970663905144
0.7666678428649902 0.49597442150115967 0.06296594440937042
0.6473872065544128 0.4879806339740753 -0.002543464070186019
0.6254535913467407 0.48920291662216187 -0.006043761037290096
0.593528687953949 0.7292712926864624 -0.023379914462566376
0.769429624080658 0.6423041224479675 0.054323118180036545
0.5531413555145264 0.895858645439148 0.008946974761784077
0.6375544667243958 0.868374228477478 0.049006782472133636
0.6774653196334839 0.8481971621513367 0.0738239511847496
0.6048699617385864 0.4875923693180084 -0.0041350857354700565
0.5856977105140686 0.4840283989906311 0.001881314325146377
0.5736024379730225 0.4822653532028198 0.00837063416838646
0.7523577809333801 0.455252468585968 0.04061508923768997
0.5893652439117432 0.46679145097732544 -0.0022925848606973886
0.6110062599182129 0.46176877617836 -0.009204883128404617
0.6316841840744019 0.46107763051986694 -0.010885197669267654
0.65317302942276 0.46470579504966736 -0.007873515598475933
0.6675400137901306 0.47032684087753296 -0.0014686777722090483
0.8074163794517517 0.43393224477767944 0.16131043434143066
0.663056492805481 0.48525887727737427 0.0032629617489874363
0.57112056016922 0.6707009077072144 -0.049917154014110565
0.5428376197814941 0.6262051463127136 -0.07510460168123245
0.5193356871604919 0.6642526984214783 -0.06564804166555405
0.6771298050880432 0.8172550797462463 0.042808279395103455
0.6390514373779297 0.8413144946098328 0.02174551784992218
0.5502277612686157 0.8773230314254761 -0.021381709724664688
0.7625440955162048 0.7801589369773865 0.14766791462898254
0.57425457239151 0.47496405243873596 0.004659661091864109
0.5240528583526611 0.5331547856330872 -0.06735220551490784
0.596585214138031 0.8848801851272583 0.023268017917871475
0.8009780049324036 0.6560191512107849 0.12851640582084656
0.541947603225708 0.7227976322174072 -0.04270010441541672
0.5449291467666626 0.7281942367553711 -0.04775894805788994
0.5479729175567627 0.7375811338424683 -0.052397266030311584
0.5508659482002258 0.7509022951126099 -0.04946666583418846
0.5620436668395996 0.7772759795188904 -0.03285486623644829
0.583267867565155 0.7183837890625 -0.027141569182276726
0.589788019657135 0.7167366743087769 -0.028596455231308937
0.5969701409339905 0.713463544845581 -0.029489928856492043
0.6208241581916809 0.7011976838111877 -0.027624692767858505
0.7286927700042725 0.6536205410957336 0.009054308757185936
0.5275101661682129 0.5088955760002136 -0.04533325508236885
0.5453143119812012 0.4651651978492737 -0.0035414020530879498
0.5623871088027954 0.4683487117290497 0.002395419403910637
0.5787063837051392 0.7155522704124451 -0.02416086383163929
0.7377453446388245 0.7146646976470947 0.04478130862116814
0.5205489993095398 0.46444541215896606 -0.03283817321062088
0.5777672529220581 0.8063717484474182 -0.021997952833771706
0.5041255950927734 0.5208340287208557 -0.08147496730089188
0.5416066646575928 0.5704270005226135 -0.06861507892608643
0.5365487933158875 0.8176689147949219 -0.03228362277150154
0.6379963755607605 0.7612276673316956 -0.0034859669394791126
0.598007082939148 0.631447970867157 -0.030177779495716095
0.6106065511703491 0.7877893447875977 -0.0117863854393363
0.6627276539802551 0.6298125982284546 -0.029233267530798912
0.6251017451286316 0.6557203531265259 -0.030006131157279015
0.6891615390777588 0.6697354316711426 -0.013213570229709148
0.5446438193321228 0.8504294753074646 -0.03320895880460739
0.5590769052505493 0.5832666158676147 -0.053161222487688065
0.6634222269058228 0.7852194309234619 0.01621711067855358
0.6276472806930542 0.8126283884048462 0.004187926650047302
0.6595401763916016 0.7306790351867676 -0.00464052427560091
0.7653868794441223 0.6855920553207397 0.06397169828414917
0.6978722810745239 0.7395711541175842 0.016308696940541267
0.7877515554428101 0.7074032425880432 0.11877097189426422
0.649093508720398 0.6862066388130188 -0.022897906601428986
0.5426990389823914 0.5486025810241699 -0.052404213696718216
0.5337876081466675 0.619792103767395 -0.10522341728210449
0.5527211427688599 0.6237805485725403 -0.07966763526201248
0.5199030041694641 0.60355144739151 -0.12176098674535751
0.5632561445236206 0.4480724632740021 -0.014239844866096973
0.6018587350845337 0.436897873878479 -0.024224333465099335
0.6365109086036682 0.43440040946006775 -0.02821800298988819
0.6672012209892273 0.4378063678741455 -0.02253686636686325
0.6911283731460571 0.4473007619380951 -0.010071798227727413
0.7142080068588257 0.48507964611053467 0.026210317388176918
0.8066051006317139 0.5473252534866333 0.12598855793476105
0.6938725709915161 0.5159357786178589 0.00929809920489788
0.6658363342285156 0.5221143960952759 -0.0021540410816669464
0.6311573386192322 0.5215955972671509 -0.007870822213590145
0.598737895488739 0.5160138010978699 -0.0075522540137171745
0.5740095973014832 0.5082398056983948 -0.004805196542292833
0.5567190647125244 0.5005282163619995 -0.003948247525840998
0.820781946182251 0.5481568574905396 0.21776634454727173
0.5534901022911072 0.6290422081947327 -0.06723184138536453
0.5208115577697754 0.5549196004867554 -0.08659955114126205
0.5135375261306763 0.6213672757148743 -0.12163380533456802
0.5028576850891113 0.632588803768158 -0.10997097194194794
0.5157668590545654 0.6252230405807495 -0.10991033911705017
0.5477258563041687 0.6356075406074524 -0.057740502059459686
0.49744707345962524 0.6347895860671997 -0.11590573936700821
0.4977017641067505 0.6392961740493774 -0.08663758635520935
0.5579150915145874 0.4822785258293152 0.00807624589651823
0.5428613424301147 0.48798736929893494 -0.004810924641788006
0.5331597924232483 0.4921204447746277 -0.021596388891339302
0.6766765117645264 0.474337100982666 0.005710164550691843
0.6902855634689331 0.466135174036026 0.004909758921712637
