ply
format ascii 1.0
element vertex 468
property float x
property float y
property float z
end_header
0.5536561012268066 0.6983598470687866 -0.07376540452241898
0.5785417556762695 0.6253591775894165 -0.1359984427690506
0.5542804002761841 0.6487764716148376 -0.07347434014081955
0.5401226282119751 0.5458316802978516 -0.11007960140705109
0.5803765058517456 0.6005067825317383 -0.14370746910572052
0.5728826522827148 0.5683206915855408 -0.1327534317970276
0.5471528172492981 0.49202632904052734 -0.06357418745756149
0.32864370942115784 0.4847094416618347 -0.036069322377443314
0.5416011810302734 0.446941077709198 -0.044652897864580154
0.5440904498100281 0.418250173330307 -0.04769253358244896
0.533867597579956 0.296536922454834 -0.012454861775040627
0.55210942029953 0.7097651362419128 -0.07118161767721176
0.5484023094177246 0.7184029817581177 -0.06348071992397308
0.543340802192688 0.7218829393386841 -0.05278932675719261
0.5449430346488953 0.7349462509155273 -0.04883787781000137
0.5468278527259827 0.7442376613616943 -0.05398822948336601
0.5473605990409851 0.7565180659294128 -0.06007002294063568
0.5455399751663208 0.7705809473991394 -0.057933032512664795
0.5363932251930237 0.7972820997238159 -0.03580908104777336
0.5714618563652039 0.6385301351547241 -0.12374582886695862
0.534051239490509 0.6379971504211426 -0.09752583503723145
0.17774848639965057 0.39979809522628784 0.04324159398674965
0.4081910252571106 0.5021417140960693 -0.03385845571756363
0.38233333826065063 0.5041913986206055 -0.04267846792936325
0.35495883226394653 0.5046006441116333 -0.045986052602529526
0.31248486042022705 0.4942108988761902 -0.03806919604539871
0.42957603931427 0.4970170259475708 -0.021865177899599075
0.37797239422798157 0.4496539831161499 -0.055091261863708496
0.4053570628166199 0.45034274458885193 -0.04101172834634781
0.3500034809112549 0.4533328413963318 -0.05779384821653366
0.3286377191543579 0.4605627655982971 -0.05340314283967018
0.2857230305671692 0.5114372968673706 -0.03312177583575249
0.4224815368652344 0.8467538952827454 -0.042405158281326294
0.31576022505760193 0.4800660014152527 -0.03200637176632881
0.16308335959911346 0.5062305927276611 0.04588201269507408
0.24604928493499756 0.4996247887611389 -0.018893759697675705
0.39644238352775574 0.6042097806930542 -0.06453181058168411
0.5182408690452576 0.6958546042442322 -0.0832231193780899
0.5164240002632141 0.7195731997489929 -0.07112086564302444
0.4758438467979431 0.7044937610626221 -0.08210273087024689
0.44601213932037354 0.7148396968841553 -0.07217016816139221
0.485312819480896 0.7219812870025635 -0.07149036228656769
0.4599544107913971 0.7253373265266418 -0.060982245951890945
0.399358332157135 0.7565398216247559 -0.04516148567199707
0.5547398328781128 0.6256647109985352 -0.14056256413459778
0.5530257225036621 0.601031482219696 -0.14875072240829468
0.28619831800460815 0.44633638858795166 -0.06321990489959717
0.45077139139175415 0.5433986186981201 -0.04923392832279205
0.4643136262893677 0.6175869703292847 -0.10110902041196823
0.4590127468109131 0.604200541973114 -0.09354580193758011
0.30279576778411865 0.6031230688095093 -0.06638706475496292
0.5474737882614136 0.5711367726325989 -0.13501910865306854
0.37227708101272583 0.42273256182670593 -0.07852836698293686
0.32536399364471436 0.4305994212627411 -0.07633472234010696
0.22737562656402588 0.3565567433834076 0.007755881641060114
0.49139946699142456 0.4411373734474182 -0.05645406246185303
0.42779961228370667 0.4563559293746948 -0.024027343839406967
0.3771522343158722 0.7333203554153442 -0.048662763088941574
0.15044115483760834 0.7465879917144775 0.10921748727560043
0.4819633960723877 0.6314743161201477 -0.08356495946645737
0.5058441758155823 0.6388721466064453 -0.07719673961400986
0.40851062536239624 0.7318510413169861 -0.042322684079408646
0.42006736993789673 0.7303091287612915 -0.04270770028233528
0.30650365352630615 0.41607797145843506 -0.06745708733797073
0.4566909968852997 0.6273198127746582 -0.08690670132637024
0.4283549189567566 0.42506837844848633 -0.07183212786912918
0.4252642095088959 0.40595775842666626 -0.07748544961214066
0.3746780753135681 0.30256521701812744 -0.04051270708441734
0.27005934715270996 0.38478192687034607 -0.03476608172059059
0.40522921085357666 0.3507719933986664 -0.05930153653025627
0.26173627376556396 0.4366755783557892 -0.0471719391644001
0.22179250419139862 0.41903215646743774 -0.0033076247200369835
0.5176920294761658 0.7100465893745422 -0.08027967810630798
0.4825390875339508 0.7152090668678284 -0.07795703411102295
0.4541809558868408 0.7205631732940674 -0.06849260628223419
0.4871584177017212 0.6355785727500916 -0.07588054984807968
0.41484084725379944 0.7312896251678467 -0.04217955097556114
0.43155211210250854 0.7367161512374878 -0.05086872726678848
0.42138683795928955 0.7294961214065552 -0.04252924025058746
0.5092780590057373 0.6259641051292419 -0.11720512807369232
0.460823118686676 0.7236174941062927 -0.055519215762615204
0.4857981204986572 0.7227205634117126 -0.06043121591210365
0.5140691995620728 0.72232586145401 -0.060988638550043106
0.49902692437171936 0.7979204654693604 -0.04565516114234924
0.5104172825813293 0.7698181867599487 -0.06762372702360153
0.5141285061836243 0.7550560235977173 -0.07001901417970657
0.5154410004615784 0.7428257465362549 -0.06279595196247101
0.5155065059661865 0.7351639270782471 -0.057466648519039154
0.46024060249328613 0.7336444854736328 -0.052645206451416016
0.4573955535888672 0.7364001274108887 -0.057224273681640625
0.4523719549179077 0.74272221326828 -0.061754606664180756
0.44649145007133484 0.751230776309967 -0.06022670492529869
0.4205322265625 0.6903124451637268 -0.06970080733299255
0.11949917674064636 0.6197823286056519 0.1390523910522461
0.5629990100860596 0.6432875394821167 -0.09113159775733948
0.4416015148162842 0.732789933681488 -0.046255484223365784
0.43754562735557556 0.7336298227310181 -0.04951810836791992
0.5163767337799072 0.6493051648139954 -0.07789607346057892
0.46154406666755676 0.6418012380599976 -0.06292366236448288
0.5115541219711304 0.6445221900939941 -0.07813038676977158
0.42019182443618774 0.5569206476211548 -0.05223657563328743
0.37559428811073303 0.5730525255203247 -0.061787091195583344
0.4493001699447632 0.6144684553146362 -0.08051857352256775
0.2916596531867981 0.3233092725276947 -0.022791914641857147
0.32958459854125977 0.36126890778541565 -0.05189325660467148
0.36223992705345154 0.4042828679084778 -0.07563355565071106
0.4259903132915497 0.7734676599502563 -0.05015046149492264
0.48755282163619995 0.41122502088546753 -0.06704160571098328
0.47209805250167847 0.34943583607673645 -0.05207646265625954
0.45246127247810364 0.2945600152015686 -0.03582015261054039
0.3285709619522095 0.501533567905426 -0.04350387305021286
0.25057458877563477 0.5297574400901794 -0.029402712360024452
0.44362926483154297 0.491141676902771 -0.01394552830606699
0.2906118333339691 0.47080451250076294 -0.044696807861328125
0.4733201265335083 0.5283312797546387 -0.05223510041832924
0.49147284030914307 0.6101105213165283 -0.119902603328228
0.20876508951187134 0.5484799742698669 -0.01608065329492092
0.27792122960090637 0.5444329380989075 -0.04657386243343353
0.32180890440940857 0.5512284636497498 -0.05531824007630348
0.377607524394989 0.5465596914291382 -0.04944463074207306
0.41600608825683594 0.5363604426383972 -0.039722803980112076
0.44497057795524597 0.5256705284118652 -0.035598088055849075
0.5200055241584778 0.4976937472820282 -0.06419657170772552
0.2128768116235733 0.5994300246238708 -0.024663381278514862
0.262534499168396 0.4703948199748993 -0.04158138856291771
0.5570199489593506 0.6379646062850952 -0.1276184618473053
0.4569091796875 0.5672907829284668 -0.059165339916944504
0.1247667670249939 0.5061838626861572 0.12257704138755798
0.4681014120578766 0.5132617950439453 -0.03158469498157501
0.43979978561401367 0.6156306266784668 -0.05404222756624222
0.30286383628845215 0.48223692178726196 -0.0320112369954586
0.484886109828949 0.5935391783714294 -0.11001410335302353
0.1268174648284912 0.6818161606788635 0.1291295737028122
0.440531849861145 0.4829823970794678 -0.008134862408041954
0.5172892808914185 0.579909086227417 -0.1278786063194275
0.26118284463882446 0.8000137209892273 0.006786387413740158
0.24296016991138458 0.8342358469963074 0.045874737203121185
0.1550157219171524 0.6116406321525574 0.05394839495420456
0.21326570212841034 0.767427384853363 0.023436635732650757
0.1898106038570404 0.45794153213500977 0.027376528829336166
0.4106203317642212 0.8775007128715515 -0.03359478339552879
0.5516029000282288 0.6424829959869385 -0.09250573813915253
0.4289517104625702 0.5848073959350586 -0.05749501287937164
0.21241553127765656 0.505326509475708 -0.0034714059438556433
0.36045512557029724 0.4892424941062927 -0.040876634418964386
0.3842141926288605 0.49005597829818726 -0.039385609328746796
0.42382776737213135 0.7415719628334045 -0.04969371482729912
0.2112567275762558 0.6509025692939758 -0.014848059974610806
0.4607270359992981 0.9109930992126465 -0.013188852928578854
0.3536032438278198 0.8857764601707458 0.007565036416053772
0.3025585412979126 0.8652889132499695 0.02350574918091297
0.5404275059700012 0.35343030095100403 -0.03081926889717579
0.5206572413444519 0.9099410772323608 0.0005726274685002863
0.40461617708206177 0.4887429475784302 -0.03182302042841911
0.42355263233184814 0.48575693368911743 -0.021209118887782097
0.4350404441356659 0.48432689905166626 -0.011864254251122475
0.23298627138137817 0.4665217399597168 -0.023576363921165466
0.42006173729896545 0.469921350479126 -0.02435101941227913
0.3984302580356598 0.4649966359138489 -0.03659326210618019
0.37736278772354126 0.46405717730522156 -0.04429685324430466
0.35363641381263733 0.4674246311187744 -0.046963613480329514
0.3369985818862915 0.47281450033187866 -0.04360031336545944
0.14556458592414856 0.44644230604171753 0.086940236389637
0.3427622318267822 0.4871593117713928 -0.03933544084429741
0.552548885345459 0.6643667221069336 -0.0673893615603447
0.4497378170490265 0.6755287051200867 -0.07399524748325348
0.48532044887542725 0.6283597350120544 -0.09219779819250107
0.5130472779273987 0.6671752333641052 -0.07835543155670166
0.5395250916481018 0.46785497665405273 -0.04366372153162956
0.3109307885169983 0.8314801454544067 -0.003649940947070718
0.3579768240451813 0.8560653924942017 -0.016983818262815475
0.46977075934410095 0.8891901969909668 -0.04181627184152603
0.19222548604011536 0.797735333442688 0.07696328312158585
0.43458229303359985 0.47774121165275574 -0.015387749299407005
0.5055318474769592 0.5352728962898254 -0.07863432168960571
0.5311852693557739 0.8886020183563232 -0.02741183340549469
0.40655437111854553 0.9016901254653931 -0.009617635048925877
0.1591852307319641 0.6682762503623962 0.0522143580019474
0.486864298582077 0.7341214418411255 -0.05708882957696915
0.48422759771347046 0.7400704622268677 -0.06281071901321411
0.480978786945343 0.7494978308677673 -0.06835334748029709
0.4766903519630432 0.7627307772636414 -0.06680430471897125
0.45919302105903625 0.7882214784622192 -0.053409405052661896
0.43557724356651306 0.7279016375541687 -0.05252128466963768
0.4293641448020935 0.7263172268867493 -0.056104522198438644
0.42162424325942993 0.7231121063232422 -0.058860231190919876
0.39392808079719543 0.7098022103309631 -0.06178848817944527
0.2665537893772125 0.6601415276527405 -0.0488625168800354
0.4971904456615448 0.5114104747772217 -0.056001484394073486
0.47068196535110474 0.469449907541275 -0.01323730032891035
0.4488529562950134 0.4710678458213806 -0.013459558598697186
0.43865248560905457 0.724769115447998 -0.048592858016490936
0.2466893345117569 0.7247198224067688 -0.01520514115691185
0.5027447938919067 0.4703940153121948 -0.03813203424215317
0.43847405910491943 0.8168505430221558 -0.04551827162504196
0.5637245178222656 0.5419060587882996 -0.10836787521839142
0.5299909114837646 0.5228646397590637 -0.0882778987288475
0.5554270148277283 0.5175243616104126 -0.08468876779079437
0.48549753427505493 0.5726227760314941 -0.08435796201229095
0.5359150171279907 0.8593305349349976 -0.0396326445043087
0.5359653234481812 0.8255857229232788 -0.03724785894155502
0.488741397857666 0.8269802927970886 -0.04632990062236786
0.36651289463043213 0.7713449001312256 -0.03955884277820587
0.4156584143638611 0.6354465484619141 -0.05723914876580238
0.398499459028244 0.7982478737831116 -0.04158325865864754
0.34919440746307373 0.6341171860694885 -0.06970518082380295
0.38901981711387634 0.6605672836303711 -0.06359332799911499
0.31605029106140137 0.6756837964057922 -0.05939731374382973
0.478924036026001 0.8602423667907715 -0.05157393962144852
0.46136337518692017 0.5857110619544983 -0.07231102138757706
0.33294230699539185 0.7968827486038208 -0.026274409145116806
0.37607693672180176 0.8245985507965088 -0.03023431822657585
0.3441292643547058 0.7401236891746521 -0.04690968245267868
0.21178925037384033 0.6955807209014893 -0.0032220801804214716
0.2956637144088745 0.7497516870498657 -0.033220939338207245
0.1739199012517929 0.7209188342094421 0.044461965560913086
0.3615230321884155 0.69301438331604 -0.0617668442428112
0.4812643527984619 0.5510776042938232 -0.06796973198652267
0.5017055869102478 0.6217972040176392 -0.12362950295209885
0.4738999009132385 0.6260793209075928 -0.09976332634687424
0.5221437215805054 0.6053458452224731 -0.13795123994350433
0.45518213510513306 0.45330166816711426 -0.02861827239394188
0.41594982147216797 0.4424954056739807 -0.04960131645202637
0.3782135248184204 0.4399375319480896 -0.06370837241411209
0.34254732728004456 0.4435703754425049 -0.06746022403240204
0.31216293573379517 0.4536612629890442 -0.0610649473965168
0.278597891330719 0.4911104440689087 -0.02811339870095253
0.15541517734527588 0.5580859780311584 0.04881927743554115
0.30571722984313965 0.5198466777801514 -0.04001076519489288
0.33884334564208984 0.5253808498382568 -0.04501768574118614
0.37768223881721497 0.5239494442939758 -0.042603202164173126
0.41166576743125916 0.518264651298523 -0.03305554762482643
0.43757107853889465 0.51072096824646 -0.023920508101582527
0.4563201665878296 0.5034018158912659 -0.01851080171763897
0.11980721354484558 0.5625974535942078 0.13810382783412933
0.4694494307041168 0.6316494345664978 -0.08689741045236588
0.5134683847427368 0.5568622350692749 -0.09957623481750488
0.5299297571182251 0.6234316825866699 -0.13564522564411163
0.5382229089736938 0.6348362565040588 -0.12013215571641922
0.5242955088615417 0.6276837587356567 -0.12373506277799606
0.473740816116333 0.6386494636535645 -0.07452673465013504
0.5465360283851624 0.6367246508598328 -0.12541718780994415
0.5412606000900269 0.6415518522262573 -0.09491048008203506
0.45286136865615845 0.48453181982040405 -0.00641778064891696
0.47194772958755493 0.491095632314682 -0.01510875578969717
0.4862549901008606 0.495622843503952 -0.03115871734917164
0.3260829746723175 0.47684913873672485 -0.039360854774713516
0.3091850280761719 0.46978700160980225 -0.04373244568705559
0.5818992853164673 0.5456063747406006 -0.08921263366937637
0.6711786985397339 0.48554593324661255 0.11607277393341064
0.583686888217926 0.636214554309845 -0.08141247928142548
0.7089401483535767 0.41323980689048767 0.27780526876449585
0.6101114749908447 0.5027886033058167 0.06373954564332962
0.6322988867759705 0.50440514087677 0.07449669390916824
0.6529060006141663 0.5044644474983215 0.08981785178184509
0.6758461594581604 0.4945994019508362 0.12289395928382874
0.5924161672592163 0.4976080060005188 0.05480141565203667
0.6464662551879883 0.4566281735897064 0.06767931580543518
0.6221901774406433 0.4564931392669678 0.055456168949604034
0.6668381690979004 0.4605516791343689 0.08444131165742874
0.6778564453125 0.4673236608505249 0.10025356709957123
0.6908527612686157 0.5109283328056335 0.14014269411563873
0.6124293804168701 0.8320499658584595 0.02879871241748333
0.6771296262741089 0.4822459816932678 0.12739580869674683
0.7143709659576416 0.5068562030792236 0.2855590879917145
0.7062605619430542 0.5003129243850708 0.17635752260684967
0.6467344760894775 0.6002321839332581 0.03351975977420807
0.582782506942749 0.6934855580329895 -0.05781709402799606
0.5720424056053162 0.717494785785675 -0.047960035502910614
0.6073621511459351 0.6988143920898438 -0.029755569994449615
0.6186923384666443 0.7078694701194763 -0.00025270384503528476
0.5890838503837585 0.7173701524734497 -0.02619774453341961
0.6002798676490784 0.7196153402328491 -0.00043414480751380324
0.6300957202911377 0.7460464239120483 0.047310858964920044
0.5971275568008423 0.6246711611747742 -0.12709477543830872
0.6011351346969604 0.6004872918128967 -0.13265322148799896
0.708545446395874 0.4549253582954407 0.11986805498600006
0.5987237691879272 0.5427955389022827 0.014307062141597271
0.6274108290672302 0.6145562529563904 -0.04033040255308151
0.6239129304885864 0.601413369178772 -0.030964722856879234
0.7005318403244019 0.5968015193939209 0.09658414870500565
0.5924974679946899 0.570641040802002 -0.11441410332918167
0.6721421480178833 0.4340735673904419 0.04729567840695381
0.6968141794204712 0.44103819131851196 0.08204405009746552
0.7046937346458435 0.37319788336753845 0.21810857951641083
0.5828390717506409 0.4454907774925232 -0.015384755097329617
0.6000765562057495 0.4607793092727661 0.05436807870864868
0.6477104425430298 0.722396969795227 0.0639168992638588
0.6740628480911255 0.7231411933898926 0.3284793198108673
0.6093273162841797 0.6285899877548218 -0.03862639144062996
0.5910899043083191 0.6367788910865784 -0.054672691971063614
0.6262226104736328 0.724066972732544 0.05445994436740875
0.6136796474456787 0.7233094573020935 0.042206499725580215
0.7044395208358765 0.4280203878879547 0.10175132006406784
0.622815728187561 0.623860776424408 -0.02754303254187107
0.6351063251495361 0.434151828289032 0.01457905862480402
0.6418600082397461 0.41597074270248413 0.011780206114053726
0.6512864232063293 0.3160609006881714 0.07993160933256149
0.7050337791442871 0.3985528349876404 0.1528889387845993
0.6465474963188171 0.36223819851875305 0.04442017152905464
0.7146663665771484 0.44600245356559753 0.14936767518520355
0.7129501700401306 0.43028926849365234 0.2102619856595993
0.57900071144104 0.7074861526489258 -0.05542188137769699
0.5984516739845276 0.7101131081581116 -0.02890525758266449
0.6104971170425415 0.7142389416694641 -0.002798298606649041
0.6023234128952026 0.6327815055847168 -0.03902263194322586
0.6202781200408936 0.7238277792930603 0.04727940261363983
0.6140148639678955 0.7300208806991577 0.02478588931262493
0.6089358925819397 0.722504198551178 0.04001173377037048
0.6083993911743164 0.6232596635818481 -0.07578470557928085
0.5914285182952881 0.7185301184654236 0.0018970733508467674
0.5799933075904846 0.7188068628311157 -0.018256699666380882
0.5642129182815552 0.7205138802528381 -0.037862129509449005
0.5667241215705872 0.793976366519928 -0.02255076728761196
0.5734547972679138 0.7670068144798279 -0.0430903360247612
0.5737344622612 0.7525157928466797 -0.04450232908129692
0.5711736679077148 0.7405735850334167 -0.03763776645064354
0.5672067999839783 0.7330406904220581 -0.03312518075108528
0.595491349697113 0.7280834913253784 0.005031710956245661
0.6000965237617493 0.7309021353721619 0.00023674666590522975
0.606072187423706 0.7367937564849854 -0.0021915442775934935
0.6100353002548218 0.7447459697723389 0.004454209003597498
0.6366270780563354 0.6830773949623108 0.013555404730141163
0.6853451728820801 0.6095300316810608 0.38421759009361267
0.6011946201324463 0.7265715599060059 0.025748983025550842
0.6080268025398254 0.7272933721542358 0.023209936916828156
0.5834538340568542 0.647216260433197 -0.05589769408106804
0.6111670136451721 0.6379182934761047 -0.016054773703217506
0.5871419906616211 0.6424350738525391 -0.056307390332221985
0.6194627285003662 0.5555880069732666 0.032972145825624466
0.6550173163414001 0.5702999830245972 0.05366399884223938
0.6231563687324524 0.6112276911735535 -0.01630544662475586
0.6874774098396301 0.3404158055782318 0.14837117493152618
0.6841896772384644 0.3754720389842987 0.09917351603507996
0.6794447898864746 0.4163830876350403 0.05816587805747986
0.6146675944328308 0.7638052701950073 0.025735247880220413
0.5948514938354492 0.4175907373428345 -0.022012965753674507
0.6000871062278748 0.3555925488471985 0.002049921313300729
0.6021203994750977 0.302422434091568 0.0246359184384346
0.6681438684463501 0.501298189163208 0.10829605162143707
0.709867000579834 0.5276747941970825 0.1636456400156021
0.5817684531211853 0.49190688133239746 0.05431615188717842
0.6947327852249146 0.4752095341682434 0.13206230103969574
0.5859137773513794 0.5281668305397034 -0.001199536258354783
0.6218662261962891 0.6078544855117798 -0.07078144699335098
0.7236623764038086 0.5447357296943665 0.20289988815784454
0.7037314772605896 0.541504442691803 0.1344216763973236
0.6834244132041931 0.5486863851547241 0.09760396182537079
0.6448004245758057 0.5450502634048462 0.0667894184589386
0.6142774224281311 0.5357286334037781 0.04826804995536804
0.592768132686615 0.5253217816352844 0.03032069280743599
0.5663450360298157 0.4981124997138977 -0.04260820522904396
0.7272464036941528 0.5909872055053711 0.19313916563987732
0.7075481414794922 0.4748775064945221 0.15199872851371765
0.5831080079078674 0.6372163891792297 -0.11681336164474487
0.6037176847457886 0.5661357641220093 0.002535866107791662
0.6940698623657227 0.5080649256706238 0.37473398447036743
0.5782738924026489 0.5134974718093872 0.019832201302051544
0.6184530258178711 0.6122190356254578 0.00989095401018858
0.6821603178977966 0.48467132449150085 0.13532263040542603
0.6166830658912659 0.5918941497802734 -0.05997868627309799
0.6820411086082458 0.6647849678993225 0.36433911323547363
0.5806728601455688 0.4836405813694 0.06371098756790161
0.6058879494667053 0.5788788795471191 -0.09139861166477203
0.6758337020874023 0.774146318435669 0.1694517880678177
0.6567621827125549 0.8044832348823547 0.21194294095039368
0.7179381847381592 0.601765513420105 0.2930775582790375
0.6919015645980835 0.742692768573761 0.21525244414806366
0.7130448818206787 0.4645424485206604 0.2563558518886566
0.6138802766799927 0.8593863248825073 0.04380752891302109
0.5725911855697632 0.6420260071754456 -0.08596675843000412
0.62025386095047 0.5822739601135254 0.01861322484910488
0.7152050733566284 0.5056867599487305 0.21210312843322754
0.6523423194885254 0.4899865984916687 0.09245225787162781
0.6332666277885437 0.49107348918914795 0.07848542183637619
0.6188609600067139 0.7342745065689087 0.03167210519313812
0.7223591804504395 0.6377025246620178 0.1950354129076004
0.5706360936164856 0.8999760746955872 0.02977045625448227
0.621812105178833 0.8609147071838379 0.11461219191551208
0.6388227939605713 0.8367302417755127 0.1585913896560669
0.6141533255577087 0.4899260103702545 0.06880941987037659
0.5964114665985107 0.4867613911628723 0.06475255638360977
0.5857435464859009 0.4850198030471802 0.06545452028512955
0.7138578295707703 0.4718571901321411 0.18538197875022888
0.5994464159011841 0.4719996750354767 0.06385026127099991
0.6182461380958557 0.4682126045227051 0.06586915254592896
0.6384207606315613 0.4672701954841614 0.07510517537593842
0.6573044061660767 0.4706971049308777 0.08935772627592087
0.6678831577301025 0.475949227809906 0.10232166200876236
0.7046713829040527 0.4551083445549011 0.334011435508728
0.6639146208763123 0.48774582147598267 0.10570500791072845
0.6214524507522583 0.6699498891830444 -0.010567140765488148
0.6130236387252808 0.6256962418556213 -0.04951807111501694
0.5848838090896606 0.6647796034812927 -0.0523182637989521
0.6550946235656738 0.8060340881347656 0.12801812589168549
0.6347508430480957 0.8324733972549438 0.08702833205461502
0.5809779167175293 0.87936931848526 0.00032903513056226075
0.6659079790115356 0.7698588371276855 0.273417204618454
0.5870592594146729 0.47853225469589233 0.06340347975492477
0.5852229595184326 0.5351174473762512 -0.04419422149658203
0.6017639636993408 0.8827832937240601 0.06929656118154526
0.712044358253479 0.6524094939231873 0.2813737392425537
0.5842020511627197 0.730335533618927 -0.01410808227956295
0.5888490080833435 0.7359156012535095 -0.018484286963939667
0.5931328535079956 0.7450950741767883 -0.021834425628185272
0.5954183340072632 0.7577387094497681 -0.01777103915810585
0.5945464968681335 0.7808150053024292 0.0012867625337094069
0.6085600852966309 0.7214308381080627 0.02317088097333908
0.6177453398704529 0.7193116545677185 0.026643455028533936
0.6253278851509094 0.7155720591545105 0.02973071299493313
0.6473246812820435 0.7006216049194336 0.04193868860602379
0.7097038626670837 0.6481851935386658 0.1277129352092743
0.5753744840621948 0.5118145942687988 -0.020290808752179146
0.5701006650924683 0.4711851179599762 0.032507095485925674
0.5796239376068115 0.47302770614624023 0.05246397480368614
0.6003227829933167 0.718732476234436 0.02390291355550289
0.7004454731941223 0.7061911225318909 0.16457614302635193
0.5622751712799072 0.4716949462890625 -0.011407343670725822
0.6021794080734253 0.805131196975708 0.015847085043787956
0.5747813582420349 0.5228124260902405 -0.06970282644033432
0.601722776889801 0.5714812874794006 -0.038968440145254135
0.572746217250824 0.8205939531326294 -0.01671876199543476
0.6459214687347412 0.756324827671051 0.06810031831264496
0.6340423822402954 0.6306398510932922 0.022951701655983925
0.6250824928283691 0.7840512990951538 0.04364730790257454
0.6787520051002502 0.6271312236785889 0.05616869404911995
0.6527371406555176 0.6536417603492737 0.03720998018980026
0.6904016733169556 0.6645557880401611 0.08494206517934799
0.5813357830047607 0.8519895672798157 -0.012434208765625954
0.6088649034500122 0.5839022397994995 -0.015150769613683224
0.6578553318977356 0.7763803005218506 0.09790785610675812
0.6341603994369507 0.8056285381317139 0.06540790945291519
0.6647548675537109 0.7259544134140015 0.08281365782022476
0.713424801826477 0.6783240437507629 0.19767892360687256
0.682410717010498 0.7310311794281006 0.11735905706882477
0.703598141670227 0.6999748349189758 0.2620711326599121
0.6655048131942749 0.6830699443817139 0.057417865842580795
0.5934107303619385 0.5505356192588806 -0.01908479444682598
0.6164429783821106 0.6190447807312012 -0.07878485321998596
0.6222586631774902 0.6229845881462097 -0.04840541258454323
0.6140099763870239 0.6034851670265198 -0.10189376026391983
0.5889712572097778 0.45665401220321655 0.034559037536382675
0.6263279914855957 0.44853726029396057 0.04291219264268875
0.6579656004905701 0.4483755826950073 0.05747735872864723
0.6813174486160278 0.452833890914917 0.08028138428926468
0.6934012770652771 0.46139711141586304 0.10483504831790924
0.6928658485412598 0.4924614727497101 0.15044301748275757
0.7187771797180176 0.5536274313926697 0.2935963273048401
0.6832641959190369 0.5189454555511475 0.12238772213459015
0.6652889251708984 0.5241893529891968 0.09619244933128357
0.6378499269485474 0.5234153270721436 0.07323209941387177
0.610475480556488 0.5180979371070862 0.058237623423337936
0.5900986194610596 0.5110079050064087 0.04475342854857445
0.5769962072372437 0.503731369972229 0.03751843050122261
0.6867527961730957 0.5586141347885132 0.389652818441391
0.6170319318771362 0.6283394694328308 -0.0368812195956707
0.5937041640281677 0.5563645362854004 -0.06389281898736954
0.6087712049484253 0.6208592057228088 -0.10694662481546402
0.5901265144348145 0.6328039765357971 -0.10371559858322144
0.6034030318260193 0.6248140335083008 -0.09468020498752594
0.60810387134552 0.6351415514945984 -0.03261677175760269
0.5888651013374329 0.6352633833885193 -0.1118135079741478
0.5795090794563293 0.6399579048156738 -0.08375203609466553
0.574762225151062 0.48539024591445923 0.05297126993536949
0.5670297145843506 0.49182313680648804 0.028869742527604103
0.5673962831497192 0.49631059169769287 0.0050097000785171986
0.6735163331031799 0.4797060489654541 0.11353284120559692
0.6844583749771118 0.4745901823043823 0.11903420835733414
