ply
format ascii 1.0
element vertex 468
property float x
property float y
property float z
end_header
0.5460182428359985 0.739845335483551 -0.0625118613243103
0.5698254108428955 0.6474868655204773 -0.13751180469989777
0.5499985814094543 0.6738231182098389 -0.07202272117137909
0.5342036485671997 0.5549017190933228 -0.1148478165268898
0.5710217356681824 0.6187441349029541 -0.1471138596534729
0.5647813081741333 0.5809761881828308 -0.13876831531524658
0.5421253442764282 0.4917958676815033 -0.0770874172449112
0.3345487713813782 0.48131710290908813 -0.02506422810256481
0.5353209972381592 0.43298226594924927 -0.062130749225616455
0.5359455347061157 0.3988369107246399 -0.06878849118947983
0.5262401700019836 0.2624395191669464 -0.04837407171726227
0.5445062518119812 0.7533544301986694 -0.058118898421525955
0.5411989688873291 0.7618278861045837 -0.05052910000085831
0.537190318107605 0.7633014917373657 -0.039834264665842056
0.5378957986831665 0.7912496328353882 -0.03120013326406479
0.5395111441612244 0.8029677867889404 -0.03566257655620575
0.5399246215820312 0.8168532848358154 -0.04158734902739525
0.5385680198669434 0.8325049877166748 -0.03899681195616722
0.5327329039573669 0.8561279773712158 -0.01808430254459381
0.5643402338027954 0.6618817448616028 -0.12416213005781174
0.5294502377510071 0.6601489782333374 -0.09508159756660461
0.21002119779586792 0.3821142613887787 0.05406465381383896
0.41426360607147217 0.5047961473464966 -0.030390093103051186
0.38870298862457275 0.5068976283073425 -0.03584489971399307
0.3624482750892639 0.5063303709030151 -0.036279719322919846
0.3218856751918793 0.4911911189556122 -0.024424869567155838
0.43513065576553345 0.49883878231048584 -0.02190193347632885
0.3797350525856018 0.43637001514434814 -0.050016045570373535
0.40873196721076965 0.4383102357387543 -0.040953610092401505
0.35117217898368835 0.4406321048736572 -0.04884950444102287
0.3306661546230316 0.4503302574157715 -0.04240419715642929
0.30132433772087097 0.5103430151939392 -0.015064440667629242
0.42838799953460693 0.8937270045280457 -0.0036830531898885965
0.32208046317100525 0.47405922412872314 -0.01979793608188629
0.20058375597000122 0.5005785226821899 0.07168108969926834
0.26763126254081726 0.4948805272579193 0.0010010538389906287
0.3985351324081421 0.6188685297966003 -0.05185782536864281
0.507222056388855 0.7348088026046753 -0.06921649724245071
0.5043846368789673 0.761015772819519 -0.05468331649899483
0.4615698754787445 0.739046573638916 -0.06166628375649452
0.4280836582183838 0.7445486783981323 -0.043551959097385406
0.47028616070747375 0.7594762444496155 -0.049775972962379456
0.44172799587249756 0.7582231760025024 -0.03289070352911949
0.3864595890045166 0.7876671552658081 -0.0029644863680005074
0.5468920469284058 0.6469153165817261 -0.14000853896141052
0.5446416735649109 0.6192124485969543 -0.14949798583984375
0.2939254641532898 0.43008872866630554 -0.05106322467327118
0.45354896783828735 0.5509632229804993 -0.047263503074645996
0.46184587478637695 0.6354269981384277 -0.09391292184591293
0.45701080560684204 0.6198737025260925 -0.08702950924634933
0.31263768672943115 0.6139599084854126 -0.040940362960100174
0.5404336452484131 0.5841599702835083 -0.13756847381591797
0.36973658204078674 0.40253889560699463 -0.07589472830295563
0.32697612047195435 0.4108767509460449 -0.0680757537484169
0.24972674250602722 0.3334645628929138 0.011463742703199387
0.4848369359970093 0.42647653818130493 -0.06755110621452332
0.43210965394973755 0.44760310649871826 -0.026766596361994743
0.36442330479621887 0.7556504011154175 -0.006285163573920727
0.20755401253700256 0.760238766670227 0.15688398480415344
0.47887784242630005 0.6511344909667969 -0.07803293317556381
0.5021489858627319 0.661238968372345 -0.0738140195608139
0.3838532567024231 0.7557407021522522 -0.00044376280857250094
0.39545294642448425 0.7565274238586426 -0.002586271148175001
0.31052470207214355 0.39372771978378296 -0.06111270561814308
0.45450395345687866 0.6461285948753357 -0.07907063513994217
0.4224955439567566 0.406211256980896 -0.07642795890569687
0.4191122055053711 0.3841226398944855 -0.08422999083995819
0.3784410357475281 0.2710196077823639 -0.05521194264292717
0.2826847732067108 0.36264392733573914 -0.02919558808207512
0.40314969420433044 0.3246225118637085 -0.07044579833745956
0.2738068699836731 0.41832733154296875 -0.03501541540026665
0.24338051676750183 0.40190649032592773 0.008469117805361748
0.5057758688926697 0.750857412815094 -0.06447293609380722
0.4672416150569916 0.751889705657959 -0.055912237614393234
0.4356640577316284 0.7516593933105469 -0.039778947830200195
0.48378872871398926 0.6563528180122375 -0.07097601145505905
0.3894751965999603 0.7560524940490723 -0.0015367023879662156
0.4085339903831482 0.7715763449668884 -0.011147331446409225
0.39897584915161133 0.7563825845718384 -0.0027426816523075104
0.504500687122345 0.6451612114906311 -0.11266545951366425
0.4435659945011139 0.7553365230560303 -0.02784709632396698
0.4718722403049469 0.7589883208274841 -0.03866942599415779
0.5028940439224243 0.7617290019989014 -0.04443668946623802
0.4919597804546356 0.8552989959716797 -0.02341463416814804
0.4983261227607727 0.8298342823982239 -0.04494684562087059
0.5013448596000671 0.8137503862380981 -0.047475140541791916
0.5028846263885498 0.7994270324707031 -0.04083949699997902
0.5036008954048157 0.7897800207138062 -0.03613700717687607
0.4415915012359619 0.7766326665878296 -0.021199369803071022
0.4383070766925812 0.7799146771430969 -0.024899402633309364
0.4326198697090149 0.786664605140686 -0.027806954458355904
0.42739132046699524 0.7954392433166504 -0.023890044540166855
0.411250501871109 0.7153009176254272 -0.042278390377759933
0.17601048946380615 0.6225329637527466 0.17545734345912933
0.5577554106712341 0.6673447489738464 -0.0906219631433487
0.42155084013938904 0.7691035270690918 -0.009020322933793068
0.4154575765132904 0.769415020942688 -0.011366570368409157
0.5118277072906494 0.6736794114112854 -0.07299534976482391
0.45877304673194885 0.6623801589012146 -0.05604159086942673
0.5074300765991211 0.6678362488746643 -0.07430931180715561
0.42457225918769836 0.5654687285423279 -0.04502333328127861
0.3809748888015747 0.5826897621154785 -0.04823104292154312
0.44784975051879883 0.631367027759552 -0.07276648283004761
0.3047119379043579 0.2952612340450287 -0.026985473930835724
0.33445438742637634 0.33577221632003784 -0.05372407287359238
0.36055853962898254 0.38094598054885864 -0.07518155127763748
0.4157743453979492 0.8149293661117554 -0.010951850563287735
0.4787251949310303 0.3912959694862366 -0.0806867778301239
0.4659509062767029 0.32372263073921204 -0.07170473784208298
0.4497857391834259 0.2612204849720001 -0.06155547872185707
0.3373987674713135 0.5013758540153503 -0.03125634416937828
0.2716365456581116 0.5300335884094238 -0.006469691172242165
0.44871723651885986 0.49232032895088196 -0.01636093109846115
0.3006235659122467 0.46182477474212646 -0.029702814295887947
0.47451385855674744 0.5342674255371094 -0.05318870767951012
0.4872211217880249 0.627047061920166 -0.11507052183151245
0.23660029470920563 0.549760103225708 0.013202854432165623
0.29481369256973267 0.5471562147140503 -0.023981042206287384
0.3335135579109192 0.5562190413475037 -0.036710627377033234
0.3853336274623871 0.5525782108306885 -0.037219054996967316
0.4218113124370575 0.5423792004585266 -0.03339118883013725
0.44907766580581665 0.5305136442184448 -0.0344051755964756
0.5168581008911133 0.49904486536979675 -0.07378021627664566
0.23855282366275787 0.6056734919548035 0.009569321759045124
0.2779808044433594 0.46002107858657837 -0.024912241846323013
0.5501829385757446 0.6610172390937805 -0.12623172998428345
0.45806610584259033 0.5777084231376648 -0.055727437138557434
0.1738055944442749 0.49854838848114014 0.14590871334075928
0.4704676568508148 0.5167468786239624 -0.03415968641638756
0.4395635426044464 0.6319528222084045 -0.046209242194890976
0.31181639432907104 0.47659817337989807 -0.01756809651851654
0.48156189918518066 0.6081454157829285 -0.10638158023357391
0.1841832995414734 0.6895870566368103 0.17150552570819855
0.446012407541275 0.4826905131340027 -0.011113583110272884
0.511971116065979 0.5936487317085266 -0.12731671333312988
0.29399222135543823 0.8262344598770142 0.05660039931535721
0.2874777615070343 0.8598378300666809 0.0967998206615448
0.19608569145202637 0.616972804069519 0.090949647128582
0.25285953283309937 0.7882429361343384 0.07220901548862457
0.2198815643787384 0.44690263271331787 0.04575663432478905
0.42319998145103455 0.9224827289581299 0.008548206649720669
0.5465837717056274 0.6662324666976929 -0.09097909182310104
0.43104153871536255 0.5967470407485962 -0.05038730427622795
0.2401185929775238 0.5007773637771606 0.019317874684929848
0.36559757590293884 0.4896320700645447 -0.03261275961995125
0.3892059326171875 0.4912673234939575 -0.033448703587055206
0.4015841484069824 0.7750381827354431 -0.008517680689692497
0.23792952299118042 0.662223756313324 0.023741962388157845
0.4701908528804779 0.9577233791351318 0.024345584213733673
0.37964752316474915 0.9236109256744385 0.05397917330265045
0.33767420053482056 0.8977102637290955 0.07336187362670898
0.5320039391517639 0.32751592993736267 -0.059723079204559326
0.5225609540939331 0.9587757587432861 0.0315224789083004
0.41026976704597473 0.489937961101532 -0.028728103265166283
0.4292534589767456 0.4862782657146454 -0.020860210061073303
0.44079872965812683 0.4844837784767151 -0.01334415003657341
0.2538338899612427 0.4547739624977112 -0.005520072299987078
0.42354729771614075 0.4618262052536011 -0.024955175817012787
0.401570200920105 0.45243728160858154 -0.034515246748924255
0.3790908455848694 0.45016807317733765 -0.03951168805360794
0.3551178276538849 0.4547606110572815 -0.039196718484163284
0.33951306343078613 0.4627420902252197 -0.033732011914253235
0.18619686365127563 0.43375521898269653 0.1040148138999939
0.3478674590587616 0.48590487241744995 -0.02896960638463497
0.5470106601715088 0.6954993605613708 -0.06318891793489456
0.44258323311805725 0.7017194032669067 -0.05613481625914574
0.48211967945098877 0.6477420926094055 -0.08750639110803604
0.5058450698852539 0.6975428462028503 -0.0700688362121582
0.5353471636772156 0.4610707461833954 -0.06012652441859245
0.3376573920249939 0.8640234470367432 0.04600147157907486
0.3787442445755005 0.8939837217330933 0.02912333980202675
0.4747496247291565 0.9401702880859375 -0.005471286829560995
0.2449026256799698 0.8171278238296509 0.12703709304332733
0.43928954005241394 0.47466325759887695 -0.017205722630023956
0.5029197335243225 0.5425830483436584 -0.0821894109249115
0.5291812419891357 0.9408363103866577 0.0028216037899255753
0.42354893684387207 0.9448994398117065 0.0330730602145195
0.20212700963020325 0.6788492798805237 0.09382107108831406
0.47141215205192566 0.784211277961731 -0.03113575093448162
0.4681214690208435 0.7912465333938599 -0.03550386801362038
0.46457764506340027 0.8020193576812744 -0.03934589400887489
0.4607946574687958 0.8164346218109131 -0.03582806885242462
0.44953370094299316 0.8390287160873413 -0.0211417768150568
0.4128948748111725 0.7558102607727051 -0.01800699159502983
0.4062247574329376 0.7527186870574951 -0.01981254108250141
0.39956697821617126 0.7481364607810974 -0.022031137719750404
0.38163018226623535 0.7328188419342041 -0.024976136162877083
0.281236857175827 0.6758753061294556 -0.014999297447502613
0.4964619278907776 0.5150618553161621 -0.061496149748563766
0.4724090099334717 0.46531811356544495 -0.021569935604929924
0.45280030369758606 0.4675871729850769 -0.01824183389544487
0.41810283064842224 0.7527508735656738 -0.014390298165380955
0.27002495527267456 0.7452203035354614 0.027691569179296494
0.5008141398429871 0.464721143245697 -0.04973774775862694
0.43780335783958435 0.864246129989624 -0.010711912997066975
0.5568340420722961 0.5503700971603394 -0.11686021089553833
0.5255363583564758 0.5283519625663757 -0.09587209671735764
0.5495400428771973 0.5222270488739014 -0.09574046730995178
0.4835907518863678 0.5847062468528748 -0.08324610441923141
0.532134473323822 0.9141107797622681 -0.01212795078754425
0.5322076082229614 0.8820176720619202 -0.014579202979803085
0.4854702949523926 0.8819326162338257 -0.01824464462697506
0.3685149848461151 0.8021730184555054 0.0048306966200470924
0.41523507237434387 0.6542472243309021 -0.04422496631741524
0.399904727935791 0.8372682929039001 -0.0007935935282148421
0.3523893654346466 0.6516343355178833 -0.04871287941932678
0.38771986961364746 0.6818320155143738 -0.040453169494867325
0.3223608732223511 0.6957035064697266 -0.02807539515197277
0.47923630475997925 0.9137778878211975 -0.018284432590007782
0.4611671268939972 0.5986003279685974 -0.06827901303768158
0.3480352759361267 0.8285579681396484 0.020892657339572906
0.38747844099998474 0.86280757188797 0.013407187536358833
0.3449450731277466 0.7640469670295715 -0.00407108711078763
0.24135500192642212 0.7113503217697144 0.03915730491280556
0.3102702498435974 0.7743447422981262 0.010854724794626236
0.21846045553684235 0.7362275719642639 0.09115247428417206
0.3587883710861206 0.7137995958328247 -0.029616432264447212
0.480849027633667 0.5600392818450928 -0.06758030503988266
0.49701055884361267 0.6403043270111084 -0.11893041431903839
0.4707377552986145 0.6452062129974365 -0.09330747276544571
0.5159332156181335 0.622374951839447 -0.13556602597236633
0.45532363653182983 0.4439729154109955 -0.035136278718709946
0.4153714179992676 0.42873483896255493 -0.05109744146466255
0.377318412065506 0.4252767562866211 -0.05904260650277138
0.3431832790374756 0.4295499324798584 -0.05815044045448303
0.31630441546440125 0.4414263367652893 -0.04853980615735054
0.29376429319381714 0.4860498905181885 -0.01128428801894188
0.19518566131591797 0.5581115484237671 0.08103199303150177
0.318842351436615 0.5207966566085815 -0.02362595498561859
0.3499472737312317 0.5283631682395935 -0.031396426260471344
0.38593927025794983 0.5279951095581055 -0.03336770460009575
0.4182390868663788 0.5222866535186768 -0.02848012000322342
0.44269222021102905 0.514022707939148 -0.023880787193775177
0.4605172276496887 0.5058316588401794 -0.021310871466994286
0.1734086275100708 0.5598597526550293 0.16784481704235077
0.46677467226982117 0.6512075662612915 -0.08049989491701126
0.5095556974411011 0.5672512054443359 -0.10114672034978867
0.5234757661819458 0.6431171894073486 -0.13308337330818176
0.5325901508331299 0.6568495035171509 -0.11830472946166992
0.5186399817466736 0.6475517749786377 -0.12101460993289948
0.47075149416923523 0.6592052578926086 -0.06885536015033722
0.5404254794120789 0.6594521403312683 -0.12360430508852005
0.5367860198020935 0.6645825505256653 -0.09301549941301346
0.4573194980621338 0.4845818877220154 -0.011463127098977566
0.4745863676071167 0.491432785987854 -0.021646123379468918
0.48703572154045105 0.49622493982315063 -0.03812035173177719
0.3301493525505066 0.46908628940582275 -0.028047140687704086
0.3154153525829315 0.4616267681121826 -0.031040634959936142
0.5748491883277893 0.554808497428894 -0.10088519006967545
0.6702222228050232 0.4835278391838074 0.07637915015220642
0.5796831846237183 0.6591111421585083 -0.08423938602209091
0.7045345306396484 0.39275455474853516 0.21055813133716583
0.609158992767334 0.5080035328865051 0.03482852876186371
0.6312665343284607 0.5095945596694946 0.04245353490114212
0.6518293023109436 0.5082366466522217 0.05452531948685646
0.6744259595870972 0.4933318495750427 0.08340205252170563
0.5915564894676208 0.5017419457435608 0.028618698939681053
0.6430578231811523 0.44322022795677185 0.03241400048136711
0.6177765727043152 0.44481128454208374 0.023461386561393738
0.6646831035614014 0.44741305708885193 0.04616593196988106
0.6770736575126648 0.4564066529273987 0.060084182769060135
0.6878453493118286 0.5120800733566284 0.10025675594806671
0.6082904934883118 0.8833103179931641 0.0449913889169693
0.6761458516120911 0.4771566390991211 0.08658020198345184
0.7107330560684204 0.5028522610664368 0.22968295216560364
0.7006113529205322 0.497331827878952 0.1309066265821457
0.6464406251907349 0.6175846457481384 0.014665993861854076
0.5785303711891174 0.7340357303619385 -0.05091676115989685
0.5700811743736267 0.7599962949752808 -0.03755752369761467
0.6073617339134216 0.7365542650222778 -0.024168480187654495
0.6229771971702576 0.7417150735855103 0.0071627674624323845
0.5916070938110352 0.7572954297065735 -0.01671375334262848
0.6065328121185303 0.7561430335044861 0.010803577490150928
0.6369627118110657 0.7826651930809021 0.061589695513248444
0.588525652885437 0.6462817788124084 -0.1307978630065918
0.5917280912399292 0.6187237501144409 -0.13878396153450012
0.7010509967803955 0.4379776120185852 0.07132627069950104
0.5972277522087097 0.5513498187065125 -0.004136338829994202
0.6261317133903503 0.633904755115509 -0.05283745378255844
0.6234757900238037 0.6186510324478149 -0.04470577836036682
0.6997530460357666 0.6115079522132874 0.06883376836776733
0.584565281867981 0.5838215947151184 -0.12383093684911728
0.6631455421447754 0.4129682779312134 0.008151493035256863
0.6879366040229797 0.42049264907836914 0.037504080682992935
0.6962341070175171 0.34707769751548767 0.15176202356815338
0.5766366720199585 0.4308772087097168 -0.04054765775799751
0.5964105725288391 0.45282235741615295 0.02519402466714382
0.6542108654975891 0.7512509822845459 0.07074455171823502
0.6794609427452087 0.7451364398002625 0.30257320404052734
0.6093463897705078 0.6496719717979431 -0.04694293439388275
0.5904277563095093 0.6600532531738281 -0.05815078318119049
0.6388252973556519 0.7533837556838989 0.06665385514497757
0.6275858879089355 0.7544540166854858 0.056705646216869354
0.6943203806877136 0.4050699472427368 0.0525321327149868
0.6238894462585449 0.644670307636261 -0.0388338603079319
0.6268234252929688 0.4148482084274292 -0.018743248656392097
0.6316814422607422 0.3935861587524414 -0.024762898683547974
0.6388604640960693 0.28297021985054016 0.02441905438899994
0.6952192783355713 0.3746987283229828 0.09588627517223358
0.6344044208526611 0.3351806104183197 -0.001775337033905089
0.7068721055984497 0.4271869659423828 0.09602189064025879
0.7065487504005432 0.4113385081291199 0.15018564462661743
0.5754304528236389 0.7498610615730286 -0.04608577489852905
0.5992450714111328 0.7494618892669678 -0.02070205844938755
0.6154009699821472 0.7491192817687988 0.006975535303354263
0.6029465198516846 0.6548565626144409 -0.045945096760988235
0.6339527368545532 0.7539736032485962 0.06094735488295555
0.6245232224464417 0.7687013745307922 0.04194679483771324
0.6221494674682617 0.7542656660079956 0.05487211421132088
0.603995680809021 0.6436262130737305 -0.08467210084199905
0.5991438627243042 0.7539029121398926 0.013491613790392876
0.5837782621383667 0.7573431730270386 -0.007798804435878992
0.5634127855300903 0.7609292268753052 -0.026919370517134666
0.5671879053115845 0.8523632287979126 -0.006664839573204517
0.5718603134155273 0.8272896409034729 -0.026116840541362762
0.571796178817749 0.8115531206130981 -0.027894502505660057
0.5695067644119263 0.7976127862930298 -0.02145220898091793
0.5654159784317017 0.7879197597503662 -0.017657024785876274
0.6023663282394409 0.7737160921096802 0.020238054916262627
0.6071754097938538 0.7767962217330933 0.01645023748278618
0.6129663586616516 0.7832173705101013 0.014806660823523998
0.6165425777435303 0.7913305759429932 0.021585237234830856
0.6385810375213623 0.7122995853424072 0.015232538804411888
0.690897524356842 0.6164585947990417 0.3368770480155945
0.6112464666366577 0.766732931137085 0.041640158742666245
0.6185407042503357 0.7667742967605591 0.03981427475810051
0.5818945169448853 0.6724886894226074 -0.05797254666686058
0.6137932538986206 0.660897970199585 -0.02375565655529499
0.586410403251648 0.666763424873352 -0.05943067744374275
0.6190692186355591 0.5657457113265991 0.012701563537120819
0.6534941792488098 0.5823841094970703 0.030096640810370445
0.624514102935791 0.6297845244407654 -0.029058394953608513
0.6764025092124939 0.3098134696483612 0.0867576003074646
0.6723105907440186 0.348708838224411 0.04644729197025299
0.6684658527374268 0.3924873471260071 0.014324150048196316
0.6189252734184265 0.8087670803070068 0.04194245859980583
0.5860161781311035 0.39750415086746216 -0.050924867391586304
0.5892331600189209 0.3293474614620209 -0.036245331168174744
0.5911831855773926 0.26826298236846924 -0.021515540778636932
0.6670897006988525 0.5031313300132751 0.07036321610212326
0.7051563262939453 0.5309386253356934 0.12173651158809662
0.5805293321609497 0.4948926866054535 0.028836319223046303
0.6909404397010803 0.46641606092453003 0.08766094595193863
0.583167314529419 0.5347704291343689 -0.01874605007469654
0.6174299716949463 0.6260054707527161 -0.0821145623922348
0.7195695638656616 0.548832356929779 0.15811745822429657
0.6993933320045471 0.5477068424224854 0.09673122316598892
0.6799166798591614 0.5566869974136353 0.06601451337337494
0.642479419708252 0.5534106492996216 0.040936179459095
0.6130980253219604 0.5434069633483887 0.025898586958646774
0.5916428565979004 0.5317103266716003 0.010138963349163532
0.5609925985336304 0.4995748996734619 -0.059282783418893814
0.7265082597732544 0.6015999913215637 0.15446090698242188
0.7015526294708252 0.46491366624832153 0.10399206727743149
0.575767457485199 0.6606891751289368 -0.11914776265621185
0.6029000282287598 0.5775275230407715 -0.013903389684855938
0.6964558959007263 0.5011133551597595 0.3134564161300659
0.576488733291626 0.5179511904716492 6.123067578300834e-05
0.6215249300003052 0.6304782629013062 -0.0028784407768398523
0.6801905632019043 0.47996431589126587 0.09391740709543228
0.6133521795272827 0.6071720719337463 -0.07278802990913391
0.688988447189331 0.6789961457252502 0.3264397084712982
0.579483151435852 0.4849811792373657 0.036330290138721466
0.599563717842102 0.592933714389801 -0.10299462825059891
0.6715202331542969 0.8097360730171204 0.16487911343574524
0.6543489098548889 0.8407642841339111 0.2068941444158554
0.7196352481842041 0.6110807657241821 0.2485058605670929
0.6900873780250549 0.7728074193000793 0.1998545527458191
0.7088169455528259 0.45292288064956665 0.19776037335395813
0.6077815294265747 0.9096924662590027 0.060620710253715515
0.56779944896698 0.6660748720169067 -0.08668006956577301
0.6207755208015442 0.5962477922439575 0.0012301179813221097
0.7091106176376343 0.5025634765625 0.16213102638721466
0.6515072584152222 0.49246692657470703 0.056437861174345016
0.6323607563972473 0.49490970373153687 0.04560435190796852
0.6290389895439148 0.7719107270240784 0.048222899436950684
0.7241291999816895 0.6547070145606995 0.1635182499885559
0.5677284002304077 0.9498371481895447 0.05356938764452934
0.6177977323532104 0.906660795211792 0.1261264830827713
0.6344162225723267 0.8785538673400879 0.163249209523201
0.6128283739089966 0.49373316764831543 0.03814239054918289
0.595030665397644 0.4897393584251404 0.03616226091980934
0.5843949317932129 0.48728102445602417 0.03768357262015343
0.7079291343688965 0.4603164494037628 0.13339245319366455
0.5976190567016602 0.46470898389816284 0.03362016752362251
0.6161574721336365 0.4562116265296936 0.03395913913846016
0.637022852897644 0.4537939727306366 0.04061941057443619
0.6569690108299255 0.45816394686698914 0.052005019038915634
0.6678426861763 0.46614962816238403 0.06350640952587128
0.7040780782699585 0.4409143328666687 0.2682284712791443
0.6631500720977783 0.4881822466850281 0.06766922026872635
0.6224477291107178 0.69901442527771 -0.012319004163146019
0.6119110584259033 0.6463350653648376 -0.05851151421666145
0.5817866921424866 0.6961358189582825 -0.05156645178794861
0.6491734981536865 0.8470430970191956 0.13392269611358643
0.6284842491149902 0.8780772686004639 0.09932407736778259
0.5753293633460999 0.932859480381012 0.023183709010481834
0.667539119720459 0.7995538711547852 0.2576896846294403
0.5855824947357178 0.4767035245895386 0.03489518165588379
0.5802383422851562 0.5426546335220337 -0.05914592370390892
0.5976917743682861 0.931318998336792 0.08632791042327881
0.7149807214736938 0.6687284708023071 0.2454807609319687
0.5866249799728394 0.7816465497016907 0.0006344728171825409
0.5916200280189514 0.7883221507072449 -0.002821859670802951
0.5959705114364624 0.798686146736145 -0.0052520218305289745
0.59816575050354 0.8125098347663879 -0.0005577349220402539
0.5979223251342773 0.8336805701255798 0.018012341111898422
0.61985182762146 0.7537813186645508 0.035824816673994064
0.6280263662338257 0.7503760457038879 0.03856183588504791
0.6343821287155151 0.7456542253494263 0.03945090249180794
0.6514473557472229 0.7293369770050049 0.04598306491971016
0.7110969424247742 0.6693994402885437 0.10401083528995514
0.5713100433349609 0.5157139301300049 -0.037238962948322296
0.5681336522102356 0.46784478425979614 0.008923489600419998
0.5780047178268433 0.47041115164756775 0.025273047387599945
0.6113274097442627 0.7512254118919373 0.03719356283545494
0.7010743618011475 0.7339543700218201 0.14807000756263733
0.558397114276886 0.46633508801460266 -0.031858231872320175
0.6015626788139343 0.8563354015350342 0.03202430531382561
0.5685738325119019 0.5284653306007385 -0.08329999446868896
0.59882652759552 0.5841091275215149 -0.05262444168329239
0.5705612897872925 0.8775447607040405 0.002221692819148302
0.6458241939544678 0.7934495210647583 0.07861043512821198
0.6360553503036499 0.6521546840667725 0.010923032648861408
0.6245250701904297 0.8280866146087646 0.057779040187597275
0.6783461570739746 0.6483438611030579 0.037030987441539764
0.6532453298568726 0.6786686182022095 0.02794790081679821
0.6911747455596924 0.6896083950996399 0.0698462650179863
0.5761534571647644 0.907798171043396 0.008604566566646099
0.608768105506897 0.59784334897995 -0.029669392853975296
0.653815507888794 0.8155035972595215 0.10455793887376785
0.62964928150177 0.8501836061477661 0.07820197194814682
0.6658677458763123 0.7565189599990845 0.08459050208330154
0.7149515151977539 0.7007541656494141 0.17363540828227997
0.681846022605896 0.7630229592323303 0.11262210458517075
0.7049247622489929 0.7227338552474976 0.23560498654842377
0.6665975451469421 0.7096407413482666 0.052066028118133545
0.5905086994171143 0.560016393661499 -0.03488454222679138
0.6118950247764587 0.638856053352356 -0.08898546546697617
0.6208624839782715 0.6436060667037964 -0.058627650141716
0.6064521074295044 0.6211944222450256 -0.1112767830491066
0.5854994058609009 0.4479641914367676 0.0065813614055514336
0.621111273765564 0.4355493187904358 0.01045057363808155
0.6520837545394897 0.433437705039978 0.02149054780602455
0.6758371591567993 0.4374374747276306 0.04025249183177948
0.6887639760971069 0.44821175932884216 0.06150486692786217
0.6887820959091187 0.4889798164367676 0.10727983713150024
0.7172363996505737 0.556344211101532 0.24290813505649567
0.6806472539901733 0.5221368670463562 0.08527706563472748
0.6624937653541565 0.5295658707618713 0.06310032308101654
0.6360791921615601 0.5297229886054993 0.0443902388215065
0.6094583868980408 0.5243655443191528 0.03259104862809181
0.5892941355705261 0.5158331394195557 0.022010724991559982
0.5758370161056519 0.5074560046195984 0.015776073560118675
0.6908582448959351 0.5584794878959656 0.33456093072891235
0.6173766851425171 0.6496910452842712 -0.04625733569264412
0.5883336067199707 0.5668456554412842 -0.07724826782941818
0.6012951135635376 0.6416856050491333 -0.11391269415616989
0.5843518376350403 0.6553955078125 -0.10728655010461807
0.5977290868759155 0.6459835767745972 -0.1013563871383667
0.6097272038459778 0.657731294631958 -0.039964526891708374
0.5819408893585205 0.6585111618041992 -0.11487624794244766
0.5749959945678711 0.663750171661377 -0.08526529371738434
0.5735480189323425 0.4869714677333832 0.027770504355430603
0.5655112266540527 0.4934524893760681 0.0073669953271746635
0.5648436546325684 0.49773287773132324 -0.013733151368796825
0.6730525493621826 0.47218096256256104 0.0740165114402771
0.6828692555427551 0.46642470359802246 0.0772823765873909
