ply
format ascii 1.0
element vertex 468
property float x
property float y
property float z
end_header
0.5370913743972778 0.72027987241745 -0.03549348562955856
0.5707281827926636 0.6389436721801758 -0.09648114442825317
0.5379102826118469 0.6574667096138 -0.04164586961269379
0.5410857200622559 0.5642423629760742 -0.09853106737136841
0.5756221413612366 0.6179357767105103 -0.1069597601890564
0.5692505836486816 0.5876114964485168 -0.104820616543293
0.542982816696167 0.5073691010475159 -0.07381774485111237
0.35472142696380615 0.48344796895980835 -0.08756822347640991
0.5389738082885742 0.45488137006759644 -0.07595724612474442
0.5440229773521423 0.42651933431625366 -0.08792269229888916
0.5408781170845032 0.29551205039024353 -0.092119961977005
0.5348370671272278 0.7320648431777954 -0.031552787870168686
0.529869794845581 0.740443766117096 -0.023379983380436897
0.5235435366630554 0.7436391711235046 -0.013208763673901558
0.5240023732185364 0.7602562308311462 0.0008976636454463005
0.5254131555557251 0.7722064256668091 0.0004702477890532464
0.5246082544326782 0.7858560085296631 0.0007543035317212343
0.5198947787284851 0.7983096241950989 0.00989263504743576
0.5041836500167847 0.8085089921951294 0.03726711496710777
0.5609909296035767 0.6480851769447327 -0.08507048338651657
0.5298523902893066 0.6467653512954712 -0.06730970740318298
0.2039947509765625 0.36821112036705017 -0.07062342017889023
0.4232600927352905 0.5072541236877441 -0.07099485397338867
0.40086132287979126 0.5096882581710815 -0.08146806806325912
0.3764142096042633 0.5087116956710815 -0.08784403651952744
0.33965158462524414 0.49061688780784607 -0.08846301585435867
0.44200852513313293 0.5010383725166321 -0.05925296992063522
0.39593034982681274 0.44474467635154724 -0.10378360748291016
0.42131757736206055 0.4466681480407715 -0.08947785198688507
0.37069031596183777 0.4473419189453125 -0.10789645463228226
0.35177740454673767 0.45398610830307007 -0.10603108257055283
0.31340646743774414 0.5077962279319763 -0.0835324376821518
0.4091895520687103 0.8358487486839294 0.023141494020819664
0.34223195910453796 0.4745998680591583 -0.08709178864955902
0.1907232403755188 0.47772982716560364 -0.040471337735652924
0.2754456698894501 0.4880322217941284 -0.0817217230796814
0.41370889544487 0.6143097877502441 -0.06499680876731873
0.5146570801734924 0.7192045450210571 -0.046235278248786926
0.5111916661262512 0.7430893778800964 -0.03235752135515213
0.484294056892395 0.7296366691589355 -0.04885666072368622
0.46166664361953735 0.7405862808227539 -0.04485604912042618
0.4897238612174988 0.7468600869178772 -0.037290308624506
0.47136229276657104 0.7503808736801147 -0.032125942409038544
0.4090454876422882 0.7743231654167175 -0.013816479593515396
0.5530909299850464 0.6388461589813232 -0.10297783464193344
0.5540794730186462 0.6189851760864258 -0.11395514011383057
0.3152551054954529 0.4363158941268921 -0.12720701098442078
0.4568033814430237 0.5503672957420349 -0.06388849020004272
0.47454357147216797 0.630459189414978 -0.08255927264690399
0.46809807419776917 0.6163766384124756 -0.07963716238737106
0.33233964443206787 0.6113987565040588 -0.08237669616937637
0.5488629937171936 0.5900244116783142 -0.11047686636447906
0.39428457617759705 0.421196311712265 -0.13378526270389557
0.3520065248012543 0.4239700436592102 -0.1367737054824829
0.2562748193740845 0.3330470025539398 -0.10419075936079025
0.4963875710964203 0.449431836605072 -0.09564267843961716
0.44168734550476074 0.45460665225982666 -0.07119809836149216
0.39759790897369385 0.7546414136886597 -0.02672426402568817
0.16198590397834778 0.6974917054176331 0.07636888325214386
0.48846539855003357 0.6428272724151611 -0.0636148527264595
0.5064209699630737 0.649936318397522 -0.051561273634433746
0.4276904761791229 0.7587059736251831 -0.02244887687265873
0.43780577182769775 0.7570932507514954 -0.0212484709918499
0.3348715901374817 0.40649065375328064 -0.13724671304225922
0.46699199080467224 0.6397249698638916 -0.06891123205423355
0.4430941045284271 0.42955470085144043 -0.12011130154132843
0.4423622786998749 0.41030821204185486 -0.12993068993091583
0.4015759527683258 0.29576626420021057 -0.13622832298278809
0.29904547333717346 0.37023478746414185 -0.12473612278699875
0.42774543166160583 0.3519490957260132 -0.13525722920894623
0.29146164655685425 0.42289066314697266 -0.12068071961402893
0.24980777502059937 0.39764708280563354 -0.09758397191762924
0.5139857530593872 0.7335828542709351 -0.04230242595076561
0.48907098174095154 0.7405940890312195 -0.044201791286468506
0.46776074171066284 0.7462005615234375 -0.03991935774683952
0.4921870827674866 0.647095263004303 -0.05514667555689812
0.4336109161376953 0.7587001919746399 -0.02162928506731987
0.4439206123352051 0.7634398341178894 -0.02105269767343998
0.4388837218284607 0.7545896768569946 -0.02085758186876774
0.5130293369293213 0.6363972425460815 -0.0908912867307663
0.4708699584007263 0.7479727268218994 -0.026781659573316574
0.48812204599380493 0.7465771436691284 -0.02688741125166416
0.5067421793937683 0.7450667023658752 -0.02303207851946354
0.4771687388420105 0.8096127510070801 0.025041401386260986
0.49437302350997925 0.7981587052345276 -0.0031229183077812195
0.5010843276977539 0.785514235496521 -0.010812775231897831
0.5044698715209961 0.7712254524230957 -0.011366309598088264
0.5049569010734558 0.7611826062202454 -0.009700820781290531
0.4657505452632904 0.7594780921936035 -0.01782696507871151
0.46336793899536133 0.7634482383728027 -0.01925954967737198
0.45744943618774414 0.7703145742416382 -0.01960529014468193
0.4499386250972748 0.7769532203674316 -0.017670005559921265
0.44060882925987244 0.7096438407897949 -0.04931817948818207
0.13786491751670837 0.5707963109016418 0.06143376603722572
0.5496807098388672 0.651276171207428 -0.05789174884557724
0.45227572321891785 0.7577580809593201 -0.019394515082240105
0.4495336711406708 0.7604160308837891 -0.020208265632390976
0.5128301382064819 0.6604041457176208 -0.048234399408102036
0.4698824882507324 0.654178261756897 -0.04434790089726448
0.5098753571510315 0.6554026007652283 -0.05065446346998215
0.43154779076576233 0.5633336901664734 -0.06592436134815216
0.39555424451828003 0.5821372270584106 -0.07548944652080536
0.45934146642684937 0.62605220079422 -0.06765063107013702
0.3216093182563782 0.3081876337528229 -0.1277007907629013
0.3571045696735382 0.35355144739151 -0.13585346937179565
0.3863338828086853 0.40110164880752563 -0.13898561894893646
0.42738810181617737 0.7880837917327881 -0.006490078289061785
0.49596577882766724 0.4204692244529724 -0.11255618184804916
0.4871164560317993 0.35540854930877686 -0.12044521421194077
0.47208479046821594 0.2924085259437561 -0.12238536030054092
0.3533865511417389 0.5022935271263123 -0.08961838483810425
0.2799355685710907 0.5248831510543823 -0.08119577914476395
0.45476967096328735 0.4955013394355774 -0.05338853597640991
0.3184797167778015 0.46203330159187317 -0.10446473211050034
0.47695207595825195 0.5371294617652893 -0.06664005666971207
0.49892204999923706 0.6232088208198547 -0.09689821302890778
0.2392261028289795 0.5371248722076416 -0.07141345739364624
0.3063722550868988 0.5465080738067627 -0.08749916404485703
0.346718966960907 0.5583394765853882 -0.08632395416498184
0.39618775248527527 0.5529322028160095 -0.0743011012673378
0.4277867078781128 0.5410937070846558 -0.06334711611270905
0.451569527387619 0.5305627584457397 -0.05908021703362465
0.5207465887069702 0.5123695135116577 -0.07812805473804474
0.2440667748451233 0.5918079614639282 -0.06495821475982666
0.2915878891944885 0.45859718322753906 -0.10731015354394913
0.5505774021148682 0.6479711532592773 -0.09017591923475266
0.4628825783729553 0.5755929946899414 -0.06359401345252991
0.14654697477817535 0.46176818013191223 0.016221269965171814
0.4720650911331177 0.520179271697998 -0.056942638009786606
0.45001885294914246 0.6255875825881958 -0.04718824476003647
0.3303565979003906 0.47466105222702026 -0.08826340734958649
0.491684228181839 0.6065438389778137 -0.09253929555416107
0.14140141010284424 0.6313190460205078 0.0721944198012352
0.4525289833545685 0.48708486557006836 -0.05270954594016075
0.52162766456604 0.5962527990341187 -0.10604511201381683
0.27374982833862305 0.7790368795394897 0.02142372354865074
0.24592120945453644 0.7962700128555298 0.05921192839741707
0.1804763227701187 0.5834015607833862 -0.006476438604295254
0.2322886735200882 0.7409875392913818 0.02049838751554489
0.2167796790599823 0.43263059854507446 -0.06596886366605759
0.3934301435947418 0.856802225112915 0.036159951239824295
0.5418974161148071 0.6506266593933105 -0.06029113382101059
0.4394564628601074 0.5928241610527039 -0.06050015613436699
0.24225851893424988 0.4887554347515106 -0.0735330805182457
0.3834683299064636 0.49507227540016174 -0.08642128854990005
0.40412741899490356 0.49745845794677734 -0.0817495658993721
0.43582427501678467 0.7666550874710083 -0.020554745569825172
0.2421601563692093 0.6398686170578003 -0.041626133024692535
0.42519640922546387 0.8834535479545593 0.06977366656064987
0.33864063024520874 0.853644609451294 0.05786798149347305
0.29653602838516235 0.8311256170272827 0.05653829872608185
0.5452535152435303 0.3590088486671448 -0.09230057150125504
0.47117382287979126 0.8827527165412903 0.08934461325407028
0.4214077293872833 0.49512189626693726 -0.07314357161521912
0.4379090964794159 0.4904388189315796 -0.06319703906774521
0.44809508323669434 0.48842480778694153 -0.0558914951980114
0.26233136653900146 0.4498549699783325 -0.09716646373271942
0.4344305992126465 0.4686524271965027 -0.07130411267280579
0.41448017954826355 0.46064990758895874 -0.08321091532707214
0.3943806290626526 0.4596406817436218 -0.09235383570194244
0.3734796941280365 0.4629763066768646 -0.09640084207057953
0.3599231243133545 0.4681112766265869 -0.09510339796543121
0.16936880350112915 0.40851902961730957 -0.025899702683091164
0.3673565983772278 0.4898597300052643 -0.08775848150253296
0.5356580018997192 0.6775206327438354 -0.034251727163791656
0.46185025572776794 0.6930219531059265 -0.04945087805390358
0.49220722913742065 0.6393517255783081 -0.07168079167604446
0.5096359848976135 0.6832526922225952 -0.04586326330900192
0.5353190898895264 0.4779060184955597 -0.06730914115905762
0.31292468309402466 0.8113263845443726 0.029881181195378304
0.3509325087070465 0.8351936340332031 0.03490014746785164
0.4393671452999115 0.8713006377220154 0.04306288808584213
0.20018239319324493 0.7538009881973267 0.06835726648569107
0.44756367802619934 0.4804081320762634 -0.06096535921096802
0.5081546306610107 0.5494643449783325 -0.0815967321395874
0.48524925112724304 0.8707663416862488 0.06324397772550583
0.38254016637802124 0.8722591400146484 0.05823275446891785
0.18233953416347504 0.6379340291023254 0.009275618940591812
0.4852631986141205 0.7606927156448364 -0.01563534140586853
0.48239976167678833 0.7681829929351807 -0.017767885699868202
0.47749677300453186 0.7786749601364136 -0.018081314861774445
0.4705725610256195 0.7900435924530029 -0.013530002906918526
0.44989868998527527 0.8007757663726807 0.0037540842313319445
0.45265859365463257 0.7534458637237549 -0.028609244152903557
0.4473143219947815 0.7521167993545532 -0.03339632973074913
0.4407532811164856 0.7486443519592285 -0.037143077701330185
0.41863128542900085 0.7313766479492188 -0.04397266358137131
0.29823121428489685 0.6602895855903625 -0.05763152986764908
0.4994172751903534 0.523318886756897 -0.07102875411510468
0.47702938318252563 0.47481703758239746 -0.05526169016957283
0.4587586224079132 0.4733421206474304 -0.05926315486431122
0.4548289477825165 0.7497458457946777 -0.024033762514591217
0.2737506031990051 0.7144545316696167 -0.01697525568306446
0.5042606592178345 0.47919797897338867 -0.06913723051548004
0.42721864581108093 0.8163971900939941 0.016592860221862793
0.5601389408111572 0.560813307762146 -0.09357387572526932
0.5308594703674316 0.5396752953529358 -0.0890655592083931
0.5518297553062439 0.5352697968482971 -0.08330325037240982
0.4895423650741577 0.5847855806350708 -0.07850553840398788
0.49420228600502014 0.8500543832778931 0.04765481874346733
0.49867090582847595 0.8261077404022217 0.04328111931681633
0.4644424617290497 0.8270969986915588 0.02990250289440155
0.3749484717845917 0.7792664766311646 -0.007443657144904137
0.4303656220436096 0.6464123129844666 -0.04893436282873154
0.3964339792728424 0.8004997968673706 0.005391186568886042
0.37594690918922424 0.645354151725769 -0.06734345853328705
0.41104936599731445 0.6741174459457397 -0.05308336764574051
0.34559881687164307 0.6839811205863953 -0.054210614413022995
0.4524693191051483 0.8505533933639526 0.030039126053452492
0.46744614839553833 0.5952274203300476 -0.06763729453086853
0.3395419418811798 0.7916024923324585 0.005874176509678364
0.37244346737861633 0.8155564069747925 0.01962367258965969
0.363165944814682 0.7521541714668274 -0.026222284883260727
0.2410302758216858 0.6802960634231567 -0.019358059391379356
0.31590521335601807 0.7485833168029785 -0.018903302028775215
0.19532673060894012 0.689572811126709 0.02013275772333145
0.3891018033027649 0.7096408009529114 -0.04824971780180931
0.48497483134269714 0.56184321641922 -0.0720553994178772
0.5078432559967041 0.633620023727417 -0.09760071337223053
0.48255300521850586 0.638249933719635 -0.07807062566280365
0.5271079540252686 0.6200751662254333 -0.10896272957324982
0.46523022651672363 0.45689496397972107 -0.07599758356809616
0.43143346905708313 0.4434635043144226 -0.1001819297671318
0.3982607424259186 0.43848809599876404 -0.11529163271188736
0.36646032333374023 0.4391411542892456 -0.12152542173862457
0.3390703797340393 0.446666955947876 -0.11876581609249115
0.3068802058696747 0.48215025663375854 -0.08704745769500732
0.18281979858875275 0.5299783945083618 -0.025234537199139595
0.33202528953552246 0.5202342867851257 -0.08458051085472107
0.3614306151866913 0.529338538646698 -0.08299944549798965
0.3958633542060852 0.5287635922431946 -0.0754854753613472
0.4249069094657898 0.5221928954124451 -0.06398153305053711
0.4464623034000397 0.5145312547683716 -0.05517778918147087
0.4628256559371948 0.5085349082946777 -0.05039152503013611
0.1394234448671341 0.5151293873786926 0.043475497514009476
0.4780818521976471 0.6437615752220154 -0.06667482852935791
0.5164785981178284 0.5726837515830994 -0.09119077771902084
0.5326428413391113 0.6357347965240479 -0.10282018780708313
0.5354607105255127 0.6448149681091309 -0.08629343658685684
0.5260405540466309 0.6379938125610352 -0.09328214079141617
0.48091164231300354 0.6507478952407837 -0.05390704423189163
0.5424799919128418 0.6468128561973572 -0.0891169086098671
0.5347054600715637 0.6499670743942261 -0.06387057900428772
0.4626535177230835 0.48903167247772217 -0.048254165798425674
0.4766184091567993 0.49733608961105347 -0.04965480417013168
0.48882973194122314 0.5040785670280457 -0.05802714452147484
0.3512161374092102 0.4717227816581726 -0.09193412214517593
0.33585551381111145 0.4621981382369995 -0.09911205619573593
0.5719617009162903 0.5629441738128662 -0.07436732202768326
0.6201331615447998 0.477310448884964 0.0901893824338913
0.5638033747673035 0.6430804133415222 -0.04899802803993225
0.639927864074707 0.384223997592926 0.2038748562335968
0.572222113609314 0.5021442770957947 0.04200702905654907
0.5891938209533691 0.5038979649543762 0.05488486960530281
0.6048847436904907 0.5022586584091187 0.07018908113241196
0.6182846426963806 0.48405635356903076 0.09938453882932663
0.5608984231948853 0.49709269404411316 0.03004629909992218
0.6096224188804626 0.44686853885650635 0.040035780519247055
0.5891757607460022 0.44948381185531616 0.023341165855526924
0.6244652271270752 0.4483221471309662 0.05837336927652359
0.6303682923316956 0.45402640104293823 0.07425210624933243
0.6255058646202087 0.500421404838562 0.11792975664138794
0.5414988994598389 0.8151729702949524 0.10224920511245728
0.6230964064598083 0.4696921110153198 0.09911803901195526
0.6251258254051208 0.4766004979610443 0.23932206630706787
0.632758378982544 0.481558233499527 0.1459597796201706
0.5932541489601135 0.6047290563583374 0.04553958773612976
0.5532829761505127 0.7143911123275757 -0.019652655348181725
0.5403540134429932 0.7385375499725342 -0.008683264255523682
0.5621536374092102 0.7183245420455933 0.006621851120144129
0.5630021095275879 0.7271567583084106 0.031877461820840836
0.5461754202842712 0.7380672693252563 0.009736225940287113
0.5489659905433655 0.7399592995643616 0.031168505549430847
0.5622479915618896 0.7565978169441223 0.08588729053735733
0.5827902555465698 0.6362622380256653 -0.0870923399925232
0.5890787839889526 0.6167752146720886 -0.09527057409286499
0.6534876823425293 0.4371904134750366 0.08759608119726181
0.5671865344047546 0.5462077260017395 0.009010685607790947
0.590635359287262 0.6217376589775085 -0.014251983724534512
0.5868457555770874 0.6088161468505859 -0.00937743205577135
0.6241007447242737 0.5963574051856995 0.10354851186275482
0.5822157859802246 0.5883806943893433 -0.08686909079551697
0.6387441158294678 0.42573732137680054 0.014970449730753899
0.6521902680397034 0.42731064558029175 0.049865156412124634
0.648373007774353 0.35044386982917786 0.14272953569889069
0.5725616216659546 0.450799822807312 -0.046542298048734665
0.5709666013717651 0.456815242767334 0.019956031814217567
0.5739783048629761 0.7355124354362488 0.09521020948886871
0.5612832903862 0.6694403290748596 0.3292311429977417
0.5766348838806152 0.634568452835083 -0.012700805440545082
0.5633202195167542 0.645126223564148 -0.026311101391911507
0.5582335591316223 0.7443457841873169 0.08185802400112152
0.5504725575447083 0.7436258792877197 0.0692136287689209
0.657598078250885 0.4111942648887634 0.06218899413943291
0.5825276970863342 0.6314995884895325 -0.002299537183716893
0.6134636402130127 0.4328450560569763 -0.01782485842704773
0.6206302046775818 0.4145164489746094 -0.024657169356942177
0.6269068717956543 0.3082815110683441 0.006067139096558094
0.654190182685852 0.3801862299442291 0.09630428999662399
0.6248366236686707 0.3595767021179199 -0.012287294492125511
0.6565346717834473 0.425307035446167 0.10962235927581787
0.6499022245407104 0.40640610456466675 0.15263129770755768
0.5483061075210571 0.7286021709442139 -0.01617570035159588
0.5550112724304199 0.7304224967956543 0.007396699395030737
0.5572495460510254 0.7339091300964355 0.02925192005932331
0.5699317455291748 0.640044629573822 -0.013645780272781849
0.5545808672904968 0.7448809146881104 0.07416737079620361
0.5546051263809204 0.7506563067436218 0.059064965695142746
0.5479850769042969 0.7411466836929321 0.06715530157089233
0.5837023854255676 0.6284624338150024 -0.044126980006694794
0.540982186794281 0.7390133142471313 0.03317750245332718
0.5371806621551514 0.7396131753921509 0.016578352078795433
0.5316816568374634 0.7414810061454773 0.0006924381013959646
0.5233650803565979 0.8031195402145386 0.048418570309877396
0.5381715297698975 0.7922179102897644 0.02179238572716713
0.5407282710075378 0.779927134513855 0.014344379305839539
0.5391616821289062 0.7667577862739563 0.014134884811937809
0.5353167057037354 0.7572279572486877 0.014418390579521656
0.5447738766670227 0.7496803402900696 0.042262811213731766
0.5487236380577087 0.7528875470161438 0.040774255990982056
0.553484320640564 0.7583649158477783 0.042258355766534805
0.5557698607444763 0.7640076875686646 0.05030602216720581
0.5777999758720398 0.6960470676422119 0.04110216349363327
0.5782681107521057 0.5593490600585938 0.3462144434452057
0.5457360744476318 0.7466895580291748 0.05676865577697754
0.5504012703895569 0.7484923601150513 0.05635344609618187
0.5566800832748413 0.6563907861709595 -0.02376680262386799
0.570868730545044 0.6468964219093323 0.008076467551290989
0.560249388217926 0.6511442065238953 -0.026448965072631836
0.5773969888687134 0.5576538443565369 0.03132163733243942
0.5992650389671326 0.5732720494270325 0.05642568692564964
0.5823379755020142 0.6181712746620178 0.004461165517568588
0.6456609964370728 0.32440266013145447 0.07361879199743271
0.6466712355613708 0.3633652329444885 0.042554501444101334
0.6453095078468323 0.4065372943878174 0.018888872116804123
0.5525115728378296 0.7714449763298035 0.0748789831995964
0.585612416267395 0.42409831285476685 -0.05846283957362175
0.5917881727218628 0.35958707332611084 -0.05602111294865608
0.5935684442520142 0.29942840337753296 -0.05061998963356018
0.6143298149108887 0.4953417181968689 0.08699273318052292
0.6336081624031067 0.5157012343406677 0.14303624629974365
0.554533839225769 0.4923599362373352 0.0263596810400486
0.6367295980453491 0.45913442969322205 0.10275901854038239
0.5618003606796265 0.5341059565544128 -0.008002279326319695
0.5931965112686157 0.6158286333084106 -0.04111890122294426
0.6369129419326782 0.5268253684043884 0.18315938115119934
0.6325474977493286 0.5362432599067688 0.12250686436891556
0.6202328205108643 0.5489428639411926 0.09008955210447311
0.593529224395752 0.5458614230155945 0.059438541531562805
0.5737471580505371 0.5356895327568054 0.03778956085443497
0.5620520114898682 0.5266743302345276 0.017179260030388832
0.5553857088088989 0.5114116668701172 -0.052985984832048416
0.6357564330101013 0.5756402611732483 0.18728943169116974
0.6433957815170288 0.4559437036514282 0.11961403489112854
0.5686601400375366 0.6463819742202759 -0.07798032462596893
0.5704061388969421 0.5709983706474304 0.006454750429838896
0.6001499891281128 0.46647346019744873 0.3101658225059509
0.554783284664154 0.5175231695175171 0.0028089513070881367
0.5747500061988831 0.6178616285324097 0.024177206680178642
0.6244958639144897 0.4699985980987549 0.10748280584812164
0.5876232981681824 0.6004233956336975 -0.03619790077209473
0.5720561146736145 0.611653208732605 0.3443799316883087
0.5536206960678101 0.4836694300174713 0.031202729791402817
0.5869986414909363 0.5925836563110352 -0.0647950991988182
0.5730432271957397 0.7446793913841248 0.20743487775325775
0.5516756772994995 0.7611788511276245 0.24956095218658447
0.6163086295127869 0.5687183737754822 0.27117711305618286
0.5829043388366699 0.7083025574684143 0.24030937254428864
0.637874186038971 0.43806207180023193 0.20170198380947113
0.5374740362167358 0.8336375951766968 0.12301570922136307
0.5563139319419861 0.6496486663818359 -0.05280341953039169
0.5766440629959106 0.5862206220626831 0.0254521481692791
0.6337004899978638 0.4831233024597168 0.17774082720279694
0.6077856421470642 0.48929357528686523 0.06934570521116257
0.5925719738006592 0.49230849742889404 0.05554945394396782
0.5573461055755615 0.7529137134552002 0.06625153869390488
0.6236647367477417 0.6186195611953735 0.19910547137260437
0.5058048367500305 0.8706161975860596 0.1174306869506836
0.5347282886505127 0.8241733312606812 0.17979812622070312
0.5424606800079346 0.7971179485321045 0.21051891148090363
0.5771060585975647 0.4905330538749695 0.043731026351451874
0.5643620491027832 0.4865163564682007 0.03712120279669762
0.5569266080856323 0.4849088788032532 0.03470717743039131
0.6447464227676392 0.44937777519226074 0.14681990444660187
0.5670342445373535 0.46643370389938354 0.03219107910990715
0.5816918611526489 0.4591304063796997 0.03639807552099228
0.5998715162277222 0.45669031143188477 0.04760579764842987
0.6148103475570679 0.4590078890323639 0.06248616427183151
0.6207801103591919 0.46382731199264526 0.07585316896438599
0.6239163875579834 0.4205946922302246 0.26233845949172974
0.6160361766815186 0.4835094213485718 0.08160683512687683
0.5732645392417908 0.6826227903366089 0.01927112601697445
0.5817418098449707 0.6309667825698853 -0.023536991328001022
0.5561984777450562 0.6784647703170776 -0.01778378337621689
0.560952365398407 0.777524471282959 0.17937953770160675
0.548666775226593 0.8049845695495605 0.1525857150554657
0.5188004374504089 0.8582479953765869 0.08985456824302673
0.5549863576889038 0.7206916213035583 0.29370152950286865
0.5584650039672852 0.47684723138809204 0.031160160899162292
0.567825198173523 0.5470821261405945 -0.04160537198185921
0.5244768857955933 0.8496783971786499 0.14760138094425201
0.6064215302467346 0.6160996556282043 0.2740170359611511
0.5421675443649292 0.7534831762313843 0.02860395424067974
0.5458804965019226 0.7598093748092651 0.02788867987692356
0.5495410561561584 0.7691366076469421 0.029738109558820724
0.5499966740608215 0.7796295285224915 0.037018731236457825
0.5402708053588867 0.788303554058075 0.06126100942492485
0.5496416091918945 0.7414940595626831 0.051338065415620804
0.5561111569404602 0.7391579151153564 0.05482405424118042
0.5612831115722656 0.734722375869751 0.057877566665410995
0.5779926180839539 0.7146762609481812 0.06890127807855606
0.6175357103347778 0.6390706300735474 0.14261047542095184
0.5584864020347595 0.5214936137199402 -0.029735438525676727
0.5513626337051392 0.4737620949745178 -0.0016829262021929026
0.5556938052177429 0.4724080562591553 0.01762266457080841
0.5440118312835693 0.7386606335639954 0.0520373173058033
0.5984562635421753 0.6861628293991089 0.18741129338741302
0.550071120262146 0.4786943793296814 -0.037519942969083786
0.5388369560241699 0.7992042303085327 0.08275586366653442
0.5644614696502686 0.5385606288909912 -0.0675111711025238
0.5756964087486267 0.5804059505462646 -0.026583002880215645
0.5215622186660767 0.8181095123291016 0.06187599524855614
0.5704694986343384 0.7550044655799866 0.11017446219921112
0.5828118920326233 0.6367687582969666 0.04005628451704979
0.5545705556869507 0.7783476710319519 0.09854130446910858
0.6081583499908447 0.6302237510681152 0.07437670975923538
0.5913114547729492 0.6606175303459167 0.05837166681885719
0.6065273284912109 0.6632900238037109 0.1075831800699234
0.5237239599227905 0.8393001556396484 0.07345382869243622
0.5750935077667236 0.5897780060768127 -0.0030695514287799597
0.5717945694923401 0.761421263217926 0.1445794254541397
0.55485600233078 0.7884661555290222 0.12603658437728882
0.5846100449562073 0.7284138798713684 0.11650339514017105
0.6098726987838745 0.6545366644859314 0.21052196621894836
0.5895790457725525 0.7195582389831543 0.15010537207126617
0.5945205092430115 0.6614536046981812 0.2701145112514496
0.5913060903549194 0.6915773749351501 0.08238149434328079
0.5686959028244019 0.5582233667373657 -0.01611223816871643
0.589820146560669 0.6250292062759399 -0.046819061040878296
0.5875003933906555 0.6294008493423462 -0.020319562405347824
0.5933589339256287 0.6147922277450562 -0.06798836588859558
0.5688390731811523 0.45673638582229614 -0.0013877121964469552
0.5989107489585876 0.44443756341934204 0.009353269822895527
0.6228318214416504 0.440604567527771 0.027748042717576027
0.6380884051322937 0.44163864850997925 0.05246773734688759
0.6422404050827026 0.44737404584884644 0.0763644427061081
0.6281806826591492 0.47624677419662476 0.1217072382569313
0.6217544078826904 0.5220023393630981 0.2597070038318634
0.6217061281204224 0.5125991702079773 0.10405653715133667
0.6103847622871399 0.5221828818321228 0.08109764754772186
0.5907034873962402 0.5225054025650024 0.058769918978214264
0.5714494585990906 0.5169426202774048 0.04127229377627373
0.5593134760856628 0.5105363130569458 0.02443879283964634
0.5518276691436768 0.5055365562438965 0.014364166185259819
0.5844190120697021 0.5119031667709351 0.3353724479675293
0.5804352164268494 0.6353727579116821 -0.010438279248774052
0.5765966176986694 0.5697241425514221 -0.05027803033590317
0.5887943506240845 0.6297928094863892 -0.07023419439792633
0.5716940760612488 0.6402984857559204 -0.06731561571359634
0.5821467041969299 0.6314337849617004 -0.060024406760931015
0.5715567469596863 0.6437281370162964 -0.007118173409253359
0.571890115737915 0.6437227725982666 -0.07369080930948257
0.5608963370323181 0.647343099117279 -0.05085253715515137
0.5504791140556335 0.4866134524345398 0.021173574030399323
0.5465089082717896 0.4954158663749695 0.0012009723577648401
0.5495444536209106 0.5024962425231934 -0.01579093560576439
0.6227765083312988 0.46726757287979126 0.08667142689228058
0.6306548118591309 0.45996522903442383 0.09194710105657578
