ply
format ascii 1.0
element vertex 468
property float x
property float y
property float z
end_header
0.49998536705970764 0.6989392638206482 -0.044354625046253204
0.4968990683555603 0.6434478759765625 -0.12812770903110504
0.4986640214920044 0.6596682667732239 -0.059927262365818024
0.4776403307914734 0.559430718421936 -0.11135125905275345
0.49644798040390015 0.6193714141845703 -0.14047253131866455
0.49651509523391724 0.5852140784263611 -0.13707081973552704
0.49730217456817627 0.4996967613697052 -0.09150545299053192
0.3305811285972595 0.48067203164100647 0.006212501786649227
0.4969218969345093 0.4360969662666321 -0.08857393264770508
0.4966791570186615 0.40222659707069397 -0.10174069553613663
0.4978841543197632 0.2711111307144165 -0.10857868194580078
0.5004258155822754 0.7085145115852356 -0.03939656540751457
0.5008365511894226 0.7138471603393555 -0.031147023662924767
0.5010485053062439 0.7136444449424744 -0.020269185304641724
0.5033602118492126 0.7560571432113647 -0.0016808059299364686
0.5032814145088196 0.7658864259719849 -0.0036979562137275934
0.5032693147659302 0.7770828008651733 -0.005202058702707291
0.5032894611358643 0.7892070412635803 0.0033330381847918034
0.503151535987854 0.8048253655433655 0.031305864453315735
0.4973779618740082 0.6541727781295776 -0.11376775801181793
0.47802048921585083 0.6484076380729675 -0.07994075119495392
0.24422332644462585 0.376343309879303 0.09582920372486115
0.40193986892700195 0.5047540068626404 -0.016537440940737724
0.3778114318847656 0.5056163668632507 -0.013648700900375843
0.3541300296783447 0.5032666921615601 -0.006556883454322815
0.32163235545158386 0.487834632396698 0.012923048809170723
0.42116373777389526 0.4999356269836426 -0.015452762134373188
0.3651491403579712 0.444338321685791 -0.03417051583528519
0.39137545228004456 0.44695040583610535 -0.035855796188116074
0.34107452630996704 0.447138249874115 -0.024075692519545555
0.3254338204860687 0.45458126068115234 -0.012827667407691479
0.3029313385486603 0.5016685724258423 0.028664294630289078
0.41816624999046326 0.8231661319732666 0.07132977992296219
0.3213542103767395 0.47446730732917786 0.013724205084145069
0.23794636130332947 0.48236334323883057 0.13406096398830414
0.27725470066070557 0.484535276889801 0.04956720769405365
0.3785637319087982 0.6017374396324158 -0.015302500687539577
0.46626538038253784 0.6942061185836792 -0.04108591005206108
0.4695838391780853 0.7114940881729126 -0.026487581431865692
0.4328913688659668 0.6948797106742859 -0.023090027272701263
0.41185495257377625 0.696476936340332 0.0023377675097435713
0.44528383016586304 0.7089605927467346 -0.013423781841993332
0.4267650842666626 0.7067115306854248 0.009504461660981178
0.38814616203308105 0.7325495481491089 0.06072535365819931
0.47813549637794495 0.641862154006958 -0.12582850456237793
0.4752945899963379 0.6183444857597351 -0.1373526155948639
0.28676173090934753 0.4268627166748047 -0.011485609225928783
0.4292897880077362 0.5459131002426147 -0.03312024846673012
0.426765501499176 0.6235522031784058 -0.06732669472694397
0.42565664649009705 0.6091898083686829 -0.06226102262735367
0.3048000931739807 0.5922315120697021 0.016842802986502647
0.47628140449523926 0.5868746042251587 -0.12904419004917145
0.34113597869873047 0.40558356046676636 -0.059546273201704025
0.3084798753261566 0.4112980365753174 -0.03814654424786568
0.2637527585029602 0.33559495210647583 0.037989914417266846
0.4460502564907074 0.4307643175125122 -0.08090616017580032
0.4140159487724304 0.4555325508117676 -0.028543055057525635
0.36849015951156616 0.7032685279846191 0.05767429247498512
0.2799230217933655 0.6957097053527832 0.25587573647499084
0.44365426898002625 0.6370096802711487 -0.056021641939878464
0.4629990756511688 0.6459485292434692 -0.0557498075067997
0.38649046421051025 0.7030329704284668 0.05692880600690842
0.3981660008430481 0.7054405808448792 0.05048123374581337
0.2945523262023926 0.39303281903266907 -0.031000575050711632
0.4259055554866791 0.6300692558288574 -0.05186038464307785
0.386103093624115 0.41056180000305176 -0.07471271604299545
0.3809364438056946 0.3890398144721985 -0.08502111583948135
0.3560604751110077 0.28239011764526367 -0.07022678107023239
0.27947795391082764 0.3640283942222595 -0.001814824528992176
0.3708467483520508 0.3341905474662781 -0.0798410177230835
0.27244675159454346 0.413513720035553 0.005676473956555128
0.2581157088279724 0.3964351415634155 0.04750094562768936
0.4672813415527344 0.7051210403442383 -0.035957757383584976
0.4397053122520447 0.7038635015487671 -0.01832975074648857
0.41917985677719116 0.7017361521720886 0.004464318510144949
0.4492354393005371 0.6405599117279053 -0.05004142224788666
0.3919779658317566 0.7038993239402771 0.05334165319800377
0.4051937460899353 0.7232246398925781 0.04394756630063057
0.4022776484489441 0.7059358358383179 0.049985770136117935
0.4550303518772125 0.6357948780059814 -0.09154018014669418
0.43111735582351685 0.7042086124420166 0.013023808598518372
0.4500103294849396 0.7075089812278748 -0.003648187965154648
0.4726686179637909 0.7114817500114441 -0.01568550430238247
0.46675437688827515 0.8019896745681763 0.03419485315680504
0.4679679274559021 0.7845132946968079 0.006641160696744919
0.46905142068862915 0.77222740650177 -0.00031391644733957946
0.4710453450679779 0.7612847685813904 0.0012919666478410363
0.47365373373031616 0.7529430389404297 0.003111785277724266
0.4300711750984192 0.733913779258728 0.027859358116984367
0.42575109004974365 0.7362695932388306 0.02603839337825775
0.42031130194664 0.7409689426422119 0.025679215788841248
0.4161214232444763 0.7473037838935852 0.03261034935712814
0.3948589861392975 0.677376389503479 0.004808376543223858
0.2493516206741333 0.5801034569740295 0.25983402132987976
0.4978629946708679 0.6568921208381653 -0.07992129772901535
0.417682021856308 0.723706841468811 0.042775362730026245
0.41108500957489014 0.7228513956069946 0.04192967712879181
0.4701269865036011 0.6565351486206055 -0.05248613655567169
0.4325350522994995 0.6418319344520569 -0.03018941916525364
0.4668648838996887 0.6515408754348755 -0.05531911551952362
0.40419673919677734 0.5565997958183289 -0.020838243886828423
0.36270081996917725 0.569310188293457 -0.009882067330181599
0.4214339256286621 0.6167024970054626 -0.04613972082734108
0.2986902892589569 0.30343660712242126 -0.01929420977830887
0.3148118853569031 0.3417627811431885 -0.043428994715213776
0.3317720293998718 0.38395243883132935 -0.06094307079911232
0.407761812210083 0.7601692080497742 0.052943505346775055
0.4373822510242462 0.39726871252059937 -0.09738627076148987
0.4295008182525635 0.33421263098716736 -0.10055387020111084
0.42037153244018555 0.27270376682281494 -0.09972019493579865
0.33340543508529663 0.49737855792045593 0.004007580224424601
0.27806758880615234 0.5166091918945312 0.04616657644510269
0.43293705582618713 0.49487677216529846 -0.014446833170950413
0.30036067962646484 0.4591471552848816 0.009274875745177269
0.4455017149448395 0.5328969359397888 -0.04515394568443298
0.4401903748512268 0.6197338104248047 -0.09306593239307404
0.25512072443962097 0.530482828617096 0.07856691628694534
0.293590247631073 0.53346186876297 0.028348255902528763
0.32381802797317505 0.5436578989028931 0.007639862131327391
0.3698405623435974 0.5432752966880798 -0.004863145295530558
0.40447255969047546 0.5362457633018494 -0.013230778276920319
0.42877310514450073 0.5271790623664856 -0.023388445377349854
0.47552987933158875 0.5051636695861816 -0.08033102750778198
0.256623774766922 0.5789300203323364 0.08374657481908798
0.28109288215637207 0.4537522494792938 0.01908976398408413
0.4862082004547119 0.6526299715042114 -0.11219388991594315
0.43137529492378235 0.5705358982086182 -0.03865791857242584
0.23498544096946716 0.4744532108306885 0.21238885819911957
0.44615355134010315 0.516242265701294 -0.030997129157185555
0.41887062788009644 0.6152830719947815 -0.021018702536821365
0.3138914108276367 0.47507810592651367 0.019272204488515854
0.4396095871925354 0.6022934317588806 -0.08689606934785843
0.26045796275138855 0.6366957426071167 0.2637907564640045
0.43193018436431885 0.4864491820335388 -0.011183380149304867
0.4573476016521454 0.5926515460014343 -0.112733855843544
0.32617872953414917 0.7568268179893494 0.14615514874458313
0.33465221524238586 0.7795034646987915 0.19330984354019165
0.24175617098808289 0.5821192264556885 0.17190667986869812
0.2942965030670166 0.7255864143371582 0.1654900759458542
0.24720370769500732 0.43594467639923096 0.09635675698518753
0.41866448521614075 0.8421938419342041 0.09005044400691986
0.48932376503944397 0.6555531024932861 -0.0782780572772026
0.409552663564682 0.5844449996948242 -0.02567543461918831
0.25808990001678467 0.4870026707649231 0.07451066374778748
0.3557341992855072 0.489872008562088 -0.007727494463324547
0.37709999084472656 0.4926489591598511 -0.013977935537695885
0.3995961546897888 0.7247788906097412 0.04855351150035858
0.261222779750824 0.6260620355606079 0.10376450419425964
0.4596458077430725 0.8714185953140259 0.10112264007329941
0.3979528844356537 0.8345284461975098 0.14244119822978973
0.3703458607196808 0.8111907839775085 0.16522924602031708
0.49721112847328186 0.3357059359550476 -0.10805387049913406
0.5031092166900635 0.8775184154510498 0.09395520389080048
0.39738425612449646 0.49186646938323975 -0.016079504042863846
0.4160729944705963 0.48901987075805664 -0.013980001211166382
0.42722100019454956 0.4877479076385498 -0.010677694343030453
0.2642127275466919 0.4459700882434845 0.04207513481378555
0.4107631742954254 0.46827685832977295 -0.021938210353255272
0.3899379372596741 0.4604976177215576 -0.02612707018852234
0.3686694800853729 0.45849648118019104 -0.02411746047437191
0.347648561000824 0.4616555869579315 -0.016663510352373123
0.3345063030719757 0.46729812026023865 -0.0073690577410161495
0.2351059913635254 0.41996878385543823 0.15820768475532532
0.34101906418800354 0.48533210158348083 -0.00012853581574745476
0.4992181360721588 0.6719254851341248 -0.04836404323577881
0.41876357793807983 0.6698089838027954 -0.016814062371850014
0.4429079294204712 0.6353757381439209 -0.06681109964847565
0.4654635190963745 0.6710044145584106 -0.0439985916018486
0.497420996427536 0.4659230709075928 -0.08155011385679245
0.36010921001434326 0.7882074117660522 0.13287365436553955
0.3893263638019562 0.8142349720001221 0.1137157529592514
0.4563015103340149 0.8626781702041626 0.06926180422306061
0.30565160512924194 0.7441518902778625 0.22731199860572815
0.42524391412734985 0.479403018951416 -0.015739304944872856
0.4605686366558075 0.5444527864456177 -0.07810261845588684
0.5027342438697815 0.8680202960968018 0.06346878409385681
0.42616796493530273 0.8559446334838867 0.11766320466995239
0.2513439953327179 0.6339976191520691 0.1813880205154419
0.44956034421920776 0.7449143528938293 0.014201292768120766
0.44525665044784546 0.7502632141113281 0.012376565486192703
0.44149622321128845 0.758683443069458 0.012433514930307865
0.4388505518436432 0.7696112990379333 0.019493546336889267
0.4329506754875183 0.7846838235855103 0.04211951419711113
0.4090680480003357 0.7041898965835571 0.03107813000679016
0.4016816020011902 0.7010577917098999 0.03154323622584343
0.39513644576072693 0.6971917152404785 0.030294237658381462
0.3758251368999481 0.687597393989563 0.03051433525979519
0.28796619176864624 0.6412991881370544 0.056946780532598495
0.4609629511833191 0.5178755521774292 -0.06133399158716202
0.44820451736450195 0.46952545642852783 -0.03256041929125786
0.4346546232700348 0.47304844856262207 -0.022100206464529037
0.41497549414634705 0.7021824717521667 0.0331115685403347
0.2938050329685211 0.6945980787277222 0.1104494258761406
0.46745944023132324 0.4691949486732483 -0.06409414857625961
0.424751341342926 0.8021743893623352 0.05802404135465622
0.49672266840934753 0.5567185282707214 -0.12059397250413895
0.4763360023498535 0.5341705679893494 -0.09871402382850647
0.4970419108867645 0.5297690033912659 -0.10557965189218521
0.4452419579029083 0.5801318287849426 -0.07016900926828384
0.5026285648345947 0.8499984741210938 0.04588998109102249
0.502873957157135 0.8255603909492493 0.03873581066727638
0.46160057187080383 0.8219457864761353 0.04498961567878723
0.37396109104156494 0.7431938648223877 0.07570765912532806
0.39873039722442627 0.631557285785675 -0.00809194054454565
0.3976580500602722 0.7751245498657227 0.07003109902143478
0.3379480838775635 0.6266776323318481 0.003506410401314497
0.37376657128334045 0.6520141363143921 0.0072168586775660515
0.3200717866420746 0.6597894430160522 0.03528008237481117
0.4565466642379761 0.8454997539520264 0.05242127180099487
0.43248188495635986 0.5897398591041565 -0.049502234905958176
0.3605801463127136 0.762810468673706 0.10076522082090378
0.39037182927131653 0.7931485176086426 0.09083196520805359
0.3519085645675659 0.7110341787338257 0.06718876212835312
0.2711468040943146 0.6654470562934875 0.12352538853883743
0.3256908059120178 0.7187814712524414 0.0889703780412674
0.26781806349754333 0.6819309592247009 0.18504902720451355
0.35400643944740295 0.6736966967582703 0.02949156053364277
0.44657522439956665 0.5573914051055908 -0.056949350982904434
0.44750937819480896 0.6318744421005249 -0.09716136753559113
0.43359196186065674 0.6324203610420227 -0.06879527121782303
0.4566480219364166 0.6186167001724243 -0.1162564679980278
0.428782194852829 0.44948577880859375 -0.043034784495830536
0.38967838883399963 0.43530920147895813 -0.047207195311784744
0.3556586503982544 0.43153315782546997 -0.043456148356199265
0.3276495337486267 0.4338379502296448 -0.030872276052832603
0.30884039402008057 0.44242754578590393 -0.013623765669763088
0.29830217361450195 0.4798205494880676 0.030473794788122177
0.2371511161327362 0.5321173071861267 0.15477465093135834
0.3162539303302765 0.5123716592788696 0.018214067444205284
0.34158068895339966 0.5206512808799744 0.004794815555214882
0.3739989399909973 0.5226784348487854 -0.005446630995720625
0.4041047692298889 0.5191576480865479 -0.012408730573952198
0.42632538080215454 0.5126311182975769 -0.016178594902157784
0.4409642219543457 0.5059224367141724 -0.020289307460188866
0.24203726649284363 0.5265578031539917 0.24383708834648132
0.43441158533096313 0.6356686949729919 -0.055645693093538284
0.4602881669998169 0.5680033564567566 -0.0920969620347023
0.463070273399353 0.636625349521637 -0.11516308039426804
0.476053923368454 0.646780788898468 -0.10292980074882507
0.4635472595691681 0.6387114524841309 -0.10300774872303009
0.43993666768074036 0.6410544514656067 -0.04561581090092659
0.4795934855937958 0.6502225995063782 -0.10884532332420349
0.4827335774898529 0.6529830694198608 -0.0790228471159935
0.43996840715408325 0.48827168345451355 -0.014970622025430202
0.45218566060066223 0.4937722086906433 -0.02810288593173027
0.459018349647522 0.4988132119178772 -0.043217871338129044
0.32695627212524414 0.4714411497116089 0.0019082858925685287
0.31404629349708557 0.4625476598739624 0.003069293452426791
0.5163190364837646 0.5596116781234741 -0.11271817982196808
0.6708112359046936 0.4825431704521179 -0.004036461468786001
0.5182484984397888 0.6490585803985596 -0.08085257560014725
0.7672709822654724 0.3759205937385559 0.07966481894254684
0.5990532636642456 0.5062153935432434 -0.023253435268998146
0.6235872507095337 0.5070571899414062 -0.02150765247642994
0.6475240588188171 0.5046547651290894 -0.015985827893018723
0.6805700659751892 0.48959580063819885 0.0019511954160407186
0.5790061950683594 0.501201331615448 -0.02084803581237793
0.6348409652709961 0.44578754901885986 -0.042890992015600204
0.6085781455039978 0.4478250741958618 -0.042764779180288315
0.6590042114257812 0.4489091634750366 -0.0340808629989624
0.6751043200492859 0.45652681589126587 -0.023388594388961792
0.7007311582565308 0.5030304789543152 0.016870146617293358
0.5883932113647461 0.8251925110816956 0.06682764738798141
0.6803609728813171 0.47642645239830017 0.0030078282579779625
0.7743842005729675 0.483038067817688 0.11764975637197495
0.7282111048698425 0.48572438955307007 0.036380331963300705
0.6226934194564819 0.6025314331054688 -0.021970603615045547
0.5345459580421448 0.6943203210830688 -0.042889587581157684
0.5328423976898193 0.7115399241447449 -0.028119079768657684
0.5697846412658691 0.6950505375862122 -0.026692066341638565
0.5931118726730347 0.6967141628265381 -0.0024945824407041073
0.5583728551864624 0.7091060876846313 -0.01670590415596962
0.5787978172302246 0.7066138386726379 0.005047159735113382
0.6206440329551697 0.7337315082550049 0.054230932146310806
0.5159004926681519 0.6423063278198242 -0.1265307366847992
0.5179957151412964 0.6186249852180481 -0.13826100528240204
0.7139315605163574 0.42878293991088867 -0.0240433719009161
0.5704239010810852 0.5465166568756104 -0.03756030276417732
0.5712853670120239 0.6244299411773682 -0.07103719562292099
0.572838544845581 0.6100477576255798 -0.06612347811460495
0.6986972093582153 0.5932453870773315 0.005532995332032442
0.5171547532081604 0.5870833396911621 -0.13021527230739594
0.6553480625152588 0.4066596031188965 -0.06786563992500305
0.6896935105323792 0.41293299198150635 -0.04890816658735275
0.7436463832855225 0.3349718451499939 0.023381710052490234
0.5485439896583557 0.43101394176483154 -0.08378684520721436
0.5858882069587708 0.45627617835998535 -0.03390081599354744
0.6396785974502563 0.7044588327407837 0.04990377649664879
0.7397327423095703 0.6992784142494202 0.24139845371246338
0.55479896068573 0.6378363966941833 -0.05885576456785202
0.5350227952003479 0.6463936567306519 -0.05707399174571037
0.6224032044410706 0.7030347585678101 0.04998618736863136
0.6111212968826294 0.7051124572753906 0.04431792348623276
0.7045240998268127 0.3946661949157715 -0.04244399815797806
0.5732170939445496 0.630837082862854 -0.055334653705358505
0.6090644001960754 0.41118815541267395 -0.08068738132715225
0.6135724186897278 0.38958796858787537 -0.09100677818059921
0.6422106027603149 0.281828373670578 -0.07831089943647385
0.7236201763153076 0.3643922209739685 -0.01478771772235632
0.6249638795852661 0.3342932164669037 -0.08675990998744965
0.7300828695297241 0.4152546525001526 -0.007480007596313953
0.748953104019165 0.397166907787323 0.03267054259777069
0.5341997742652893 0.7053689956665039 -0.037602171301841736
0.5635392665863037 0.7040061354637146 -0.02196338027715683
0.5860887765884399 0.7018586993217468 -0.00024541598395444453
0.5493416786193848 0.6411341428756714 -0.052259840071201324
0.616992712020874 0.7038390040397644 0.04701358824968338
0.6040281057357788 0.7234289646148682 0.038434986025094986
0.6071710586547852 0.705717921257019 0.04391702264547348
0.5413855910301208 0.6370882391929626 -0.0940796360373497
0.5747219920158386 0.7038982510566711 0.00869956985116005
0.5541142225265503 0.707484245300293 -0.006796079222112894
0.5303568840026855 0.7114530801773071 -0.01765061356127262
0.5398131608963013 0.8022977709770203 0.032347965985536575
0.5388741493225098 0.7847713232040405 0.004680408164858818
0.5377703309059143 0.772513747215271 -0.0022755705285817385
0.5359009504318237 0.7615035176277161 -0.0006401435821317136
0.5331520438194275 0.7531744837760925 0.0013028349494561553
0.5786902904510498 0.7340561151504517 0.023796750232577324
0.5828256607055664 0.7364235520362854 0.021681291982531548
0.5883607268333435 0.7414845824241638 0.02149837836623192
0.5923371911048889 0.7478276491165161 0.027982274070382118
0.6086529493331909 0.6779060363769531 -0.0007154025952331722
0.7701011896133423 0.5818376541137695 0.24336941540241241
0.5916131734848022 0.7236765623092651 0.03769725561141968
0.5981745719909668 0.7228487133979797 0.03659529238939285
0.5278328657150269 0.6568151712417603 -0.053743086755275726
0.5672549605369568 0.6421265006065369 -0.033072661608457565
0.5310792922973633 0.6519472599029541 -0.05661355331540108
0.5964846014976501 0.5573025941848755 -0.026828905567526817
0.6386784315109253 0.5700492262840271 -0.018021361902356148
0.577946662902832 0.6174794435501099 -0.05022534355521202
0.703789234161377 0.3026033639907837 -0.031150445342063904
0.684166431427002 0.34199774265289307 -0.053793419152498245
0.6645286679267883 0.38507193326950073 -0.06994955986738205
0.6004143357276917 0.7611655592918396 0.047504667192697525
0.5563442707061768 0.39742305874824524 -0.10017618536949158
0.5651021003723145 0.3341524600982666 -0.10391919314861298
0.575847327709198 0.27242374420166016 -0.10373632609844208
0.66852205991745 0.4989570677280426 -0.006360325962305069
0.7273911237716675 0.5177236199378967 0.03306765481829643
0.5665867328643799 0.49605792760849 -0.01919996365904808
0.7017152905464172 0.46092769503593445 -0.0028413254767656326
0.5530633330345154 0.5333834886550903 -0.048808079212903976
0.5559754371643066 0.620933473110199 -0.09616348892450333
0.7531397342681885 0.5316570997238159 0.06352220475673676
0.7102593183517456 0.5345264673233032 0.016270706430077553
0.6788080334663391 0.5445810556411743 -0.003008886706084013
0.6315894722938538 0.5441067814826965 -0.012926394119858742
0.5963507890701294 0.5369817614555359 -0.0193602554500103
0.5713491439819336 0.5279377102851868 -0.027946501970291138
0.5200817584991455 0.5053866505622864 -0.08193236589431763
0.7514940500259399 0.5803422927856445 0.06895376741886139
0.7224481105804443 0.4551788568496704 0.005971618928015232
0.5085911154747009 0.6530423760414124 -0.11269241571426392
0.5679923295974731 0.571037769317627 -0.042938232421875
0.7820751667022705 0.47447270154953003 0.19512636959552765
0.5528057813644409 0.5168912410736084 -0.03469701483845711
0.5817323923110962 0.6158268451690674 -0.024948449805378914
0.6881520748138428 0.47707539796829224 0.007999959401786327
0.5569729208946228 0.6031099557876587 -0.0899835079908371
0.7595984935760498 0.6395127177238464 0.24825942516326904
0.5676904916763306 0.4877394437789917 -0.01616348884999752
0.5374277830123901 0.5931905508041382 -0.11490419507026672
0.6862143874168396 0.760849118232727 0.13523097336292267
0.6804675459861755 0.78410804271698 0.18234236538410187
0.7722479701042175 0.5840445160865784 0.15575258433818817
0.7199321389198303 0.7293411493301392 0.1528460830450058
0.7627300024032593 0.4362838864326477 0.08078813552856445
0.5884861350059509 0.8447285890579224 0.08517346531152725
0.5064680576324463 0.6557835340499878 -0.07860167324542999
0.590878963470459 0.5849635601043701 -0.030808640643954277
0.7497169375419617 0.4880305826663971 0.059927020221948624
0.6449861526489258 0.4915829300880432 -0.016556715592741966
0.6235456466674805 0.49434033036231995 -0.021842416375875473
0.6096687316894531 0.7252135276794434 0.04268877953290939
0.7485455274581909 0.6278316974639893 0.08958154916763306
0.5469730496406555 0.872906506061554 0.09835591912269592
0.6119898557662964 0.8382444381713867 0.1356315314769745
0.6421216130256653 0.8157126307487488 0.15649352967739105
0.6030026078224182 0.49350082874298096 -0.022948333993554115
0.5839532613754272 0.4904133081436157 -0.019869377836585045
0.5726354122161865 0.48907271027565 -0.016019001603126526
0.7413825392723083 0.44713252782821655 0.02787983976304531
0.5899860262870789 0.46938836574554443 -0.028200212866067886
0.6115462183952332 0.4616648554801941 -0.03318529576063156
0.6325235962867737 0.46012502908706665 -0.03264598175883293
0.653556227684021 0.463515967130661 -0.026040291413664818
0.6667934656143188 0.469195157289505 -0.017539305612444878
0.7793042063713074 0.41964757442474365 0.14121143519878387
0.660054624080658 0.4871991276741028 -0.009792244993150234
0.5825679302215576 0.6702008843421936 -0.020871613174676895
0.5549765825271606 0.6364768147468567 -0.06947918236255646
0.5337381958961487 0.6711269617080688 -0.045588988810777664
0.6505604982376099 0.7922550439834595 0.12413498014211655
0.619620144367218 0.8178731203079224 0.10689669102430344
0.5494564175605774 0.8640139102935791 0.06649700552225113
0.712027370929718 0.748149573802948 0.2142537534236908
0.5745546221733093 0.4806593954563141 -0.021343499422073364
0.5357186794281006 0.5448249578475952 -0.08051545917987823
0.5817090272903442 0.8585817813873291 0.11259757727384567
0.7635931372642517 0.6364977955818176 0.1660909503698349
0.5580326914787292 0.7451799511909485 0.010837939567863941
0.5624906420707703 0.750647783279419 0.009033871814608574
0.5661540031433105 0.7591882944107056 0.008851965889334679
0.5687779188156128 0.7701745629310608 0.015773048624396324
0.5744871497154236 0.7853846549987793 0.038026709109544754
0.5988121628761292 0.7040073275566101 0.025375917553901672
0.6057351231575012 0.7011860013008118 0.025588538497686386
0.6121610999107361 0.6973849534988403 0.02421262115240097
0.6302422881126404 0.6882074475288391 0.02348700724542141
0.718816339969635 0.6428533792495728 0.044521983712911606
0.536188006401062 0.5182158946990967 -0.06397537887096405
0.5498859286308289 0.4700460433959961 -0.03565570339560509
0.5645884275436401 0.47378483414649963 -0.026731044054031372
0.5930920243263245 0.7017468810081482 0.02773977629840374
0.7168577909469604 0.6972194314002991 0.09827067703008652
0.5287708640098572 0.4694138765335083 -0.06597978621721268
0.5822285413742065 0.803524911403656 0.05405202507972717
0.5184196829795837 0.5343480110168457 -0.09986184537410736
0.5521339178085327 0.5807046294212341 -0.07327517122030258
0.5444722771644592 0.8226409554481506 0.04285107180476189
0.6343225836753845 0.7455072402954102 0.06804525852203369
0.603091299533844 0.6322266459465027 -0.013499883934855461
0.6101216673851013 0.7771667242050171 0.06415925920009613
0.6649309396743774 0.6276609897613525 -0.005272982642054558
0.629501461982727 0.6529563665390015 0.00043650533189065754
0.68541419506073 0.6612837314605713 0.025070760399103165
0.5490444898605347 0.8464913368225098 0.049917638301849365
0.5665454864501953 0.5904367566108704 -0.053157828748226166
0.6483888030052185 0.7659212350845337 0.09227004647254944
0.617855429649353 0.7959779500961304 0.08450039476156235
0.6560103893280029 0.7130426168441772 0.05802353471517563
0.7403728365898132 0.667940080165863 0.10996149480342865
0.683387279510498 0.7215956449508667 0.07851871103048325
0.7478086948394775 0.6850300431251526 0.17041292786598206
0.6516096591949463 0.6748042106628418 0.021144449710845947
0.5513242483139038 0.5579292178153992 -0.06032465770840645
0.5487070679664612 0.6330827474594116 -0.0999789610505104
0.5644009709358215 0.633378267288208 -0.07193617522716522
0.5379121899604797 0.6195588707923889 -0.11857012659311295
0.5689113736152649 0.45022353529930115 -0.04747480899095535
0.6080067157745361 0.4365115761756897 -0.053701698780059814
0.6422702670097351 0.43285053968429565 -0.05175686627626419
0.6710546612739563 0.43547600507736206 -0.04098736494779587
0.6912868022918701 0.44430607557296753 -0.02491951175034046
0.7053583860397339 0.481391042470932 0.018314573913812637
0.7760671377182007 0.5334404706954956 0.13806362450122833
0.686604380607605 0.5136777758598328 0.007127809803932905
0.6608232259750366 0.5219061970710754 -0.004958112258464098
0.6277705430984497 0.5238218307495117 -0.01352777611464262
0.596924364566803 0.5201345682144165 -0.018694691359996796
0.5739569664001465 0.5135422348976135 -0.02073768526315689
0.5585073232650757 0.5067569017410278 -0.02407408319413662
0.7766185402870178 0.5273435711860657 0.22672457993030548
0.5643872022628784 0.6365547180175781 -0.05876597389578819
0.5351462364196777 0.5684546232223511 -0.09453583508729935
0.5318441987037659 0.6375289559364319 -0.11677411198616028
0.5195777416229248 0.6475081443786621 -0.10392776876688004
0.5321844220161438 0.6397854685783386 -0.10461565852165222
0.5590657591819763 0.6417807340621948 -0.0481986403465271
0.5155915021896362 0.6507692933082581 -0.10965735465288162
0.5134904980659485 0.6533406972885132 -0.07962775230407715
0.5592904090881348 0.4892672896385193 -0.01888720504939556
0.5464966893196106 0.49441125988960266 -0.03101334162056446
0.5390195846557617 0.49919307231903076 -0.04563705250620842
0.6746118068695068 0.4733183979988098 -0.00846743956208229
0.687092125415802 0.4645349979400635 -0.008210055530071259
