ply
format ascii 1.0
element vertex 468
property float x
property float y
property float z
end_header
0.5291931629180908 0.6760678887367249 -0.07612015306949615
0.5513688325881958 0.6017757654190063 -0.11945205181837082
0.5342274904251099 0.6276233792304993 -0.07067064195871353
0.5212395191192627 0.5287309885025024 -0.08554667234420776
0.5524958372116089 0.5775689482688904 -0.1231686919927597
0.5471776127815247 0.5482355952262878 -0.11007071286439896
0.5284823775291443 0.47968149185180664 -0.04031040519475937
0.34670594334602356 0.47708240151405334 -0.000490221253130585
0.5218613743782043 0.4176988899707794 -0.015657568350434303
0.5220099687576294 0.38575324416160583 -0.01372303906828165
0.5129157304763794 0.29022082686424255 0.026769697666168213
0.5274350047111511 0.6865990161895752 -0.07521113753318787
0.5245065689086914 0.6946558356285095 -0.07017706334590912
0.5213963985443115 0.6980347633361816 -0.062471307814121246
0.5198489427566528 0.7560373544692993 -0.04523157700896263
0.5208555459976196 0.7657846212387085 -0.050039954483509064
0.5210593938827515 0.7774540185928345 -0.05550903454422951
0.5199552178382874 0.7895393371582031 -0.05230351537466049
0.5159800052642822 0.8051019310951233 -0.03620288148522377
0.5464531779289246 0.6154749989509583 -0.1099296361207962
0.5179335474967957 0.6154902577400208 -0.08680105209350586
0.22846117615699768 0.3962062895298004 0.09351330995559692
0.41457319259643555 0.4985666573047638 -0.010271220467984676
0.39136040210723877 0.499991238117218 -0.014340180903673172
0.36837658286094666 0.4981500804424286 -0.013594390824437141
0.33509618043899536 0.4850001931190491 -0.0017106260638684034
0.43424955010414124 0.4924726188182831 -0.00090512924361974
0.3860739469528198 0.42924606800079346 -0.01643643155694008
0.4117863178253174 0.4313528537750244 -0.008589179255068302
0.360832154750824 0.4340541958808899 -0.015372632071375847
0.3432481288909912 0.4442366361618042 -0.010790986008942127
0.31430065631866455 0.5006946325302124 0.0036253309808671474
0.42570480704307556 0.8246117830276489 -0.0398750826716423
0.3368445038795471 0.4707503914833069 0.005567317362874746
0.21799595654010773 0.4953818917274475 0.08244236558675766
0.28291794657707214 0.4851471781730652 0.022210905328392982
0.4046338200569153 0.5873503684997559 -0.048316143453121185
0.49693259596824646 0.6729198694229126 -0.08039343357086182
0.49592190980911255 0.6946895122528076 -0.07409947365522385
0.4603458642959595 0.681535005569458 -0.07622982561588287
0.43469205498695374 0.6919798254966736 -0.06413374841213226
0.469519704580307 0.6978665590286255 -0.07085173577070236
0.44766220450401306 0.702058732509613 -0.05919421464204788
0.3966124653816223 0.7409468293190002 -0.03688487038016319
0.5322071313858032 0.6015667915344238 -0.1210469976067543
0.5302894711494446 0.5780999660491943 -0.12508340179920197
0.3075070381164551 0.4211810529232025 -0.006835725624114275
0.45139193534851074 0.5317696928977966 -0.030486224219202995
0.46318379044532776 0.5972420573234558 -0.08283455669879913
0.4587484300136566 0.5855094194412231 -0.07574241608381271
0.3275412917137146 0.5862361192703247 -0.03975958749651909
0.5264899730682373 0.5509756207466125 -0.10959649831056595
0.37039822340011597 0.3908322751522064 -0.02342868037521839
0.3354599177837372 0.4014722406864166 -0.016673119738698006
0.2637637257575989 0.3525224030017853 0.06623867154121399
0.47264155745506287 0.4101675748825073 -0.020427430048584938
0.43288931250572205 0.4412616789340973 0.0018264786340296268
0.3806193470954895 0.7125383615493774 -0.03758988156914711
0.2238275557756424 0.721280574798584 0.10232577472925186
0.4781508445739746 0.6103430390357971 -0.07225615531206131
0.49667873978614807 0.6180170178413391 -0.06947619467973709
0.4006813168525696 0.7155309915542603 -0.035139743238687515
0.4117334187030792 0.7153970003128052 -0.037391550838947296
0.31958848237991333 0.38727855682373047 -0.007009062450379133
0.45790916681289673 0.6076001524925232 -0.0724717304110527
0.41512852907180786 0.3913854956626892 -0.02475796639919281
0.41167977452278137 0.37300077080726624 -0.026675578206777573
0.3782440423965454 0.29701918363571167 0.018121598288416862
0.2928779125213623 0.37016481161117554 0.024716397747397423
0.39857563376426697 0.3347087502479553 -0.0050392718985676765
0.28865382075309753 0.4123342037200928 0.009798860177397728
0.259548157453537 0.4060590863227844 0.04999515041708946
0.4962193965911865 0.6855824589729309 -0.07946796715259552
0.46572667360305786 0.6915404200553894 -0.07420870661735535
0.44159001111984253 0.6971734762191772 -0.0635346844792366
0.4822569787502289 0.614841639995575 -0.06587820500135422
0.40626639127731323 0.7158143520355225 -0.036110397428274155
0.4182216227054596 0.7319197654724121 -0.0426066517829895
0.4147953689098358 0.7145865559577942 -0.03703761845827103
0.4978671073913574 0.6029279232025146 -0.098284050822258
0.45006033778190613 0.7005466818809509 -0.0555814653635025
0.47169169783592224 0.6982921361923218 -0.06326588988304138
0.49561652541160583 0.6975322961807251 -0.06670022010803223
0.48062756657600403 0.8026415705680847 -0.04284244403243065
0.4853256344795227 0.7856050729751587 -0.058527082204818726
0.48829421401023865 0.7737994194030762 -0.06051083281636238
0.49077001214027405 0.7621466517448425 -0.05471654236316681
0.4921439588069916 0.75374835729599 -0.05001220107078552
0.4453187584877014 0.7390896677970886 -0.0435422845184803
0.44140470027923584 0.7418336868286133 -0.0471763052046299
0.434912770986557 0.7468252182006836 -0.05169399082660675
0.42899930477142334 0.7528398633003235 -0.05028734728693962
0.41936421394348145 0.6690164804458618 -0.05841474607586861
0.19409909844398499 0.6026609539985657 0.14635367691516876
0.5408529043197632 0.6209229826927185 -0.08430284261703491
0.43055957555770874 0.730472981929779 -0.038676418364048004
0.4247812330722809 0.7308853268623352 -0.04144509881734848
0.503624439239502 0.6278937458992004 -0.07164117693901062
0.4611676037311554 0.6218908429145813 -0.05589119717478752
0.5006218552589417 0.6231359839439392 -0.07070963084697723
0.4253576397895813 0.5447109341621399 -0.032810840755701065
0.38658982515335083 0.558981716632843 -0.03820222243666649
0.4512084722518921 0.5960226058959961 -0.06604939699172974
0.3115675449371338 0.31853559613227844 0.03851722180843353
0.33669716119766235 0.3451956808567047 0.007168128155171871
0.36088255047798157 0.3733060359954834 -0.018810637295246124
0.41768330335617065 0.76432204246521 -0.04243147000670433
0.4667256474494934 0.37941378355026245 -0.024502543732523918
0.4568815231323242 0.33561667799949646 -0.005475825164467096
0.4430348575115204 0.28927549719810486 0.01433777716010809
0.3476969599723816 0.49364975094795227 -0.008110687136650085
0.2860223352909088 0.5174715518951416 0.007154187187552452
0.44766542315483093 0.4858817458152771 0.005269207991659641
0.3153062164783478 0.45502614974975586 0.001237200340256095
0.46974343061447144 0.5169081687927246 -0.032013311982154846
0.48322927951812744 0.5881353616714478 -0.09848605841398239
0.25343334674835205 0.5348511338233948 0.020218921825289726
0.3072998523712158 0.5317937731742859 -0.012240645475685596
0.34208977222442627 0.5386052131652832 -0.025815730914473534
0.3885999321937561 0.5355986952781677 -0.023992815986275673
0.4214700758457184 0.5269637107849121 -0.018825910985469818
0.4468686580657959 0.5164132118225098 -0.016272133216261864
0.5063591003417969 0.4854932427406311 -0.039316628128290176
0.25746816396713257 0.5825721025466919 0.005747493822127581
0.2931424379348755 0.4511565566062927 0.007818727754056454
0.5346148014068604 0.6144701242446899 -0.11185711622238159
0.4569363594055176 0.5528384447097778 -0.04358946904540062
0.19283734261989594 0.4977874457836151 0.14815473556518555
0.4660833477973938 0.5035564303398132 -0.012913305312395096
0.4439774751663208 0.5980905890464783 -0.04518275335431099
0.32660144567489624 0.4713132083415985 0.0071503473445773125
0.4784179925918579 0.5738956332206726 -0.08879482746124268
0.20150050520896912 0.6600371599197388 0.12946003675460815
0.4466998279094696 0.4774283170700073 0.011671921238303185
0.5028319358825684 0.5599114894866943 -0.10321740061044693
0.30511704087257385 0.7727442979812622 0.008732046000659466
0.2943512499332428 0.8045711517333984 0.03702322021126747
0.21407707035541534 0.5945746302604675 0.07459282875061035
0.26891854405403137 0.7420117259025574 0.026307323947548866
0.23707948625087738 0.4475546181201935 0.07225140929222107
0.4192538559436798 0.8494687080383301 -0.03482341766357422
0.5317211747169495 0.6200483441352844 -0.08480928838253021
0.43374180793762207 0.5692867636680603 -0.04337477311491966
0.2562245726585388 0.49123725295066833 0.037417326122522354
0.37181663513183594 0.48536157608032227 -0.009113755077123642
0.39207014441490173 0.4879346489906311 -0.01003233902156353
0.41179677844047546 0.7339352965354919 -0.041590504348278046
0.25829800963401794 0.6304062008857727 0.005668336525559425
0.46007856726646423 0.883560061454773 -0.02618815377354622
0.3772051930427551 0.853439211845398 -0.00021853532234672457
0.33882826566696167 0.8333789110183716 0.016125034540891647
0.518561840057373 0.33916497230529785 0.004761049523949623
0.5090245008468628 0.8860596418380737 -0.019873684272170067
0.41133978962898254 0.4869331121444702 -0.005583665333688259
0.42909789085388184 0.4832412600517273 0.0017498151864856482
0.44079118967056274 0.4805300235748291 0.009552095085382462
0.2697753310203552 0.4478257894515991 0.026092905551195145
0.42717045545578003 0.46024560928344727 0.0010699297999963164
0.4071957468986511 0.453035831451416 -0.0053934757597744465
0.3879638910293579 0.4517616331577301 -0.009554664604365826
0.36746934056282043 0.4554942846298218 -0.0093550905585289
0.35370129346847534 0.46155503392219543 -0.006049099378287792
0.20579905807971954 0.44192343950271606 0.12558919191360474
0.3573920726776123 0.48138228058815 -0.005072469357401133
0.5310954451560974 0.6433070302009583 -0.06703399866819382
0.44529077410697937 0.654662549495697 -0.06491737067699432
0.4803462326526642 0.6067121028900146 -0.07793460786342621
0.4971317648887634 0.6462618708610535 -0.0727761909365654
0.5222622156143188 0.44973519444465637 -0.02035464346408844
0.3428504467010498 0.8023594617843628 -0.002539585344493389
0.37919437885284424 0.8260839581489563 -0.0173498447984457
0.46561992168426514 0.8656363487243652 -0.04603562131524086
0.2574548125267029 0.7704041004180908 0.06811558455228806
0.44106945395469666 0.47078967094421387 0.007553924340754747
0.494562029838562 0.5209964513778687 -0.05635138973593712
0.5145140290260315 0.868766188621521 -0.039087239652872086
0.4170908033847809 0.8712463974952698 -0.017845245078206062
0.21974767744541168 0.6477108001708984 0.06447569280862808
0.4673560857772827 0.7476335763931274 -0.04820151999592781
0.46364909410476685 0.7532270550727844 -0.052407436072826385
0.45904695987701416 0.7617989182472229 -0.05755792185664177
0.4546233117580414 0.7723609209060669 -0.056250445544719696
0.4446506202220917 0.7867718935012817 -0.04671140015125275
0.4259181022644043 0.7072352766990662 -0.04806897044181824
0.41938233375549316 0.7051581740379333 -0.04921392723917961
0.4130192697048187 0.7016383409500122 -0.05009293556213379
0.3962448239326477 0.6881064176559448 -0.04881591722369194
0.30124402046203613 0.6393939852714539 -0.028888285160064697
0.48852574825286865 0.4996621012687683 -0.03397552669048309
0.4671097695827484 0.4570314884185791 0.006539741065353155
0.4518657922744751 0.4613039195537567 0.008910968899726868
0.4304150342941284 0.7043596506118774 -0.04589463025331497
0.29003146290779114 0.7014473080635071 -0.004547196440398693
0.49143168330192566 0.4535180330276489 -0.015023463405668736
0.43404242396354675 0.8030424118041992 -0.04149363562464714
0.5407284498214722 0.5250500440597534 -0.08620811998844147
0.5137247443199158 0.5085211992263794 -0.06288254261016846
0.5345646739006042 0.5035041570663452 -0.06209348142147064
0.47894957661628723 0.5557648539543152 -0.06545708328485489
0.516728401184082 0.8459240794181824 -0.04373198747634888
0.5165824890136719 0.8223590850830078 -0.03886471316218376
0.47576138377189636 0.8201316595077515 -0.04389892518520355
0.3769700825214386 0.7500243782997131 -0.030467519536614418
0.4220082759857178 0.6170228123664856 -0.046239130198955536
0.40166160464286804 0.7792019844055176 -0.035797860473394394
0.3656758666038513 0.6156162619590759 -0.051464810967445374
0.39811527729034424 0.6410394310951233 -0.049831848591566086
0.34112486243247986 0.6546900272369385 -0.043107327073812485
0.47071248292922974 0.8428289294242859 -0.049737103283405304
0.4607241153717041 0.5691503286361694 -0.056814998388290405
0.3556881844997406 0.7714136838912964 -0.019767409190535545
0.38902994990348816 0.7992400527000427 -0.02718137763440609
0.35991472005844116 0.7174302339553833 -0.03442896530032158
0.26178884506225586 0.6729041337966919 0.00977727584540844
0.3258305788040161 0.7260018587112427 -0.02247551456093788
0.23588339984416962 0.6974247694015503 0.05056682974100113
0.3751523792743683 0.6712903380393982 -0.04651213437318802
0.47600769996643066 0.5366050601005554 -0.049127232283353806
0.49164944887161255 0.598745584487915 -0.10260099172592163
0.47089752554893494 0.6047380566596985 -0.08356595784425735
0.506680965423584 0.5823737382888794 -0.11315008997917175
0.4498434364795685 0.4329165518283844 -0.0013706551399081945
0.4135715365409851 0.41758596897125244 -0.011450664140284061
0.38068652153015137 0.4154016375541687 -0.017908379435539246
0.3517434895038605 0.42126041650772095 -0.01753748208284378
0.3297257423400879 0.4342617392539978 -0.01036672294139862
0.3082006573677063 0.47855451703071594 0.012385690584778786
0.21334350109100342 0.5443185567855835 0.07794258743524551
0.32972949743270874 0.5095692276954651 -0.006552273873239756
0.3563070297241211 0.5157653093338013 -0.013774300925433636
0.38843095302581787 0.516228437423706 -0.015546387061476707
0.41789841651916504 0.5116612315177917 -0.012040434405207634
0.44102394580841064 0.5038178563117981 -0.004659105092287064
0.45729130506515503 0.4957364797592163 -0.001585431513376534
0.19198119640350342 0.5500174760818481 0.1538764238357544
0.46800294518470764 0.6108852028846741 -0.07367546856403351
0.5003477931022644 0.5398531556129456 -0.07699863612651825
0.5129451155662537 0.5995042324066162 -0.11438799649477005
0.5202062129974365 0.6117496490478516 -0.10470936447381973
0.5091358423233032 0.6041138172149658 -0.1051747128367424
0.47153452038764954 0.6181007027626038 -0.06547532975673676
0.5263901948928833 0.6133683919906616 -0.1096840500831604
0.523690938949585 0.6189286708831787 -0.08573360741138458
0.4564189016819 0.477668821811676 0.011642292141914368
0.4702085852622986 0.4821496307849884 0.0019160096999257803
0.48053139448165894 0.48475563526153564 -0.011174393817782402
0.34501948952674866 0.4664459824562073 -0.0012743609258905053
0.32967984676361084 0.45608431100845337 -0.00213616038672626
0.5566306710243225 0.5290735363960266 -0.07370425015687943
0.6471256613731384 0.4792962074279785 0.08529409766197205
0.5583403706550598 0.6156686544418335 -0.07781173288822174
0.6826462745666504 0.4061247408390045 0.22649350762367249
0.5944911241531372 0.5020148158073425 0.04527296870946884
0.6149507761001587 0.5033614635467529 0.05219418555498123
0.6330571174621582 0.5012562274932861 0.06335228681564331
0.6515061855316162 0.48741111159324646 0.08973415195941925
0.5770087838172913 0.49596452713012695 0.04255921021103859
0.6213177442550659 0.4325648546218872 0.05313768982887268
0.5986508131027222 0.4355478882789612 0.04621725529432297
0.6410537958145142 0.43692004680633545 0.06522323936223984
0.6526418924331665 0.4471426010131836 0.07606726884841919
0.6660535335540771 0.5043574571609497 0.10191425681114197
0.5862760543823242 0.818101167678833 0.001681419089436531
0.6515151858329773 0.4726993441581726 0.09558115899562836
0.6942998170852661 0.49881282448768616 0.21708819270133972
0.6788359880447388 0.48853522539138794 0.13260914385318756
0.6214801669120789 0.5899122357368469 0.008335618302226067
0.5563247799873352 0.6740625500679016 -0.06508960574865341
0.5465618371963501 0.6956955790519714 -0.059356704354286194
0.579041600227356 0.6831356883049011 -0.04513134807348251
0.5889987945556641 0.6947687864303589 -0.021820833906531334
0.5626001358032227 0.699521005153656 -0.0430738665163517
0.5724526047706604 0.7050036191940308 -0.022515393793582916
0.6028443574905396 0.7418623566627502 0.017743756994605064
0.5671053528785706 0.6018471121788025 -0.11345161497592926
0.5701804757118225 0.5785701274871826 -0.11616381257772446
0.675102949142456 0.4237383008003235 0.09696131944656372
0.5790920257568359 0.5338928699493408 0.006050278432667255
0.5973175764083862 0.5990424752235413 -0.04895152151584625
0.5962899327278137 0.5874541997909546 -0.04071381315588951
0.6733859777450562 0.5894027352333069 0.05451532453298569
0.5644271969795227 0.5512846112251282 -0.09808920323848724
0.6430739164352417 0.39346104860305786 0.04907483607530594
0.6635423898696899 0.40366262197494507 0.07399185746908188
0.6743537187576294 0.36393827199935913 0.1851055920124054
0.563929557800293 0.41158437728881836 0.00331390043720603
0.5787672996520996 0.44552361965179443 0.04586229473352432
0.6166296601295471 0.7150372266769409 0.02819807268679142
0.6676533818244934 0.7118626832962036 0.2266232818365097
0.5816228985786438 0.6120291948318481 -0.04684361815452576
0.5657211542129517 0.6189788579940796 -0.05662927031517029
0.5973421335220337 0.7201120257377625 0.02183491550385952
0.5859695076942444 0.719606876373291 0.01315393578261137
0.6703356504440308 0.3905804753303528 0.08977992087602615
0.5942385196685791 0.6098423004150391 -0.03925973176956177
0.611541211605072 0.39379042387008667 0.024443980306386948
0.6153498291969299 0.3760969638824463 0.02381318435072899
0.6187591552734375 0.30672261118888855 0.08574575930833817
0.6734730005264282 0.3773692548274994 0.13092395663261414
0.6168309450149536 0.34092554450035095 0.05329453945159912
0.6811041831970215 0.4160745143890381 0.12106636166572571
0.6830718517303467 0.4126242697238922 0.17057007551193237
0.5524673461914062 0.6866450905799866 -0.06417433172464371
0.570654571056366 0.6929696202278137 -0.04504871368408203
0.5816280841827393 0.6998617649078369 -0.024127628654241562
0.5756729245185852 0.6160746812820435 -0.0451386459171772
0.5920518636703491 0.72032231092453 0.017156822606921196
0.5866285562515259 0.7347859144210815 0.0023061451502144337
0.5813857913017273 0.7184136509895325 0.012150718830525875
0.5790595412254333 0.6037996411323547 -0.07522612810134888
0.5654909610748291 0.7036128044128418 -0.0208565853536129
0.5552933812141418 0.700107991695404 -0.03721032291650772
0.5405682921409607 0.6986573934555054 -0.05197478458285332
0.546820342540741 0.8011993169784546 -0.028347700834274292
0.5494265556335449 0.7851532697677612 -0.04250181093811989
0.5487916469573975 0.7732822299003601 -0.04407871142029762
0.5460968017578125 0.7620130777359009 -0.038239121437072754
0.5421791076660156 0.753542423248291 -0.03413296490907669
0.5682700276374817 0.7404083609580994 -0.008647376671433449
0.573126494884491 0.7431321740150452 -0.012431003153324127
0.5795632004737854 0.747867226600647 -0.01565597578883171
0.5845224261283875 0.7535022497177124 -0.011698591522872448
0.605810284614563 0.6712299585342407 -0.01039014384150505
0.6786050200462341 0.6001965999603271 0.28427132964134216
0.5738046169281006 0.7327665686607361 0.004097080323845148
0.5807315707206726 0.7334295511245728 0.001886575249955058
0.559338390827179 0.6283114552497864 -0.058902110904455185
0.5850451588630676 0.6236649751663208 -0.02926897630095482
0.5626187920570374 0.6240122318267822 -0.05844923108816147
0.5995627045631409 0.5473699569702148 0.016348807141184807
0.6315218210220337 0.5622687935829163 0.02906804159283638
0.596592366695404 0.5982462763786316 -0.029690800234675407
0.6555638313293457 0.3299957513809204 0.13504430651664734
0.6533958911895752 0.3525454103946686 0.09209839254617691
0.6487103700637817 0.37668678164482117 0.057811181992292404
0.590455174446106 0.7631226181983948 0.0028721101116389036
0.5719507336616516 0.381449431180954 0.0013668420724570751
0.5729813575744629 0.3395349085330963 0.024536261335015297
0.5731929540634155 0.29483553767204285 0.048210255801677704
0.6458353400230408 0.4962712526321411 0.0773489698767662
0.6845483779907227 0.5214458703994751 0.11643745750188828
0.5657079815864563 0.48893120884895325 0.043946098536252975
0.6659734845161438 0.4573683738708496 0.10098425298929214
0.5662953853607178 0.5185518264770508 -0.0027698520570993423
0.5913382768630981 0.5897032618522644 -0.07098042219877243
0.699840784072876 0.5377955436706543 0.14387157559394836
0.678432047367096 0.5359553694725037 0.09034444391727448
0.6593464016914368 0.5427300333976746 0.06200972571969032
0.6239150762557983 0.5390920042991638 0.04289595037698746
0.5963757634162903 0.5298765897750854 0.03180596977472305
0.5755273103713989 0.5186840295791626 0.021545203402638435
0.5454147458076477 0.48639655113220215 -0.026917941868305206
0.7043095827102661 0.5840818881988525 0.12926605343818665
0.6770114302635193 0.45428645610809326 0.1169007420539856
0.5562809705734253 0.6146358847618103 -0.10596979409456253
0.5820890665054321 0.5546641945838928 -0.008530918508768082
0.6816998720169067 0.5018119215965271 0.2912343144416809
0.5609062910079956 0.5056025981903076 0.016593892127275467
0.5943576097488403 0.6005481481552124 -0.008612205274403095
0.6563462615013123 0.47369205951690674 0.10197440534830093
0.5884191989898682 0.5753732919692993 -0.060692284256219864
0.6777008175849915 0.6539213061332703 0.2616308033466339
0.5633381009101868 0.4799930453300476 0.05177350342273712
0.5773760080337524 0.5607540011405945 -0.08286374807357788
0.6524826884269714 0.7623679637908936 0.10102768242359161
0.6423828601837158 0.7902722954750061 0.13068875670433044
0.7039694786071777 0.5931490063667297 0.20889593660831451
0.6712208390235901 0.7328737378120422 0.13481877744197845
0.6880596280097961 0.4532340466976166 0.2012098729610443
0.5883556604385376 0.8403351902961731 0.009727561846375465
0.5487933158874512 0.6203068494796753 -0.08109739422798157
0.5982791781425476 0.571740448474884 0.00020594381203409284
0.6894358396530151 0.4942258596420288 0.15890686213970184
0.6320653557777405 0.4884359836578369 0.06633826345205307
0.6157915592193604 0.4914734959602356 0.0567137785255909
0.5915992259979248 0.7366276383399963 0.006341455038636923
0.7003461122512817 0.6298204064369202 0.1251228302717209
0.5527607202529907 0.8775478601455688 -0.0011469292221590877
0.6035207509994507 0.8401228785514832 0.06112831085920334
0.6220042705535889 0.8189172744750977 0.09249886870384216
0.5975470542907715 0.4908876121044159 0.05123335123062134
0.5804986953735352 0.4869927763938904 0.050575222820043564
0.5691917538642883 0.4836077392101288 0.05299251526594162
0.6845751404762268 0.45164233446121216 0.1439475566148758
0.5801606178283691 0.4629466235637665 0.05099475756287575
0.5975462794303894 0.4555807113647461 0.05245927348732948
0.6158396601676941 0.45333272218704224 0.058390066027641296
0.6333391666412354 0.45660459995269775 0.06783157587051392
0.6430187225341797 0.46306878328323364 0.07668408751487732
0.6851321458816528 0.4494289755821228 0.26568013429641724
0.641711413860321 0.4839690923690796 0.07698678970336914
0.5934206247329712 0.656380295753479 -0.028103945776820183
0.5843003988265991 0.6083164811134338 -0.05403972044587135
0.5598392486572266 0.6465431451797485 -0.057315707206726074
0.6307926774024963 0.7914009094238281 0.07186900824308395
0.6098485589027405 0.8146793246269226 0.04179314896464348
0.5574188828468323 0.8605797290802002 -0.021433843299746513
0.6553706526756287 0.7581232190132141 0.17918649315834045
0.5686598420143127 0.4731774926185608 0.051802653819322586
0.5623398423194885 0.5217498540878296 -0.03676442801952362
0.5823894143104553 0.8607453107833862 0.026974044740200043
0.6996676921844482 0.6434456706047058 0.1938236504793167
0.557793915271759 0.7480618953704834 -0.02165786363184452
0.5629103183746338 0.7536476850509644 -0.024969710037112236
0.5679018497467041 0.761850893497467 -0.02845671772956848
0.5709247589111328 0.7720096111297607 -0.026063764467835426
0.5735074281692505 0.7847937941551208 -0.01312949601560831
0.5804678797721863 0.7108988761901855 -0.0029595191590487957
0.588787317276001 0.7089561820030212 -0.00018143428314942867
0.5954228639602661 0.7056339979171753 0.001543510821647942
0.6140648722648621 0.6911354064941406 0.011630118824541569
0.682421088218689 0.6398440003395081 0.07338045537471771
0.5551543235778809 0.5008271932601929 -0.013149046339094639
0.5537495613098145 0.4591239094734192 0.03170888125896454
0.5616345405578613 0.46418118476867676 0.04576549679040909
0.5732157826423645 0.7080825567245483 -0.002463699784129858
0.6743141412734985 0.6974625587463379 0.0986296683549881
0.5442461967468262 0.45456159114837646 8.813203749014065e-05
0.5794108510017395 0.798696756362915 -0.0048115928657352924
0.5517749786376953 0.509076714515686 -0.05241391807794571
0.5774207711219788 0.5568926334381104 -0.0400216281414032
0.5508259534835815 0.8173278570175171 -0.026047127321362495
0.6179601550102234 0.747400164604187 0.03233175352215767
0.6075357794761658 0.6193340420722961 6.942137406440452e-05
0.6004422903060913 0.7749924063682556 0.01426551304757595
0.6488292217254639 0.6179677248001099 0.021977394819259644
0.6220394372940063 0.6430909633636475 0.008094056509435177
0.6585143804550171 0.6556140184402466 0.040998149663209915
0.5562909841537476 0.8389936685562134 -0.026578834280371666
0.5855225920677185 0.5709763169288635 -0.024665404111146927
0.6301891803741455 0.7645787000656128 0.05162680521607399
0.6078773140907288 0.7915573716163635 0.028159625828266144
0.633529543876648 0.7169985771179199 0.041308872401714325
0.6912528276443481 0.6695767641067505 0.12423933297395706
0.6537598371505737 0.7220367193222046 0.06458467990159988
0.6883370876312256 0.6905914545059204 0.173589825630188
0.6313414573669434 0.6738006472587585 0.023020615801215172
0.5712874531745911 0.5380148887634277 -0.02161410264670849
0.5859756469726562 0.5998932123184204 -0.07758577167987823
0.5921072959899902 0.6063607335090637 -0.05493543669581413
0.5826035141944885 0.5830540657043457 -0.09317174553871155
0.5708326101303101 0.43531733751296997 0.03351065143942833
0.6036871671676636 0.4206058979034424 0.04071076586842537
0.6309176683425903 0.41859158873558044 0.05107935890555382
0.6516029238700867 0.4243432879447937 0.06635045260190964
0.6627638339996338 0.4367995858192444 0.08329101651906967
0.666136622428894 0.481220543384552 0.11339878290891647
0.7012571692466736 0.545520544052124 0.21584868431091309
0.6596404314041138 0.5130910873413086 0.08610117435455322
0.6437451243400574 0.5192099213600159 0.06670543551445007
0.6192114949226379 0.5197590589523315 0.05065954104065895
0.5940584540367126 0.5147964358329773 0.03991277888417244
0.5741685628890991 0.5066447854042053 0.034537423402071
0.5611542463302612 0.4983360767364502 0.030196329578757286
0.6779425144195557 0.5509836077690125 0.29629915952682495
0.588421642780304 0.6128138899803162 -0.04558190330862999
0.5684435367584229 0.5403620004653931 -0.05708542838692665
0.5777275562286377 0.599799633026123 -0.09858334809541702
0.5630931258201599 0.6117687821388245 -0.09567283093929291
0.5740877389907837 0.6043134927749634 -0.08899656683206558
0.5814396142959595 0.6198294758796692 -0.041504424065351486
0.5614314675331116 0.613692045211792 -0.102214515209198
0.5546702146530151 0.6190480589866638 -0.0795007199048996
0.5577379465103149 0.4804414212703705 0.044644176959991455
0.5509026646614075 0.4844478368759155 0.02678227238357067
0.5498496294021606 0.4866842031478882 0.009389265440404415
0.6480193734169006 0.46807172894477844 0.08549201488494873
0.6579536199569702 0.4584046006202698 0.08949372172355652
