ply
format ascii 1.0
element vertex 468
property float x
property float y
property float z
end_header
0.520689070224762 0.7082501649856567 -0.07971341162919998
0.5264045596122742 0.6304963231086731 -0.14557673037052155
0.5203134417533875 0.6561182737350464 -0.08364179730415344
0.49890872836112976 0.5423398613929749 -0.10706792771816254
0.5263731479644775 0.6024828553199768 -0.15219993889331818
0.5234614610671997 0.566645085811615 -0.13963797688484192
0.5141956210136414 0.4828678071498871 -0.06481815874576569
0.3319452404975891 0.48314741253852844 0.02224084921181202
0.511019229888916 0.4346047639846802 -0.04152396693825722
0.510842502117157 0.402803897857666 -0.0418400764465332
0.505683183670044 0.2711101770401001 -0.0013945932732895017
0.5202739834785461 0.7202478647232056 -0.0773451030254364
0.5194485783576965 0.728123664855957 -0.07157430797815323
0.5181682705879211 0.7298721671104431 -0.062216609716415405
0.519271969795227 0.7996844053268433 -0.03972020745277405
0.5199844837188721 0.8103781342506409 -0.04554334282875061
0.5201877951622009 0.8231596946716309 -0.05190114304423332
0.5198473334312439 0.8382170796394348 -0.04776287078857422
0.5178385972976685 0.8623436093330383 -0.028034284710884094
0.5248045325279236 0.6454868316650391 -0.13368017971515656
0.49607914686203003 0.6434934735298157 -0.10134122520685196
0.22008052468299866 0.399553120136261 0.1357889026403427
0.4053550064563751 0.498948335647583 0.0035991708282381296
0.3811486065387726 0.5017471313476562 0.0021361291874200106
0.3561743199825287 0.5024515390396118 0.005656727124005556
0.31860968470573425 0.4933033585548401 0.02306584268808365
0.42475563287734985 0.4926362633705139 0.007848404347896576
0.37096208333969116 0.44374901056289673 -0.00524464575573802
0.39675575494766235 0.44315898418426514 -0.00031868257792666554
0.34570902585983276 0.4491078853607178 -0.001313537242822349
0.3279246687889099 0.4582802653312683 0.007336997892707586
0.29640913009643555 0.5112109780311584 0.031452737748622894
0.41376736760139465 0.8929442167282104 -0.00853824894875288
0.3208611011505127 0.47973430156707764 0.029054855927824974
0.20640164613723755 0.5114486813545227 0.13518179953098297
0.2644816040992737 0.5014844536781311 0.054700449109077454
0.3809871971607208 0.6063665151596069 -0.03316110000014305
0.47980064153671265 0.7046282887458801 -0.07953322678804398
0.48242881894111633 0.7281671762466431 -0.0697561651468277
0.4375849962234497 0.7117395401000977 -0.06607517600059509
0.4107570946216583 0.7216807007789612 -0.04228893294930458
0.45147404074668884 0.7298417091369629 -0.05840669199824333
0.4281170070171356 0.7335464358329773 -0.036485400050878525
0.37939420342445374 0.7803242802619934 0.0026581301353871822
0.50420081615448 0.6303350925445557 -0.14473961293697357
0.5015029907226562 0.6029562950134277 -0.15103182196617126
0.2897867262363434 0.445360392332077 0.008085471577942371
0.43613019585609436 0.5418851375579834 -0.027570439502596855
0.43380334973335266 0.6191104650497437 -0.086845263838768
0.431318998336792 0.6047316193580627 -0.07795614004135132
0.3006727397441864 0.6035689115524292 -0.010636452585458755
0.5005553960800171 0.5699096918106079 -0.1340930461883545
0.3584645390510559 0.41700035333633423 -0.02663448452949524
0.3194524645805359 0.42734190821647644 -0.012958607636392117
0.2529242932796478 0.3520065248012543 0.09465213119983673
0.46603283286094666 0.43109187483787537 -0.0377669557929039
0.4189319312572479 0.4488925337791443 0.009399481117725372
0.3584047555923462 0.7442778944969177 0.0036201041657477617
0.22154569625854492 0.7737939357757568 0.17713400721549988
0.4521762430667877 0.6342061161994934 -0.07566621899604797
0.47390294075012207 0.6432164907455444 -0.07873693853616714
0.3783091604709625 0.7455754280090332 0.006168031133711338
0.39210283756256104 0.7467169761657715 0.0019363912288099527
0.304086834192276 0.4129723310470581 0.0006707651191391051
0.4297395348548889 0.6290107369422913 -0.07366130501031876
0.40774109959602356 0.41630882024765015 -0.03449395298957825
0.40266847610473633 0.39614543318748474 -0.037883806973695755
0.36422306299209595 0.2862791121006012 0.016155434772372246
0.2801739573478699 0.3807213604450226 0.04314786568284035
0.38638603687286377 0.33687660098075867 -0.01061264704912901
0.271784245967865 0.4354577958583832 0.029742341488599777
0.2465144842863083 0.4182649850845337 0.08219841122627258
0.48075559735298157 0.7191314697265625 -0.07676461338996887
0.44542062282562256 0.7231753468513489 -0.06265633553266525
0.41958850622177124 0.7278503179550171 -0.04125436767935753
0.45735448598861694 0.6385457515716553 -0.07132403552532196
0.3847883939743042 0.7461337447166443 0.003918658010661602
0.4003428816795349 0.7687448263168335 -0.00631763506680727
0.3966749906539917 0.7470607757568359 0.0015420087147504091
0.4712321162223816 0.6297561526298523 -0.11064239591360092
0.43219056725502014 0.7311711311340332 -0.03311607986688614
0.45551156997680664 0.7292966246604919 -0.04933800920844078
0.48404261469841003 0.7295287251472473 -0.06033870950341225
0.4745459258556366 0.8594270944595337 -0.028755655512213707
0.47775569558143616 0.8341851830482483 -0.04759335145354271
0.4803435802459717 0.8192307949066162 -0.05009022355079651
0.48265138268470764 0.8063147664070129 -0.043032556772232056
0.4848889708518982 0.7971652150154114 -0.03812738135457039
0.43193626403808594 0.7793014049530029 -0.016437949612736702
0.4269315004348755 0.7820795774459839 -0.02030709572136402
0.419802725315094 0.7878135442733765 -0.023816293105483055
0.41373318433761597 0.795383095741272 -0.0200240109115839
0.39306336641311646 0.6981257200241089 -0.03640296310186386
0.19356995820999146 0.6369624137878418 0.2212386429309845
0.5226333737373352 0.6509202122688293 -0.10135681182146072
0.41586363315582275 0.7683925628662109 -0.0038304885383695364
0.4078805148601532 0.7675337791442871 -0.00616095494478941
0.48320043087005615 0.6550646424293518 -0.07936860620975494
0.4357575476169586 0.6440170407295227 -0.05435163527727127
0.47865748405456543 0.6493867039680481 -0.08007356524467468
0.408393919467926 0.5557268857955933 -0.023563260212540627
0.36525392532348633 0.5718811750411987 -0.023441601544618607
0.4243186116218567 0.6155752539634705 -0.06426835805177689
0.2992149591445923 0.31321102380752563 0.051779117435216904
0.3253234922885895 0.35277971625328064 0.013760422356426716
0.3491337299346924 0.3980380892753601 -0.019141126424074173
0.40274643898010254 0.8113039135932922 -0.008077261038124561
0.45828548073768616 0.39831116795539856 -0.04451052471995354
0.4445110261440277 0.3312656581401825 -0.021702997386455536
0.43023020029067993 0.2734641134738922 -0.0013309696223586798
0.3331109285354614 0.5000335574150085 0.014045138843357563
0.26640671491622925 0.5300430059432983 0.041649751365184784
0.43678387999534607 0.4859501123428345 0.012795441783964634
0.2975248694419861 0.470805823802948 0.02414650470018387
0.45504897832870483 0.5256816744804382 -0.03491201624274254
0.4544714391231537 0.6119953393936157 -0.10995528846979141
0.2345273494720459 0.551601767539978 0.06347940117120743
0.28717240691185 0.5425897240638733 0.01978461816906929
0.3223689794540405 0.5483216643333435 0.0004982036189176142
0.3721331059932709 0.5443740487098694 -0.007513812743127346
0.40855729579925537 0.5347310304641724 -0.007665623445063829
0.4349607825279236 0.5230672359466553 -0.01138493325561285
0.4903673231601715 0.49033212661743164 -0.057075269520282745
0.2351890653371811 0.6035349369049072 0.05227876827120781
0.2749599814414978 0.4711858630180359 0.033573031425476074
0.5110322833061218 0.6445400714874268 -0.13344933092594147
0.4375995695590973 0.5667278170585632 -0.04055327922105789
0.1903790533542633 0.5144820213317871 0.2132033407688141
0.45432403683662415 0.5093050599098206 -0.01242891512811184
0.4193986654281616 0.61686110496521 -0.03693932667374611
0.3100040555000305 0.48212820291519165 0.0320497527718544
0.45194169878959656 0.5939850211143494 -0.09894862771034241
0.20054274797439575 0.7032836675643921 0.20455484092235565
0.43453195691108704 0.4774368405342102 0.020676452666521072
0.4765810966491699 0.5797135233879089 -0.1214049756526947
0.29129523038864136 0.8273313641548157 0.06696507334709167
0.2891092300415039 0.8682969808578491 0.09924554824829102
0.20088964700698853 0.6233347654342651 0.1370244324207306
0.2543337941169739 0.7925406694412231 0.08873119950294495
0.2249622344970703 0.4600563645362854 0.11566167324781418
0.4082854986190796 0.9254767894744873 -0.0009408756159245968
0.5116073489189148 0.64987713098526 -0.10040472447872162
0.41258135437965393 0.5848448276519775 -0.03437012434005737
0.23901093006134033 0.508637547492981 0.07713937014341354
0.3602827489376068 0.48619741201400757 0.010049671865999699
0.38217008113861084 0.4863736927509308 0.0059470790438354015
0.3932439088821411 0.7710608839988708 -0.0038855120074003935
0.23482263088226318 0.6601057052612305 0.05726245045661926
0.45727941393852234 0.9686851501464844 0.0023762912023812532
0.37043631076812744 0.9301851987838745 0.045982979238033295
0.3326716423034668 0.9041248559951782 0.07039754837751389
0.508442759513855 0.33251044154167175 -0.02144048735499382
0.5153033137321472 0.9727920293807983 0.0003451647353358567
0.4013580083847046 0.4843660891056061 0.007164543494582176
0.41915249824523926 0.48078224062919617 0.012261703610420227
0.42978233098983765 0.4788725972175598 0.018630458042025566
0.25318217277526855 0.4676089882850647 0.05723797529935837
0.41405490040779114 0.465435653924942 0.01173439621925354
0.39403441548347473 0.46185770630836487 0.0047517078928649426
0.3746490478515625 0.4617459177970886 0.0035586718004196882
0.35343003273010254 0.4661146402359009 0.006495310924947262
0.3385472297668457 0.47222578525543213 0.013149923644959927
0.2003006935119629 0.4498690664768219 0.18011991679668427
0.3442888557910919 0.48497268557548523 0.016129735857248306
0.5200746655464172 0.673635721206665 -0.07595658302307129
0.4204319715499878 0.6822049021720886 -0.05428788810968399
0.4533017873764038 0.631297767162323 -0.0851261168718338
0.47842681407928467 0.6750704646110535 -0.07610493153333664
0.5113576650619507 0.45760250091552734 -0.04260465130209923
0.33063533902168274 0.8646243810653687 0.049141738563776016
0.36768531799316406 0.8952159881591797 0.025949597358703613
0.4589828848838806 0.9454758167266846 -0.022020453587174416
0.25337910652160645 0.8292165994644165 0.1367260217666626
0.4279966354370117 0.47225886583328247 0.016770951449871063
0.47572311758995056 0.532228946685791 -0.0684439167380333
0.5175944566726685 0.9493005275726318 -0.022847173735499382
0.41051551699638367 0.9530560970306396 0.01927601359784603
0.2062939703464508 0.6853147745132446 0.12937802076339722
0.45608851313591003 0.7897297143936157 -0.028667854145169258
0.45137661695480347 0.7960526347160339 -0.03280872479081154
0.4464613199234009 0.8058744668960571 -0.036650434136390686
0.44212642312049866 0.8189433217048645 -0.03379765525460243
0.43288806080818176 0.839596688747406 -0.020963607355952263
0.4060405194759369 0.7379664182662964 -0.016375433653593063
0.3976685404777527 0.7352423667907715 -0.016530919820070267
0.3898375332355499 0.7308911681175232 -0.0171276293694973
0.37005841732025146 0.7177719473838806 -0.014920936897397041
0.27394038438796997 0.6678963303565979 0.012144082225859165
0.47359076142311096 0.506626307964325 -0.043870970606803894
0.45739781856536865 0.46164727210998535 0.007165004964917898
0.43997058272361755 0.4640115201473236 0.014384272508323193
0.41223329305648804 0.7348169088363647 -0.014222180470824242
0.2676464319229126 0.7420317530632019 0.04859820380806923
0.48031240701675415 0.4617597460746765 -0.02642115019261837
0.42321306467056274 0.8627181649208069 -0.013208405114710331
0.5201990008354187 0.5378612875938416 -0.11314217746257782
0.49460530281066895 0.5174728631973267 -0.08347850292921066
0.5172145366668701 0.5111426711082458 -0.0872146412730217
0.4573393762111664 0.5723538994789124 -0.07291686534881592
0.5183917880058289 0.9185105562210083 -0.03159555792808533
0.517957866191864 0.8859873414039612 -0.028761424124240875
0.4693058729171753 0.8834162950515747 -0.02639724500477314
0.3610695004463196 0.794360339641571 0.01204089168459177
0.39823025465011597 0.6392954587936401 -0.03205092251300812
0.38872796297073364 0.8323169350624084 0.0012137459125369787
0.33751219511032104 0.6393283009529114 -0.02688877284526825
0.37287187576293945 0.6677510142326355 -0.026463603600859642
0.3133818805217743 0.6844888925552368 -0.006429909262806177
0.46290066838264465 0.915244996547699 -0.02960667945444584
0.43868666887283325 0.5858957767486572 -0.05699491500854492
0.3405646085739136 0.8239989280700684 0.027318008244037628
0.37617653608322144 0.8600557446479797 0.013183760456740856
0.3393263816833496 0.7538415789604187 0.0093245729804039
0.2400209903717041 0.7104312777519226 0.0657200738787651
0.305306613445282 0.7678567171096802 0.02652565762400627
0.22238433361053467 0.742864727973938 0.116623654961586
0.348916232585907 0.700248122215271 -0.014038650318980217
0.457348495721817 0.549659788608551 -0.0532597154378891
0.46328720450401306 0.6248447895050049 -0.11566248536109924
0.442110538482666 0.6285098791122437 -0.08961347490549088
0.4773065149784088 0.6070638298988342 -0.13300350308418274
0.44100815057754517 0.444466233253479 0.00013082449731882662
0.4024991989135742 0.43393808603286743 -0.009343745186924934
0.3669445514678955 0.4332941174507141 -0.013625984080135822
0.3354520797729492 0.43980464339256287 -0.007747408468276262
0.31166523694992065 0.4520708918571472 0.005024304147809744
0.2907467484474182 0.4921432137489319 0.03945170342922211
0.2007407248020172 0.5663356184959412 0.13684812188148499
0.31276851892471313 0.5188589692115784 0.020381467416882515
0.34109750390052795 0.5234748125076294 0.007709415163844824
0.37568747997283936 0.5220246911048889 0.0007150250603444874
0.4073159098625183 0.5159958600997925 0.0014735284494236112
0.4310451149940491 0.5074167251586914 0.0020995710510760546
0.44719842076301575 0.4990081489086151 0.00294259050861001
0.19120454788208008 0.5753613710403442 0.22584114968776703
0.44064098596572876 0.6338764429092407 -0.07740698009729385
0.47814682126045227 0.555170476436615 -0.09125418961048126
0.48437923192977905 0.6271389722824097 -0.13394795358181
0.49639952182769775 0.6404221057891846 -0.12360195070505142
0.48282623291015625 0.6317170262336731 -0.1219082772731781
0.44564974308013916 0.6409836411476135 -0.06835953146219254
0.5021296739578247 0.6429284811019897 -0.13015277683734894
0.5024445056915283 0.647882878780365 -0.10076994448900223
0.44475698471069336 0.47839248180389404 0.017443805932998657
0.4597223699092865 0.485176682472229 0.0024295374751091003
0.468790203332901 0.48965689539909363 -0.017534568905830383
0.3288925588130951 0.4767260253429413 0.019768567755818367
0.3131779134273529 0.4692576229572296 0.019652094691991806
0.5398569107055664 0.5418276190757751 -0.10217065364122391
0.6701784729957581 0.4797177314758301 0.05750786513090134
0.546869695186615 0.642710268497467 -0.09752379357814789
0.7513173818588257 0.39796629548072815 0.1906404346227646
0.603076696395874 0.4973999261856079 0.026371372863650322
0.6264459490776062 0.4993460178375244 0.029338277876377106
0.6498213410377502 0.49931055307388306 0.037101659923791885
0.6811306476593018 0.4898276925086975 0.06047480180859566
0.5840462446212769 0.4915267825126648 0.025683777406811714
0.6362311840057373 0.44209790229797363 0.02314937300980091
0.611217200756073 0.4420115053653717 0.021921208128333092
0.659655749797821 0.4473227858543396 0.0317477248609066
0.6750792264938354 0.45613324642181396 0.0427667498588562
0.7016233801841736 0.5070982575416565 0.07205850630998611
0.6125422120094299 0.8868206143379211 0.0084733497351408
0.6792358756065369 0.4765213429927826 0.06622009724378586
0.7662169337272644 0.5066089630126953 0.19119589030742645
0.7267059683799744 0.4970075786113739 0.10035014152526855
0.6383370757102966 0.6026288270950317 -0.010138672776520252
0.5593869686126709 0.7029600143432617 -0.07334257662296295
0.5540432929992676 0.7268706560134888 -0.06417030096054077
0.5965540409088135 0.7081570029258728 -0.05334080010652542
0.6182701587677002 0.7172625660896301 -0.025126541033387184
0.5809093713760376 0.7270523309707642 -0.04757868871092796
0.6002415418624878 0.7300217151641846 -0.021950524300336838
0.6414892673492432 0.7745120525360107 0.02524564601480961
0.5471267700195312 0.6297781467437744 -0.14166605472564697
0.549062192440033 0.6021711230278015 -0.1472814977169037
0.7096080780029297 0.44212961196899414 0.051030341535806656
0.582748293876648 0.5400881171226501 -0.012889271602034569
0.6004416942596436 0.6163231730461121 -0.0728897675871849
0.5996710658073425 0.6018995046615601 -0.06339296698570251
0.7076436877250671 0.5978561639785767 0.027828076854348183
0.5447701811790466 0.5692160129547119 -0.1294114887714386
0.6520450711250305 0.4153451919555664 0.0031301339622586966
0.6859311461448669 0.4248744249343872 0.024166373535990715
0.7280450463294983 0.351476788520813 0.1436796933412552
0.5532130599021912 0.43042904138565063 -0.027743415907025337
0.5895188450813293 0.44792884588241577 0.02750498242676258
0.6600832939147949 0.7381601333618164 0.030871396884322166
0.7460212707519531 0.7631398439407349 0.2292984127998352
0.5831740498542786 0.6319819092750549 -0.06564249843358994
0.5634856820106506 0.6417442560195923 -0.07356869429349899
0.6423348188400269 0.7404742240905762 0.029644235968589783
0.629033088684082 0.7419955730438232 0.02255898155272007
0.6980689764022827 0.4104676842689514 0.04048391804099083
0.6019566059112549 0.6261159181594849 -0.06002366915345192
0.6076149940490723 0.4152238965034485 -0.014251507818698883
0.6127029657363892 0.3949739933013916 -0.01706971414387226
0.6370823979377747 0.28650417923927307 0.04405933618545532
0.7122148871421814 0.37893444299697876 0.08672526478767395
0.6231110692024231 0.33647722005844116 0.01344271469861269
0.7226706147193909 0.43242064118385315 0.07570520043373108
0.7373288869857788 0.41596856713294983 0.13181976974010468
0.5576739311218262 0.7176163792610168 -0.07086136937141418
0.5884164571762085 0.7197906374931335 -0.05091842636466026
0.6096323132514954 0.7237488627433777 -0.025494856759905815
0.5776005387306213 0.6364659070968628 -0.06284840404987335
0.6362324357032776 0.7412223219871521 0.02572871930897236
0.6241307258605957 0.7642685174942017 0.012115512043237686
0.623838484287262 0.7424639463424683 0.021523814648389816
0.570757269859314 0.6280568838119507 -0.10099338740110397
0.5941659212112427 0.7279218435287476 -0.019467830657958984
0.5748085975646973 0.7269390821456909 -0.03913097083568573
0.5498590469360352 0.7282844185829163 -0.05492626130580902
0.5590280890464783 0.857628583908081 -0.02313084341585636
0.5595307946205139 0.8326116800308228 -0.04173218458890915
0.5578492283821106 0.817703127861023 -0.04386894032359123
0.5550854802131653 0.8049832582473755 -0.036901142448186874
0.5514013171195984 0.7961172461509705 -0.03212684020400047
0.5961282253265381 0.7757923007011414 -0.0021982800681144
0.6016522645950317 0.7784960269927979 -0.006347735412418842
0.6089074611663818 0.7840426564216614 -0.009068426676094532
0.6144728660583496 0.7912485003471375 -0.0042033325880765915
0.6335108280181885 0.6933361291885376 -0.01646263711154461
0.7647367119789124 0.6294598579406738 0.2791227400302887
0.6083543300628662 0.764437198638916 0.013772831298410892
0.6169489026069641 0.7633242607116699 0.011476770043373108
0.5555456876754761 0.653712809085846 -0.07430142164230347
0.5947360992431641 0.6412043571472168 -0.043452732264995575
0.5592527389526367 0.6481555104255676 -0.07503964751958847
0.6083407998085022 0.553126335144043 -0.003624581266194582
0.6493699550628662 0.5682204365730286 0.003888799110427499
0.604455828666687 0.6126716732978821 -0.04950059950351715
0.6917804479598999 0.3131721019744873 0.09169033169746399
0.6755682229995728 0.35179704427719116 0.048603057861328125
0.6600273847579956 0.39627182483673096 0.012198722921311855
0.6220309734344482 0.8062148094177246 0.010326435789465904
0.5613940358161926 0.39805924892425537 -0.03380867466330528
0.5701178312301636 0.33115527033805847 -0.009067186154425144
0.577929675579071 0.27377474308013916 0.012580822221934795
0.6695550084114075 0.49643754959106445 0.0492415614426136
0.7281526327133179 0.5250260829925537 0.08692986518144608
0.5724168419837952 0.4850754737854004 0.028535734862089157
0.700515627861023 0.4676249623298645 0.065363809466362
0.5655661821365356 0.5242370367050171 -0.023121867328882217
0.5852555632591248 0.6098864078521729 -0.09857010096311569
0.7537617683410645 0.5457600355148315 0.1149493157863617
0.7135413289070129 0.5377368330955505 0.062080513685941696
0.6847619414329529 0.5441038012504578 0.03637665510177612
0.6393725275993347 0.5412688255310059 0.019886426627635956
0.604658842086792 0.5323970913887024 0.01278093084692955
0.5796971321105957 0.5213765501976013 0.0037462261971086264
0.5360803008079529 0.4898470640182495 -0.05208678916096687
0.7568169832229614 0.5962666273117065 0.10359495878219604
0.7194716930389404 0.4673570394515991 0.07847525179386139
0.5377662181854248 0.644183337688446 -0.1308712363243103
0.5854951739311218 0.5647410154342651 -0.026281200349330902
0.7673500776290894 0.5101977586746216 0.27311643958091736
0.5619887709617615 0.5081300735473633 -0.0006243917741812766
0.6057603359222412 0.6137159466743469 -0.0220129806548357
0.6882454752922058 0.4789498448371887 0.07106407731771469
0.5835627317428589 0.592013418674469 -0.08739493042230606
0.7607604265213013 0.6943121552467346 0.26023516058921814
0.5733323693275452 0.4763987362384796 0.03722086548805237
0.5642026662826538 0.5783712267875671 -0.11290891468524933
0.7072207927703857 0.8165977597236633 0.10560370981693268
0.7011873722076416 0.8567905426025391 0.13853329420089722
0.7742477059364319 0.6158014535903931 0.1931026130914688
0.7349016070365906 0.7816091775894165 0.1341189742088318
0.7524601221084595 0.4568113088607788 0.16943682730197906
0.6163729429244995 0.9186646938323975 0.017684338614344597
0.5332960486412048 0.6494767069816589 -0.09889386594295502
0.6081455945968628 0.581976056098938 -0.016748415306210518
0.7461735010147095 0.5037736892700195 0.12776704132556915
0.6459704637527466 0.4834544062614441 0.04133281856775284
0.6253511905670166 0.48425164818763733 0.0336490124464035
0.6304206252098083 0.7662405967712402 0.01579856500029564
0.7571912407875061 0.6517075300216675 0.1069866344332695
0.5706502199172974 0.9648451805114746 0.012551004067063332
0.6417283415794373 0.9211734533309937 0.07137750834226608
0.6698004603385925 0.8932756185531616 0.10232355445623398
0.6062458753585815 0.482913613319397 0.03048720955848694
0.5885658264160156 0.47961491346359253 0.032358888536691666
0.5780181884765625 0.4778956174850464 0.03653595224022865
0.7354462146759033 0.46381789445877075 0.10594732314348221
0.5924550890922546 0.46383899450302124 0.03188144043087959
0.611592710018158 0.4599725306034088 0.0281355082988739
0.6308431625366211 0.4593815207481384 0.03091592714190483
0.6508685350418091 0.4633842706680298 0.0380861796438694
0.6642488241195679 0.4692450761795044 0.047068629413843155
0.7636210918426514 0.44740334153175354 0.2382972091436386
0.6599281430244446 0.48177382349967957 0.04995016008615494
0.6100005507469177 0.6784037947654724 -0.03927222266793251
0.5837097764015198 0.6291508674621582 -0.07512053847312927
0.559523344039917 0.6733943223953247 -0.06984719634056091
0.6768198609352112 0.854470431804657 0.08017707616090775
0.6474477648735046 0.8861410617828369 0.0506223663687706
0.5730960965156555 0.9417365789413452 -0.012202071025967598
0.7247829437255859 0.8178040981292725 0.18329451978206635
0.579479992389679 0.4710069000720978 0.03490358218550682
0.553943395614624 0.5311926603317261 -0.060543715953826904
0.6107867956161499 0.9462466239929199 0.03780728206038475
0.7704399228096008 0.6761621832847595 0.18328619003295898
0.5765877962112427 0.7872890830039978 -0.018325282260775566
0.5819793343544006 0.7935081720352173 -0.022060703486204147
0.5872384905815125 0.8031832575798035 -0.025308910757303238
0.5913479328155518 0.8158982396125793 -0.02165074087679386
0.5963844656944275 0.8359121680259705 -0.007471963297575712
0.6180038452148438 0.7337540984153748 0.0016934630693867803
0.6265912055969238 0.7305189371109009 0.003422793233767152
0.634009599685669 0.7260670065879822 0.004079845733940601
0.6522030830383301 0.712249219417572 0.009860720485448837
0.7293215990066528 0.6602474451065063 0.053963832557201385
0.5498960018157959 0.5058075189590454 -0.03576193377375603
0.555212676525116 0.46091562509536743 0.017463792115449905
0.5693628191947937 0.4628796875476837 0.029610520228743553
0.6107023358345032 0.7309602499008179 0.0031003025360405445
0.7308878898620605 0.7325929403305054 0.09125185012817383
0.5388531684875488 0.46125322580337524 -0.020318392664194107
0.6035600900650024 0.8575941324234009 0.0019625136628746986
0.5382261872291565 0.5168865919113159 -0.07915659248828888
0.5730708837509155 0.5706124901771545 -0.06239635869860649
0.5637049674987793 0.8807325959205627 -0.019290070980787277
0.6561450362205505 0.7873104810714722 0.037867579609155655
0.625138521194458 0.6354983448982239 -0.013148274272680283
0.6324278116226196 0.8259596824645996 0.021978650242090225
0.678253173828125 0.6339330673217773 0.0027954131364822388
0.648578941822052 0.6629558801651001 -0.0026365863159298897
0.6984635591506958 0.677573025226593 0.027851957827806473
0.5707215666770935 0.9118945598602295 -0.020129099488258362
0.5880433917045593 0.5837146043777466 -0.04389626905322075
0.6719945073127747 0.8151828050613403 0.057080794125795364
0.6424779295921326 0.8523033261299133 0.036140941083431244
0.6756216287612915 0.746435284614563 0.040251102298498154
0.7516754865646362 0.7009879350662231 0.11291654407978058
0.7021039724349976 0.7590426206588745 0.06238536164164543
0.7578796148300171 0.732537567615509 0.16790300607681274
0.6691051125526428 0.6942867636680603 0.014439393766224384
0.5687347054481506 0.5481454133987427 -0.04196888953447342
0.5786285996437073 0.6229498982429504 -0.10522934794425964
0.5939725637435913 0.625883936882019 -0.07773569971323013
0.568597137928009 0.6056410074234009 -0.12462872266769409
0.5714564323425293 0.44339990615844727 0.014231174252927303
0.6086989045143127 0.43247953057289124 0.011900460347533226
0.6425208449363708 0.4318854808807373 0.014852596446871758
0.6710480451583862 0.43796560168266296 0.026542361825704575
0.6905920505523682 0.44962891936302185 0.04357144981622696
0.7047710418701172 0.48818451166152954 0.08103278279304504
0.7726726531982422 0.5601658821105957 0.1946236491203308
0.6888225078582764 0.5148934721946716 0.05851855129003525
0.6648445725440979 0.519684910774231 0.0407378189265728
0.6331470608711243 0.5192854404449463 0.027729734778404236
0.6029191613197327 0.5140490531921387 0.022797120735049248
0.5802148580551147 0.5061514377593994 0.018092183396220207
0.5651390552520752 0.4979073107242584 0.016024217009544373
0.7652008533477783 0.569671630859375 0.28544363379478455
0.5931524038314819 0.6312260627746582 -0.06582015007734299
0.5572397112846375 0.554020345211029 -0.08302344381809235
0.5632448196411133 0.62581467628479 -0.12724287807941437
0.549039900302887 0.6394922137260437 -0.11985068768262863
0.5621312260627747 0.6304460763931274 -0.11527286469936371
0.5872599482536316 0.6385751366615295 -0.05852752923965454
0.5453115105628967 0.6422245502471924 -0.12710675597190857
0.541474461555481 0.6473119258880615 -0.09825601428747177
0.5647919178009033 0.47757357358932495 0.031067851930856705
0.5533640384674072 0.4844520688056946 0.012568840757012367
0.5486742854118347 0.48896491527557373 -0.009115162305533886
0.6726678013801575 0.4736412465572357 0.05531814694404602
0.6868562698364258 0.4664451479911804 0.05744970217347145
