ply
format ascii 1.0
element vertex 468
property float x
property float y
property float z
end_header
0.5412895679473877 0.7123024463653564 -0.0528716966509819
0.5731981992721558 0.6404486894607544 -0.1257191300392151
0.5468948483467102 0.6627827286720276 -0.06098570302128792
0.5354026556015015 0.5558874011039734 -0.11340504139661789
0.5750373601913452 0.6143446564674377 -0.13617241382598877
0.5672092437744141 0.5799928903579712 -0.13013923168182373
0.539381742477417 0.4966440796852112 -0.0786089301109314
0.32407283782958984 0.49148520827293396 -0.05713030695915222
0.5321030020713806 0.44083207845687866 -0.07073219120502472
0.5339851379394531 0.40767431259155273 -0.07998554408550262
0.5191472172737122 0.2699773907661438 -0.07014670968055725
0.5389684438705444 0.7234029173851013 -0.04881131276488304
0.534942626953125 0.7308449149131775 -0.04068753868341446
0.5296758413314819 0.7328187823295593 -0.029702097177505493
0.5310112237930298 0.7426040172576904 -0.024134904146194458
0.5329412817955017 0.7520071268081665 -0.027128666639328003
0.5336611270904541 0.764378547668457 -0.031022442504763603
0.5323967933654785 0.7793170213699341 -0.02598745934665203
0.5251410007476807 0.8086009621620178 -0.0006491360254585743
0.5660553574562073 0.6534065008163452 -0.11223386973142624
0.5311088562011719 0.6521726846694946 -0.08731724321842194
0.15586821734905243 0.38452160358428955 0.001428541261702776
0.40534189343452454 0.5092868804931641 -0.0523255281150341
0.3786427974700928 0.5123463869094849 -0.060263246297836304
0.35082027316093445 0.5118337869644165 -0.06316956877708435
0.30747222900390625 0.49985814094543457 -0.056608833372592926
0.4270375967025757 0.5023398995399475 -0.04053986817598343
0.3708497881889343 0.45218080282211304 -0.08088594675064087
0.39819276332855225 0.4521576762199402 -0.06771861016750336
0.34346020221710205 0.4563092589378357 -0.08150213956832886
0.32269197702407837 0.46450379490852356 -0.07654192298650742
0.27957087755203247 0.515302300453186 -0.04923935607075691
0.42067229747772217 0.8658156394958496 -0.00325022847391665
0.3107205629348755 0.48666730523109436 -0.053472500294446945
0.14802269637584686 0.5026248097419739 0.02496938593685627
0.23782336711883545 0.5000818371772766 -0.03826111555099487
0.39249345660209656 0.6133019924163818 -0.0625360906124115
0.5074334740638733 0.7098714709281921 -0.062892846763134
0.5029292702674866 0.7315722703933716 -0.0485340878367424
0.4657743275165558 0.7157082557678223 -0.0610966794192791
0.433761328458786 0.7221299409866333 -0.05067169666290283
0.4720934331417084 0.7319899201393127 -0.04920147731900215
0.44539469480514526 0.7325201034545898 -0.03870193287730217
0.3896656930446625 0.7620262503623962 -0.01767433062195778
0.5511792302131653 0.6408552527427673 -0.13020282983779907
0.5500324964523315 0.6151193380355835 -0.14103420078754425
0.27572208642959595 0.44181475043296814 -0.08970655500888824
0.44656404852867126 0.5497843623161316 -0.05713167414069176
0.464668869972229 0.6289495229721069 -0.09449034184217453
0.4589245021343231 0.6142040491104126 -0.08932171761989594
0.29555580019950867 0.6114950180053711 -0.06534931063652039
0.5436676740646362 0.5830241441726685 -0.1325916051864624
0.36135241389274597 0.4151519238948822 -0.10766932368278503
0.31500929594039917 0.4240405559539795 -0.1039988100528717
0.20688867568969727 0.33807966113090515 -0.04021558165550232
0.4814688563346863 0.4359695315361023 -0.08442967385053635
0.4212420880794525 0.45790544152259827 -0.05062582343816757
0.3659697473049164 0.7376952171325684 -0.02561601810157299
0.14201080799102783 0.7576664090156555 0.12919482588768005
0.48174533247947693 0.6435957551002502 -0.07634535431861877
0.5044765472412109 0.6516958475112915 -0.06684033572673798
0.3934347629547119 0.7320089936256409 -0.01891164854168892
0.4040319323539734 0.7313499450683594 -0.019153648987412453
0.2936914265155792 0.40601739287376404 -0.09922991693019867
0.45702555775642395 0.6375237107276917 -0.07912345975637436
0.4175446927547455 0.41800183057785034 -0.10134971886873245
0.4134809374809265 0.39574915170669556 -0.11015330255031586
0.3585020899772644 0.27926722168922424 -0.09605720639228821
0.2531954050064087 0.3708968758583069 -0.0745401456952095
0.3913455009460449 0.33458831906318665 -0.10399559885263443
0.24877527356147766 0.4288155436515808 -0.0769968330860138
0.20418256521224976 0.4080803394317627 -0.04001827538013458
0.5054458379745483 0.7233335375785828 -0.05860595032572746
0.4707060754299164 0.7259436249732971 -0.05589527264237404
0.44088536500930786 0.7277995347976685 -0.04627290740609169
0.4865729510784149 0.6473960876464844 -0.06716854125261307
0.399234801530838 0.7314450144767761 -0.018707510083913803
0.41721105575561523 0.7391133904457092 -0.02468077838420868
0.4054640233516693 0.7314345240592957 -0.019061818718910217
0.5078878998756409 0.6401505470275879 -0.10932038724422455
0.4454745650291443 0.7299827337265015 -0.03317965939640999
0.47185397148132324 0.7316360473632812 -0.038016755133867264
0.5001739263534546 0.7329398393630981 -0.038359206169843674
0.4898619055747986 0.8093526363372803 -0.010574317537248135
0.4991716146469116 0.7783970832824707 -0.036472491919994354
0.5017567276954651 0.7631625533103943 -0.04113474115729332
0.5023974776268005 0.7508777379989624 -0.03676002472639084
0.5021509528160095 0.7430312037467957 -0.032905012369155884
0.4456786513328552 0.7385765910148621 -0.028339095413684845
0.4432825446128845 0.7411749362945557 -0.03176933899521828
0.43956881761550903 0.7475483417510986 -0.03481188789010048
0.4349539577960968 0.7566562294960022 -0.031711407005786896
0.41235774755477905 0.6995116472244263 -0.05111457034945488
0.10494944453239441 0.6216232776641846 0.13615398108959198
0.5569901466369629 0.6579375267028809 -0.07976943999528885
0.42637205123901367 0.7363786697387695 -0.022020498290657997
0.4226258099079132 0.7364721894264221 -0.024225754663348198
0.5133714079856873 0.6626546382904053 -0.0653192549943924
0.4606834650039673 0.6514242887496948 -0.0533129945397377
0.5094043016433716 0.6575133800506592 -0.06656067073345184
0.41643860936164856 0.5636329054832458 -0.057791855186223984
0.370791494846344 0.5804502367973328 -0.06469721347093582
0.44904908537864685 0.6235824823379517 -0.07526522874832153
0.2732453942298889 0.30187058448791504 -0.07473600655794144
0.3138790726661682 0.3451588749885559 -0.09455328434705734
0.3499171733856201 0.39328956604003906 -0.10944614559412003
0.41733652353286743 0.782531201839447 -0.01946808397769928
0.4763696789741516 0.40191173553466797 -0.09960175305604935
0.45928955078125 0.33343055844306946 -0.09754381328821182
0.43724825978279114 0.2696821391582489 -0.09288360923528671
0.323946475982666 0.5081537365913391 -0.061165038496255875
0.24322547018527985 0.5329240560531616 -0.042958732694387436
0.4407859444618225 0.4956718981266022 -0.03450635448098183
0.28339946269989014 0.4722999930381775 -0.06702405214309692
0.4683816134929657 0.5346049070358276 -0.06180589646100998
0.4911966025829315 0.6229998469352722 -0.11378859728574753
0.20012515783309937 0.5517656207084656 -0.02646549791097641
0.27197182178497314 0.5490679740905762 -0.056568827480077744
0.3165690302848816 0.55680912733078 -0.06388743966817856
0.37315958738327026 0.5528227090835571 -0.057635094970464706
0.41204366087913513 0.5424676537513733 -0.049957700073719025
0.440650075674057 0.5309865474700928 -0.04735781252384186
0.5135204195976257 0.5030533075332642 -0.07904859632253647
0.2046453207731247 0.6061373353004456 -0.026030365377664566
0.2530563473701477 0.4682694971561432 -0.06558595597743988
0.5526790618896484 0.6532129645347595 -0.11611266434192657
0.4536515474319458 0.575069785118103 -0.0628964751958847
0.10516038537025452 0.4981685280799866 0.09854679554700851
0.46300557255744934 0.5180895328521729 -0.04577183350920677
0.43893203139305115 0.6237916946411133 -0.04966028407216072
0.29763638973236084 0.4873029887676239 -0.05274038016796112
0.48395732045173645 0.6046926975250244 -0.10666006803512573
0.11545643210411072 0.6886719465255737 0.13766518235206604
0.4372849464416504 0.48777300119400024 -0.03144466504454613
0.514874279499054 0.591620147228241 -0.12483925372362137
0.2582223415374756 0.8166685700416565 0.035894300788640976
0.24117271602153778 0.85169517993927 0.0804896280169487
0.14394287765026093 0.6175225377082825 0.05147506296634674
0.20722055435180664 0.7826055288314819 0.04773549735546112
0.17277079820632935 0.45049959421157837 -0.0024471229407936335
0.41070982813835144 0.8982532620429993 0.009977796114981174
0.546829104423523 0.6572293639183044 -0.08122795075178146
0.4261779189109802 0.5924233198165894 -0.05857257544994354
0.202235609292984 0.5047562122344971 -0.023308040574193
0.3567020893096924 0.4975877106189728 -0.06117081642150879
0.3809671401977539 0.4985414743423462 -0.05950233340263367
0.4104480445384979 0.7440600395202637 -0.02298467606306076
0.20236577093601227 0.6608960628509521 -0.0077852834947407246
0.45840057730674744 0.9313167333602905 0.035996247082948685
0.35554271936416626 0.9057478904724121 0.04983609914779663
0.3038496971130371 0.8845343589782715 0.06248125806450844
0.5281488299369812 0.3359457552433014 -0.07679915428161621
0.5129450559616089 0.9294578433036804 0.05039419233798981
0.4018653929233551 0.49598318338394165 -0.05241284519433975
0.4210503399372101 0.4912685751914978 -0.04276703670620918
0.4323261082172394 0.4889640510082245 -0.03436490520834923
0.2207791954278946 0.4617847800254822 -0.04948508366942406
0.41491779685020447 0.47525185346603394 -0.04982829466462135
0.3919488489627838 0.4716394543647766 -0.062124885618686676
0.3709409534931183 0.4720683991909027 -0.06918399035930634
0.34815239906311035 0.47601187229156494 -0.07070786505937576
0.3320346772670746 0.48085978627204895 -0.06685980409383774
0.12385839223861694 0.4341955780982971 0.053156740963459015
0.33858412504196167 0.49483099579811096 -0.05997935310006142
0.54332435131073 0.6787456274032593 -0.05204048007726669
0.4450328052043915 0.6858218908309937 -0.05707555264234543
0.4849879741668701 0.6412639617919922 -0.08531835675239563
0.5068527460098267 0.6806474328041077 -0.06241818517446518
0.5307011008262634 0.4670094847679138 -0.06540036201477051
0.31109869480133057 0.849514365196228 0.03130558133125305
0.3587261736392975 0.8756517767906189 0.022704100236296654
0.46703243255615234 0.9100205898284912 0.004975469782948494
0.18733371794223785 0.8121987581253052 0.10586883872747421
0.43085038661956787 0.4825090169906616 -0.03962421417236328
0.5008827447891235 0.543562114238739 -0.08611904084682465
0.5229647159576416 0.9088526368141174 0.01988404430449009
0.40745076537132263 0.9223673939704895 0.036249589174985886
0.14938493072986603 0.6779965758323669 0.05948944762349129
0.47309744358062744 0.7410493493080139 -0.032893694937229156
0.4710068702697754 0.7467325925827026 -0.03721999377012253
0.468965083360672 0.7561725378036499 -0.04097982123494148
0.46600741147994995 0.770380437374115 -0.037114206701517105
0.45106685161590576 0.7989590167999268 -0.02014860138297081
0.4196179211139679 0.7316571474075317 -0.029544653370976448
0.41419717669487 0.7295755743980408 -0.03341938555240631
0.4072478711605072 0.726066529750824 -0.036638468503952026
0.3826712965965271 0.7161563038825989 -0.04185139387845993
0.25737351179122925 0.6713424921035767 -0.03981528431177139
0.49145781993865967 0.5174237489700317 -0.06859057396650314
0.4640822410583496 0.47037583589553833 -0.038536764681339264
0.4439305365085602 0.47360771894454956 -0.03855497017502785
0.42203712463378906 0.7288106679916382 -0.025549115613102913
0.2386581152677536 0.7383989095687866 0.002812030026689172
0.49470916390419006 0.47072309255599976 -0.061314117163419724
0.43367573618888855 0.8320605158805847 -0.009210353717207909
0.5575291514396667 0.5516318082809448 -0.1117861196398735
0.5245872735977173 0.5309019684791565 -0.09751389175653458
0.5486652255058289 0.5251947641372681 -0.09452582150697708
0.4825505316257477 0.5822516679763794 -0.0861019417643547
0.5272106528282166 0.8784290552139282 0.0037458331789821386
0.5262206196784973 0.8409393429756165 0.0011822311207652092
0.48201483488082886 0.8427984714508057 -0.008143999613821507
0.36126694083213806 0.7821346521377563 -0.011020532809197903
0.41314268112182617 0.6445344686508179 -0.0497700497508049
0.3944547474384308 0.8115862607955933 -0.008532734587788582
0.34199050068855286 0.6449078321456909 -0.0636005625128746
0.3826482594013214 0.670816957950592 -0.051517192274332047
0.30694055557250977 0.6877492666244507 -0.048242323100566864
0.474679172039032 0.8796008229255676 -0.00887493696063757
0.459233820438385 0.5944833755493164 -0.07225235551595688
0.33102697134017944 0.8119821548461914 0.004771779756993055
0.37487491965293884 0.8418490886688232 0.005638668313622475
0.33666062355041504 0.7495667934417725 -0.024363934993743896
0.20339058339595795 0.7079305052757263 0.010250402614474297
0.28957808017730713 0.7630503177642822 -0.01088591106235981
0.16616517305374146 0.7334002256393433 0.06133255362510681
0.35145047307014465 0.7020921111106873 -0.04613760858774185
0.4773218333721161 0.5591212511062622 -0.0734480544924736
0.5010183453559875 0.6357296705245972 -0.11594714224338531
0.4739338755607605 0.6384748816490173 -0.09205948561429977
0.5207746624946594 0.6189388632774353 -0.1306139975786209
0.44727620482444763 0.45233431458473206 -0.056611403822898865
0.40725088119506836 0.44097787141799927 -0.07749506831169128
0.370045006275177 0.4388745427131653 -0.09015589207410812
0.334903746843338 0.4430426359176636 -0.09169349819421768
0.30487439036369324 0.45403096079826355 -0.08416619151830673
0.27191293239593506 0.49358242750167847 -0.048345960676670074
0.1429772824048996 0.5596469640731812 0.037464212626218796
0.30059897899627686 0.5251104831695557 -0.05455465242266655
0.334284245967865 0.531323254108429 -0.05814475566148758
0.37360209226608276 0.5308734178543091 -0.055136799812316895
0.40825289487838745 0.524655818939209 -0.04745565354824066
0.43410104513168335 0.5157279968261719 -0.03929553180932999
0.4519999623298645 0.5076882243156433 -0.035554371774196625
0.10254460573196411 0.5593220591545105 0.12395251542329788
0.469612181186676 0.6429031491279602 -0.07881341874599457
0.5097416639328003 0.566814661026001 -0.10221564769744873
0.5280736684799194 0.6382464170455933 -0.12642450630664825
0.5351354479789734 0.6498293876647949 -0.10973931103944778
0.5221748352050781 0.6422616243362427 -0.11471575498580933
0.47322016954421997 0.6492043137550354 -0.0656513199210167
0.5429551005363464 0.6517384052276611 -0.11419456452131271
0.5376812219619751 0.6559603810310364 -0.08424779027700424
0.44911473989486694 0.4884452819824219 -0.028964169323444366
0.4664461016654968 0.4943353831768036 -0.03556416183710098
0.4800460934638977 0.4992513060569763 -0.04862432926893234
0.32104766368865967 0.48434698581695557 -0.06162074953317642
0.3035137355327606 0.47394871711730957 -0.06588105857372284
0.5740634202957153 0.5546683073043823 -0.09301098436117172
0.6587395071983337 0.48112207651138306 0.0925571545958519
0.5748794078826904 0.6491281986236572 -0.07161859422922134
0.6924045085906982 0.3885907828807831 0.23123790323734283
0.5970548987388611 0.5041065216064453 0.04386944696307182
0.619541347026825 0.5053948163986206 0.055339179933071136
0.6402398347854614 0.5036129355430603 0.07067742943763733
0.6628786325454712 0.4891936182975769 0.10175106674432755
0.5799804925918579 0.49844875931739807 0.03466491773724556
0.6330745816230774 0.44863826036453247 0.04045044258236885
0.609478771686554 0.4507454037666321 0.027483494952321053
0.6530874371528625 0.4509007930755615 0.05853746458888054
0.6639980673789978 0.4573536813259125 0.07496696710586548
0.6774016618728638 0.50544673204422 0.12136365473270416
0.5978994369506836 0.8471155762672424 0.0665142610669136
0.664026141166687 0.47604143619537354 0.10308139026165009
0.6971262693405151 0.49427086114883423 0.25908413529396057
0.6904738545417786 0.49015435576438904 0.15335442125797272
0.6344691514968872 0.6057047843933105 0.03486348316073418
0.5683624148368835 0.7064454555511475 -0.037745580077171326
0.5575371980667114 0.728526771068573 -0.025327695533633232
0.5899221897125244 0.7084130048751831 -0.00954256858676672
0.5998388528823853 0.713729739189148 0.02036885917186737
0.5728787779808044 0.726233959197998 -0.004029968287795782
0.5829343795776367 0.7257669568061829 0.021785106509923935
0.6096664667129517 0.7492256164550781 0.07474227994680405
0.5899606347084045 0.6387109160423279 -0.11704621464014053
0.593532145023346 0.613644003868103 -0.1255883276462555
0.6945990920066833 0.4344450831413269 0.090644471347332
0.5871930122375488 0.5462998747825623 0.00572599284350872
0.6134823560714722 0.6230245232582092 -0.03559866175055504
0.6096579432487488 0.6088347434997559 -0.02851083129644394
0.6902240514755249 0.5989912152290344 0.09632900357246399
0.5847710371017456 0.5816961526870728 -0.11263304948806763
0.6614104509353638 0.4133073091506958 0.017086585983633995
0.6842138767242432 0.41924476623535156 0.052838344126939774
0.6887869834899902 0.34506845474243164 0.16598325967788696
0.5744108557701111 0.43609970808029175 -0.04343225061893463
0.5880351066589355 0.4573461413383484 0.02646521106362343
0.6277534365653992 0.7246336936950684 0.08610665053129196
0.6573213338851929 0.7257430553436279 0.34309741854667664
0.5964717268943787 0.6379514932632446 -0.03247278928756714
0.579352080821991 0.6481174230575562 -0.04485221207141876
0.605298638343811 0.7233411073684692 0.07726941257715225
0.5942301750183105 0.7238386869430542 0.06568508595228195
0.691901445388794 0.4021914005279541 0.067923903465271
0.6082834601402283 0.6316927075386047 -0.021588120609521866
0.625944197177887 0.41765522956848145 -0.015546680428087711
0.6322240829467773 0.3961673080921173 -0.021859588101506233
0.6368981599807739 0.28658974170684814 0.02219185046851635
0.691166341304779 0.3724299967288971 0.11001087725162506
0.6345385909080505 0.33842459321022034 -0.002115937415510416
0.7002440690994263 0.4230421781539917 0.11621035635471344
0.6976323127746582 0.4072192311286926 0.16951274871826172
0.5641466379165649 0.719712495803833 -0.03369993343949318
0.5813867449760437 0.7193824648857117 -0.007340291980654001
0.5920537710189819 0.7200967669487 0.019007589668035507
0.5896728038787842 0.64239102602005 -0.03145162761211395
0.6001641154289246 0.723487377166748 0.07056847214698792
0.5934809446334839 0.731131374835968 0.050526298582553864
0.5899791121482849 0.7238643169403076 0.06369811296463013
0.5980646014213562 0.6343399286270142 -0.06907425075769424
0.5750460028648376 0.7245464324951172 0.024419980123639107
0.5644997358322144 0.7270097732543945 0.004426378756761551
0.5499441623687744 0.7305688858032227 -0.014682929031550884
0.5538115501403809 0.8039986491203308 0.012750578112900257
0.5581815838813782 0.7743569612503052 -0.011289915069937706
0.558144211769104 0.7592307925224304 -0.015221496112644672
0.5558021664619446 0.7473436594009399 -0.011111875995993614
0.5519502758979797 0.7398781776428223 -0.008442551828920841
0.5776586532592773 0.7318840026855469 0.02925271913409233
0.5819331407546997 0.7342666387557983 0.02580532804131508
0.586662769317627 0.7395727634429932 0.024938389658927917
0.5902726650238037 0.7478036880493164 0.03261459991335869
0.6205591559410095 0.6903784871101379 0.03070625104010105
0.66761314868927 0.6031435132026672 0.3751313388347626
0.5828752517700195 0.7293213605880737 0.05005109682679176
0.5885570049285889 0.728961169719696 0.048333942890167236
0.572204053401947 0.6595818400382996 -0.04356910288333893
0.597118616104126 0.646163821220398 -0.007790252100676298
0.5758367776870728 0.6543430089950562 -0.045304108411073685
0.6071993112564087 0.5585358738899231 0.0269527155905962
0.6434998512268066 0.5729995369911194 0.05017881840467453
0.6085854172706604 0.618149995803833 -0.012481380254030228
0.6726112365722656 0.31044527888298035 0.0932181254029274
0.6714935302734375 0.3483676612377167 0.053964558988809586
0.6682766079902649 0.3920971751213074 0.023106200620532036
0.5966289639472961 0.7700992822647095 0.05626033619046211
0.5858793258666992 0.4034699499607086 -0.05489139258861542
0.5882395505905151 0.3357444405555725 -0.044635359197854996
0.5876310467720032 0.27432775497436523 -0.0333804227411747
0.6557157039642334 0.4981333017349243 0.0883910208940506
0.6956111788749695 0.5223949551582336 0.1466824859380722
0.5702598690986633 0.4923931062221527 0.032520633190870285
0.6802574396133423 0.46289312839508057 0.10654864460229874
0.5752813220024109 0.5320029258728027 -0.011516882106661797
0.6101354360580444 0.6177248954772949 -0.06604771316051483
0.7086524963378906 0.5392279624938965 0.1884538233280182
0.6905245780944824 0.5386161804199219 0.12145385891199112
0.6708263158798218 0.5480561852455139 0.08743514120578766
0.6323968768119812 0.5461719036102295 0.05765797197818756
0.6018450260162354 0.5375916957855225 0.037394486367702484
0.5810523629188538 0.5274925231933594 0.018052445724606514
0.5574226379394531 0.5024771690368652 -0.05760369449853897
0.7148165106773376 0.5897994637489319 0.18792873620986938
0.6920382976531982 0.4596894383430481 0.12464240938425064
0.5764223337173462 0.6517225503921509 -0.1057092547416687
0.5915359854698181 0.5713694095611572 -0.0018144092755392194
0.6763986945152283 0.49235689640045166 0.34533828496932983
0.5675498247146606 0.5157285928726196 0.005055062007158995
0.603626549243927 0.6184961199760437 0.012511588633060455
0.668358325958252 0.476965993642807 0.11162819713354111
0.60431307554245 0.600498378276825 -0.05803100764751434
0.6647477149963379 0.6628544330596924 0.36652302742004395
0.5693193078041077 0.48388755321502686 0.03901166841387749
0.5960347652435303 0.5888500213623047 -0.08952996879816055
0.6591936349868774 0.7841017246246338 0.19530777633190155
0.6395300626754761 0.814949095249176 0.24197804927825928
0.7023620009422302 0.5985097289085388 0.285125732421875
0.6774079203605652 0.7503066062927246 0.235307976603508
0.6967441439628601 0.4470149874687195 0.2214585393667221
0.5987505912780762 0.8762843608856201 0.08548549562692642
0.5655619502067566 0.6564002633094788 -0.07478868216276169
0.6072432994842529 0.5873208045959473 0.016709933057427406
0.6985607743263245 0.4947068691253662 0.18804122507572174
0.6401573419570923 0.48902034759521484 0.06996988505125046
0.6206083297729492 0.4916846752166748 0.05666275694966316
0.5977315902709961 0.7349816560745239 0.057802729308605194
0.711107611656189 0.6399115324020386 0.19859164953231812
0.5584666132926941 0.9184393882751465 0.07791516929864883
0.604408860206604 0.8761496543884277 0.1543414443731308
0.6205698251724243 0.8500797152519226 0.19372428953647614
0.6011621952056885 0.4906895160675049 0.04625171050429344
0.583817183971405 0.4870791435241699 0.0417822040617466
0.573733389377594 0.48511743545532227 0.0415600910782814
0.6979824304580688 0.45479461550712585 0.15564513206481934
0.5869967937469482 0.47142237424850464 0.03717149794101715
0.6053929328918457 0.46694499254226685 0.039091434329748154
0.6254076957702637 0.4650003910064697 0.04880429431796074
0.6442738771438599 0.46690788865089417 0.06346964091062546
0.6548789739608765 0.471094012260437 0.07691865414381027
0.6877226829528809 0.4345221519470215 0.29463082551956177
0.6517810225486755 0.48508957028388977 0.08270208537578583
0.6058245301246643 0.678835928440094 0.005216131918132305
0.6007733345031738 0.6352537870407104 -0.04379487410187721
0.5722638964653015 0.6773697733879089 -0.036795150488615036
0.6366517543792725 0.8181489706039429 0.1602407842874527
0.6175116300582886 0.84706711769104 0.1242000162601471
0.5687973499298096 0.897813081741333 0.04623233526945114
0.6493769884109497 0.7768340110778809 0.29729515314102173
0.5753727555274963 0.4782460927963257 0.03803981840610504
0.575737476348877 0.5415303707122803 -0.05206014961004257
0.5865393280982971 0.8997147679328918 0.11348430812358856
0.6975424289703369 0.6530798077583313 0.2835010886192322
0.5676641464233398 0.7358001470565796 0.010316870175302029
0.5720515847206116 0.7409158945083618 0.007227442692965269
0.5755646228790283 0.7499440908432007 0.0059876576997339725
0.5778923034667969 0.7631297707557678 0.011929110623896122
0.5788241028785706 0.7891178131103516 0.03480010852217674
0.5900535583496094 0.7244572043418884 0.046151965856552124
0.5982340574264526 0.7217079401016235 0.04926536977291107
0.6051793098449707 0.7175548076629639 0.0511302687227726
0.6297675371170044 0.7050787806510925 0.06070747226476669
0.7000970840454102 0.6528674960136414 0.135365292429924
0.5657316446304321 0.5159372091293335 -0.03300507739186287
0.5598411560058594 0.46907347440719604 0.0066100251860916615
0.568446159362793 0.47165897488594055 0.025974122807383537
0.5826753973960876 0.7224498391151428 0.04699242487549782
0.6881793737411499 0.7129640579223633 0.1799909472465515
0.552754282951355 0.4702145457267761 -0.034846462309360504
0.5877184867858887 0.8173906207084656 0.05126013979315758
0.5664666891098022 0.5298994779586792 -0.07934258133172989
0.5905592441558838 0.5789406299591064 -0.041310109198093414
0.5607293844223022 0.8346636295318604 0.021361537277698517
0.6270387172698975 0.7635291218757629 0.09552598744630814
0.6190332174301147 0.6370903849601746 0.029268700629472733
0.607456386089325 0.7935932874679565 0.07586144655942917
0.6684067845344543 0.6327896118164062 0.06232788786292076
0.6391490697860718 0.6606646180152893 0.04813585430383682
0.6798682808876038 0.670996367931366 0.09577339887619019
0.5695000886917114 0.8691223859786987 0.029484763741493225
0.59601229429245 0.5904315710067749 -0.016184745356440544
0.6395928263664246 0.7863398790359497 0.1273883879184723
0.6167281866073608 0.8181881904602051 0.0997084453701973
0.6471370458602905 0.7315680980682373 0.10481564700603485
0.7014855146408081 0.6829685568809509 0.20783524215221405
0.6670776009559631 0.7385940551757812 0.13826829195022583
0.6891465187072754 0.703970193862915 0.2738598883152008
0.6514720320701599 0.6890707612037659 0.0726742222905159
0.5826932787895203 0.5562238097190857 -0.02519168332219124
0.6055381298065186 0.6298397183418274 -0.07263323664665222
0.6090461611747742 0.6321119070053101 -0.0421544685959816
0.6041523218154907 0.6149428486824036 -0.09551957994699478
0.5791183114051819 0.45071372389793396 0.005716050509363413
0.6153870224952698 0.43843793869018555 0.01402538362890482
0.6456199884414673 0.43542855978012085 0.029732272028923035
0.6679071187973022 0.43822985887527466 0.053898394107818604
0.6792818307876587 0.4468419551849365 0.07881265878677368
0.6782629489898682 0.4833381175994873 0.1273515671491623
0.7020840644836426 0.5459226965904236 0.27655190229415894
0.6704086065292358 0.5154818296432495 0.105618417263031
0.6524538993835449 0.5232031345367432 0.0814189463853836
0.6249417662620544 0.524225115776062 0.05937521532177925
0.5976189374923706 0.5195496678352356 0.04269065335392952
0.5779175162315369 0.5121837854385376 0.028419243171811104
0.5658760070800781 0.5050053000450134 0.019372858107089996
0.6684867143630981 0.547511637210846 0.36972472071647644
0.6033095717430115 0.6370535492897034 -0.030184831470251083
0.5845634937286377 0.5647519826889038 -0.06708292663097382
0.5998505353927612 0.6333925127983093 -0.09872137755155563
0.5818202495574951 0.6460477113723755 -0.09366293251514435
0.5941727757453918 0.6368022561073303 -0.08646588772535324
0.5947571396827698 0.6441370248794556 -0.024970190599560738
0.5813993811607361 0.6491797566413879 -0.10112745314836502
0.5713746547698975 0.6536766290664673 -0.07326788455247879
0.5637717247009277 0.4856622517108917 0.029421767219901085
0.5567383170127869 0.4926570653915405 0.0077798329293727875
0.5574448108673096 0.49801573157310486 -0.012603219598531723
0.6606025099754333 0.4740215241909027 0.08864816278219223
0.6705467700958252 0.46477577090263367 0.09423910826444626
