ply
format ascii 1.0
element vertex 468
property float x
property float y
property float z
end_header
0.5138334631919861 0.6674359440803528 -0.09890152513980865
0.5231977105140686 0.5784395933151245 -0.13260315358638763
0.5159283876419067 0.6151929497718811 -0.08431673049926758
0.4982627332210541 0.5246624946594238 -0.0817471295595169
0.5242528319358826 0.5569042563438416 -0.13482040166854858
0.5227067470550537 0.5359440445899963 -0.1172591969370842
0.516754150390625 0.49180668592453003 -0.028729960322380066
0.32985198497772217 0.5122292041778564 0.0514293797314167
0.515870213508606 0.4511913061141968 0.004637477453798056
0.516662061214447 0.42468953132629395 0.011244779452681541
0.5143523812294006 0.3460846543312073 0.07403526455163956
0.5132032632827759 0.6789247989654541 -0.09760233759880066
0.5120812654495239 0.6894062757492065 -0.09133777022361755
0.510491669178009 0.6953039765357971 -0.08255867660045624
0.5096466541290283 0.7016246914863586 -0.08819758147001266
0.5098696351051331 0.7087821960449219 -0.09497054666280746
0.5098687410354614 0.7196562886238098 -0.10466497391462326
0.5090763568878174 0.7340445518493652 -0.10754688829183578
0.5062015652656555 0.7676864862442017 -0.09556238353252411
0.5210599303245544 0.5935693979263306 -0.12347571551799774
0.4944072663784027 0.5994108319282532 -0.0947522446513176
0.23556697368621826 0.458158016204834 0.1886374056339264
0.4011025130748749 0.5254546403884888 0.028521012514829636
0.37632250785827637 0.5278164148330688 0.0281352661550045
0.3519711494445801 0.5270611047744751 0.0332229807972908
0.3181803822517395 0.5195111632347107 0.05190621316432953
0.42163676023483276 0.5188674330711365 0.034283366054296494
0.3720122277736664 0.4713638424873352 0.028077056631445885
0.3968883156776428 0.4730522334575653 0.03272043168544769
0.3472200036048889 0.47402656078338623 0.03318482264876366
0.329346239566803 0.4825059473514557 0.040799546986818314
0.2976943850517273 0.5323085784912109 0.059041641652584076
0.3993370532989502 0.814536988735199 -0.0813090056180954
0.3209538459777832 0.5090141892433167 0.060098979622125626
0.2207658886909485 0.542832612991333 0.16329467296600342
0.27020683884620667 0.5224002599716187 0.08628315478563309
0.3788236081600189 0.594189465045929 -0.02625398151576519
0.4772864878177643 0.6636115312576294 -0.0977085679769516
0.47912532091140747 0.6893668174743652 -0.09013424813747406
0.437280535697937 0.673664391040802 -0.08666649460792542
0.4104715883731842 0.686103105545044 -0.07045681029558182
0.44974830746650696 0.6924083232879639 -0.08165019750595093
0.4261014461517334 0.6975386738777161 -0.06600786000490189
0.37423163652420044 0.7301227450370789 -0.049752894788980484
0.501400887966156 0.5785218477249146 -0.13157658278942108
0.49867716431617737 0.5588595271110535 -0.1334153115749359
0.29197555780410767 0.4599277675151825 0.05434856936335564
0.43293747305870056 0.5453776121139526 -0.006930374540388584
0.4301733374595642 0.588302493095398 -0.07772708684206009
0.4276251792907715 0.5805994868278503 -0.06742928922176361
0.30033332109451294 0.598457932472229 0.0011470434255897999
0.4984700381755829 0.5390118360519409 -0.1122950091958046
0.3547470271587372 0.4292815327644348 0.02489340491592884
0.318973183631897 0.43992966413497925 0.03895090892910957
0.26525014638900757 0.4146452844142914 0.15663936734199524
0.46260830760002136 0.4463794231414795 0.007890826091170311
0.41856127977371216 0.47971415519714355 0.04015524685382843
0.35388004779815674 0.7090079188346863 -0.03860224410891533
0.22248631715774536 0.7533139586448669 0.1535203754901886
0.4491901099681854 0.6002219915390015 -0.07097196578979492
0.47208139300346375 0.6081737875938416 -0.07458444684743881
0.3803134262561798 0.706619918346405 -0.03728531301021576
0.3920632004737854 0.7059592008590698 -0.04263962060213089
0.3046380281448364 0.42857179045677185 0.0550621822476387
0.426841676235199 0.6012325286865234 -0.06790493428707123
0.4018961787223816 0.43031471967697144 0.014058939181268215
0.3980732560157776 0.41367727518081665 0.0154638160020113
0.3726746141910553 0.356330931186676 0.08907493948936462
0.28558677434921265 0.4206393361091614 0.09985921531915665
0.38845038414001465 0.38234129548072815 0.05315005034208298
0.27623531222343445 0.455314576625824 0.07726207375526428
0.25639015436172485 0.4578922688961029 0.13138917088508606
0.4777933657169342 0.6778296828269958 -0.09658011794090271
0.44451069831848145 0.6843189001083374 -0.08550010621547699
0.41883382201194763 0.691789448261261 -0.07047393172979355
0.45536547899246216 0.6059830784797668 -0.06624443829059601
0.38652414083480835 0.7062186002731323 -0.03990430757403374
0.4007846415042877 0.7085446119308472 -0.05804833769798279
0.3948602080345154 0.7059486508369446 -0.04308949038386345
0.4683999717235565 0.5855433344841003 -0.09947756677865982
0.430204302072525 0.6978904008865356 -0.06269486248493195
0.45396798849105835 0.6952321529388428 -0.07339175790548325
0.48106515407562256 0.6945004463195801 -0.08136966824531555
0.4684247374534607 0.7656353712081909 -0.0958428606390953
0.47353386878967285 0.7316763997077942 -0.10698322206735611
0.4759177565574646 0.7171791195869446 -0.10401506721973419
0.47777059674263 0.7063652276992798 -0.09378491342067719
0.47973477840423584 0.7007615566253662 -0.08687596023082733
0.4283035397529602 0.7033464908599854 -0.06618506461381912
0.42475348711013794 0.7052320837974548 -0.07244960963726044
0.41923898458480835 0.710867166519165 -0.07937439531087875
0.41345930099487305 0.7194980978965759 -0.07736100256443024
0.39151546359062195 0.6649515628814697 -0.05847020074725151
0.20417258143424988 0.6523452401161194 0.22513507306575775
0.5183721780776978 0.6037033796310425 -0.09654789417982101
0.41251686215400696 0.7059379816055298 -0.05295076221227646
0.40743643045425415 0.7055630683898926 -0.0569748617708683
0.4802165925502777 0.6178225874900818 -0.08093951642513275
0.4338401257991791 0.6173725128173828 -0.05488495156168938
0.4764656126499176 0.6132103800773621 -0.0775841772556305
0.4046638309955597 0.5585054755210876 -0.0054832082241773605
0.3628603219985962 0.5719635486602783 -0.005346831865608692
0.4214558005332947 0.5930206179618835 -0.057292092591524124
0.3089616894721985 0.37963780760765076 0.11985210329294205
0.3274073004722595 0.3942548632621765 0.07440315932035446
0.3459412455558777 0.4141214191913605 0.03545772284269333
0.3989936113357544 0.7445406913757324 -0.0675521120429039
0.4568885266780853 0.4190880060195923 0.0077985371463000774
0.44858986139297485 0.38128137588500977 0.04238017648458481
0.4388067126274109 0.3467084467411041 0.07282102108001709
0.33058005571365356 0.5249975919723511 0.042422421276569366
0.2701716423034668 0.547198474407196 0.0667281374335289
0.43485328555107117 0.5121359825134277 0.03998754546046257
0.30003446340560913 0.4919227957725525 0.05971365049481392
0.45303216576576233 0.5307294130325317 -0.010740951634943485
0.4507787823677063 0.5747218132019043 -0.09659242630004883
0.24077266454696655 0.5665527582168579 0.08522912114858627
0.28729313611984253 0.555769681930542 0.04086160287261009
0.31967028975486755 0.5584560632705688 0.019101649522781372
0.367970734834671 0.5544224381446838 0.0126518364995718
0.4039813280105591 0.5462435483932495 0.012429281137883663
0.43185800313949585 0.5356970429420471 0.011567551642656326
0.4916888177394867 0.49820345640182495 -0.022947227582335472
0.23916518688201904 0.6063675880432129 0.06433551758527756
0.2794204652309418 0.4904918670654297 0.07169821858406067
0.5082272291183472 0.593176007270813 -0.12317892163991928
0.4342098832130432 0.5599766969680786 -0.024866389110684395
0.20749756693840027 0.5567207932472229 0.2413501739501953
0.45259609818458557 0.52297443151474 0.013436813838779926
0.4169018864631653 0.5987333059310913 -0.03389972448348999
0.31076109409332275 0.5084306001663208 0.06333411484956741
0.44787728786468506 0.5660043954849243 -0.08382676541805267
0.2081611454486847 0.7022209167480469 0.19664841890335083
0.43384498357772827 0.5070635676383972 0.04851697012782097
0.47376149892807007 0.550304651260376 -0.10200448334217072
0.27937957644462585 0.778986930847168 0.018420716747641563
0.2769829034805298 0.8171249032020569 0.04988188296556473
0.21144798398017883 0.6297352313995361 0.1441650241613388
0.24755974113941193 0.7546970248222351 0.05507545545697212
0.2383268177509308 0.49824053049087524 0.1552180051803589
0.3915320336818695 0.8449761867523193 -0.0767705962061882
0.5084428787231445 0.6029306650161743 -0.09563443064689636
0.4099203944206238 0.5774355530738831 -0.023156791925430298
0.24797411262989044 0.5308209657669067 0.1078023612499237
0.35546547174453735 0.5160167813301086 0.03804340213537216
0.37726277112960815 0.516901969909668 0.033544838428497314
0.3937207758426666 0.7134690880775452 -0.055325448513031006
0.2375144064426422 0.6500639915466309 0.05636513978242874
0.4407987892627716 0.8837506771087646 -0.07997232675552368
0.35388651490211487 0.8576341271400452 -0.024079250171780586
0.3176991045475006 0.8410003185272217 0.008828368969261646
0.5158869028091431 0.3836519420146942 0.04249992221593857
0.4999345541000366 0.8884749412536621 -0.0838748887181282
0.3974645733833313 0.5152592658996582 0.03482848405838013
0.4159400463104248 0.5117040872573853 0.040216460824012756
0.4275069832801819 0.5089928507804871 0.047299206256866455
0.2606874704360962 0.4912147521972656 0.09608614444732666
0.4144786298274994 0.5025001764297485 0.04064740240573883
0.3941382169723511 0.502468466758728 0.03544856607913971
0.3755646049976349 0.5022792220115662 0.034747619181871414
0.35497966408729553 0.5033369064331055 0.03825642541050911
0.3398631513118744 0.5055171847343445 0.043953247368335724
0.21761232614517212 0.5025262832641602 0.22178669273853302
0.34064167737960815 0.5142219066619873 0.04482616111636162
0.5147188305854797 0.6340017318725586 -0.08455432206392288
0.4187425673007965 0.6491901278495789 -0.0679897889494896
0.45015406608581543 0.594356894493103 -0.07636361569166183
0.475832998752594 0.6369485855102539 -0.08608458936214447
0.5150226354598999 0.47471368312835693 -0.002964526880532503
0.3152186870574951 0.8050499558448792 -0.012862891890108585
0.35108476877212524 0.8254804611206055 -0.044264618307352066
0.44259098172187805 0.8579791188240051 -0.10316786170005798
0.2466435432434082 0.7912541627883911 0.10160242766141891
0.42817747592926025 0.5042266845703125 0.045735202729701996
0.47418564558029175 0.5260217785835266 -0.04303740710020065
0.5030766725540161 0.8636224865913391 -0.10648559033870697
0.3940508961677551 0.8720065951347351 -0.05809897184371948
0.2136494219303131 0.6769144535064697 0.12405803799629211
0.452254980802536 0.7008467316627502 -0.07766706496477127
0.4485477805137634 0.7050193548202515 -0.08475305885076523
0.44478321075439453 0.713473916053772 -0.09315706789493561
0.44103869795799255 0.7266881465911865 -0.09357475489377975
0.4299745559692383 0.7565764784812927 -0.0848594456911087
0.40534132719039917 0.7024553418159485 -0.05277174711227417
0.39775195717811584 0.699859082698822 -0.05275382101535797
0.39004331827163696 0.6965949535369873 -0.05225090682506561
0.3675456643104553 0.6849142909049988 -0.04619511216878891
0.2729035019874573 0.6504033207893372 0.008462473750114441
0.47289371490478516 0.5131475925445557 -0.014866858720779419
0.45657476782798767 0.48720377683639526 0.03859284892678261
0.44022050499916077 0.4934336543083191 0.045307498425245285
0.4107210636138916 0.7009530663490295 -0.05079297721385956
0.2627882659435272 0.7108892798423767 0.024191055446863174
0.48094579577445984 0.48065391182899475 0.009196281433105469
0.41351649165153503 0.7855474948883057 -0.082389235496521
0.5205163955688477 0.5205854177474976 -0.08699072152376175
0.4946121275424957 0.5119953155517578 -0.05315503478050232
0.5187228918075562 0.5064690709114075 -0.05609995499253273
0.4538293182849884 0.5555911660194397 -0.05498148128390312
0.5048790574073792 0.8323671817779541 -0.1124613881111145
0.5056154131889343 0.7979499697685242 -0.1047515720129013
0.45868951082229614 0.7956950664520264 -0.10168497264385223
0.34989601373672485 0.7457402944564819 -0.04223557561635971
0.3944956958293915 0.6187630891799927 -0.03458068147301674
0.37821730971336365 0.7696533799171448 -0.06219702959060669
0.334867000579834 0.6202165484428406 -0.027967067435383797
0.36790931224823 0.6416013240814209 -0.038234300911426544
0.3072411119937897 0.6595744490623474 -0.021112553775310516
0.4485020935535431 0.8281102180480957 -0.10810908675193787
0.4345664978027344 0.5705262422561646 -0.04418023303151131
0.32636767625808716 0.7706748247146606 -0.029319031164050102
0.36182910203933716 0.7947981357574463 -0.05408632010221481
0.3293582797050476 0.7172299027442932 -0.03126918524503708
0.2395050823688507 0.6893485188484192 0.05173468217253685
0.2951987683773041 0.728736162185669 -0.011168532073497772
0.2232626974582672 0.7195414900779724 0.09759341180324554
0.34247463941574097 0.6725572347640991 -0.03569714352488518
0.45459771156311035 0.5430423021316528 -0.03291669115424156
0.46000123023986816 0.5817374587059021 -0.10299442708492279
0.43881845474243164 0.5934760570526123 -0.0816640555858612
0.4742516577243805 0.5648712515830994 -0.11566632241010666
0.4381996691226959 0.4683341085910797 0.03480157628655434
0.39966702461242676 0.4551162123680115 0.030061746016144753
0.3659907579421997 0.45214682817459106 0.027828475460410118
0.33613258600234985 0.45774316787719727 0.033595431596040726
0.31349897384643555 0.4710208773612976 0.04558667913079262
0.2933909296989441 0.5148118734359741 0.07127077877521515
0.21318760514259338 0.5857200622558594 0.1543848067522049
0.3112725019454956 0.5382145047187805 0.045374225825071335
0.3371521830558777 0.5410187244415283 0.031600818037986755
0.37061378359794617 0.5405780076980591 0.023996159434318542
0.40271398425102234 0.5355761051177979 0.02289486862719059
0.42780762910842896 0.5275097489356995 0.026988103985786438
0.4451926648616791 0.5192478895187378 0.028336305171251297
0.2057565450668335 0.6053069233894348 0.24196770787239075
0.43783044815063477 0.6021882891654968 -0.07158474624156952
0.4757508635520935 0.5375126600265503 -0.06908020377159119
0.48179492354393005 0.5780144333839417 -0.120411217212677
0.4951620101928711 0.5928599834442139 -0.11357712745666504
0.4804783761501312 0.5844020843505859 -0.110071562230587
0.4437614977359772 0.6112424731254578 -0.06526283919811249
0.5001601576805115 0.5928053259849548 -0.12020426243543625
0.5001013875007629 0.602295994758606 -0.0951065868139267
0.4441377818584442 0.5049748420715332 0.04552506282925606
0.4589921236038208 0.5069711208343506 0.031104551628232002
0.4684728980064392 0.5063018798828125 0.013168717734515667
0.32954105734825134 0.5072875618934631 0.05055209994316101
0.3142872154712677 0.49351099133491516 0.05239385738968849
0.5415603518486023 0.5258005261421204 -0.0774073600769043
0.6798737049102783 0.5223031044006348 0.08326666057109833
0.5404976606369019 0.600676417350769 -0.091331347823143
0.7475260496139526 0.4760909676551819 0.23782356083393097
0.6117045283317566 0.5321540832519531 0.04887054115533829
0.6356719732284546 0.5358315110206604 0.052625622600317
0.6584526300430298 0.5363919734954834 0.06178831309080124
0.6886569261550903 0.5303224325180054 0.08548565953969955
0.5924232602119446 0.5246442556381226 0.050501748919487
0.6449275016784668 0.4793016314506531 0.053479600697755814
0.6207022070884705 0.4800146222114563 0.052877068519592285
0.668174147605896 0.4834479093551636 0.06280844658613205
0.6833103895187378 0.49289655685424805 0.07295415550470352
0.7053778171539307 0.5448492169380188 0.09521286934614182
0.6028125286102295 0.8187031745910645 -0.06613229960203171
0.6873123645782471 0.519431471824646 0.09322547912597656
0.7580709457397461 0.5594220757484436 0.21286435425281525
0.7271595597267151 0.5361378192901611 0.1270626336336136
0.6373458504676819 0.6021327376365662 -0.005316682625561953
0.5486946702003479 0.6657477021217346 -0.09196646511554718
0.542692244052887 0.6914565563201904 -0.0847221314907074
0.5835866332054138 0.6782158017158508 -0.07538682967424393
0.605056881904602 0.6927019953727722 -0.05468028783798218
0.568345308303833 0.6963325142860413 -0.0714203268289566
0.5876181125640869 0.7031729817390442 -0.05249880254268646
0.6295995712280273 0.7382110953330994 -0.030023567378520966
0.5436850190162659 0.5797060132026672 -0.1287086009979248
0.5479750633239746 0.5602666735649109 -0.1301766335964203
0.7184064388275146 0.4720510244369507 0.09254971146583557
0.5869402289390564 0.5504931211471558 0.006693445146083832
0.5989362001419067 0.5934691429138184 -0.06464919447898865
0.5999031066894531 0.5859584808349609 -0.05417885258793831
0.7062526941299438 0.6112443804740906 0.035613615065813065
0.545380711555481 0.5403380990028381 -0.10805849730968475
0.6687122583389282 0.43804341554641724 0.051583725959062576
0.6988159418106079 0.45043808221817017 0.07231280207633972
0.730236828327179 0.4310028553009033 0.20049075782299042
0.5670198798179626 0.449505090713501 0.01676085777580738
0.5989355444908142 0.48577016592025757 0.05640484765172005
0.6500497460365295 0.7182673811912537 -0.014413826167583466
0.7353084087371826 0.7663553357124329 0.19899019598960876
0.5784817337989807 0.604270875453949 -0.06117040291428566
0.5568898916244507 0.6107213497161865 -0.0698321983218193
0.6257046461105347 0.7150471806526184 -0.016749827191233635
0.6135619282722473 0.7136478424072266 -0.024166584014892578
0.7107272744178772 0.4400399923324585 0.09033634513616562
0.5981454849243164 0.6065966486930847 -0.05504545569419861
0.625942587852478 0.4365996718406677 0.03264350816607475
0.6307103633880615 0.4202069342136383 0.034176722168922424
0.6461588144302368 0.36616894602775574 0.11376466602087021
0.7206053137779236 0.43452557921409607 0.1392184942960739
0.6369682550430298 0.3906022906303406 0.07480017840862274
0.7294741868972778 0.4685989022254944 0.11847148090600967
0.7385356426239014 0.4734992980957031 0.17579984664916992
0.5464206337928772 0.6799497604370117 -0.09093277156352997
0.5754611492156982 0.688754141330719 -0.07450644671916962
0.5961326360702515 0.697830080986023 -0.05596287548542023
0.5716231465339661 0.6095278859138489 -0.05812729522585869
0.6195462942123413 0.714214563369751 -0.020575642585754395
0.6074262857437134 0.7155682444572449 -0.04175995662808418
0.609856367111206 0.71323162317276 -0.025261592119932175
0.5672608613967896 0.5885599851608276 -0.0907120481133461
0.5816246271133423 0.7030242085456848 -0.04985014349222183
0.561802089214325 0.6987618803977966 -0.06382638961076736
0.5381156206130981 0.6963621973991394 -0.07618588209152222
0.5425615310668945 0.7675580978393555 -0.09046366810798645
0.5433283448219299 0.733826220035553 -0.10100110620260239
0.5425147414207458 0.7190898060798645 -0.09803160279989243
0.5407200455665588 0.7081052660942078 -0.08781605958938599
0.5381340384483337 0.7024351358413696 -0.08105725795030594
0.5829868912696838 0.7083249688148499 -0.0536591112613678
0.5868095755577087 0.7105263471603394 -0.05995170772075653
0.5925309658050537 0.71645188331604 -0.06631716340780258
0.5972775220870972 0.7254722714424133 -0.0631256029009819
0.623818576335907 0.6722344756126404 -0.040551211684942245
0.7530484199523926 0.6680089831352234 0.2757166624069214
0.5953443050384521 0.712035059928894 -0.03721768781542778
0.6011273860931396 0.7122475504875183 -0.04121924191713333
0.5486677885055542 0.6196964383125305 -0.07617295533418655
0.5884366631507874 0.6219482421875 -0.044737573713064194
0.5525609254837036 0.6153478622436523 -0.0729314461350441
0.6122267246246338 0.5652830600738525 0.012753540650010109
0.6512011289596558 0.5812904834747314 0.01911589317023754
0.6024922132492065 0.5985963344573975 -0.04355562850832939
0.6986826658248901 0.39368289709091187 0.15554122626781464
0.6891099214553833 0.4058569073677063 0.10626135766506195
0.6772180795669556 0.4236893355846405 0.0637030377984047
0.6070253849029541 0.7504575848579407 -0.051210399717092514
0.5753634572029114 0.42270803451538086 0.01761658675968647
0.5809676647186279 0.38580456376075745 0.0534592904150486
0.5866805911064148 0.35216355323791504 0.08526814728975296
0.6779688000679016 0.5352296233177185 0.07399576157331467
0.728188157081604 0.561293363571167 0.10676432400941849
0.5806391835212708 0.5171661972999573 0.054199665784835815
0.7069131731987 0.5037190914154053 0.0963222086429596
0.5700711607933044 0.5344238877296448 7.185614231275395e-05
0.584582507610321 0.5790168642997742 -0.08648879826068878
0.7500004768371582 0.5823562145233154 0.13051259517669678
0.7159456014633179 0.5690808892250061 0.07872340828180313
0.6888023614883423 0.5702212452888489 0.05130873620510101
0.6446057558059692 0.5634955167770386 0.037344615906476974
0.6108997464179993 0.5529927611351013 0.031116193160414696
0.5853901505470276 0.5406683683395386 0.025662655010819435
0.5397759675979614 0.5000214576721191 -0.018212953582406044
0.7517343163490295 0.6219757795333862 0.10930933803319931
0.7234528064727783 0.5035949945449829 0.11210210621356964
0.5329701900482178 0.5938493013381958 -0.1209741085767746
0.5881900787353516 0.5648353099822998 -0.011877885088324547
0.7563115358352661 0.5742948651313782 0.29399439692497253
0.5673034191131592 0.5265941619873047 0.024516988545656204
0.6030821800231934 0.6045437455177307 -0.02001230977475643
0.6958115100860596 0.5197705030441284 0.09804482758045197
0.5851858854293823 0.570350170135498 -0.07317911088466644
0.7481462359428406 0.7166740894317627 0.24469800293445587
0.5809085369110107 0.5117751359939575 0.06347984820604324
0.5654516816139221 0.5528911352157593 -0.0943157821893692
0.701855480670929 0.7888112664222717 0.05209149792790413
0.6939420700073242 0.8254631757736206 0.08434495329856873
0.7631751298904419 0.6461297273635864 0.19353421032428741
0.7279292941093445 0.7666980624198914 0.09465046226978302
0.7476530075073242 0.5145445466041565 0.2027631551027298
0.6066816449165344 0.8488670587539673 -0.06056979298591614
0.5280674695968628 0.6035376191139221 -0.09412673115730286
0.608725905418396 0.5835582613945007 -0.007018053438514471
0.7431773543357849 0.5457412600517273 0.15256862342357635
0.6568664312362671 0.5250462889671326 0.06596697121858597
0.6357105374336243 0.5249615907669067 0.0582544170320034
0.6135785579681396 0.7209184169769287 -0.03787613660097122
0.7500829696655273 0.665217936038971 0.10006404668092728
0.557131290435791 0.8854588270187378 -0.0704769417643547
0.6318822503089905 0.8620967864990234 -0.0016077941982075572
0.6612868905067444 0.8470166921615601 0.03677128627896309
0.6156397461891174 0.5224392414093018 0.05566336214542389
0.5977967381477356 0.5178316831588745 0.058050673454999924
0.5867876410484314 0.5142401456832886 0.06335374712944031
0.7362894415855408 0.5054903030395508 0.13981053233146667
0.5995497703552246 0.5080653429031372 0.059094563126564026
0.618813157081604 0.5088293552398682 0.056984078139066696
0.637242317199707 0.5090782046318054 0.05987519025802612
0.6570871472358704 0.5111990571022034 0.06683845818042755
0.6713933944702148 0.5144071578979492 0.07445912808179855
0.755167543888092 0.5209460258483887 0.27345219254493713
0.6705808043479919 0.523895263671875 0.07505004853010178
0.6013946533203125 0.6546719670295715 -0.05440349876880646
0.5798316597938538 0.5984905958175659 -0.06731537729501724
0.5515335202217102 0.6390634775161743 -0.08042792975902557
0.6710440516471863 0.8125123381614685 0.014578382484614849
0.6403073668479919 0.8307116031646729 -0.022556988522410393
0.5615772008895874 0.8600984811782837 -0.09427466988563538
0.7167494297027588 0.801983118057251 0.14255478978157043
0.5866377949714661 0.5093149542808533 0.062109675258398056
0.5571777820587158 0.5285192131996155 -0.035925935953855515
0.5990697741508484 0.8751323819160461 -0.04112034663558006
0.7583416700363159 0.6921891570091248 0.17154864966869354
0.562984824180603 0.7043036222457886 -0.06792847067117691
0.567103385925293 0.7088631987571716 -0.07477153092622757
0.5706515908241272 0.717521607875824 -0.08265888690948486
0.5734217166900635 0.7308802008628845 -0.0825497955083847
0.5788907408714294 0.7607797980308533 -0.07274116575717926
0.6036084294319153 0.7092807292938232 -0.035942088812589645
0.6122400164604187 0.7072690725326538 -0.0347532220184803
0.6198174953460693 0.7043951153755188 -0.033403363078832626
0.6424243450164795 0.6934579610824585 -0.02410411462187767
0.7247612476348877 0.6639552116394043 0.04570109769701958
0.5542476773262024 0.5159008502960205 -0.007168492302298546
0.5636069774627686 0.49081772565841675 0.04807688668370247
0.5770512819290161 0.4977594017982483 0.05888557806611061
0.5972079634666443 0.7075333595275879 -0.03498946130275726
0.7244912385940552 0.7237297892570496 0.06201573833823204
0.5453824996948242 0.4829249382019043 0.014881132170557976
0.5910654664039612 0.7896499633789062 -0.0690607875585556
0.5411942601203918 0.5134324431419373 -0.04950083792209625
0.5757982134819031 0.5594098567962646 -0.04561452940106392
0.5505414605140686 0.7975910902023315 -0.09490267187356949
0.6496895551681519 0.7539112567901611 -0.019470395520329475
0.6218774318695068 0.6256577372550964 -0.017155854031443596
0.6228736639022827 0.7756943702697754 -0.04384065791964531
0.6761940717697144 0.6308242678642273 -0.0010794418631121516
0.6450343132019043 0.6501789689064026 -0.016806364059448242
0.6965341567993164 0.6711722612380981 0.009463299065828323
0.5591211915016174 0.8301857113838196 -0.09967497736215591
0.5902501344680786 0.5755049586296082 -0.03219467028975487
0.6674480438232422 0.7787506580352783 -0.0030385737773030996
0.635097861289978 0.8006919622421265 -0.0338117741048336
0.6712144613265991 0.7268713712692261 -0.003856484778225422
0.7439393997192383 0.703641414642334 0.09399855881929398
0.6977128982543945 0.7396062612533569 0.020584160462021828
0.7482806444168091 0.7336629033088684 0.14277435839176178
0.6646240949630737 0.6822784543037415 -0.010480647906661034
0.5720141530036926 0.5466319918632507 -0.02254880778491497
0.5760741233825684 0.5853176712989807 -0.09355662763118744
0.5909633636474609 0.5982834696769714 -0.07049554586410522
0.5674126148223877 0.5674796104431152 -0.10828008502721786
0.5835750699043274 0.4728723168373108 0.04798036813735962
0.622234582901001 0.4615805149078369 0.04951699078083038
0.6547603607177734 0.4607117474079132 0.05331657454371452
0.6814929842948914 0.4679586887359619 0.06472513824701309
0.6992375254631042 0.4822227358818054 0.08005372434854507
0.709233820438385 0.5270455479621887 0.10862495750188828
0.7632613778114319 0.6025869250297546 0.20509584248065948
0.6947704553604126 0.5499461889266968 0.0795106589794159
0.671822726726532 0.5515124201774597 0.0612245574593544
0.6408343315124512 0.5490692853927612 0.04834464192390442
0.6103103160858154 0.542335033416748 0.042173728346824646
0.5871028304100037 0.532841145992279 0.041635606437921524
0.5716068148612976 0.5235471725463867 0.040200427174568176
0.7538206577301025 0.6219173073768616 0.29426419734954834
0.5889275074005127 0.6069979667663574 -0.06081913411617279
0.5595113635063171 0.5400128960609436 -0.06176110729575157
0.5597859025001526 0.5801987648010254 -0.11439470201730728
0.5430325865745544 0.5939698219299316 -0.11017116159200668
0.5576122403144836 0.5865698456764221 -0.10380597412586212
0.5810195803642273 0.6154992580413818 -0.05618099868297577
0.5398340821266174 0.5940358638763428 -0.11745256930589676
0.5353156924247742 0.6031116247177124 -0.09269020706415176
0.572469174861908 0.5093965530395508 0.05784611031413078
0.5597420930862427 0.5104458928108215 0.040324993431568146
0.5539683699607849 0.5091207027435303 0.020948970690369606
0.6803140640258789 0.5172868967056274 0.08237279951572418
0.6948933601379395 0.504750669002533 0.08639740198850632
