ply
format ascii 1.0
element vertex 468
property float x
property float y
property float z
end_header
0.493078351020813 0.6936877369880676 -0.08229625970125198
0.4884534478187561 0.6208459734916687 -0.1238580197095871
0.493708074092865 0.645636796951294 -0.06977688521146774
0.47157996892929077 0.540987491607666 -0.08038168400526047
0.4875214397907257 0.5952829122543335 -0.12899412214756012
0.48842647671699524 0.5627280473709106 -0.11537165194749832
0.4937537610530853 0.4859866797924042 -0.04111580550670624
0.3359236717224121 0.48897266387939453 0.06580331921577454
0.4945615530014038 0.42094123363494873 -0.016386378556489944
0.4937235713005066 0.387737512588501 -0.01599455252289772
0.49355924129486084 0.28486359119415283 0.028407197445631027
0.4932945966720581 0.7050474882125854 -0.08144597709178925
0.4940350353717804 0.7155789136886597 -0.07447122782468796
0.4953603744506836 0.7217631340026855 -0.06470286846160889
0.4956386685371399 0.7382500767707825 -0.060690298676490784
0.49541881680488586 0.7493541836738586 -0.06533382833003998
0.49538299441337585 0.7634539008140564 -0.07024212181568146
0.4961920976638794 0.7771548628807068 -0.06603577733039856
0.4995609521865845 0.7980169653892517 -0.04266171157360077
0.49020737409591675 0.6340385675430298 -0.1134156733751297
0.47403842210769653 0.6341292262077332 -0.0809493213891983
0.2667626738548279 0.40535759925842285 0.20378243923187256
0.4010642468929291 0.5079663395881653 0.031940385699272156
0.3781512379646301 0.5107624530792236 0.035773977637290955
0.3568110466003418 0.5101470351219177 0.04492098093032837
0.3298072814941406 0.4978973865509033 0.06883829832077026
0.42036738991737366 0.5006371140480042 0.03356071189045906
0.3696249723434448 0.4408719837665558 0.03433374688029289
0.3947058320045471 0.4421059787273407 0.031144794076681137
0.3467980623245239 0.4459720849990845 0.04370911791920662
0.3320615887641907 0.4563089907169342 0.05387364327907562
0.313464879989624 0.5144747495651245 0.08002224564552307
0.42184028029441833 0.8299100399017334 -0.01871560513973236
0.3287177085876465 0.4827806055545807 0.07544440776109695
0.2584027051925659 0.5062935948371887 0.19384552538394928
0.29063650965690613 0.4977073073387146 0.10944336652755737
0.38897842168807983 0.6062720417976379 -0.005304719787091017
0.46914592385292053 0.6921101212501526 -0.0755666196346283
0.47579970955848694 0.7171828150749207 -0.06925421208143234
0.44661274552345276 0.7039402723312378 -0.06209081411361694
0.43401533365249634 0.7178959846496582 -0.04808624088764191
0.4607863426208496 0.7219434380531311 -0.06011347845196724
0.44983404874801636 0.7283453345298767 -0.04651681333780289
0.40960368514060974 0.7594479322433472 -0.019014745950698853
0.47073400020599365 0.6211145520210266 -0.12030645459890366
0.46655941009521484 0.5965369343757629 -0.12430522590875626
0.29923224449157715 0.431728720664978 0.07224899530410767
0.4309544563293457 0.5446182489395142 -0.0029478876385837793
0.43027544021606445 0.6190546154975891 -0.05786004289984703
0.42894241213798523 0.6061480045318604 -0.04966726526618004
0.3242996037006378 0.607611358165741 0.031055135652422905
0.4685354232788086 0.5663134455680847 -0.10609902441501617
0.34570080041885376 0.4009101688861847 0.028128888458013535
0.31737199425697327 0.4116520285606384 0.05012786388397217
0.2833741009235382 0.361466646194458 0.1616917997598648
0.44384145736694336 0.41645872592926025 -0.004032737109810114
0.41691386699676514 0.45073696970939636 0.03484383597970009
0.3944985270500183 0.7384682297706604 -0.009118350222706795
0.29475846886634827 0.7254887223243713 0.21428191661834717
0.4474636912345886 0.6321566104888916 -0.05246829241514206
0.4639285206794739 0.6377550363540649 -0.05871954560279846
0.42255309224128723 0.7405218482017517 -0.016114572063088417
0.43431565165519714 0.7377643585205078 -0.024295516312122345
0.3058212101459503 0.39724433422088623 0.06524458527565002
0.4326436519622803 0.6301878094673157 -0.04702005535364151
0.3860248327255249 0.40019482374191284 0.009633131325244904
0.3811042904853821 0.3816128671169281 0.008533945307135582
0.3635614216327667 0.30193355679512024 0.06889347732067108
0.2940518856048584 0.3790832459926605 0.10652481764554977
0.3740270733833313 0.34151777625083923 0.03677063807845116
0.2872369885444641 0.4226441979408264 0.09651435911655426
0.2766296863555908 0.4152719974517822 0.14617376029491425
0.471651554107666 0.7058542370796204 -0.07536552846431732
0.45401254296302795 0.7145055532455444 -0.06272278726100922
0.4414566457271576 0.7234147787094116 -0.04967736452817917
0.45372703671455383 0.6359764337539673 -0.04898558557033539
0.4287347197532654 0.7398984432220459 -0.020557072013616562
0.4334026575088501 0.7432159781455994 -0.03579515963792801
0.4368740916252136 0.7352979183197021 -0.024935752153396606
0.4530676603317261 0.623245894908905 -0.08306782692670822
0.4557846188545227 0.7277039885520935 -0.04363574460148811
0.4666040241718292 0.7244282960891724 -0.052407003939151764
0.4801155924797058 0.722614586353302 -0.060543809086084366
0.47264212369918823 0.796695351600647 -0.04123850539326668
0.4712647795677185 0.7753101587295532 -0.06317329406738281
0.47204306721687317 0.7611575722694397 -0.06597979366779327
0.4743935763835907 0.7473956346511841 -0.0606643445789814
0.4770536720752716 0.738235354423523 -0.056415658444166183
0.4507809281349182 0.73783278465271 -0.040846116840839386
0.4466891884803772 0.741531491279602 -0.04520149528980255
0.4406459331512451 0.7482213973999023 -0.04964350908994675
0.4354208707809448 0.7563849687576294 -0.04653186723589897
0.41322678327560425 0.6925264596939087 -0.03513695299625397
0.26943540573120117 0.610034704208374 0.27147340774536133
0.4921609163284302 0.6391637921333313 -0.0846991091966629
0.44434845447540283 0.7376673221588135 -0.03213070333003998
0.43927431106567383 0.7397878170013428 -0.03509221598505974
0.4700559079647064 0.647132396697998 -0.061504870653152466
0.4413336515426636 0.6444231867790222 -0.03374693542718887
0.46704375743865967 0.6427813172340393 -0.0603393092751503
0.40847229957580566 0.5600786209106445 0.004734476562589407
0.37228062748908997 0.5774215459823608 0.013112432323396206
0.42777085304260254 0.617332935333252 -0.03795791044831276
0.3128296136856079 0.32615241408348083 0.11305590718984604
0.3239804804325104 0.3533037006855011 0.07030198723077774
0.3371209502220154 0.3831478953361511 0.03611036017537117
0.42455410957336426 0.7736642956733704 -0.03052203170955181
0.4350554347038269 0.38538795709609985 -0.008341483771800995
0.4291030764579773 0.3392314910888672 0.014269603416323662
0.42192161083221436 0.29000622034072876 0.039568640291690826
0.33941563963890076 0.5064621567726135 0.057592879980802536
0.29131782054901123 0.5328795909881592 0.0924474224448204
0.4330182373523712 0.49317532777786255 0.037004634737968445
0.3106063902378082 0.46595674753189087 0.07735337316989899
0.44530898332595825 0.5274395942687988 -0.01025327853858471
0.43884432315826416 0.6089588403701782 -0.08030317723751068
0.27070221304893494 0.5500745177268982 0.11791872978210449
0.3047778010368347 0.5497607588768005 0.06655708700418472
0.3322795033454895 0.5574735999107361 0.039890699088573456
0.374785453081131 0.5515376329421997 0.02619144506752491
0.4061530530452728 0.5400182604789734 0.019138583913445473
0.42951342463493347 0.5272072553634644 0.01269425731152296
0.4725574851036072 0.49305832386016846 -0.030769022181630135
0.2763862609863281 0.6005921959877014 0.10257238894701004
0.29370808601379395 0.4623122811317444 0.09237788617610931
0.4795970916748047 0.6334143877029419 -0.11095652729272842
0.4345061182975769 0.5682004690170288 -0.016693850979208946
0.2592633068561554 0.506813645362854 0.2741912603378296
0.4463527798652649 0.5128458142280579 0.010443736799061298
0.4272603988647461 0.6194494962692261 -0.01622864231467247
0.32219409942626953 0.4838446378707886 0.08065564185380936
0.43880414962768555 0.5932199358940125 -0.06975405663251877
0.27750617265701294 0.666567325592041 0.25014999508857727
0.43378549814224243 0.483537495136261 0.04485743120312691
0.45220011472702026 0.5767102241516113 -0.09184352308511734
0.3326999545097351 0.7812340259552002 0.07599961012601852
0.33634325861930847 0.8070482015609741 0.11535908281803131
0.2614893913269043 0.6060703992843628 0.18776650726795197
0.3086290955543518 0.7496374249458313 0.11263251304626465
0.26680126786231995 0.45789748430252075 0.17752104997634888
0.4165966510772705 0.8542112112045288 -0.007539502810686827
0.48398807644844055 0.6386558413505554 -0.0824371948838234
0.41630828380584717 0.5870863199234009 -0.00947665423154831
0.27401357889175415 0.5032209753990173 0.13453078269958496
0.3571571111679077 0.49628591537475586 0.048223838210105896
0.37688958644866943 0.4978494644165039 0.04058406874537468
0.42745649814605713 0.7478657364845276 -0.031914204359054565
0.2853989005088806 0.6473615765571594 0.09975762665271759
0.45739421248435974 0.8892115354537964 -0.00769244646653533
0.3924117684364319 0.8564416170120239 0.045876502990722656
0.3657262921333313 0.8363553881645203 0.07571762055158615
0.4931807816028595 0.3378705084323883 0.0033951711375266314
0.5068109035491943 0.8947291374206543 -0.019315779209136963
0.3966127634048462 0.49576401710510254 0.037973105907440186
0.41506069898605347 0.4907322824001312 0.04033515974879265
0.4274017810821533 0.48707544803619385 0.04492545500397682
0.27968648076057434 0.4589226245880127 0.11910523474216461
0.4136715233325958 0.46772250533103943 0.03897581994533539
0.39384257793426514 0.4616753160953522 0.03789603337645531
0.37338513135910034 0.46065980195999146 0.04102073237299919
0.3533216118812561 0.46544432640075684 0.04834350198507309
0.34106430411338806 0.4727044105529785 0.056332215666770935
0.2588273882865906 0.4511759281158447 0.24589823186397552
0.3443703055381775 0.4928707480430603 0.057724203914403915
0.4939902722835541 0.6601783633232117 -0.067583829164505
0.43036091327667236 0.6769952178001404 -0.04296725243330002
0.4454677104949951 0.6283255219459534 -0.06023465469479561
0.4665626585483551 0.664552628993988 -0.06341402232646942
0.49530887603759766 0.453745037317276 -0.019898056983947754
0.35950592160224915 0.8099525570869446 0.04688934609293938
0.3867322504520416 0.831827700138092 0.020670976489782333
0.45488572120666504 0.8710517287254333 -0.03343974053859711
0.3150674104690552 0.772824764251709 0.1665053367614746
0.4275048077106476 0.4770088791847229 0.042807720601558685
0.45772022008895874 0.5320780873298645 -0.043705329298973083
0.5035956501960754 0.8762721419334412 -0.043474193662405014
0.42150789499282837 0.875020444393158 0.015007968060672283
0.27137553691864014 0.6576167941093445 0.1738632470369339
0.46205928921699524 0.7377433180809021 -0.04876262694597244
0.4580814838409424 0.7442790865898132 -0.05354688689112663
0.4537264108657837 0.7546098232269287 -0.05842036381363869
0.4504070281982422 0.7674429416656494 -0.05615053325891495
0.4453919231891632 0.7870283126831055 -0.03901302441954613
0.4411967992782593 0.7337819933891296 -0.034366969019174576
0.4330183267593384 0.7326329946517944 -0.03373434394598007
0.42570456862449646 0.7295674681663513 -0.032315634191036224
0.40078049898147583 0.7140459418296814 -0.02249946817755699
0.31389421224594116 0.6589036583900452 0.04756148159503937
0.45910173654556274 0.508461594581604 -0.01877659372985363
0.4495331048965454 0.4633346498012543 0.027362478896975517
0.43709278106689453 0.46843335032463074 0.03843740373849869
0.4465078115463257 0.7304603457450867 -0.03294336050748825
0.31593501567840576 0.7159886360168457 0.07234214246273041
0.46662598848342896 0.4594159722328186 -0.0028498030733317137
0.4332004189491272 0.8075324892997742 -0.026722675189375877
0.4903515875339508 0.5363980531692505 -0.08999165892601013
0.47137370705604553 0.5183902978897095 -0.057902321219444275
0.4920384883880615 0.5121191143989563 -0.06496524810791016
0.4447825849056244 0.5715636014938354 -0.04771169647574425
0.5018133521080017 0.8508682250976562 -0.05139898881316185
0.5007510781288147 0.8221310377120972 -0.04605283588171005
0.46604201197624207 0.8199129700660706 -0.03937479481101036
0.38528352975845337 0.7674210667610168 -0.0026600505225360394
0.40876227617263794 0.6385143995285034 -0.0121153574436903
0.4063948690891266 0.7904150485992432 -0.015184084884822369
0.3571067154407501 0.6357630491256714 0.001909364014863968
0.38883697986602783 0.6623625755310059 -0.012892823666334152
0.3431969881057739 0.6753273010253906 0.014003917574882507
0.45841270685195923 0.8465871810913086 -0.04128546267747879
0.43559449911117554 0.586901068687439 -0.032482586801052094
0.36553990840911865 0.7844476103782654 0.021091734990477562
0.3929826319217682 0.8083701133728027 0.0027621223125606775
0.3688628673553467 0.7395340204238892 0.005632846150547266
0.2944846749305725 0.6872495412826538 0.09999752044677734
0.3414183259010315 0.7424643635749817 0.03267434984445572
0.28571125864982605 0.7055679559707642 0.15355071425437927
0.37549304962158203 0.6957061290740967 -0.006818367633968592
0.4463045001029968 0.5497669577598572 -0.029167700558900833
0.44595426321029663 0.6196248531341553 -0.08660346269607544
0.43679705262184143 0.6267451047897339 -0.06240041181445122
0.4509955942630768 0.6015953421592712 -0.10233688354492188
0.42956453561782837 0.4403848648071289 0.024489328265190125
0.39179736375808716 0.427111953496933 0.025817755609750748
0.35978180170059204 0.4262363314628601 0.03130171075463295
0.33429160714149475 0.43236231803894043 0.043340086936950684
0.3176804780960083 0.44521796703338623 0.05914590507745743
0.3088715672492981 0.49057477712631226 0.09116345643997192
0.25651466846466064 0.555693507194519 0.19213305413722992
0.3241698145866394 0.5244737863540649 0.06460310518741608
0.3462408185005188 0.5304093360900879 0.047198034822940826
0.3755336403846741 0.5292457938194275 0.034157924354076385
0.4042457342147827 0.5225165486335754 0.02710917964577675
0.4264676868915558 0.5131844282150269 0.026284081861376762
0.44150787591934204 0.503923773765564 0.02435017190873623
0.2649560272693634 0.5582415461540222 0.28132012486457825
0.4397050440311432 0.6332907676696777 -0.05187893658876419
0.4562477767467499 0.5535613894462585 -0.06459586322307587
0.45738863945007324 0.6190212965011597 -0.10679815709590912
0.47077253460884094 0.6303645968437195 -0.10073114931583405
0.4594990611076355 0.6234463453292847 -0.0961783155798912
0.4469625949859619 0.6400288343429565 -0.04616621509194374
0.47350239753723145 0.6321361660957336 -0.10741906613111496
0.47777625918388367 0.6373857855796814 -0.08155404031276703
0.441824346780777 0.4842571020126343 0.03988436982035637
0.45352479815483093 0.48927199840545654 0.02306954190135002
0.4591984450817108 0.4922714829444885 0.0058085559867322445
0.33419930934906006 0.47811567783355713 0.0647730827331543
0.3223115801811218 0.4679337739944458 0.06760258972644806
0.510939359664917 0.539868950843811 -0.08494482934474945
0.6777068972587585 0.475851446390152 0.03270762786269188
0.5121399164199829 0.6330679655075073 -0.08460180461406708
0.7708194851875305 0.3867897093296051 0.15287815034389496
0.6078180074691772 0.500250518321991 0.01039212103933096
0.6320196390151978 0.5015159249305725 0.010107182897627354
0.6552021503448486 0.49979105591773987 0.015134350396692753
0.686695396900177 0.48464882373809814 0.03365028277039528
0.5870774984359741 0.49430763721466064 0.016596004366874695
0.6364278197288513 0.4282413721084595 0.007584975566715002
0.6097725033760071 0.43182578682899475 0.010339266620576382
0.6619988083839417 0.43144774436950684 0.012996906414628029
0.6797957420349121 0.4409775137901306 0.020218171179294586
0.7061824202537537 0.501647412776947 0.04209877550601959
0.5907180309295654 0.8290830850601196 -0.03344546630978584
0.6863158345222473 0.46826982498168945 0.04068177565932274
0.7840120792388916 0.48942574858665466 0.14168040454387665
0.7339993715286255 0.482605516910553 0.06663450598716736
0.6154948472976685 0.6005347967147827 -0.025690525770187378
0.5184646248817444 0.6907818913459778 -0.08101370185613632
0.5141089558601379 0.716191291809082 -0.07374610751867294
0.5452123284339905 0.7019702196121216 -0.07326078414916992
0.5609511733055115 0.7153099775314331 -0.06318255513906479
0.5323506593704224 0.7205268740653992 -0.06963392347097397
0.5459176301956177 0.726234495639801 -0.05903485789895058
0.595488965511322 0.7566347122192383 -0.037584543228149414
0.5076550245285034 0.6199495196342468 -0.12328251451253891
0.510007917881012 0.5952243804931641 -0.1278999149799347
0.7155829668045044 0.4134214520454407 0.03200190141797066
0.5701630115509033 0.5404804944992065 -0.016887320205569267
0.5617133975028992 0.615524411201477 -0.07125306874513626
0.5648059248924255 0.6026312112808228 -0.063398078083992
0.6907846927642822 0.5982821583747864 -0.003649612423032522
0.5100780725479126 0.5651218295097351 -0.11059217154979706
0.6556653380393982 0.38538652658462524 0.0010215468937531114
0.6904160976409912 0.3941783905029297 0.0158748310059309
0.7420647144317627 0.3431417644023895 0.11571216583251953
0.5483496189117432 0.41136986017227173 -0.012640333734452724
0.5874303579330444 0.4428895115852356 0.017811888828873634
0.6103491187095642 0.7346935272216797 -0.03157005459070206
0.7653152346611023 0.7163026332855225 0.16691471636295319
0.5446254014968872 0.6294737458229065 -0.06262043118476868
0.5267046689987183 0.63621985912323 -0.0635870099067688
0.5775543451309204 0.7375929355621338 -0.0357830636203289
0.5662243962287903 0.7351744771003723 -0.04111858829855919
0.7042414546012878 0.37864911556243896 0.028565973043441772
0.562224268913269 0.6271016597747803 -0.06000477820634842
0.6096480488777161 0.3888171315193176 -0.008911678567528725
0.6130971908569336 0.36974260210990906 -0.010780567303299904
0.6355952620506287 0.2899901270866394 0.04272017255425453
0.7229629755020142 0.36084848642349243 0.06543012708425522
0.6215301156044006 0.3297502100467682 0.0139431431889534
0.7311133146286011 0.4038968086242676 0.05355142802000046
0.750677764415741 0.3969130516052246 0.09943576902151108
0.5165274143218994 0.7046830654144287 -0.08058073371648788
0.5379440784454346 0.712799072265625 -0.07317458838224411
0.5534800887107849 0.7209146022796631 -0.06342665106058121
0.5388691425323486 0.6337146162986755 -0.05707941949367523
0.5712093710899353 0.737118661403656 -0.03849523887038231
0.5649563074111938 0.7405403256416321 -0.05080338567495346
0.5646278858184814 0.7329491972923279 -0.04152553528547287
0.5332903861999512 0.6206967830657959 -0.09241987764835358
0.5417683720588684 0.7256802916526794 -0.05531497299671173
0.5284136533737183 0.7230421900749207 -0.061013102531433105
0.5123029947280884 0.721628725528717 -0.06520526111125946
0.5285722017288208 0.7960178852081299 -0.045510053634643555
0.5228216052055359 0.774395227432251 -0.0680922344326973
0.5201103091239929 0.7600875496864319 -0.07116516679525375
0.5173698663711548 0.7464859485626221 -0.06575439125299454
0.5154048204421997 0.7374634742736816 -0.06121767312288284
0.5466376543045044 0.7356637716293335 -0.05255861580371857
0.5503221154212952 0.7393403649330139 -0.05692482367157936
0.5561434030532837 0.7458928823471069 -0.06171528622508049
0.5623806118965149 0.7538444399833679 -0.05931468307971954
0.5857627987861633 0.6887755393981934 -0.05251499265432358
0.7923575043678284 0.5962772369384766 0.2184762954711914
0.5552963614463806 0.7354881167411804 -0.046393003314733505
0.5592679977416992 0.7373524308204651 -0.049597155302762985
0.5198590159416199 0.645925760269165 -0.06610305607318878
0.5549878478050232 0.6420097947120667 -0.04410025477409363
0.5231047868728638 0.641400158405304 -0.06513378769159317
0.5957629680633545 0.554686963558197 -0.013589784502983093
0.6352449655532837 0.570301353931427 -0.011371131055057049
0.5686115026473999 0.6139561533927917 -0.05209854617714882
0.6994678378105164 0.3097963035106659 0.07569210231304169
0.6825730800628662 0.3370138704776764 0.037428293377161026
0.6642418503761292 0.36672526597976685 0.007204807363450527
0.5800066590309143 0.7715684175491333 -0.04583029821515083
0.5546808838844299 0.3791305124759674 -0.01791989803314209
0.5605472326278687 0.33310532569885254 0.0026189209893345833
0.5690122246742249 0.2835090756416321 0.026263438165187836
0.6753151416778564 0.49450838565826416 0.024325955659151077
0.7324501276016235 0.5195868611335754 0.050372276455163956
0.5734581351280212 0.4875827431678772 0.022112417966127396
0.7062133550643921 0.45002245903015137 0.03858700394630432
0.5527927279472351 0.524154782295227 -0.02151130512356758
0.5482549071311951 0.6058312654495239 -0.0912594273686409
0.7600255012512207 0.5358422994613647 0.07032466679811478
0.7143940925598145 0.537861704826355 0.027080724015831947
0.6810952425003052 0.5476356744766235 0.0067373281344771385
0.6340289115905762 0.5439345836639404 0.0012207487598061562
0.6000795364379883 0.5340917706489563 0.00029596363310702145
0.5742482542991638 0.5227271318435669 -0.0018870647763833404
0.5175660252571106 0.491482675075531 -0.0354592502117157
0.7536535859107971 0.588167667388916 0.05537755414843559
0.7264827489852905 0.44560950994491577 0.049547526985406876
0.5016756653785706 0.6328170895576477 -0.1132696345448494
0.5643564462661743 0.5645560026168823 -0.030291585251688957
0.7962749004364014 0.48989129066467285 0.21975350379943848
0.5546534657478333 0.5092087388038635 -0.0010377683211117983
0.5721685886383057 0.6159453988075256 -0.02991112880408764
0.6949097514152527 0.4690174460411072 0.0440995991230011
0.5504409670829773 0.5899633169174194 -0.08090782165527344
0.7847404479980469 0.6547720432281494 0.19934020936489105
0.5734530091285706 0.4778364598751068 0.029177432879805565
0.5310720801353455 0.574436604976654 -0.09979835897684097
0.700889527797699 0.7763646245002747 0.041332609951496124
0.708579957485199 0.8029738664627075 0.07944253832101822
0.7845298647880554 0.5923702716827393 0.135902538895607
0.7317549586296082 0.7423812747001648 0.07168061286211014
0.7684146165847778 0.4402601718902588 0.12785039842128754
0.6002302169799805 0.8537696599960327 -0.023962927982211113
0.5005388855934143 0.6380521059036255 -0.08385082334280014
0.5859031677246094 0.5825458765029907 -0.025641901418566704
0.7565023899078369 0.48735231161117554 0.08745414018630981
0.6535242795944214 0.4852144718170166 0.019230401143431664
0.6326032280921936 0.48791852593421936 0.01490209810435772
0.5719873905181885 0.745031476020813 -0.04839544743299484
0.7466855049133301 0.6364766955375671 0.05471757426857948
0.5589352250099182 0.889461874961853 -0.017024517059326172
0.6369996070861816 0.8560824394226074 0.022431358695030212
0.6706989407539368 0.834549069404602 0.04646291956305504
0.612048327922821 0.4871602952480316 0.016070377081632614
0.5929137468338013 0.4836598336696625 0.021617000922560692
0.5800380110740662 0.4809108376502991 0.0282065961509943
0.7455599308013916 0.4414205551147461 0.07321061193943024
0.5936100482940674 0.4603046178817749 0.019772669300436974
0.6141344308853149 0.45237618684768677 0.015622693113982677
0.6350025534629822 0.4495137929916382 0.015108573250472546
0.6567035913467407 0.4524558186531067 0.018821410834789276
0.6707790493965149 0.4588106870651245 0.024609798565506935
0.7881654500961304 0.43319398164749146 0.19272559881210327
0.6677772998809814 0.4807888865470886 0.026133112609386444
0.5660374164581299 0.6743053793907166 -0.056219495832920074
0.5452328324317932 0.6253100633621216 -0.06947962194681168
0.5230862498283386 0.6632435321807861 -0.06898702681064606
0.6686553955078125 0.807422935962677 0.018783286213874817
0.6362397074699402 0.8309506773948669 -0.0015993291744962335
0.5560367703437805 0.8710942268371582 -0.04220343753695488
0.7384063005447388 0.7663580179214478 0.12384587526321411
0.5793894529342651 0.47091060876846313 0.025437094271183014
0.5325299501419067 0.5299389362335205 -0.05149557814002037
0.6004549264907837 0.8751221895217896 -0.0022445020731538534
0.7757792472839355 0.6457963585853577 0.12431398034095764
0.5327526926994324 0.7362371683120728 -0.057723090052604675
0.5362679362297058 0.7424953579902649 -0.06247608736157417
0.5408399701118469 0.7528367042541504 -0.06768236309289932
0.5454567670822144 0.7657317519187927 -0.06574506312608719
0.5575259923934937 0.7857609391212463 -0.04988541454076767
0.5572364926338196 0.7313098311424255 -0.04996064677834511
0.5646279454231262 0.7299453616142273 -0.050732534378767014
0.5722134709358215 0.726564884185791 -0.05071055144071579
0.6006739735603333 0.7100768089294434 -0.04388654604554176
0.707883894443512 0.6497313976287842 0.010289959609508514
0.5349911451339722 0.5059456825256348 -0.026835011318325996
0.5515562891960144 0.45909932255744934 0.017227165400981903
0.5673962831497192 0.4629177451133728 0.024056557565927505
0.5529562830924988 0.7281621694564819 -0.04746553674340248
0.7128628492355347 0.7080790400505066 0.03437007591128349
0.5278639197349548 0.45695698261260986 -0.008574509993195534
0.5756614804267883 0.8065624833106995 -0.03901923447847366
0.5144974589347839 0.5169763565063477 -0.06198510155081749
0.5472196936607361 0.568638801574707 -0.057665642350912094
0.5385852456092834 0.8194495439529419 -0.04555997624993324
0.6268755197525024 0.7643646001815796 -0.02437790483236313
0.5933553576469421 0.6342938542366028 -0.029178878292441368
0.6048448085784912 0.7886765003204346 -0.03240547329187393
0.6517048478126526 0.6286876201629639 -0.0241070706397295
0.6152843236923218 0.6573779582977295 -0.03377912938594818
0.6708650588989258 0.6681830883026123 -0.01563083939254284
0.5488919615745544 0.8461892604827881 -0.04929206520318985
0.5610222816467285 0.5835416316986084 -0.04498004540801048
0.6543251872062683 0.7813350558280945 -0.004854347091168165
0.6236262321472168 0.8069270253181458 -0.017055070027709007
0.6428843140602112 0.7349345684051514 -0.020488537847995758
0.7395572662353516 0.6777039170265198 0.05685054510831833
0.6797907948493958 0.7368180751800537 0.001548739499412477
0.7605779767036438 0.6958134174346924 0.10670497268438339
0.6312856674194336 0.6904981732368469 -0.0310467928647995
0.5483357310295105 0.5468199849128723 -0.039911724627017975
0.5402664542198181 0.6168392896652222 -0.09642454981803894
0.5543795824050903 0.6235047578811646 -0.07380343228578568
0.53052818775177 0.5993989109992981 -0.11026403307914734
0.5704501867294312 0.4340522885322571 0.010516472160816193
0.6092211008071899 0.4166645407676697 0.0057573397643864155
0.6437715291976929 0.4125797748565674 0.0051140510477125645
0.6730775237083435 0.4167661666870117 0.011169606819748878
0.6944832801818848 0.4285849332809448 0.022899970412254333
0.7117283344268799 0.47572070360183716 0.05200585350394249
0.788172721862793 0.5402965545654297 0.13900507986545563
0.6927837133407593 0.5124863982200623 0.029170017689466476
0.6669086813926697 0.5204117298126221 0.016439642757177353
0.6343762278556824 0.520839273929596 0.009016968309879303
0.603726327419281 0.5157817006111145 0.007218630518764257
0.579716145992279 0.5078326463699341 0.010998495854437351
0.5627195239067078 0.4995540380477905 0.011875307187438011
0.7951130867004395 0.5428221821784973 0.22724992036819458
0.553479790687561 0.6303296089172363 -0.06287064403295517
0.5301929116249084 0.551426887512207 -0.07252272963523865
0.5239905714988708 0.6170786023139954 -0.11321110278367996
0.5131327509880066 0.6291390061378479 -0.10433126986026764
0.5246254205703735 0.62148118019104 -0.10247126966714859
0.54742431640625 0.6378023028373718 -0.05541675165295601
0.5088881850242615 0.6312088966369629 -0.11040440201759338
0.5077204704284668 0.6366448402404785 -0.08413700014352798
0.5638189315795898 0.47925513982772827 0.02683073841035366
0.5488246083259583 0.48569566011428833 0.01322306226938963
0.5393800735473633 0.4894348978996277 -0.0022277887910604477
0.6791650056838989 0.46373218297958374 0.03184536099433899
0.692634642124176 0.45232605934143066 0.031897541135549545
