ply
format ascii 1.0
element vertex 468
property float x
property float y
property float z
end_header
0.5455867052078247 0.7285353541374207 -0.06123799458146095
0.5619286298751831 0.6454041600227356 -0.11773041635751724
0.5405895709991455 0.6695492267608643 -0.061092399060726166
0.5287747383117676 0.5586832761764526 -0.09902165085077286
0.5642311573028564 0.6192854642868042 -0.12592117488384247
0.5575175285339355 0.5843071341514587 -0.11733634024858475
0.5336602330207825 0.4963933825492859 -0.05877231806516647
0.33323317766189575 0.47717446088790894 -0.04114580899477005
0.5285710096359253 0.42509138584136963 -0.04325536638498306
0.5319406390190125 0.3890462815761566 -0.04810948297381401
0.5240244269371033 0.2611698508262634 -0.02589384838938713
0.5447041988372803 0.7408571243286133 -0.05785088986158371
0.5413165092468262 0.7494395971298218 -0.05001948028802872
0.5364820957183838 0.7522361874580383 -0.03971828147768974
0.538801372051239 0.750299334526062 -0.039186976850032806
0.5406171679496765 0.7593619227409363 -0.04278011992573738
0.5408071279525757 0.7708809971809387 -0.047914162278175354
0.5379456877708435 0.7829021215438843 -0.04630853980779648
0.5255325436592102 0.8026906847953796 -0.027072090655565262
0.5554296970367432 0.658265233039856 -0.10611172765493393
0.5253862738609314 0.6572754383087158 -0.0830196887254715
0.19098550081253052 0.36263880133628845 0.02738943323493004
0.40827521681785583 0.504116415977478 -0.039461951702833176
0.3834381401538849 0.5056944489479065 -0.04679422080516815
0.357941210269928 0.5040698647499084 -0.04894821345806122
0.31928274035453796 0.4859750270843506 -0.041591327637434006
0.4291122257709503 0.49809131026268005 -0.027176914736628532
0.38006287813186646 0.42833322286605835 -0.0591401681303978
0.4070727825164795 0.43172889947891235 -0.04714345559477806
0.3525333106517792 0.4316065311431885 -0.06036762148141861
0.3319163918495178 0.4411779046058655 -0.05663851276040077
0.2944960594177246 0.5045198202133179 -0.035394519567489624
0.4270137548446655 0.8467203378677368 -0.031658682972192764
0.3214329481124878 0.46835899353027344 -0.036992307752370834
0.18014922738075256 0.4825902283191681 0.03482844680547714
0.25840523838996887 0.4834946095943451 -0.0231704693287611
0.40189307928085327 0.6180133819580078 -0.05879763513803482
0.5178512930870056 0.7264771461486816 -0.06940868496894836
0.5167793035507202 0.7506383657455444 -0.05638815090060234
0.4840952157974243 0.735869288444519 -0.06831110268831253
0.4588797688484192 0.7449505925178528 -0.061301521956920624
0.4914515018463135 0.7532706260681152 -0.05776647850871086
0.4698336720466614 0.7551718950271606 -0.04988162964582443
0.41320115327835083 0.7767125964164734 -0.037499092519283295
0.5424179434776306 0.6451772451400757 -0.12208490073680878
0.5411982536315918 0.619999885559082 -0.1305871456861496
0.29281532764434814 0.41544556617736816 -0.06366992741823196
0.4488905370235443 0.5512075424194336 -0.04698905348777771
0.4682912528514862 0.6379878520965576 -0.0882948711514473
0.4623299241065979 0.6226866245269775 -0.0826667845249176
0.3133804500102997 0.6131431460380554 -0.059875886887311935
0.535708487033844 0.5870475172996521 -0.11963314563035965
0.3702479600906372 0.38800811767578125 -0.07657063007354736
0.3280925452709198 0.39629775285720825 -0.0734955370426178
0.2374521791934967 0.31736183166503906 -0.0068957912735641
0.4796164035797119 0.4158425033092499 -0.05597712844610214
0.4288983941078186 0.4427551031112671 -0.0320434533059597
0.3945910632610321 0.7565399408340454 -0.04056013748049736
0.17370714247226715 0.7303159236907959 0.10695520788431168
0.48388907313346863 0.652397632598877 -0.07225317507982254
0.5033527612686157 0.6600443720817566 -0.06397218257188797
0.42554783821105957 0.7568556666374207 -0.03610464558005333
0.4347301423549652 0.7550778985023499 -0.037133537232875824
0.31038588285446167 0.37802523374557495 -0.0677991434931755
0.46204283833503723 0.6485812664031982 -0.07510460168123245
0.42032161355018616 0.39272159337997437 -0.0708497166633606
0.41804251074790955 0.37128689885139465 -0.07696198672056198
0.3759022355079651 0.26468026638031006 -0.05344056338071823
0.2762422561645508 0.3482760190963745 -0.04281533882021904
0.40212294459342957 0.3179181218147278 -0.06664903461933136
0.2698217034339905 0.4023135006427765 -0.050228361040353775
0.23171328008174896 0.38455861806869507 -0.014162043109536171
0.5181149840354919 0.7412058115005493 -0.0660364180803299
0.48991358280181885 0.7470652461051941 -0.064129538834095
0.4657726585865021 0.7507116794586182 -0.05721978470683098
0.4884522557258606 0.6570860743522644 -0.06405473500490189
0.4310586750507355 0.7563077807426453 -0.03619693964719772
0.4449149966239929 0.7582054138183594 -0.044921744614839554
0.43579772114753723 0.7536113262176514 -0.03700398653745651
0.5054344534873962 0.6451382637023926 -0.10201025009155273
0.46987977623939514 0.7529309391975403 -0.044803082942962646
0.49099788069725037 0.7531430125236511 -0.047419045120477676
0.5138921737670898 0.7528928518295288 -0.04689018800854683
0.49599844217300415 0.8052355051040649 -0.03515572100877762
0.510364294052124 0.7835993766784668 -0.05503159761428833
0.5142743587493896 0.7703529000282288 -0.05670764297246933
0.5154914855957031 0.7590999603271484 -0.05109609663486481
0.5151582360267639 0.7511810660362244 -0.046692561358213425
0.4675244390964508 0.7528528571128845 -0.04570477828383446
0.46585750579833984 0.755603551864624 -0.04965374246239662
0.4620547592639923 0.7615684866905212 -0.054131340235471725
0.456951379776001 0.7693673372268677 -0.05302804708480835
0.4331408739089966 0.7151636481285095 -0.060002297163009644
0.14266091585159302 0.5953502655029297 0.12718835473060608
0.5477792024612427 0.662941575050354 -0.07667089253664017
0.4520304203033447 0.7536592483520508 -0.04106348380446434
0.44964128732681274 0.7551425695419312 -0.04397864639759064
0.5116361975669861 0.6707944869995117 -0.06517074257135391
0.46633803844451904 0.6639370918273926 -0.05347328633069992
0.5076804161071777 0.6657898426055908 -0.0647529661655426
0.4211979806423187 0.5657550692558289 -0.04905907064676285
0.3801889419555664 0.5831873416900635 -0.05613240227103233
0.4544018507003784 0.6335951089859009 -0.07067935913801193
0.2975793480873108 0.28392085433006287 -0.036027465015649796
0.33108797669410706 0.32454729080200195 -0.059531696140766144
0.36063262820243835 0.3666841983795166 -0.07655416429042816
0.43617895245552063 0.788943886756897 -0.04244811832904816
0.47660303115844727 0.38064834475517273 -0.06734869629144669
0.46538442373275757 0.32113784551620483 -0.06022077426314354
0.44860950112342834 0.2584507167339325 -0.04908349737524986
0.3337893784046173 0.49776336550712585 -0.046270377933979034
0.2621873617172241 0.5238531827926636 -0.031777091324329376
0.4430626630783081 0.49141964316368103 -0.0203723032027483
0.29835355281829834 0.451127290725708 -0.04867459088563919
0.4688660204410553 0.5349231362342834 -0.049506090581417084
0.4899153709411621 0.6289083361625671 -0.1053696796298027
0.22354599833488464 0.540019154548645 -0.018439648672938347
0.287652850151062 0.5450334548950195 -0.04687643051147461
0.32864150404930115 0.556743323802948 -0.05499521642923355
0.3809030055999756 0.5526912212371826 -0.04798593372106552
0.4157271683216095 0.5418624877929688 -0.04014686867594719
0.4423815608024597 0.5301345586776733 -0.03604627400636673
0.5101329684257507 0.5021863579750061 -0.059987954795360565
0.22860465943813324 0.5982550382614136 -0.023380789905786514
0.2723097503185272 0.446638822555542 -0.045536186546087265
0.543853759765625 0.6575682163238525 -0.10979484021663666
0.45702430605888367 0.5787813663482666 -0.05520089343190193
0.14342644810676575 0.47437232732772827 0.10517434775829315
0.46357062458992004 0.5168274641036987 -0.03288370743393898
0.4456173777580261 0.6341584920883179 -0.048629626631736755
0.3100883960723877 0.4687912166118622 -0.036482878029346466
0.483326256275177 0.6106825470924377 -0.0975513681769371
0.150848388671875 0.6613757610321045 0.12200303375720978
0.4413134455680847 0.48126712441444397 -0.01643950305879116
0.5100153088569641 0.5959033966064453 -0.11343774944543839
0.2823963761329651 0.798869252204895 0.010775988921523094
0.26336023211479187 0.8236655592918396 0.050758060067892075
0.17494793236255646 0.598438024520874 0.04849442467093468
0.23516467213630676 0.7639397978782654 0.026611432433128357
0.20269379019737244 0.4291170537471771 0.015714799985289574
0.41577789187431335 0.8685494065284729 -0.02140086330473423
0.538806140422821 0.662091851234436 -0.07809212803840637
0.43218275904655457 0.59754878282547 -0.0532740093767643
0.22701354324817657 0.48694413900375366 -0.009652666747570038
0.3625568151473999 0.4880622923374176 -0.04617660120129585
0.38492879271507263 0.4910217225551605 -0.04432302713394165
0.4380399286746979 0.7631997466087341 -0.04346780478954315
0.22940009832382202 0.6516785025596619 -0.011507690884172916
0.4540119767189026 0.8936786651611328 0.0008868593140505254
0.3652627170085907 0.872210681438446 0.016833961009979248
0.3200778663158417 0.854232132434845 0.03076205402612686
0.529931366443634 0.32638826966285706 -0.039368096739053726
0.5008198022842407 0.8927183151245117 0.013061068020761013
0.4050155282020569 0.4899066686630249 -0.03713639825582504
0.42370644211769104 0.48606574535369873 -0.027734560891985893
0.4356534779071808 0.483637273311615 -0.01900274120271206
0.2441525012254715 0.4392644464969635 -0.028855858370661736
0.4215015769004822 0.4610953629016876 -0.03212960809469223
0.400307297706604 0.4515867829322815 -0.041736193001270294
0.3790743350982666 0.4492405652999878 -0.04875584691762924
0.3558938801288605 0.45266932249069214 -0.05084197223186493
0.3405113220214844 0.45913243293762207 -0.04832802712917328
0.16117730736732483 0.4120592474937439 0.07002925127744675
0.34597691893577576 0.4831699728965759 -0.04414168745279312
0.5407221913337708 0.688095211982727 -0.05623665079474449
0.45735567808151245 0.7007388472557068 -0.06259898841381073
0.4866536259651184 0.6487399339675903 -0.07984349876642227
0.5101335048675537 0.6924309730529785 -0.0661526471376419
0.526246190071106 0.4596683382987976 -0.04244573786854744
0.32893896102905273 0.8291588425636292 0.002714351285248995
0.37084653973579407 0.8502101898193359 -0.007695904467254877
0.4639407694339752 0.880851149559021 -0.027504265308380127
0.2139134556055069 0.7850790023803711 0.08041706681251526
0.4357563555240631 0.47374242544174194 -0.023030759766697884
0.49830853939056396 0.5450127124786377 -0.07252468913793564
0.5125703811645508 0.8784812688827515 -0.014790446497499943
0.410432904958725 0.8859102725982666 0.00222823116928339
0.1803935170173645 0.6581772565841675 0.05006430670619011
0.49092474579811096 0.7517637610435486 -0.047863561660051346
0.48893624544143677 0.7575029730796814 -0.05304994434118271
0.4865959882736206 0.7662363648414612 -0.05862471088767052
0.48280972242355347 0.778080403804779 -0.057576436549425125
0.4639098048210144 0.7990539073944092 -0.04384271055459976
0.448869913816452 0.7557367086410522 -0.04372786730527878
0.4438078701496124 0.7543662190437317 -0.04720494896173477
0.43710777163505554 0.7511284947395325 -0.05017579719424248
0.4105260968208313 0.734745979309082 -0.05342967063188553
0.28209972381591797 0.6687284111976624 -0.04105384275317192
0.49001020193099976 0.5168566703796387 -0.052685465663671494
0.46592622995376587 0.46200883388519287 -0.02022603154182434
0.44786888360977173 0.4647144675254822 -0.0212824996560812
0.45140889286994934 0.7523963451385498 -0.04028690978884697
0.2669665515422821 0.730017364025116 -0.00966801680624485
0.49336308240890503 0.4620627164840698 -0.040230970829725266
0.4428386092185974 0.8235568404197693 -0.0359218530356884
0.5493003726005554 0.5549061298370361 -0.09697780758142471
0.5194465517997742 0.5323499441146851 -0.08061839640140533
0.5417037010192871 0.5272312760353088 -0.07719329744577408
0.48209840059280396 0.5865397453308105 -0.07637376338243484
0.5195764303207397 0.8563775420188904 -0.0277255792170763
0.522333562374115 0.8280752897262573 -0.02707964926958084
0.48427560925483704 0.8317056894302368 -0.03551485762000084
0.3813849687576294 0.7869862914085388 -0.03175223618745804
0.42332467436790466 0.6542902588844299 -0.05055868625640869
0.4089064598083496 0.8091337084770203 -0.03364863246679306
0.35940003395080566 0.6487176418304443 -0.0626368522644043
0.40029558539390564 0.6800740361213684 -0.0562124066054821
0.3302591145038605 0.6902781128883362 -0.05261056870222092
0.47383803129196167 0.8596407771110535 -0.03826560080051422
0.46221745014190674 0.6004229187965393 -0.06543785333633423
0.34983164072036743 0.803847074508667 -0.018913643434643745
0.38786351680755615 0.8272918462753296 -0.02149747684597969
0.3610180616378784 0.7583432197570801 -0.0382520891726017
0.2326160967350006 0.6968000531196594 0.0009127886733040214
0.31445708870887756 0.7598318457603455 -0.026439625769853592
0.19585540890693665 0.7134228944778442 0.04576791822910309
0.37748634815216064 0.7142511010169983 -0.0527523010969162
0.4774989187717438 0.5614410042762756 -0.06311415880918503
0.4990854263305664 0.6410965323448181 -0.10808663815259933
0.4768502414226532 0.6468410491943359 -0.08649884909391403
0.5151577591896057 0.623525857925415 -0.1197512149810791
0.45044469833374023 0.43667837977409363 -0.035742487758398056
0.41321954131126404 0.41934484243392944 -0.05366109311580658
0.3778713047504425 0.4146263897418976 -0.0653945803642273
0.344793438911438 0.4183077812194824 -0.06807069480419159
0.31743377447128296 0.4298226535320282 -0.06251104921102524
0.28798985481262207 0.47654926776885986 -0.03222821280360222
0.17418904602527618 0.5399366617202759 0.04059070721268654
0.3129698634147644 0.5170515775680542 -0.04254759103059769
0.3438766896724701 0.5264609456062317 -0.046278584748506546
0.3800444006919861 0.5268404483795166 -0.04379340261220932
0.41158950328826904 0.5211751461029053 -0.03703313693404198
0.4358457326889038 0.5130200386047363 -0.027343546971678734
0.45333945751190186 0.5050915479660034 -0.02300533466041088
0.1406264305114746 0.5339508652687073 0.12294868379831314
0.47335371375083923 0.6531027555465698 -0.0747399777173996
0.5056304335594177 0.5699069499969482 -0.09004057943820953
0.5220184326171875 0.642289400100708 -0.11812342703342438
0.5287508964538574 0.6539729833602905 -0.10348907113075256
0.5176047682762146 0.6461941003799438 -0.10749518871307373
0.4771372377872467 0.6604897975921631 -0.06337549537420273
0.5353350043296814 0.6560558080673218 -0.10783343762159348
0.531006395816803 0.6608789563179016 -0.08058175444602966
0.45197004079818726 0.4832022786140442 -0.013981190510094166
0.46769097447395325 0.4906182289123535 -0.02017267793416977
0.48012644052505493 0.4962384104728699 -0.03199860081076622
0.33063575625419617 0.4640316367149353 -0.04378241300582886
0.31528982520103455 0.4524815082550049 -0.04815642163157463
0.5649410486221313 0.5584673881530762 -0.07974530756473541
0.6522985100746155 0.48273777961730957 0.10156509280204773
0.5643996000289917 0.6556003093719482 -0.0682174488902092
0.6865043640136719 0.3809775710105896 0.24524904787540436
0.5940433144569397 0.5078533291816711 0.051763128489255905
0.6155312061309814 0.5095114707946777 0.06304764002561569
0.6346621513366699 0.5074597597122192 0.077969029545784
0.6540420055389404 0.49093300104141235 0.10908950120210648
0.5771231651306152 0.5014692544937134 0.04483822360634804
0.6283493638038635 0.4377153813838959 0.0557965412735939
0.6042646765708923 0.4399988055229187 0.04329431802034378
0.6481517553329468 0.4417957663536072 0.07266853749752045
0.6587978601455688 0.45120173692703247 0.087391197681427
0.6668817400932312 0.5077442526817322 0.12651915848255157
0.580654501914978 0.8335617184638977 0.03243989124894142
0.6567957997322083 0.475357323884964 0.1123504564166069
0.6866183280944824 0.48862096667289734 0.2588077783584595
0.6790412664413452 0.4878208637237549 0.15972919762134552
0.621694803237915 0.6141483187675476 0.03078323043882847
0.5686347484588623 0.7238231897354126 -0.04750015214085579
0.5605897307395935 0.747888445854187 -0.037263501435518265
0.5882037878036499 0.7286981344223022 -0.022593127563595772
0.5988364815711975 0.7359153032302856 0.0016021208139136434
0.574440062046051 0.7474063038825989 -0.019286533817648888
0.5850843787193298 0.7477447986602783 0.0016142422100529075
0.6083569526672363 0.7646192312240601 0.0435502827167511
0.5770963430404663 0.644280731678009 -0.1094386875629425
0.581497073173523 0.6192916035652161 -0.11564718931913376
0.6846750974655151 0.42646288871765137 0.10776598006486893
0.5790587663650513 0.5510438084602356 0.0118328258395195
0.5991988778114319 0.6333576440811157 -0.03268466889858246
0.5964676141738892 0.6187803149223328 -0.02531815879046917
0.6721821427345276 0.6077763438224792 0.090125672519207
0.5742308497428894 0.586646318435669 -0.10076060146093369
0.6549137234687805 0.39969730377197266 0.04184667393565178
0.6751402616500854 0.4084433615207672 0.07498577237129211
0.6838037371635437 0.3374524712562561 0.18851448595523834
0.572595477104187 0.4193503260612488 -0.016855262219905853
0.5830873847007751 0.4494592547416687 0.041222501546144485
0.6246315240859985 0.7438262701034546 0.05865299329161644
0.6374284625053406 0.7140946388244629 0.3103835880756378
0.5840249061584473 0.648029625415802 -0.031748488545417786
0.5694084763526917 0.6568859815597534 -0.04393893480300903
0.6072354912757874 0.7459890842437744 0.04847075790166855
0.5983115434646606 0.7449764609336853 0.03646250441670418
0.6823819875717163 0.3914741277694702 0.09033102542161942
0.5947092771530151 0.6433519124984741 -0.020879404619336128
0.6227202415466309 0.4009018540382385 0.010266218334436417
0.6287130117416382 0.38033241033554077 0.006785179488360882
0.6342465281486511 0.27924805879592896 0.05929406359791756
0.6844780445098877 0.36425545811653137 0.1323598176240921
0.6314800977706909 0.3292570114135742 0.030698606744408607
0.6909157037734985 0.4145098030567169 0.13321168720722198
0.6905766725540161 0.39958655834198 0.1852022409439087
0.5661027431488037 0.7383124232292175 -0.04453413933515549
0.5818871259689331 0.7404251098632812 -0.021979382261633873
0.5929384231567383 0.7423585057258606 -0.0007909107953310013
0.5780404806137085 0.652563214302063 -0.030168890953063965
0.6029114127159119 0.7458662390708923 0.04149904102087021
0.59767085313797 0.7490190267562866 0.02037559263408184
0.5951181650161743 0.7437081336975098 0.03475891426205635
0.5848500728607178 0.641669511795044 -0.06393443048000336
0.5777289867401123 0.7460775971412659 0.004081255290657282
0.5664571523666382 0.7483310103416443 -0.011666391044855118
0.5532974600791931 0.7504719495773315 -0.02755972556769848
0.5498046875 0.8012633323669434 -0.016652489081025124
0.5606193542480469 0.7800576686859131 -0.03477973863482475
0.5625741481781006 0.7671703100204468 -0.036099351942539215
0.5609582662582397 0.7566014528274536 -0.03028268925845623
0.5574356913566589 0.7491310834884644 -0.027054283767938614
0.5827057361602783 0.7463312745094299 0.0035317253787070513
0.5861991047859192 0.7485772371292114 -0.0008112895302474499
0.5903568863868713 0.7537816762924194 -0.0033750010188668966
0.5929073095321655 0.7608632445335388 0.002520864363759756
0.6127868294715881 0.7066076397895813 0.01391768641769886
0.6533631682395935 0.5918968915939331 0.35492613911628723
0.5882129073143005 0.7457886934280396 0.02088336832821369
0.5930620431900024 0.7466089725494385 0.01872999034821987
0.5634755492210388 0.6679958701133728 -0.0451790876686573
0.5855348110198975 0.6583411693572998 -0.010569246485829353
0.5664259791374207 0.6629233956336975 -0.04536442458629608
0.597579836845398 0.5649710297584534 0.029786255210638046
0.6308574080467224 0.5811183452606201 0.05053853616118431
0.5955601334571838 0.6289001107215881 -0.011798686347901821
0.6682099103927612 0.30293262004852295 0.12313750386238098
0.6660795211791992 0.3399360179901123 0.08171509951353073
0.6617923974990845 0.37922435998916626 0.04885103926062584
0.5928481817245483 0.7781577706336975 0.023644696921110153
0.5838743448257446 0.38562577962875366 -0.0243147574365139
0.5872137546539307 0.3271752595901489 -0.0088282385841012
0.5881588459014893 0.26660361886024475 0.00790806207805872
0.6479783058166504 0.5015557408332825 0.09536867588758469
0.683002233505249 0.5251868963241577 0.14846128225326538
0.5667169094085693 0.4945454001426697 0.04395724833011627
0.6715106964111328 0.45904651284217834 0.11749030649662018
0.5684433579444885 0.5351784825325012 -0.0022536024916917086
0.5963565111160278 0.6260120868682861 -0.05997193232178688
0.6947665214538574 0.5402798652648926 0.18614420294761658
0.6781165599822998 0.5450246930122375 0.12189162522554398
0.6593039035797119 0.5560051202774048 0.08747647702693939
0.6231528520584106 0.552704393863678 0.06035406142473221
0.5950260162353516 0.5425081253051758 0.04209296405315399
0.5756657123565674 0.5310335755348206 0.025510672479867935
0.5506675243377686 0.5027204155921936 -0.039812132716178894
0.6966675519943237 0.5931990146636963 0.17952467501163483
0.6822828054428101 0.4543170630931854 0.1361246258020401
0.5650427937507629 0.6569620370864868 -0.09993286430835724
0.5811334848403931 0.5776168704032898 0.001958787441253662
0.6674331426620483 0.48272430896759033 0.3399396538734436
0.562528133392334 0.5179575085639954 0.015576507896184921
0.5913430452346802 0.6292985677719116 0.010284108109772205
0.6599095463752747 0.4759206771850586 0.120587058365345
0.591590404510498 0.608158528804779 -0.051556289196014404
0.6474746465682983 0.6515762805938721 0.34020817279815674
0.5650923252105713 0.48434555530548096 0.051203325390815735
0.5847047567367554 0.5948070883750916 -0.07987596839666367
0.636574387550354 0.7782883644104004 0.16108877956867218
0.6159200668334961 0.8014410734176636 0.20447485148906708
0.6858383417129517 0.5941068530082703 0.27123141288757324
0.6542835235595703 0.7450625896453857 0.2040002942085266
0.688762903213501 0.44057440757751465 0.2292606085538864
0.5769172310829163 0.8534987568855286 0.04925643280148506
0.5554200410842896 0.6615936756134033 -0.07207293808460236
0.5954340696334839 0.5949856042861938 0.016706150025129318
0.6870993375778198 0.4912019968032837 0.1919623464345932
0.6355968713760376 0.49305659532546997 0.07920315116643906
0.6173698902130127 0.49607956409454346 0.06629154831171036
0.6010804176330566 0.7532939910888672 0.027073625475168228
0.6890639066696167 0.6424596309661865 0.18261107802391052
0.5388621687889099 0.8848639726638794 0.03946787491440773
0.5795244574546814 0.8524711728096008 0.11568470299243927
0.5958247780799866 0.8321754932403564 0.15531283617019653
0.5983547568321228 0.4947367310523987 0.056823138147592545
0.5811965465545654 0.49013835191726685 0.05319291725754738
0.5703561305999756 0.4871997833251953 0.05351748317480087
0.6887801289558411 0.4480680823326111 0.1662033349275589
0.5830778479576111 0.46570414304733276 0.05029434710741043
0.6015626192092896 0.4578861594200134 0.05387154966592789
0.6220947504043579 0.4555795192718506 0.06312284618616104
0.6406801342964172 0.4593009948730469 0.07639746367931366
0.650104284286499 0.46607211232185364 0.08860379457473755
0.6808775663375854 0.4265391230583191 0.2993508577346802
0.6460486054420471 0.4880991578102112 0.09195839613676071
0.5976487994194031 0.6937377452850342 -0.0063873473554849625
0.58758944272995 0.6446791291236877 -0.04065126180648804
0.567240834236145 0.689409613609314 -0.043249428272247314
0.6145285964012146 0.8082191348075867 0.12348165363073349
0.5953384041786194 0.8307133913040161 0.08742836862802505
0.551345705986023 0.8723104000091553 0.010004986077547073
0.6273567080497742 0.7647415995597839 0.2615348696708679
0.5710582137107849 0.4768887460231781 0.050754036754369736
0.5676569938659668 0.5450353622436523 -0.0402020663022995
0.5626627206802368 0.8705244064331055 0.07470308244228363
0.6782070994377136 0.6482020616531372 0.262849360704422
0.5722764730453491 0.7475382685661316 -0.011706418357789516
0.5760072469711304 0.7524517178535461 -0.015767233446240425
0.5789273977279663 0.7604860067367554 -0.019383352249860764
0.5792884826660156 0.7715888023376465 -0.016048066318035126
0.5737627744674683 0.7911057472229004 0.0025677361991256475
0.5937874913215637 0.7468357682228088 0.02095416560769081
0.6005047559738159 0.7448371052742004 0.024114834144711494
0.6060165762901306 0.7411940097808838 0.026924213394522667
0.6235324740409851 0.7240821719169617 0.03874797374010086
0.6781587600708008 0.6590683460235596 0.1197732537984848
0.5592589378356934 0.5174798965454102 -0.01981489732861519
0.5564498901367188 0.46473434567451477 0.0225546695291996
0.5645551085472107 0.4686792492866516 0.04088949039578438
0.5871315002441406 0.743979275226593 0.021666502580046654
0.6654175519943237 0.7148207426071167 0.15476064383983612
0.5480089783668518 0.46344757080078125 -0.014893360435962677
0.5763595104217529 0.8124536871910095 0.017700115218758583
0.5586763620376587 0.532522439956665 -0.06324268132448196
0.5800696015357971 0.5850822925567627 -0.03408614546060562
0.5517364144325256 0.8258344531059265 -0.009522252716124058
0.618273913860321 0.7721350789070129 0.0639127716422081
0.6080722808837891 0.648489773273468 0.02209017612040043
0.5973570346832275 0.7951482534408569 0.041646357625722885
0.651533842086792 0.6421123147010803 0.05186685919761658
0.627813994884491 0.6729166507720947 0.034392084926366806
0.6612064838409424 0.6800656318664551 0.0781126543879509
0.5553699135780334 0.8523296117782593 -0.003385906806215644
0.5844634175300598 0.5981693863868713 -0.012709042057394981
0.6227114796638489 0.7856202721595764 0.09361738711595535
0.6001518964767456 0.8103065490722656 0.06472700834274292
0.6371278166770935 0.7442293167114258 0.07720816880464554
0.6785210967063904 0.6838338375091553 0.18577878177165985
0.6491587162017822 0.7434724569320679 0.1098499596118927
0.6679414510726929 0.6984422206878662 0.24683354794979095
0.6396788954734802 0.7039885520935059 0.05308084934949875
0.5736488699913025 0.5608727335929871 -0.017685778439044952
0.5915671586990356 0.6376665234565735 -0.06671534478664398
0.5949575901031494 0.6423075199127197 -0.03940961882472038
0.591147780418396 0.6215561032295227 -0.08738482743501663
0.5763777494430542 0.4407885670661926 0.02355792000889778
0.6115807294845581 0.42674970626831055 0.03341531753540039
0.6403950452804565 0.4248802363872528 0.049140095710754395
0.6611098647117615 0.4295523464679718 0.07101185619831085
0.6712194681167603 0.4405148923397064 0.09349143505096436
0.6683968305587769 0.4819541573524475 0.13526785373687744
0.6884567141532898 0.5411018133163452 0.26905977725982666
0.6606205105781555 0.519661545753479 0.10947433859109879
0.6442499160766602 0.5282421708106995 0.08566178381443024
0.6189344525337219 0.529008150100708 0.06435202062129974
0.5930532813072205 0.5233524441719055 0.04836413264274597
0.5741413831710815 0.5151901245117188 0.03737417235970497
0.5620750784873962 0.5069720149040222 0.029645532369613647
0.6570783853530884 0.5364972949028015 0.3558659553527832
0.5901163816452026 0.6481680274009705 -0.028806593269109726
0.5747795701026917 0.5692130327224731 -0.0567617304623127
0.586491584777832 0.6400250196456909 -0.09174561500549316
0.5705693364143372 0.6520329713821411 -0.0882997140288353
0.5815368890762329 0.6435661315917969 -0.08039074391126633
0.5826645493507385 0.6555342674255371 -0.02525879628956318
0.5697766542434692 0.6549453735351562 -0.09536772966384888
0.5609561204910278 0.6596150994300842 -0.07013996690511703
0.5598028898239136 0.48607137799263 0.04216179996728897
0.5524322986602783 0.49266600608825684 0.021314600482583046
0.552368700504303 0.4977152645587921 0.002077005337923765
0.6545405983924866 0.47111785411834717 0.09959705919027328
0.6634180545806885 0.46113121509552 0.1047949269413948
