ply
format ascii 1.0
element vertex 468
property float x
property float y
property float z
end_header
0.5026547908782959 0.717953085899353 -0.06287892162799835
0.5038542747497559 0.6432954668998718 -0.138309046626091
0.5032373070716858 0.6653605699539185 -0.07375475764274597
0.4838797450065613 0.5517836213111877 -0.10748007893562317
0.5040174722671509 0.6161327958106995 -0.14741353690624237
0.5042228102684021 0.578877866268158 -0.13870108127593994
0.5047795176506042 0.49003899097442627 -0.07479022443294525
0.3386438488960266 0.4788194000720978 0.02527724765241146
0.505024254322052 0.42931634187698364 -0.05837712064385414
0.5053188800811768 0.3967786431312561 -0.06392478197813034
0.5074363946914673 0.28622469305992126 -0.04351342096924782
0.5025932788848877 0.7296655774116516 -0.058954596519470215
0.5026246905326843 0.7367139458656311 -0.05191050469875336
0.5027017593383789 0.7373220920562744 -0.041918281465768814
0.503847062587738 0.7885221838951111 -0.025867056101560593
0.5037091970443726 0.7995362281799316 -0.030265113338828087
0.5035709738731384 0.8124209046363831 -0.036018308252096176
0.5034734010696411 0.8266795873641968 -0.03223494067788124
0.5030635595321655 0.8480334281921387 -0.011519989930093288
0.5035849809646606 0.6563925743103027 -0.1253775656223297
0.47799962759017944 0.6512172222137451 -0.09101502597332001
0.2610085606575012 0.39683184027671814 0.1329774409532547
0.40833061933517456 0.49882590770721436 0.0020341123454272747
0.38487356901168823 0.5006119012832642 0.0033424419816583395
0.3615025281906128 0.5004504919052124 0.009316559880971909
0.3293154835700989 0.4883471727371216 0.029113894328475
0.42748016119003296 0.4935392141342163 0.0037506294902414083
0.3724384605884552 0.44202321767807007 -0.008417266421020031
0.39815494418144226 0.4428061246871948 -0.007943759672343731
0.3489306569099426 0.4463096857070923 -0.0010988787980750203
0.3334619998931885 0.45496997237205505 0.008743521757423878
0.3108533024787903 0.5058073401451111 0.04160667955875397
0.40611034631729126 0.8716963529586792 0.02650367096066475
0.3290294408798218 0.4737521708011627 0.03287525475025177
0.2434195876121521 0.4997786581516266 0.14850027859210968
0.28478243947029114 0.4921671152114868 0.0650114119052887
0.3786714971065521 0.6051738262176514 -0.020004890859127045
0.46406790614128113 0.712456226348877 -0.05992038547992706
0.467931866645813 0.7347096800804138 -0.0469658263027668
0.42555031180381775 0.7149703502655029 -0.042517054826021194
0.40249350666999817 0.720027506351471 -0.016543474048376083
0.4400561451911926 0.7328599691390991 -0.033176880329847336
0.41947364807128906 0.732508659362793 -0.010161674581468105
0.3748643696308136 0.7653229236602783 0.03311501070857048
0.4823971390724182 0.6419425010681152 -0.13602179288864136
0.47977104783058167 0.6154060959815979 -0.1445322185754776
0.2998959422111511 0.4324600100517273 0.012782701291143894
0.43252402544021606 0.5433735251426697 -0.02564416453242302
0.4197266399860382 0.6249793767929077 -0.07466286420822144
0.4190095067024231 0.6098599433898926 -0.06731725484132767
0.3085421323776245 0.5974867939949036 0.011695298366248608
0.48183950781822205 0.5811507105827332 -0.13079933822155
0.35262808203697205 0.4053102731704712 -0.029735729098320007
0.32137370109558105 0.41428279876708984 -0.011366913095116615
0.2830771207809448 0.35422995686531067 0.08406223356723785
0.45522892475128174 0.42327743768692017 -0.05019885674118996
0.4207965135574341 0.44991523027420044 -0.0004342673346400261
0.3555997610092163 0.731742799282074 0.03500525653362274
0.2587958872318268 0.7355793714523315 0.22342148423194885
0.437127947807312 0.6397002935409546 -0.06442561000585556
0.4584392011165619 0.6496052742004395 -0.0674675703048706
0.3738859295845032 0.73502117395401 0.035674650222063065
0.38716059923171997 0.7367329597473145 0.02971937693655491
0.3092498183250427 0.3992277979850769 -0.00018958789587486535
0.4171162545681 0.633781909942627 -0.06054095923900604
0.39612051844596863 0.4058866500854492 -0.043408915400505066
0.3916979730129242 0.3863597512245178 -0.04993603006005287
0.373684823513031 0.2980460226535797 -0.01061619445681572
0.2965540289878845 0.3763802647590637 0.03696899488568306
0.38481277227401733 0.34104159474372864 -0.031293392181396484
0.28719964623451233 0.4222559332847595 0.033096861094236374
0.2744401693344116 0.41140425205230713 0.08127931505441666
0.4653064012527466 0.7263903617858887 -0.05554196238517761
0.4334331154823303 0.7263213396072388 -0.037949465215206146
0.41093701124191284 0.7266311049461365 -0.014780774712562561
0.4426737427711487 0.6440662145614624 -0.05994632840156555
0.3800399601459503 0.7358266115188599 0.032159268856048584
0.39390984177589417 0.756489098072052 0.020172996446490288
0.3919385075569153 0.7366679310798645 0.02900535985827446
0.4536385238170624 0.6368567943572998 -0.09998290240764618
0.42472875118255615 0.7299752235412598 -0.006857201922684908
0.44552356004714966 0.7320346832275391 -0.023974282667040825
0.47118857502937317 0.7351601719856262 -0.037074413150548935
0.46237650513648987 0.8439358472824097 -0.008152181282639503
0.4637630581855774 0.821499764919281 -0.02813018672168255
0.4657301902770996 0.8072566986083984 -0.030806811526417732
0.4683188796043396 0.7945014238357544 -0.0246058888733387
0.4712293744087219 0.7851681113243103 -0.02084062062203884
0.4226621985435486 0.7662642598152161 0.005504113622009754
0.4177204966545105 0.7693303227424622 0.002269685035571456
0.41097491979599 0.7751522064208984 -0.00026775337755680084
0.4055930972099304 0.7821474075317383 0.005025627091526985
0.386896550655365 0.6947230696678162 -0.01250181533396244
0.2404918670654297 0.6089121699333191 0.25064706802368164
0.5033818483352661 0.6604687571525574 -0.09207373112440109
0.40882402658462524 0.7557244300842285 0.020964888855814934
0.40102192759513855 0.755419135093689 0.01921907253563404
0.4674609303474426 0.6623907089233398 -0.06678969413042068
0.4241124093532562 0.6482610702514648 -0.041376370936632156
0.46300017833709717 0.6563048362731934 -0.06823372095823288
0.40698617696762085 0.5559337139129639 -0.01675783284008503
0.3667501211166382 0.5705873966217041 -0.010009256191551685
0.4136729836463928 0.6194673776626587 -0.052621517330408096
0.31769469380378723 0.32014375925064087 0.0338592603802681
0.33072996139526367 0.35176047682762146 0.0006210327264852822
0.3442893326282501 0.3862496316432953 -0.026279795914888382
0.3967139422893524 0.7955196499824524 0.020680198445916176
0.4475843012332916 0.39158540964126587 -0.06093166396021843
0.4417811632156372 0.33974313735961914 -0.04908725991845131
0.43501177430152893 0.2881438732147217 -0.036547742784023285
0.3412524461746216 0.4964456558227539 0.019391203299164772
0.28472164273262024 0.5235021114349365 0.05583199858665466
0.4392243027687073 0.48778337240219116 0.006600810680538416
0.3101942539215088 0.46311917901039124 0.029553620144724846
0.45014169812202454 0.5285372734069824 -0.03551304340362549
0.4377068281173706 0.6194316148757935 -0.09972023218870163
0.25870010256767273 0.5413421988487244 0.0834006741642952
0.30061835050582886 0.5378749370574951 0.034753285348415375
0.3304145634174347 0.5457025766372681 0.013202797621488571
0.37539663910865784 0.5429738163948059 0.0013966161059215665
0.4092695713043213 0.5342393517494202 -0.00394641375169158
0.43390899896621704 0.523749828338623 -0.011763623915612698
0.48235374689102173 0.4965568482875824 -0.06438414007425308
0.25668781995773315 0.5905600190162659 0.07885753363370895
0.29146090149879456 0.4598776400089264 0.040184278041124344
0.49020081758499146 0.6548522710800171 -0.12371610850095749
0.43131792545318604 0.5691099762916565 -0.03596518561244011
0.2397138774394989 0.4988911747932434 0.22628465294837952
0.4521559178829193 0.5114539265632629 -0.016383551061153412
0.41119739413261414 0.619189977645874 -0.026393035426735878
0.32166382670402527 0.4763450622558594 0.0374823696911335
0.4373089373111725 0.6008580327033997 -0.09067779779434204
0.24368932843208313 0.6697765588760376 0.2425173819065094
0.43793320655822754 0.4789234399795532 0.012759935110807419
0.45973461866378784 0.5888382792472839 -0.11569224298000336
0.30432403087615967 0.7973911166191101 0.1103014275431633
0.3081532120704651 0.8307917714118958 0.14883877336978912
0.23574551939964294 0.6026116609573364 0.16533181071281433
0.2757948040962219 0.7613065242767334 0.13280978798866272
0.25908130407333374 0.45176512002944946 0.12141366302967072
0.4016229808330536 0.9013990163803101 0.039622098207473755
0.49271732568740845 0.6590732932090759 -0.0903678610920906
0.40825799107551575 0.5857320427894592 -0.02619219571352005
0.2647905945777893 0.4979000687599182 0.08943017572164536
0.36402082443237305 0.484993040561676 0.011738678440451622
0.3848216235637665 0.48639899492263794 0.00588742271065712
0.38738763332366943 0.7583957314491272 0.024140387773513794
0.2562716007232666 0.6421409845352173 0.09041610360145569
0.44744765758514404 0.9441347122192383 0.04325611889362335
0.37258994579315186 0.898691713809967 0.09180855751037598
0.3422272801399231 0.8694093227386475 0.11824716627597809
0.506385326385498 0.34115761518478394 -0.055021077394485474
0.5020776987075806 0.9508223533630371 0.03580654412508011
0.4044106900691986 0.48504096269607544 0.004796996712684631
0.4226301610469818 0.48195213079452515 0.007910335436463356
0.4334789514541626 0.4804900884628296 0.012378907762467861
0.27566713094711304 0.45571988821029663 0.06446550786495209
0.4166571795940399 0.4624858498573303 0.0042742337100207806
0.39593973755836487 0.4562827944755554 -0.0005046908627264202
0.375404953956604 0.4552119970321655 0.00048309715930372477
0.3548887073993683 0.4593105912208557 0.006122838240116835
0.34191370010375977 0.46582797169685364 0.014366202056407928
0.24693754315376282 0.441823810338974 0.1847502887248993
0.349224328994751 0.48206090927124023 0.01876135542988777
0.5031208992004395 0.681851863861084 -0.06441108882427216
0.4105488061904907 0.6831921935081482 -0.034079670906066895
0.4375743865966797 0.6372638940811157 -0.07452700287103653
0.4635351598262787 0.6815557479858398 -0.0609298013150692
0.5048986673355103 0.4588967561721802 -0.057172566652297974
0.3363391160964966 0.8355963230133057 0.09200309216976166
0.36761215329170227 0.8682506680488586 0.06792443245649338
0.44684159755706787 0.924411416053772 0.01523542869836092
0.2820732295513153 0.7897834181785583 0.1868060827255249
0.4311451017856598 0.4722962975502014 0.009138871915638447
0.4654468894004822 0.5382223725318909 -0.07015369087457657
0.5022531747817993 0.9314002990722656 0.009336333721876144
0.40587136149406433 0.9253970980644226 0.06301607191562653
0.23964577913284302 0.6591814160346985 0.16496683657169342
0.4444405436515808 0.7770601511001587 -0.008868688717484474
0.4396185278892517 0.7834610342979431 -0.012234305962920189
0.43483245372772217 0.7933487296104431 -0.015169684775173664
0.43094152212142944 0.8058466911315918 -0.011146346107125282
0.42410948872566223 0.8237448930740356 0.004651347175240517
0.3997137248516083 0.7321457862854004 0.010860763490200043
0.3913082182407379 0.7290792465209961 0.011476391926407814
0.384010910987854 0.7245593070983887 0.01083501148968935
0.3660498559474945 0.7101121544837952 0.01245069783180952
0.2858017086982727 0.654082179069519 0.04271621257066727
0.46699047088623047 0.5113745927810669 -0.048122383654117584
0.4563625454902649 0.46317803859710693 -0.00559546984732151
0.4416608214378357 0.4661925435066223 0.004254619125276804
0.4069017469882965 0.7293292284011841 0.012904157862067223
0.2820388078689575 0.7192686200141907 0.08622755110263824
0.47533172369003296 0.46250998973846436 -0.03881978243589401
0.415542334318161 0.8438628911972046 0.016370929777622223
0.504341721534729 0.5482543110847473 -0.11607310175895691
0.4825364351272583 0.5254985690116882 -0.08814830332994461
0.5045343637466431 0.520126461982727 -0.09436911344528198
0.4462721347808838 0.5774649977684021 -0.06901679933071136
0.5024099349975586 0.9026452302932739 -0.003809891873970628
0.5027382969856262 0.8711190223693848 -0.006622728426009417
0.4572320282459259 0.8662474155426025 -0.00022565954714082181
0.35893285274505615 0.7758758068084717 0.045694783329963684
0.39201948046684265 0.6386827230453491 -0.017509767785668373
0.38409948348999023 0.8131247162818909 0.03341919183731079
0.33875930309295654 0.6338105201721191 -0.006853146944195032
0.36945176124572754 0.6629882454872131 -0.0062757511623203754
0.31704607605934143 0.6730586886405945 0.02017146535217762
0.4501132667064667 0.8964927196502686 0.003200284903869033
0.42958393692970276 0.5893890261650085 -0.05026048794388771
0.34175747632980347 0.8008603453636169 0.06600058823823929
0.37353241443634033 0.8374395966529846 0.050187744200229645
0.33918893337249756 0.7376531362533569 0.04275655001401901
0.26102006435394287 0.6875244975090027 0.10289762914180756
0.31110259890556335 0.747052013874054 0.06269678473472595
0.2520938217639923 0.7126563787460327 0.15876735746860504
0.3478553593158722 0.690615177154541 0.012480716221034527
0.4491402208805084 0.5536571741104126 -0.05165893957018852
0.44551771879196167 0.6323695182800293 -0.10505730658769608
0.4271237254142761 0.6343516111373901 -0.07749959826469421
0.45770519971847534 0.6169940829277039 -0.1239422932267189
0.43736475706100464 0.4431377053260803 -0.012740619480609894
0.3984212875366211 0.43086743354797363 -0.017888439819216728
0.36500048637390137 0.429264634847641 -0.016592783853411674
0.33773505687713623 0.43390098214149475 -0.006664796732366085
0.31945663690567017 0.444752037525177 0.008479311130940914
0.30653244256973267 0.4845578670501709 0.047378331422805786
0.23686528205871582 0.5504162311553955 0.1583780199289322
0.3240765631198883 0.5144834518432617 0.029903670772910118
0.3486774265766144 0.5208197236061096 0.015480711124837399
0.3802070617675781 0.5203965306282043 0.005613992922008038
0.40985265374183655 0.5152703523635864 0.0017596083926036954
0.4324244558811188 0.5078346729278564 -0.0007164646522141993
0.4476630389690399 0.5005162358283997 -0.0024460148997604847
0.24024075269699097 0.5533049702644348 0.24672232568264008
0.42660149931907654 0.6391120553016663 -0.06495437026023865
0.4646768271923065 0.5626524686813354 -0.0894002765417099
0.4641730785369873 0.6367673277854919 -0.12436123937368393
0.4772859811782837 0.6489295363426208 -0.11375803500413895
0.46387970447540283 0.6398004293441772 -0.1121959239244461
0.4324491024017334 0.6460391879081726 -0.056073229759931564
0.4821402132511139 0.6524091958999634 -0.12024309486150742
0.4840419590473175 0.6562256813049316 -0.09067113697528839
0.4465301036834717 0.48103612661361694 0.00841487292200327
0.4595661163330078 0.48765355348587036 -0.006526354234665632
0.4660986065864563 0.4926799535751343 -0.0248870812356472
0.3344610929489136 0.4705079197883606 0.022426314651966095
0.3225528597831726 0.4638915956020355 0.0231091920286417
0.5247791409492493 0.551805853843689 -0.10786674916744232
0.6697355508804321 0.4785977602005005 0.022102467715740204
0.5290436148643494 0.6514940857887268 -0.09135738760232925
0.7514270544052124 0.3962562680244446 0.1286071389913559
0.6006297469139099 0.49939844012260437 -0.00027573216357268393
0.6241623163223267 0.5011274218559265 0.0006668805726803839
0.6473135948181152 0.5007662773132324 0.006130218971520662
0.6785821914672852 0.4881470799446106 0.025781091302633286
0.5812130570411682 0.4940624237060547 0.002003664616495371
0.636885941028595 0.4416140615940094 -0.01098365057259798
0.611167848110199 0.44257187843322754 -0.009995871223509312
0.6602599620819092 0.4459015130996704 -0.003932117018848658
0.6755188703536987 0.4544850289821625 0.005748439580202103
0.6973130702972412 0.5058252811431885 0.03784162923693657
0.5993154048919678 0.872265100479126 0.025107350200414658
0.6790366172790527 0.4734399914741516 0.029686028137803078
0.7643836736679077 0.4992530941963196 0.1438506841659546
0.7232756614685059 0.4917586147785187 0.06112070381641388
0.6284779906272888 0.6055000424385071 -0.022518064826726913
0.5416795015335083 0.7125304937362671 -0.06063387915492058
0.5374711751937866 0.7348489761352539 -0.047907572239637375
0.5803643465042114 0.7150325775146484 -0.04415298253297806
0.6036702990531921 0.7201992273330688 -0.01878017745912075
0.5657131671905518 0.7330108880996704 -0.03494492918252945
0.5866790413856506 0.7325787544250488 -0.012319440953433514
0.631915271282196 0.765809953212738 0.030639026314020157
0.5253995060920715 0.6420429944992065 -0.1362464427947998
0.5280447006225586 0.6154763698577881 -0.14470362663269043
0.7103221416473389 0.43133866786956787 0.009435351938009262
0.5760114192962646 0.5437481999397278 -0.02740778587758541
0.5873294472694397 0.6251015663146973 -0.0761411115527153
0.5881651639938354 0.609984278678894 -0.06885761767625809
0.6976521611213684 0.5978464484214783 0.00790330395102501
0.5265378952026367 0.5812303423881531 -0.13128432631492615
0.6578848958015442 0.40416836738586426 -0.031968310475349426
0.6892520189285278 0.41319409012794495 -0.014167405664920807
0.7305384278297424 0.3535698652267456 0.08042245358228683
0.5547372698783875 0.4232293963432312 -0.05089700222015381
0.5885986089706421 0.44989800453186035 -0.0020206086337566376
0.6510356068611145 0.732292115688324 0.0321565642952919
0.7457669973373413 0.7353520393371582 0.21935655176639557
0.5701069235801697 0.6398470401763916 -0.06571894139051437
0.5487362742424011 0.64987713098526 -0.0679931715130806
0.6329778432846069 0.7353051900863647 0.032975345849990845
0.6201837062835693 0.7369223833084106 0.027293222025036812
0.7020922899246216 0.39796656370162964 -0.003148359013721347
0.5898916721343994 0.63407963514328 -0.06212381273508072
0.6139094233512878 0.4052218198776245 -0.044968634843826294
0.6188512444496155 0.38544613122940063 -0.05126737058162689
0.6404557228088379 0.29776903986930847 -0.012578287161886692
0.7159931063652039 0.37545013427734375 0.03364521265029907
0.6273994445800781 0.3406137228012085 -0.032967835664749146
0.7236447334289551 0.42117494344711304 0.029442619532346725
0.7372725009918213 0.4107389748096466 0.0771680623292923
0.5401427745819092 0.726564884185791 -0.05633976683020592
0.5722848176956177 0.7263973951339722 -0.03975477069616318
0.5952373743057251 0.7266812920570374 -0.017142154276371002
0.564404308795929 0.6442933082580566 -0.06086856871843338
0.6269870400428772 0.7360703349113464 0.029912730678915977
0.6133747100830078 0.7567373514175415 0.017819715663790703
0.6155902147293091 0.7369154691696167 0.02652793377637863
0.553758978843689 0.6371867656707764 -0.10092375427484512
0.5815953016281128 0.7300255298614502 -0.00893168244510889
0.5605363845825195 0.7321226000785828 -0.025657299906015396
0.5344951152801514 0.7353206872940063 -0.03815701976418495
0.5440190434455872 0.8441139459609985 -0.009093116037547588
0.5431495904922485 0.8216758966445923 -0.029243575409054756
0.5415459871292114 0.8075366020202637 -0.03196895495057106
0.5393058657646179 0.7947466969490051 -0.02583850361406803
0.5363479852676392 0.7854531407356262 -0.02189629152417183
0.5851237177848816 0.7665018439292908 0.003488594200462103
0.5899607539176941 0.7695060968399048 -3.738603481906466e-05
0.5965110659599304 0.7753512859344482 -0.002291420940309763
0.6016560792922974 0.782434344291687 0.0026763994246721268
0.6197698712348938 0.6950427889823914 -0.01486797071993351
0.7658118009567261 0.6086539030075073 0.2458948791027069
0.598783552646637 0.7559881210327148 0.01876777410507202
0.6065426468849182 0.7556018233299255 0.01687592640519142
0.5394347906112671 0.6625596284866333 -0.06730815768241882
0.5827109813690186 0.6486610770225525 -0.042747627943754196
0.5439448952674866 0.6566683650016785 -0.06865055859088898
0.6012579202651978 0.5563561916351318 -0.018931936472654343
0.6407402157783508 0.570909857749939 -0.012881861068308353
0.5934467911720276 0.6197046637535095 -0.05428791791200638
0.6961530447006226 0.31946298480033875 0.030909353867173195
0.6819244623184204 0.350896954536438 -0.0021082039456814528
0.6667459011077881 0.38501015305519104 -0.028638502582907677
0.610210657119751 0.7959086894989014 0.018493767827749252
0.563097357749939 0.39133211970329285 -0.061380643397569656
0.5709348917007446 0.3396943509578705 -0.04987431690096855
0.5796363949775696 0.2880970239639282 -0.037460144609212875
0.6671197414398193 0.49642276763916016 0.01620388589799404
0.7225526571273804 0.5235342383384705 0.05179924517869949
0.5693598985671997 0.4882526397705078 0.005038997158408165
0.6987901329994202 0.46247953176498413 0.02593351900577545
0.5587359666824341 0.5287015438079834 -0.03683261573314667
0.5695797204971313 0.6196475625038147 -0.10087483376264572
0.74801105260849 0.5413482189178467 0.0788067951798439
0.7065256237983704 0.5381858944892883 0.030963007360696793
0.6773592829704285 0.5459722280502319 0.009671071544289589
0.6328098177909851 0.5434058904647827 -0.001512701390311122
0.5992006659507751 0.5346763134002686 -0.006274186074733734
0.5749282240867615 0.5241993069648743 -0.013540086336433887
0.5272039771080017 0.4966316819190979 -0.06496189534664154
0.7484489679336548 0.5906682014465332 0.07454077899456024
0.7179993391036987 0.45916420221328735 0.03645077347755432
0.5168646574020386 0.654932975769043 -0.12382656335830688
0.5767343640327454 0.5694659948348999 -0.037588611245155334
0.7688761949539185 0.49847134947776794 0.2216598242521286
0.5569651126861572 0.5118309259414673 -0.017686067149043083
0.5961682796478271 0.6194738745689392 -0.02821439690887928
0.6862130761146545 0.4759224057197571 0.03421028330922127
0.5701176524162292 0.6010552048683167 -0.09192861616611481
0.761467456817627 0.6697063446044922 0.23838914930820465
0.5709336996078491 0.47935423254966736 0.011280403472483158
0.5481922626495361 0.5889357328414917 -0.11645039170980453
0.7006735801696777 0.7976829409599304 0.10707639157772064
0.6967318058013916 0.8310958743095398 0.14578597247600555
0.7694412469863892 0.6023082733154297 0.16062970459461212
0.7285645008087158 0.7611604928970337 0.12931542098522186
0.7509081363677979 0.45116937160491943 0.11718632280826569
0.6034969091415405 0.9019293785095215 0.03839632123708725
0.5141741037368774 0.6591468453407288 -0.09053897112607956
0.5995416641235352 0.585890531539917 -0.028059544041752815
0.742815375328064 0.4974920153617859 0.0851040631532669
0.6450488567352295 0.4852057993412018 0.008972691372036934
0.6243174076080322 0.48678332567214966 0.0034551823046058416
0.6197826862335205 0.7586534023284912 0.02167862094938755
0.7484941482543945 0.6418870687484741 0.08602812886238098
0.5571288466453552 0.9445302486419678 0.04234743118286133
0.63270103931427 0.8995047807693481 0.0899406298995018
0.6629597544670105 0.8700639009475708 0.11583396047353745
0.6044567227363586 0.4856434762477875 0.002614873694255948
0.5861359238624573 0.48238760232925415 0.00606868090108037
0.5753943920135498 0.4809403419494629 0.010746482759714127
0.7338865995407104 0.45490288734436035 0.06027223914861679
0.5926207304000854 0.4625701904296875 0.002300639869645238
0.6134501695632935 0.45627260208129883 -0.002734192181378603
0.6339614987373352 0.45517051219940186 -0.0023842155933380127
0.6541315317153931 0.45914241671562195 0.0033408913295716047
0.6666938066482544 0.4654248356819153 0.011194019578397274
0.7638258337974548 0.4414384961128235 0.1803925335407257
0.659508466720581 0.48224398493766785 0.015773644670844078
0.595959484577179 0.6834039092063904 -0.03577636927366257
0.5697216391563416 0.6374253034591675 -0.07565251737833023
0.5430401563644409 0.6816278696060181 -0.061579566448926926
0.6689002513885498 0.836163341999054 0.08959345519542694
0.6376132369041443 0.8689239621162415 0.06583108007907867
0.5577964782714844 0.9247514605522156 0.01445732917636633
0.7223595976829529 0.7895990014076233 0.18327105045318604
0.5777455568313599 0.472552090883255 0.0075621833093464375
0.5434045195579529 0.5384044647216797 -0.07094744592905045
0.5988940000534058 0.9259575605392456 0.061678990721702576
0.7646764516830444 0.65871661901474 0.16025756299495697
0.563140869140625 0.7773464322090149 -0.010792252607643604
0.5680754780769348 0.7838695049285889 -0.014180933125317097
0.5725612044334412 0.793558657169342 -0.017228495329618454
0.5762579441070557 0.8060255646705627 -0.013139819726347923
0.5825097560882568 0.823971152305603 0.0029871948063373566
0.6070321798324585 0.7323397397994995 0.008434046991169453
0.6151238083839417 0.7293782234191895 0.008883915841579437
0.6224126219749451 0.7248872518539429 0.008435762487351894
0.640573263168335 0.7105109095573425 0.009700014255940914
0.7191036939620972 0.654136061668396 0.03848470374941826
0.5423495173454285 0.511539876461029 -0.04910252243280411
0.5530981421470642 0.4633999168872833 -0.00669731805101037
0.5674381256103516 0.46631988883018494 0.002779201604425907
0.6001917123794556 0.7295029759407043 0.010563951916992664
0.722786009311676 0.7191503047943115 0.08239134401082993
0.5346052646636963 0.46271783113479614 -0.039609380066394806
0.5904080271720886 0.8443083763122559 0.014846185222268105
0.5264989733695984 0.5255351066589355 -0.08850503712892532
0.5616319179534912 0.5775884985923767 -0.07012408971786499
0.5483546853065491 0.866559624671936 -0.000990547938272357
0.6473685503005981 0.7765686511993408 0.04298427700996399
0.6152267456054688 0.639200747013092 -0.019793910905718803
0.6220418810844421 0.8136252760887146 0.03140918165445328
0.667401909828186 0.634041428565979 -0.01002327911555767
0.6375600099563599 0.6634958982467651 -0.00893189013004303
0.6885903477668762 0.6733817458152771 0.016727028414607048
0.5548368692398071 0.8968983888626099 0.002435526344925165
0.5780431628227234 0.5896289348602295 -0.05187447741627693
0.6638932228088379 0.8012683987617493 0.0634211078286171
0.6322430968284607 0.8380118012428284 0.04828322306275368
0.6669470071792603 0.7380993962287903 0.03943737596273422
0.7436754107475281 0.6872472167015076 0.09851258248090744
0.6941231489181519 0.7471674084663391 0.05920987203717232
0.7521318197250366 0.712035059928894 0.15450207889080048
0.6587536334991455 0.6911948323249817 0.009124108590185642
0.5592634081840515 0.5538523197174072 -0.052978403866291046
0.5619083046913147 0.6325343251228333 -0.1060500293970108
0.580049991607666 0.6345906853675842 -0.07865499705076218
0.5499874353408813 0.6172162890434265 -0.12472721934318542
0.5722464323043823 0.4431542158126831 -0.014230950735509396
0.6110385656356812 0.4304649233818054 -0.019690129905939102
0.6445021629333496 0.42868709564208984 -0.018730292096734047
0.6719356179237366 0.43315744400024414 -0.009657512418925762
0.6899985074996948 0.4440309405326843 0.005290751811116934
0.7017681002616882 0.48424988985061646 0.043651364743709564
0.7693642377853394 0.5500853061676025 0.15374238789081573
0.6839374899864197 0.5146223306655884 0.026416704058647156
0.6597787141799927 0.5211949944496155 0.012316622771322727
0.6285455822944641 0.5208914279937744 0.0029151756316423416
0.5988207459449768 0.5157260894775391 -0.000518807559274137
0.5765048265457153 0.5083640217781067 -0.002372490242123604
0.5614093542098999 0.500939130783081 -0.0038982906844466925
0.7671343088150024 0.5529959797859192 0.24185557663440704
0.5805140733718872 0.639342188835144 -0.06614035367965698
0.5438072681427002 0.5626710653305054 -0.09027373790740967
0.543465256690979 0.6369084119796753 -0.12495540082454681
0.5298030972480774 0.6490105390548706 -0.1141904890537262
0.5436286330223083 0.6400103569030762 -0.11267231404781342
0.5744161605834961 0.6464890837669373 -0.057148829102516174
0.5249385833740234 0.6524576544761658 -0.12058132886886597
0.5228379368782043 0.6563555598258972 -0.09085162729024887
0.5622763633728027 0.48130175471305847 0.007185823284089565
0.5496909618377686 0.48807406425476074 -0.007596737705171108
0.5434914231300354 0.4929717183113098 -0.025591975077986717
0.6738824844360352 0.47021186351776123 0.019005101174116135
0.685820996761322 0.4633486270904541 0.019748052582144737
