ply
format ascii 1.0
element vertex 468
property float x
property float y
property float z
end_header
0.4742042124271393 0.6769773960113525 -0.08990689367055893
0.4627578854560852 0.5893567204475403 -0.12125084549188614
0.4749455749988556 0.6223196983337402 -0.07166408002376556
0.4511265754699707 0.5223689675331116 -0.06965753436088562
0.46112215518951416 0.5650511980056763 -0.12478583306074142
0.46418341994285583 0.5377404093742371 -0.1092938706278801
0.4768325090408325 0.47601789236068726 -0.030904484912753105
0.33739298582077026 0.4937405586242676 0.09965892881155014
0.47923460602760315 0.41877466440200806 -0.003332989988848567
0.47742465138435364 0.386849045753479 -0.000397662166506052
0.4818398654460907 0.2847651541233063 0.05280767381191254
0.4748387336730957 0.6890565156936646 -0.08987279236316681
0.47687026858329773 0.7005700469017029 -0.08374805748462677
0.47980672121047974 0.7080576419830322 -0.07460852712392807
0.48167121410369873 0.7231103181838989 -0.07375932484865189
0.4808903932571411 0.7338380813598633 -0.07862735539674759
0.4808878004550934 0.747875988483429 -0.0838819220662117
0.48238974809646606 0.7629223465919495 -0.08009271323680878
0.48865845799446106 0.7874194979667664 -0.05809978023171425
0.46697181463241577 0.6038898229598999 -0.11201904714107513
0.45657217502593994 0.6080191731452942 -0.07820829749107361
0.28494805097579956 0.42566025257110596 0.25670215487480164
0.397199809551239 0.5114994645118713 0.056469645351171494
0.3751121461391449 0.5148668885231018 0.06337852776050568
0.35531216859817505 0.5142795443534851 0.0753282979130745
0.33256494998931885 0.5037788152694702 0.10354775190353394
0.4160897433757782 0.5031230449676514 0.05471620708703995
0.36728835105895996 0.4435628354549408 0.06566374748945236
0.39156728982925415 0.4447086751461029 0.05845212563872337
0.3458317518234253 0.44921553134918213 0.0781622901558876
0.3328373432159424 0.4604243040084839 0.08961977809667587
0.3173471987247467 0.5214561223983765 0.11578818410634995
0.4146641492843628 0.8251687288284302 -0.026217758655548096
0.33200711011886597 0.48816853761672974 0.11080629378557205
0.2777554988861084 0.5239377021789551 0.23945839703083038
0.29920169711112976 0.5074911713600159 0.14966663718223572
0.3809559941291809 0.6008003354072571 0.012129288166761398
0.45195838809013367 0.6765081882476807 -0.07862181216478348
0.4598499536514282 0.7033007740974426 -0.07474154233932495
0.4320930540561676 0.6909326314926147 -0.06118626520037651
0.4212369918823242 0.7078257203102112 -0.04411027580499649
0.44700416922569275 0.7099103927612305 -0.06176084280014038
0.43750321865081787 0.7182628512382507 -0.045340247452259064
0.4020169973373413 0.7542213201522827 -0.015094311907887459
0.4468243420124054 0.5905019640922546 -0.11540291458368301
0.44190317392349243 0.5679090023040771 -0.11741962283849716
0.30144912004470825 0.43877995014190674 0.1146666631102562
0.42194926738739014 0.5394001603126526 0.013321819715201855
0.41536402702331543 0.5995323657989502 -0.04662517458200455
0.4147551357746124 0.5894904732704163 -0.03756996616721153
0.3216058015823364 0.6098852753639221 0.059480875730514526
0.4458959698677063 0.5424394011497498 -0.09666674584150314
0.3411027193069458 0.4037741720676422 0.06377489864826202
0.31570491194725037 0.41630011796951294 0.09003031998872757
0.29526838660240173 0.37769514322280884 0.21436305344104767
0.43251001834869385 0.4166090786457062 0.016353340819478035
0.41327330470085144 0.4528883397579193 0.058400869369506836
0.3872640132904053 0.7340394258499146 -0.0003889288636855781
0.317585825920105 0.7461898326873779 0.2359887957572937
0.433349609375 0.6115285754203796 -0.04540998116135597
0.44971007108688354 0.6167960166931152 -0.05610281601548195
0.4130702614784241 0.7340874671936035 -0.009384856559336185
0.42524290084838867 0.7309905886650085 -0.019323062151670456
0.30602526664733887 0.40359193086624146 0.10768614709377289
0.41990190744400024 0.6128794550895691 -0.03735339269042015
0.3784397840499878 0.40227192640304565 0.03823062777519226
0.37322095036506653 0.383756160736084 0.03920302912592888
0.3621169328689575 0.30880823731422424 0.11207655072212219
0.2997966408729553 0.38983553647994995 0.15354911983013153
0.3684159517288208 0.34441500902175903 0.07366234809160233
0.292574942111969 0.432661235332489 0.14134545624256134
0.28814736008644104 0.4299759864807129 0.1951173096895218
0.45469266176223755 0.6910494565963745 -0.07943095266819
0.43933743238449097 0.7016417384147644 -0.06326145678758621
0.42857664823532104 0.7130509614944458 -0.04731839895248413
0.4401188790798187 0.616002082824707 -0.04341055452823639
0.41907060146331787 0.7331550121307373 -0.0149892782792449
0.4236094355583191 0.7345665693283081 -0.03350117430090904
0.4286347031593323 0.7286975383758545 -0.02055414393544197
0.4351038634777069 0.5970320701599121 -0.07436687499284744
0.44450002908706665 0.7180622816085815 -0.04331226274371147
0.45406192541122437 0.7131063938140869 -0.0550212636590004
0.46556365489959717 0.7098211646080017 -0.06644575297832489
0.4618737995624542 0.786963164806366 -0.05267146974802017
0.4578219950199127 0.7618715763092041 -0.07304016500711441
0.45811882615089417 0.746723473072052 -0.07531799376010895
0.4606056213378906 0.732552170753479 -0.0696735680103302
0.463711142539978 0.7238245010375977 -0.0650857463479042
0.4401373267173767 0.7269130349159241 -0.0421692356467247
0.43587082624435425 0.7305916547775269 -0.04681563004851341
0.4297991096973419 0.7373716235160828 -0.051120348274707794
0.42490673065185547 0.7462207674980164 -0.04708574712276459
0.4025796949863434 0.6826064586639404 -0.027115613222122192
0.29692965745925903 0.6342994570732117 0.3070967495441437
0.471480131149292 0.6118587255477905 -0.08528430014848709
0.4348582327365875 0.7287986278533936 -0.029767761006951332
0.42949944734573364 0.7307471632957458 -0.03316303342580795
0.454654723405838 0.6262666583061218 -0.060013297945261
0.4300183653831482 0.6284245252609253 -0.02771652117371559
0.45237284898757935 0.621735155582428 -0.05840351805090904
0.4006339907646179 0.5564749836921692 0.023584019392728806
0.3661452531814575 0.5759537220001221 0.03578754886984825
0.41534918546676636 0.602432370185852 -0.026740286499261856
0.3186667263507843 0.33804330229759216 0.1622091680765152
0.32461613416671753 0.36018475890159607 0.11351679265499115
0.3334003686904907 0.3868292570114136 0.07424183934926987
0.41622400283813477 0.7666651010513306 -0.03028980828821659
0.4226084351539612 0.38582807779312134 0.015198446810245514
0.4184313714504242 0.33902230858802795 0.04357663542032242
0.41479673981666565 0.2929341197013855 0.07391824573278427
0.3402380049228668 0.5114082098007202 0.09035304188728333
0.29729628562927246 0.5413769483566284 0.13034866750240326
0.428398460149765 0.4945833086967468 0.0568002350628376
0.3142074942588806 0.4726903438568115 0.11673247069120407
0.43498262763023376 0.5211288928985596 0.004985584877431393
0.42086535692214966 0.5854247212409973 -0.06964720785617828
0.2806374728679657 0.561302900314331 0.1582173854112625
0.3066067099571228 0.5557574033737183 0.10162413865327835
0.3303050398826599 0.5604987740516663 0.0705675333738327
0.36999911069869995 0.5523488521575928 0.05114841088652611
0.40008020401000977 0.5394190549850464 0.0398746132850647
0.4226105511188507 0.5252953767776489 0.030305739492177963
0.45759332180023193 0.4842871427536011 -0.01753188483417034
0.28334447741508484 0.6106477379798889 0.13902533054351807
0.30011600255966187 0.4712528586387634 0.13448363542556763
0.45760104060173035 0.6037980914115906 -0.10775607079267502
0.42323601245880127 0.5590018630027771 -0.0023840083740651608
0.2868753671646118 0.5312934517860413 0.3206051290035248
0.4382200837135315 0.5095199346542358 0.026662690564990044
0.41716334223747253 0.6072728633880615 -0.0053274864330887794
0.32622385025024414 0.4901273548603058 0.11735562980175018
0.42202699184417725 0.5734278559684753 -0.058078497648239136
0.3035314083099365 0.6893436908721924 0.2791663110256195
0.43055087327957153 0.4853459596633911 0.06575968861579895
0.4322744309902191 0.554874837398529 -0.08078037202358246
0.338428258895874 0.7882576584815979 0.08680731803178787
0.34849879145622253 0.8180100321769714 0.12336359918117523
0.2788962125778198 0.6229843497276306 0.2250673621892929
0.3185712695121765 0.7610839009284973 0.13062907755374908
0.2833477258682251 0.47456735372543335 0.22542345523834229
0.4119563698768616 0.8509306907653809 -0.01693255454301834
0.46444493532180786 0.6115869283676147 -0.08181831240653992
0.4070473313331604 0.5798595547676086 0.005646906327456236
0.2862399220466614 0.515537679195404 0.1773156374692917
0.35516244173049927 0.5008198618888855 0.07908868044614792
0.37368887662887573 0.5023196935653687 0.06899445503950119
0.4179229736328125 0.7398225665092468 -0.02900858223438263
0.2920835614204407 0.657483696937561 0.13033746182918549
0.4533251225948334 0.8861370086669922 -0.026225022971630096
0.39563092589378357 0.858413577079773 0.041189540177583694
0.3727562725543976 0.8420218825340271 0.07694481313228607
0.4785950183868408 0.33547908067703247 0.023754069581627846
0.5009153485298157 0.8913311958312988 -0.04535765200853348
0.3928881883621216 0.49978411197662354 0.06340072304010391
0.41122153401374817 0.4942634701728821 0.06350802630186081
0.42367249727249146 0.4897477626800537 0.06654097139835358
0.28988179564476013 0.4709150493144989 0.16352792084217072
0.4114990830421448 0.46987998485565186 0.06363727897405624
0.39259475469589233 0.464275062084198 0.06529627740383148
0.37279146909713745 0.46348923444747925 0.0710350051522255
0.35384035110473633 0.46862417459487915 0.08096081018447876
0.3427693843841553 0.47637811303138733 0.09037306904792786
0.282548725605011 0.47384777665138245 0.2965182662010193
0.34404808282852173 0.497391015291214 0.09047272056341171
0.4755997955799103 0.6404322385787964 -0.07138802111148834
0.41862696409225464 0.6635953187942505 -0.03718025982379913
0.4302392899990082 0.6060090065002441 -0.05227173864841461
0.45041024684906006 0.6466413736343384 -0.06322728842496872
0.4808969497680664 0.4489201009273529 -0.00830767210572958
0.36221304535865784 0.8130598664283752 0.050084762275218964
0.38602787256240845 0.8315175175666809 0.017189834266901016
0.4467480778694153 0.8652748465538025 -0.04967350512742996
0.33289647102355957 0.7891771793365479 0.18132321536540985
0.424596905708313 0.4786432981491089 0.06529398262500763
0.4423369765281677 0.5196654200553894 -0.030477043241262436
0.4938576817512512 0.8701927661895752 -0.0675419494509697
0.42049309611320496 0.8735935091972351 0.003990748897194862
0.28780338168144226 0.674173891544342 0.20495624840259552
0.44984033703804016 0.7248168587684631 -0.053407393395900726
0.4456600248813629 0.7312116622924805 -0.05838477984070778
0.4410852789878845 0.741759181022644 -0.06298983842134476
0.43820059299468994 0.755444347858429 -0.06055644899606705
0.4358363449573517 0.7783886194229126 -0.043710559606552124
0.4303271472454071 0.7256178259849548 -0.030865514650940895
0.42181915044784546 0.7242924571037292 -0.028782540932297707
0.4145481586456299 0.721666693687439 -0.026027103886008263
0.3914945721626282 0.7070480585098267 -0.012249261140823364
0.3138733506202698 0.6637754440307617 0.07258476316928864
0.4467500150203705 0.5008164048194885 -0.0047696358524262905
0.4428713619709015 0.46322932839393616 0.044950518757104874
0.43271368741989136 0.4696316719055176 0.0593096986413002
0.43681013584136963 0.7226447463035583 -0.030011136084794998
0.31987807154655457 0.7232981324195862 0.0920146182179451
0.45571082830429077 0.45644158124923706 0.012609397992491722
0.4246146082878113 0.8013514280319214 -0.03293607011437416
0.468563973903656 0.5168083310127258 -0.08246959000825882
0.4536508321762085 0.5044636726379395 -0.04601245000958443
0.4725574254989624 0.4972500801086426 -0.055742181837558746
0.42969754338264465 0.5566864609718323 -0.03528723493218422
0.49025389552116394 0.8430423140525818 -0.07319553941488266
0.4892765283584595 0.8130691647529602 -0.06519298255443573
0.45493149757385254 0.8116071224212646 -0.0533251017332077
0.3802748918533325 0.7649734020233154 0.002102173864841461
0.40035736560821533 0.6290591955184937 -0.00014275887224357575
0.40031135082244873 0.786345899105072 -0.015777619555592537
0.35073983669281006 0.6330401301383972 0.021577171981334686
0.38066723942756653 0.6554484963417053 0.0008449276210740209
0.3392898440361023 0.6752116680145264 0.03331761434674263
0.44769665598869324 0.8394928574562073 -0.05594541132450104
0.4227635860443115 0.5740694999694824 -0.019983550533652306
0.3642130494117737 0.7847307324409485 0.02615470625460148
0.38918203115463257 0.8062052726745605 0.0007050856947898865
0.3639174997806549 0.7379764914512634 0.016791095957159996
0.3017604351043701 0.6976878643035889 0.12526071071624756
0.3412511944770813 0.7452678084373474 0.0463985875248909
0.3001241981983185 0.7207710146903992 0.17830756306648254
0.368323415517807 0.6917333006858826 0.007114129606634378
0.43331781029701233 0.5389682054519653 -0.015253552235662937
0.42766183614730835 0.5937051773071289 -0.07693235576152802
0.42151975631713867 0.6055728197097778 -0.05332546681165695
0.42987287044525146 0.5746188163757324 -0.09308360517024994
0.4233066439628601 0.4414258599281311 0.04655088856816292
0.3867766261100769 0.4291078448295593 0.05353908613324165
0.35595810413360596 0.428682416677475 0.06418091803789139
0.33225560188293457 0.43600231409072876 0.08009286224842072
0.3185710310935974 0.45028913021087646 0.09821058809757233
0.3144604563713074 0.49836504459381104 0.1294725239276886
0.2751462459564209 0.572924017906189 0.23496025800704956
0.32564061880111694 0.5299037098884583 0.09831303358078003
0.3447170853614807 0.5341827273368835 0.07732852548360825
0.3721190392971039 0.53195720911026 0.06046949326992035
0.39953601360321045 0.524368166923523 0.049690358340740204
0.4212777614593506 0.5137248039245605 0.045289650559425354
0.4355069398880005 0.5033668279647827 0.04165893420577049
0.2934044301509857 0.5830603837966919 0.322860985994339
0.4260321259498596 0.6140041351318359 -0.04370299354195595
0.4384121298789978 0.536685049533844 -0.05242205411195755
0.43625256419181824 0.5896819829940796 -0.09942179918289185
0.45156779885292053 0.6023803949356079 -0.09667792171239853
0.4401998817920685 0.595410943031311 -0.08909617364406586
0.43437421321868896 0.621913731098175 -0.0400448739528656
0.4528747797012329 0.6032465696334839 -0.10384271293878555
0.4594653248786926 0.6109322905540466 -0.07994876056909561
0.43721508979797363 0.48498180508613586 0.05843643844127655
0.44672834873199463 0.4880260229110718 0.03928225487470627
0.44983160495758057 0.4886739253997803 0.020674338564276695
0.3366400897502899 0.48242342472076416 0.09974291920661926
0.3249298632144928 0.47330886125564575 0.10424215346574783
0.48915183544158936 0.5204647779464722 -0.0812629982829094
0.6683414578437805 0.4750843346118927 0.01524342317134142
0.4907224178314209 0.606097400188446 -0.08723966777324677
0.7808967232704163 0.395141065120697 0.12860076129436493
0.5999581217765808 0.49918460845947266 0.0018787692533805966
0.624264657497406 0.5004621148109436 -0.002026946749538183
0.6476595401763916 0.4983072280883789 2.5901350454660133e-05
0.6796349287033081 0.4844675660133362 0.014224153943359852
0.5788445472717285 0.49301403760910034 0.011370360851287842
0.6226879954338074 0.42724066972732544 -0.002432440873235464
0.597244143486023 0.4312257766723633 0.004753417335450649
0.6481360197067261 0.4304783344268799 -0.0005453981575556099
0.6670950055122375 0.4401291608810425 0.004345034249126911
0.7021542191505432 0.5015674829483032 0.019417230039834976
0.58382648229599 0.8245924115180969 -0.0650508776307106
0.6768351793289185 0.46814608573913574 0.022412359714508057
0.7954579591751099 0.49814480543136597 0.10755541175603867
0.7323836088180542 0.48499399423599243 0.04101499915122986
0.6043398976325989 0.5906987190246582 -0.041737381368875504
0.49894317984580994 0.6734988689422607 -0.09232138842344284
0.4971281886100769 0.7011517882347107 -0.0867459774017334
0.5275304317474365 0.6855564713478088 -0.08928793668746948
0.5469823479652405 0.7007989883422852 -0.08277209103107452
0.5171517133712769 0.7060869336128235 -0.0858091488480568
0.5336142182350159 0.7127330899238586 -0.0777648463845253
0.5884507894515991 0.7478235960006714 -0.06428135931491852
0.4817056953907013 0.5885197520256042 -0.12291490286588669
0.4832128882408142 0.5656848549842834 -0.12624885141849518
0.7045959234237671 0.41574132442474365 0.013064373284578323
0.5589262843132019 0.5323258638381958 -0.02225828543305397
0.544072687625885 0.5927950739860535 -0.08031325787305832
0.5483508110046387 0.5827666521072388 -0.07219747453927994
0.6860965490341187 0.5936338901519775 -0.030752580612897873
0.4856951832771301 0.5404125452041626 -0.1081121563911438
0.6367304921150208 0.3858441710472107 -0.0067584277130663395
0.6745529174804688 0.3951178193092346 0.001820924924686551
0.7434602975845337 0.347842276096344 0.09918231517076492
0.5305219888687134 0.41077008843421936 -0.007052460685372353
0.5762253999710083 0.44210416078567505 0.014747182838618755
0.6033282279968262 0.7254593372344971 -0.06030963361263275
0.7948055863380432 0.7343431711196899 0.11574655771255493
0.52750563621521 0.6061471700668335 -0.06977863609790802
0.5082700252532959 0.61378014087677 -0.068080373108387
0.5703589916229248 0.7261441946029663 -0.06111825630068779
0.5598318576812744 0.7240680456161499 -0.06416051089763641
0.6897923946380615 0.3808384835720062 0.014238504692912102
0.5464909076690674 0.6068557500839233 -0.07003213465213776
0.5895097255706787 0.389213889837265 -0.00996842235326767
0.592110276222229 0.36986902356147766 -0.010474355891346931
0.6238798499107361 0.2889866828918457 0.04589780420064926
0.7154526710510254 0.36352962255477905 0.050058554857969284
0.6044216156005859 0.32775068283081055 0.01615474745631218
0.7232473492622375 0.4078514277935028 0.032976970076560974
0.751319408416748 0.40259885787963867 0.07747013121843338
0.49772799015045166 0.6882931590080261 -0.09283893555402756
0.5210325121879578 0.6970125436782837 -0.08951782435178757
0.5397102236747742 0.7066957354545593 -0.08253586292266846
0.5219231843948364 0.6116105318069458 -0.06363824754953384
0.5643391609191895 0.7256520986557007 -0.06243542581796646
0.5565600395202637 0.7279262542724609 -0.07309101521968842
0.558618426322937 0.7223286628723145 -0.06426175683736801
0.5123660564422607 0.5921431183815002 -0.09739353507757187
0.5311366319656372 0.7132606506347656 -0.0737435445189476
0.5149935483932495 0.7096827030181885 -0.0774250477552414
0.4970252513885498 0.7076640129089355 -0.07878192514181137
0.5180105566978455 0.7855128049850464 -0.06424883008003235
0.5090632438659668 0.759856104850769 -0.08590500056743622
0.505709171295166 0.7445308566093445 -0.0883268490433693
0.5030859708786011 0.7306257486343384 -0.08264701813459396
0.5015019178390503 0.7220399975776672 -0.07744015008211136
0.5368160605430603 0.7221611738204956 -0.07227611541748047
0.5400149822235107 0.7254506349563599 -0.07700169086456299
0.5455752015113831 0.7321470379829407 -0.08247559517621994
0.5519124269485474 0.7408335208892822 -0.0810292437672615
0.5720548629760742 0.6747903823852539 -0.07208969444036484
0.8215389847755432 0.6139302253723145 0.17280858755111694
0.5477583408355713 0.7232712507247925 -0.0676165521144867
0.5510555505752563 0.7247394323348999 -0.07125067710876465
0.5012203454971313 0.6241323947906494 -0.07202739268541336
0.5401826500892639 0.6238601803779602 -0.053832072764635086
0.5044983625411987 0.6192860007286072 -0.07001659274101257
0.5861994624137878 0.5473199486732483 -0.02399587444961071
0.6260381937026978 0.5634270906448364 -0.028411904349923134
0.5538396835327148 0.5959017872810364 -0.06229725480079651
0.6930615901947021 0.3113722801208496 0.06825177371501923
0.668741762638092 0.33734330534935 0.030150195583701134
0.6453506350517273 0.3673013150691986 -0.00012410122144501656
0.571539044380188 0.7623511552810669 -0.07064422219991684
0.5350704789161682 0.37877771258354187 -0.010292456485331059
0.5436517596244812 0.3299396336078644 0.013908260501921177
0.555923581123352 0.28200745582580566 0.040484633296728134
0.6681517362594604 0.493568480014801 0.006515370216220617
0.731178879737854 0.5199787020683289 0.023343876004219055
0.5644040703773499 0.4861246943473816 0.018415890634059906
0.6980050802230835 0.45104286074638367 0.0184828769415617
0.5398434996604919 0.5156145095825195 -0.023480596020817757
0.5272300839424133 0.5795432925224304 -0.09680717438459396
0.7638177871704102 0.5385951995849609 0.03700551390647888
0.7108783721923828 0.5359859466552734 0.001126833725720644
0.6748506426811218 0.5436704754829407 -0.014718097634613514
0.6260804533958435 0.5392491221427917 -0.01393065880984068
0.5914463996887207 0.5292307734489441 -0.00937450397759676
0.564408004283905 0.5176089406013489 -0.006725383456796408
0.5008792877197266 0.48181313276290894 -0.029561400413513184
0.7591238021850586 0.5902036428451538 0.01843235082924366
0.7208551168441772 0.44820165634155273 0.027041025459766388
0.47771626710891724 0.602714478969574 -0.11372195184230804
0.5519028306007385 0.5526654124259949 -0.03679899126291275
0.8194981813430786 0.5048536658287048 0.1825798898935318
0.5434502363204956 0.5035194158554077 -0.0025469246320426464
0.5599467158317566 0.6007450222969055 -0.04100527614355087
0.6870766878128052 0.46951133012771606 0.02425983175635338
0.5313217639923096 0.56768798828125 -0.08589194715023041
0.815143346786499 0.6729573607444763 0.15058046579360962
0.5641915202140808 0.47720789909362793 0.025474000722169876
0.5084399580955505 0.5509490966796875 -0.10089188069105148
0.7104209661483765 0.7821503281593323 -0.0025925154332071543
0.7248323559761047 0.8144370317459106 0.031804390251636505
0.801250696182251 0.6018526554107666 0.09321221709251404
0.7477874755859375 0.751268208026886 0.02506265603005886
0.7751411199569702 0.44749557971954346 0.09966058284044266
0.5947139859199524 0.8514197468757629 -0.05949406698346138
0.47920340299606323 0.6107258796691895 -0.08556172996759415
0.574765682220459 0.5718459486961365 -0.03645772486925125
0.759068489074707 0.49172550439834595 0.05815285071730614
0.6444990634918213 0.4841582179069519 0.0050428565591573715
0.6237516403198242 0.48718300461769104 0.0031404250767081976
0.5636869668960571 0.7329374551773071 -0.07167719304561615
0.7556783556938171 0.6396586894989014 0.014693882316350937
0.5532971620559692 0.8872378468513489 -0.049837030470371246
0.6393767595291138 0.8598514795303345 -0.01836162433028221
0.678857684135437 0.8417810201644897 0.00246011046692729
0.6034858822822571 0.4865933954715729 0.0075348056852817535
0.5845028758049011 0.4832236170768738 0.015412339009344578
0.5714417099952698 0.4805923104286194 0.023459069430828094
0.7438482642173767 0.4461418390274048 0.04807353392243385
0.5829636454582214 0.4592156410217285 0.014682924374938011
0.6027086973190308 0.45134681463241577 0.008394320495426655
0.6226859092712402 0.4485718905925751 0.004810605198144913
0.6441664099693298 0.45137494802474976 0.00555908028036356
0.6588850617408752 0.4577861726284027 0.009294525720179081
0.8052384257316589 0.4447125196456909 0.16161297261714935
0.6586976051330566 0.47964775562286377 0.010072477161884308
0.5502235889434814 0.6578387022018433 -0.0712488442659378
0.5271031856536865 0.6001623868942261 -0.07569126784801483
0.5043300986289978 0.6437667012214661 -0.07727144658565521
0.6724123954772949 0.8104294538497925 -0.022383905947208405
0.6354647874832153 0.8315174579620361 -0.040052011609077454
0.5467414855957031 0.8658989667892456 -0.07273876667022705
0.7625501751899719 0.7820230722427368 0.07394678890705109
0.5692574381828308 0.4700096845626831 0.021197732537984848
0.514924943447113 0.5160136222839355 -0.04992787539958954
0.5976700782775879 0.8753955364227295 -0.03987615555524826
0.7955639362335205 0.6562236547470093 0.07898682355880737
0.5203953981399536 0.7213647365570068 -0.07596161961555481
0.5237329602241516 0.7275021076202393 -0.08147735893726349
0.5280269980430603 0.73797208070755 -0.0873287245631218
0.5327620506286621 0.7518985271453857 -0.08620955795049667
0.5478694438934326 0.7755253314971924 -0.07224152982234955
0.5484870076179504 0.7191709876060486 -0.07070764899253845
0.5549718737602234 0.7170804142951965 -0.07265415787696838
0.5622537732124329 0.7136467099189758 -0.0733211562037468
0.5901458859443665 0.6983764171600342 -0.06847294420003891
0.7096211314201355 0.648290753364563 -0.02403394505381584
0.5200483202934265 0.496750146150589 -0.024638088420033455
0.5403645634651184 0.4572625160217285 0.019633932039141655
0.5572100877761841 0.4615282118320465 0.022268421947956085
0.5452621579170227 0.7167706489562988 -0.06815493106842041
0.7206038236618042 0.7107023596763611 -0.006233155727386475
0.5140470266342163 0.45305535197257996 -0.002521849935874343
0.5679813027381897 0.7996954321861267 -0.06570490449666977
0.49500882625579834 0.5023283362388611 -0.05631192401051521
0.530612051486969 0.551646888256073 -0.06057281792163849
0.528451144695282 0.8109180927276611 -0.06920215487480164
0.6218539476394653 0.7591224908828735 -0.05563674867153168
0.5813927054405212 0.621336042881012 -0.04416075721383095
0.5986154675483704 0.7830597758293152 -0.06146911531686783
0.6432725191116333 0.620509684085846 -0.047449175268411636
0.6041690707206726 0.646123468875885 -0.053946856409311295
0.6666553020477295 0.6627456545829773 -0.04553944990038872
0.5384565591812134 0.8392497301101685 -0.07730725407600403
0.5472590327262878 0.5680893659591675 -0.051693666726350784
0.6532428860664368 0.7799996137619019 -0.04145637899637222
0.6198192238807678 0.804266631603241 -0.05134086310863495
0.6381291151046753 0.7293660044670105 -0.05309975892305374
0.7510160207748413 0.682383120059967 0.014521089382469654
0.6809858679771423 0.7360110878944397 -0.035518839955329895
0.7809335589408875 0.7067166566848755 0.05911821871995926
0.6228893399238586 0.6818028688430786 -0.05691814795136452
0.5333880186080933 0.5338055491447449 -0.04261516034603119
0.5190029740333557 0.5882827043533325 -0.1015901193022728
0.5363166332244873 0.5991677045822144 -0.08172585070133209
0.5059329271316528 0.5706424713134766 -0.11239426583051682
0.5569985508918762 0.43346336483955383 0.011487792246043682
0.5938225388526917 0.41612231731414795 0.0022163502871990204
0.6274369359016418 0.4115021526813507 -0.00371534307487309
0.6578129529953003 0.41577500104904175 -0.0023293383419513702
0.6821286678314209 0.42856502532958984 0.005623838398605585
0.706728994846344 0.47711771726608276 0.029795033857226372
0.8018893599510193 0.5491266846656799 0.09990675002336502
0.6875241994857788 0.5112066268920898 0.008077817037701607
0.6605227589607239 0.5177785754203796 -0.0012514579575508833
0.6269996762275696 0.5181145071983337 -0.004261392634361982
0.5957728624343872 0.513185977935791 -0.0015514470869675279
0.5711370706558228 0.5050089359283447 0.006367607973515987
0.5532870888710022 0.4963413178920746 0.009731907397508621
0.8219809532165527 0.5596633553504944 0.18531203269958496
0.5368448495864868 0.608253538608551 -0.07138761878013611
0.510204017162323 0.5330954194068909 -0.07233541458845139
0.4993443489074707 0.5861437916755676 -0.1153143122792244
0.49004271626472473 0.6002932190895081 -0.10582100600004196
0.5017997026443481 0.5918456315994263 -0.10530062764883041
0.5312641859054565 0.6175686717033386 -0.06321633607149124
0.4850335419178009 0.6014634370803833 -0.11129947006702423
0.4862087368965149 0.6096323132514954 -0.08627431839704514
0.5542219877243042 0.47771012783050537 0.025104882195591927
0.5385497808456421 0.4824559688568115 0.01430350448936224
0.5272971391677856 0.48414722084999084 1.728277129586786e-05
0.668062150478363 0.46297383308410645 0.015040661208331585
0.682569682598114 0.45239442586898804 0.01370440423488617
