ply
format ascii 1.0
element vertex 468
property float x
property float y
property float z
end_header
0.4609684646129608 0.6874879002571106 -0.09179534018039703
0.44205930829048157 0.6140022277832031 -0.13946980237960815
0.4604586362838745 0.643391489982605 -0.08519478887319565
0.43852144479751587 0.5349882245063782 -0.08407610654830933
0.44162532687187195 0.5868494510650635 -0.14346134662628174
0.44861260056495667 0.5550215244293213 -0.1272033154964447
0.47285664081573486 0.482853502035141 -0.04244989529252052
0.3370078206062317 0.4868617653846741 0.10157345980405807
0.48163172602653503 0.42137426137924194 -0.010581376031041145
0.4819380044937134 0.38867607712745667 -0.006848601624369621
0.491787850856781 0.2869959771633148 0.04587225615978241
0.4621363580226898 0.6996124982833862 -0.09050724655389786
0.4648081064224243 0.7096219658851624 -0.08509059995412827
0.4685405492782593 0.7138646841049194 -0.07602405548095703
0.4682976007461548 0.7494518160820007 -0.0698717013001442
0.46653100848197937 0.7597841024398804 -0.0762518122792244
0.4657617509365082 0.7731364369392395 -0.084469735622406
0.46664974093437195 0.7886077165603638 -0.08453961461782455
0.4722655415534973 0.8167659640312195 -0.06925364583730698
0.4473053812980652 0.6297279000282288 -0.12931132316589355
0.43316036462783813 0.631188154220581 -0.09258877485990524
0.2979412078857422 0.4183694124221802 0.26360830664634705
0.3977848291397095 0.5058358907699585 0.05732690915465355
0.37495124340057373 0.5075897574424744 0.06449690461158752
0.35425758361816406 0.5070207118988037 0.07651155441999435
0.33071398735046387 0.49659016728401184 0.10556058585643768
0.4172189235687256 0.5000356435775757 0.05488525331020355
0.366039514541626 0.439849317073822 0.06633199006319046
0.391169011592865 0.44190576672554016 0.0593959204852581
0.3436266779899597 0.4446103572845459 0.07874608039855957
0.3302357792854309 0.4552742838859558 0.091097891330719
0.3141160011291504 0.5145484209060669 0.11898776888847351
0.38811740279197693 0.8524271249771118 -0.023422040045261383
0.3309965431690216 0.4822544455528259 0.11307103931903839
0.2835312485694885 0.5175042152404785 0.24929313361644745
0.2992345988750458 0.5014869570732117 0.15400360524654388
0.3576972484588623 0.600904643535614 0.007615136913955212
0.4267689287662506 0.6846515536308289 -0.08022447675466537
0.4350884258747101 0.710303008556366 -0.07346588373184204
0.39572110772132874 0.6932394504547119 -0.05685289576649666
0.3792034983634949 0.7046781182289124 -0.028762130066752434
0.41283005475997925 0.7126001715660095 -0.0537734217941761
0.39755070209503174 0.7171646356582642 -0.028320439159870148
0.3627229630947113 0.7562853097915649 0.01200148742645979
0.42359015345573425 0.6144402027130127 -0.13317224383354187
0.42067229747772217 0.5883352756500244 -0.13566657900810242
0.30447739362716675 0.4330778121948242 0.11372296512126923
0.41131770610809326 0.541179358959198 0.009030885063111782
0.385347843170166 0.6118513345718384 -0.05903003737330437
0.3875712752342224 0.5987286567687988 -0.04873908683657646
0.29766374826431274 0.6008287072181702 0.06126434728503227
0.42845216393470764 0.5586608052253723 -0.11380475759506226
0.343933641910553 0.39969760179519653 0.06036634370684624
0.3187229633331299 0.4109594523906708 0.08745923638343811
0.3089868426322937 0.3724457621574402 0.21860943734645844
0.43400728702545166 0.4167501926422119 0.010200070217251778
0.4137375056743622 0.4509474039077759 0.059869904071092606
0.3455178141593933 0.7270917296409607 0.025745993480086327
0.3055081367492676 0.7510076761245728 0.25029581785202026
0.40353459119796753 0.626562237739563 -0.05666518211364746
0.4227274954319 0.6340693235397339 -0.0687679573893547
0.3632332384586334 0.7270969152450562 0.02221517823636532
0.37660449743270874 0.726627767086029 0.013164453208446503
0.3114530146121979 0.39797383546829224 0.10590827465057373
0.3880058526992798 0.6231572031974792 -0.04844699427485466
0.38053619861602783 0.39980846643447876 0.03338085860013962
0.3766825795173645 0.3813743591308594 0.033427171409130096
0.3737291097640991 0.3079759180545807 0.11041272431612015
0.3094264566898346 0.3851248621940613 0.15576034784317017
0.37632298469543457 0.3434697687625885 0.07127083092927933
0.297356516122818 0.42598775029182434 0.1414249986410141
0.2969718873500824 0.42411351203918457 0.19981029629707336
0.429678738117218 0.6992573142051697 -0.0786462053656578
0.40424537658691406 0.7047263383865356 -0.055981289595365524
0.38761600852012634 0.7109472751617432 -0.030406590551137924
0.4103841781616211 0.6309003829956055 -0.05507178232073784
0.3691301941871643 0.7270914912223816 0.017256807535886765
0.37814897298812866 0.7400980591773987 -0.002974372124299407
0.3819906711578369 0.7262625694274902 0.01154109463095665
0.40851524472236633 0.6183533668518066 -0.08922586590051651
0.4056812524795532 0.7158636450767517 -0.02641122415661812
0.4210726320743561 0.7141019105911255 -0.04663556441664696
0.4416261315345764 0.7139016389846802 -0.06483225524425507
0.4358844459056854 0.8137398958206177 -0.05909840762615204
0.43210065364837646 0.7853989601135254 -0.07238906621932983
0.4325771927833557 0.7701281905174255 -0.07140596956014633
0.435579389333725 0.7569027543067932 -0.06253893673419952
0.4400298297405243 0.748241126537323 -0.0574629120528698
0.40204918384552 0.7413405776023865 -0.020716583356261253
0.39668190479278564 0.7445289492607117 -0.025756236165761948
0.38981789350509644 0.7511508464813232 -0.029945233836770058
0.38528919219970703 0.7599424719810486 -0.025221310555934906
0.36500516533851624 0.6829524636268616 -0.01467969175428152
0.29804080724716187 0.6307910680770874 0.3208172023296356
0.4537411034107208 0.6367562413215637 -0.10008969902992249
0.3930400609970093 0.737037181854248 -0.00036838147207163274
0.38506901264190674 0.737234354019165 -0.003480886807665229
0.4300525188446045 0.6440659165382385 -0.07248111814260483
0.39783963561058044 0.6375274062156677 -0.037332694977521896
0.426266610622406 0.639534592628479 -0.0711340382695198
0.3873196244239807 0.5553241968154907 0.020113183185458183
0.34917861223220825 0.5708550810813904 0.03291669487953186
0.3862881064414978 0.6102272272109985 -0.036554768681526184
0.3320256173610687 0.33478718996047974 0.16443400084972382
0.3343639075756073 0.357093870639801 0.1128157526254654
0.3379487991333008 0.3828239440917969 0.07093735784292221
0.380207896232605 0.7791457176208496 -0.009829924441874027
0.4260859787464142 0.38585516810417175 0.008725542575120926
0.42526519298553467 0.33993446826934814 0.04006743058562279
0.42479002475738525 0.29396679997444153 0.0690527856349945
0.33850207924842834 0.5038245916366577 0.09194812178611755
0.29294222593307495 0.5334425568580627 0.1350555270910263
0.42987558245658875 0.49342596530914307 0.05674062669277191
0.31446826457977295 0.4673185348510742 0.1188933402299881
0.4270313084125519 0.524773120880127 -0.0006335356156341732
0.3945881426334381 0.6018597483634949 -0.08421260863542557
0.27467745542526245 0.5534196496009827 0.16537217795848846
0.2990751564502716 0.5460716485977173 0.10507996380329132
0.3199840188026428 0.5512083768844604 0.07242563366889954
0.36049237847328186 0.5461093783378601 0.05101357400417328
0.39292752742767334 0.5365227460861206 0.03892884775996208
0.41693049669265747 0.524688720703125 0.028071722015738487
0.4528793692588806 0.4904226064682007 -0.027381688356399536
0.2658374011516571 0.6008117198944092 0.14665436744689941
0.30196982622146606 0.46567589044570923 0.13691560924053192
0.4357181787490845 0.6290849447250366 -0.12469826638698578
0.4065284729003906 0.5634496808052063 -0.008858663961291313
0.2975676655769348 0.5236079096794128 0.33214712142944336
0.4337405562400818 0.5110301971435547 0.023527199402451515
0.3878355324268341 0.6125749945640564 -0.012198559008538723
0.32489874958992004 0.4837138056755066 0.11988455802202225
0.3980841040611267 0.5859110355377197 -0.07169065624475479
0.2982129156589508 0.6894687414169312 0.2928292751312256
0.43179166316986084 0.4849521517753601 0.0666574165225029
0.4125915765762329 0.569575846195221 -0.09657023102045059
0.3143753409385681 0.7976377606391907 0.10224410891532898
0.3297942876815796 0.8330252170562744 0.1355445683002472
0.2695487439632416 0.61774742603302 0.2362966239452362
0.2944752871990204 0.7668046951293945 0.14420926570892334
0.29102179408073425 0.4682478904724121 0.23304502665996552
0.386993944644928 0.8816987872123718 -0.016107479110360146
0.44434303045272827 0.636100709438324 -0.09641316533088684
0.38646167516708374 0.5815444588661194 0.00012680789222940803
0.2883002460002899 0.5095940232276917 0.18322746455669403
0.35609203577041626 0.4926503896713257 0.08067094534635544
0.37507522106170654 0.4942744970321655 0.07031738013029099
0.3727394938468933 0.744218111038208 0.002055287128314376
0.26627880334854126 0.6505724191665649 0.13994373381137848
0.4304491877555847 0.9222039580345154 -0.03169844299554825
0.37329593300819397 0.8860729336738586 0.047155555337667465
0.35291630029678345 0.863855242729187 0.0875103697180748
0.4855981171131134 0.3376860022544861 0.018462371081113815
0.4814774990081787 0.9298833608627319 -0.05316152423620224
0.39462757110595703 0.49338167905807495 0.06460758298635483
0.4136836528778076 0.4900777339935303 0.06438811868429184
0.42600640654563904 0.4875897765159607 0.06759270280599594
0.2938760221004486 0.4647729992866516 0.16748201847076416
0.41199249029159546 0.4703773260116577 0.06521069258451462
0.39202171564102173 0.46445736289024353 0.0666104182600975
0.3716728091239929 0.46311116218566895 0.07229583710432053
0.3525915741920471 0.4668489694595337 0.08239767700433731
0.3413689136505127 0.4733431935310364 0.09203562140464783
0.2945058345794678 0.46578770875930786 0.3058117926120758
0.34446775913238525 0.48999470472335815 0.09212726354598999
0.46217820048332214 0.6573153734207153 -0.08184763789176941
0.3842654228210449 0.6688294410705566 -0.03634551540017128
0.40086454153060913 0.6229053139686584 -0.06488975882530212
0.4268638789653778 0.6599720120429993 -0.07163064181804657
0.48066824674606323 0.45312729477882385 -0.01721171848475933
0.33951276540756226 0.8292996287345886 0.0647803470492363
0.3628702461719513 0.8551199436187744 0.025640852749347687
0.4234934449195862 0.9005340933799744 -0.05561058595776558
0.3163149058818817 0.798900306224823 0.19417928159236908
0.4255041182041168 0.47905194759368896 0.06652567535638809
0.4317816495895386 0.528053343296051 -0.04047485813498497
0.47453761100769043 0.9079071283340454 -0.0755334198474884
0.3969210982322693 0.9063844680786133 0.0038673258386552334
0.27182862162590027 0.6719857454299927 0.21663472056388855
0.418343722820282 0.7451279163360596 -0.039352305233478546
0.4126799702644348 0.7513131499290466 -0.04466067627072334
0.4076682925224304 0.7616047859191895 -0.04977778345346451
0.4047738313674927 0.7756046056747437 -0.04748155549168587
0.4030841588973999 0.7996457815170288 -0.03432226553559303
0.3845699429512024 0.7210050821304321 -0.005029968451708555
0.37508106231689453 0.7186636924743652 -0.0019129011780023575
0.3677223324775696 0.7148507237434387 -1.5474059864573064e-06
0.3498249650001526 0.7020984292030334 0.010076641105115414
0.2826339304447174 0.6577174663543701 0.07953943312168121
0.4409172832965851 0.5061345100402832 -0.012118431739509106
0.44353413581848145 0.46372878551483154 0.04415701702237129
0.4337581396102905 0.4690699577331543 0.059900686144828796
0.39315593242645264 0.7181063890457153 -0.0044198306277394295
0.28817418217658997 0.7230621576309204 0.10451160371303558
0.45463478565216064 0.4589424431324005 0.006276670377701521
0.39636093378067017 0.8242368102073669 -0.02800980769097805
0.45719799399375916 0.5302894711494446 -0.09792719781398773
0.44491416215896606 0.5139281749725342 -0.05794769152998924
0.46478965878486633 0.5077098608016968 -0.06866606324911118
0.41160961985588074 0.5658235549926758 -0.045971229672431946
0.47183650732040405 0.8783102035522461 -0.08175329864025116
0.47222280502319336 0.8445277214050293 -0.0755077451467514
0.43064016103744507 0.8408401012420654 -0.059795212000608444
0.35018283128738403 0.7689687013626099 0.025436125695705414
0.3707936406135559 0.6323403716087341 -0.003355856519192457
0.3713315725326538 0.8002158999443054 -0.00018439991981722414
0.3219403624534607 0.6305292844772339 0.02060159295797348
0.3498312830924988 0.6562802791595459 0.005924954544752836
0.3061274588108063 0.6715428829193115 0.04080205038189888
0.4236745536327362 0.8722938299179077 -0.06147012859582901
0.4011859595775604 0.5809052586555481 -0.028852516785264015
0.33813825249671936 0.7941878437995911 0.04469021037220955
0.3636900782585144 0.8246926069259644 0.01183408498764038
0.33096200227737427 0.7345520257949829 0.03803584352135658
0.2730793356895447 0.6949090361595154 0.13665902614593506
0.3100237548351288 0.745917022228241 0.06419066339731216
0.28019946813583374 0.7227404713630676 0.19126743078231812
0.33351802825927734 0.6865488886833191 0.020840123295783997
0.4200429618358612 0.5456705689430237 -0.023190971463918686
0.40043970942497253 0.6136917471885681 -0.09195152670145035
0.39136263728141785 0.6202711462974548 -0.06612217426300049
0.40583834052085876 0.5942357182502747 -0.10975044965744019
0.424496054649353 0.4405500888824463 0.046549730002880096
0.3875114321708679 0.4263709783554077 0.053562555462121964
0.3560437560081482 0.42485687136650085 0.06365077942609787
0.33209124207496643 0.4313194155693054 0.08012562990188599
0.31828370690345764 0.4449552893638611 0.09917455911636353
0.3142319619655609 0.4924009442329407 0.13247424364089966
0.27405956387519836 0.5670247077941895 0.24614056944847107
0.3213235139846802 0.5222486257553101 0.10104039311408997
0.34023648500442505 0.5268275141716003 0.07917717099189758
0.3681444823741913 0.5258347392082214 0.06139601394534111
0.3968798518180847 0.5202254056930542 0.05013947933912277
0.4195818305015564 0.511963963508606 0.044577714055776596
0.4341198801994324 0.5033499002456665 0.04029833897948265
0.29995110630989075 0.5770148038864136 0.3361252546310425
0.3949585556983948 0.6267907023429871 -0.05566295608878136
0.4235764741897583 0.5478252172470093 -0.06517340987920761
0.41086798906326294 0.6130548119544983 -0.11593908071517944
0.4279351830482483 0.6265701651573181 -0.11260101944208145
0.4147005081176758 0.6186603903770447 -0.10490662604570389
0.40290945768356323 0.6339433193206787 -0.051205020397901535
0.42992883920669556 0.6280769109725952 -0.12035409361124039
0.4375164210796356 0.6346291899681091 -0.09441602975130081
0.438350647687912 0.4850188195705414 0.058084238320589066
0.445984810590744 0.4890965223312378 0.03709692135453224
0.4470164477825165 0.4912775754928589 0.015836525708436966
0.3350985646247864 0.4783061444759369 0.1015259325504303
0.323434054851532 0.4676045775413513 0.1060531884431839
0.4797782301902771 0.5339486598968506 -0.0964900329709053
0.6841785907745361 0.47431299090385437 0.01213191170245409
0.48074203729629517 0.6304451823234558 -0.10200738906860352
0.8052268028259277 0.3951209783554077 0.1262429654598236
0.6049211025238037 0.4966811537742615 -0.0005491017363965511
0.630454957485199 0.4973415732383728 -0.005242578685283661
0.6565449833869934 0.4964507222175598 -0.00366618437692523
0.6976786255836487 0.48338574171066284 0.010568058118224144
0.5838843584060669 0.4926186800003052 0.009341442957520485
0.6363677382469177 0.4267813563346863 -0.005190645810216665
0.6078519225120544 0.431363970041275 0.00340214348398149
0.6656605005264282 0.4294211268424988 -0.0039025365840643644
0.6867731809616089 0.439160019159317 0.0008913954952731729
0.7192587852478027 0.5013331174850464 0.016242511570453644
0.5866260528564453 0.8567900061607361 -0.06690143048763275
0.6959099173545837 0.46817344427108765 0.019389454275369644
0.8211241960525513 0.5015168190002441 0.10833834111690521
0.7527464628219604 0.48677024245262146 0.03856863081455231
0.6174713373184204 0.5948254466056824 -0.05092780292034149
0.5012820363044739 0.6833905577659607 -0.09645308554172516
0.50199294090271 0.7094188928604126 -0.0880206972360611
0.5482596755027771 0.6917740106582642 -0.09003528952598572
0.5802097916603088 0.7015867829322815 -0.07430833578109741
0.5363367795944214 0.7112564444541931 -0.08297036588191986
0.5640410780906677 0.7146714329719543 -0.06721190363168716
0.6225475668907166 0.7544906139373779 -0.04614479839801788
0.46505823731422424 0.613530158996582 -0.14116215705871582
0.46792343258857727 0.5870171785354614 -0.14524789154529572
0.7243250608444214 0.41455549001693726 0.006494998466223478
0.5615291595458984 0.5368049144744873 -0.028709882870316505
0.5492954850196838 0.6084941625595093 -0.09494534879922867
0.5546181201934814 0.595109224319458 -0.08569937944412231
0.7078607082366943 0.5913485884666443 -0.03720499947667122
0.47314515709877014 0.5577945113182068 -0.12632080912590027
0.6522496342658997 0.3853767514228821 -0.01384875737130642
0.6928065419197083 0.3940197825431824 -0.005555556155741215
0.7652573585510254 0.3485812544822693 0.0960163101553917
0.5375370383262634 0.4126618206501007 -0.013875765725970268
0.5853371620178223 0.44299349188804626 0.014308488927781582
0.645217776298523 0.7236375212669373 -0.044245559722185135
0.8251662254333496 0.7518006563186646 0.12024645507335663
0.5308020114898682 0.6244209408760071 -0.08364032953977585
0.5073395371437073 0.6326736211776733 -0.08180993050336838
0.6209700703620911 0.7232433557510376 -0.03883705660700798
0.6076852083206177 0.7229017019271851 -0.04086613282561302
0.7088108658790588 0.3793867826461792 0.0069112880155444145
0.5562278032302856 0.6199227571487427 -0.08376238495111465
0.6019313335418701 0.3895915150642395 -0.01706876792013645
0.60517418384552 0.3703245222568512 -0.018513713032007217
0.6399629712104797 0.2915136516094208 0.040702901780605316
0.7354664206504822 0.3640578091144562 0.04620707407593727
0.618196427822113 0.32989364862442017 0.011106817983090878
0.7441397309303284 0.40631380677223206 0.026439649984240532
0.7732046246528625 0.40285974740982056 0.07507803291082382
0.5017215013504028 0.6980872750282288 -0.09465747326612473
0.5411048531532288 0.7033149600028992 -0.08746355026960373
0.571478545665741 0.7082010507583618 -0.07258940488100052
0.5258539319038391 0.6290386319160461 -0.0769127905368805
0.6143802404403687 0.7230755686759949 -0.03948720172047615
0.5961018800735474 0.7366316318511963 -0.05097789317369461
0.6043757200241089 0.7229414582252502 -0.041005536913871765
0.5064550638198853 0.6165119409561157 -0.1136881485581398
0.5614950656890869 0.7134660482406616 -0.06345470249652863
0.533987820148468 0.7126027345657349 -0.07382049411535263
0.5026816129684448 0.7128334045410156 -0.07975044846534729
0.5150904655456543 0.814279317855835 -0.07410164177417755
0.5077102780342102 0.7851067185401917 -0.08907709270715714
0.5052443146705627 0.7694507837295532 -0.08853042870759964
0.503585159778595 0.7562780380249023 -0.07966534793376923
0.5027414560317993 0.7478468418121338 -0.07347666472196579
0.5634366869926453 0.7390502691268921 -0.057690106332302094
0.5672721862792969 0.7421112060546875 -0.06291422992944717
0.5731937289237976 0.7486016750335693 -0.06877978146076202
0.5792443752288818 0.7575377225875854 -0.06638601422309875
0.6005004644393921 0.6793514490127563 -0.0663071721792221
0.8521673679351807 0.6220608949661255 0.1754848062992096
0.5829711556434631 0.7342668771743774 -0.046266958117485046
0.5890218615531921 0.7342856526374817 -0.04983854666352272
0.4983237385749817 0.6432411074638367 -0.08563999831676483
0.5518801212310791 0.6353827714920044 -0.06567090004682541
0.5024915933609009 0.6383799314498901 -0.08399448543787003
0.5920475125312805 0.5493741035461426 -0.03072836995124817
0.6374426484107971 0.5629003047943115 -0.0366375669836998
0.5638805627822876 0.6064691543579102 -0.07475356012582779
0.7124986052513123 0.31305941939353943 0.06473083049058914
0.686240553855896 0.33847859501838684 0.025579316541552544
0.6618142127990723 0.3670686185359955 -0.007142459973692894
0.5947185158729553 0.7789039611816406 -0.057979002594947815
0.5439751148223877 0.3799869120121002 -0.017415756359696388
0.5539237856864929 0.33248117566108704 0.008949587121605873
0.5687463879585266 0.2846233546733856 0.03404568135738373
0.6819939017295837 0.49196940660476685 0.0024171038530766964
0.7501230239868164 0.5200601816177368 0.020465252920985222
0.570171594619751 0.4871872663497925 0.01629324071109295
0.7178263664245605 0.45142337679862976 0.01514712069183588
0.5404122471809387 0.5214362144470215 -0.030673708766698837
0.5245918035507202 0.598929762840271 -0.11327877640724182
0.7866576910018921 0.5400696396827698 0.035367343574762344
0.7267867922782898 0.5336351990699768 -0.0026019366923719645
0.6871737241744995 0.5404821038246155 -0.01905004121363163
0.6338601112365723 0.5375726819038391 -0.018718445673584938
0.5959265828132629 0.5296937227249146 -0.013518179766833782
0.5673673152923584 0.5198370814323425 -0.011029445566236973
0.49848976731300354 0.488869845867157 -0.040137313306331635
0.7859668731689453 0.5900903344154358 0.016747748479247093
0.7407650351524353 0.4490506052970886 0.02311350777745247
0.4610646367073059 0.6284958124160767 -0.1309199035167694
0.5556504130363464 0.5596166849136353 -0.04507112130522728
0.8480193614959717 0.5074032545089722 0.18340864777565002
0.5454010367393494 0.507243812084198 -0.007139312103390694
0.5721815228462219 0.6087009906768799 -0.050334636121988297
0.7074112892150879 0.46906498074531555 0.021355919539928436
0.530687689781189 0.5828759670257568 -0.10121496766805649
0.8460772037506104 0.6850533485412598 0.15381701290607452
0.5725069642066956 0.47898316383361816 0.024307332932949066
0.5009455680847168 0.5675008296966553 -0.11808597296476364
0.7340230345726013 0.8031494617462158 0.004950983449816704
0.7447781562805176 0.8426410555839539 0.036772921681404114
0.8310371041297913 0.6080185174942017 0.09540817141532898
0.7778204679489136 0.7694399356842041 0.03026670776307583
0.7985879182815552 0.4491642713546753 0.09892059862613678
0.5933274626731873 0.8884303569793701 -0.06308188289403915
0.4643791615962982 0.635603666305542 -0.10030778497457504
0.5833852291107178 0.5766596794128418 -0.04495171085000038
0.7811166048049927 0.49435877799987793 0.05641322210431099
0.6536930799484253 0.48121681809425354 0.001985365990549326
0.6302411556243896 0.48313504457473755 0.0006139546749182045
0.6040130853652954 0.7406506538391113 -0.04939679801464081
0.7881456613540649 0.6432861685752869 0.0146364476531744
0.5407465696334839 0.9271159172058105 -0.05761498957872391
0.6427068114280701 0.8964848518371582 -0.01742740534245968
0.6898162364959717 0.874872088432312 0.007007827516645193
0.6093073487281799 0.48328089714050293 0.005363443400710821
0.5906136631965637 0.4817493259906769 0.013530359603464603
0.5783980488777161 0.48066556453704834 0.022039124742150307
0.7651920914649963 0.4468165934085846 0.044603005051612854
0.5935174226760864 0.4628937244415283 0.013630731962621212
0.6145433187484741 0.45508188009262085 0.006292547099292278
0.6358730792999268 0.45194512605667114 0.002293297089636326
0.6594300270080566 0.45386964082717896 0.002668136963620782
0.6760572791099548 0.4594847559928894 0.0064996881410479546
0.8318159580230713 0.4453221559524536 0.16075575351715088
0.6709412336349487 0.4782012701034546 0.006618791725486517
0.5688889622688293 0.6663470268249512 -0.07534968852996826
0.5281177163124084 0.6203450560569763 -0.08973348140716553
0.5041028261184692 0.6587985157966614 -0.08764224499464035
0.6864705085754395 0.8365320563316345 -0.01424763910472393
0.6425021886825562 0.8635857701301575 -0.037162791937589645
0.5356370806694031 0.9044785499572754 -0.08089172840118408
0.7886908054351807 0.8050963878631592 0.07739283889532089
0.5786678791046143 0.4728875756263733 0.020250974223017693
0.511384129524231 0.5259178280830383 -0.06072370707988739
0.5933827757835388 0.9147484302520752 -0.043965477496385574
0.8277517557144165 0.6662824749946594 0.08121367543935776
0.5345208048820496 0.7438953518867493 -0.0676688477396965
0.538110613822937 0.7497373819351196 -0.07345131039619446
0.5417495965957642 0.7602068185806274 -0.0799609124660492
0.5457080602645874 0.7743397951126099 -0.07925750315189362
0.5593013167381287 0.8000245690345764 -0.06968336552381516
0.5909368991851807 0.7179203033447266 -0.05311727896332741
0.5986043214797974 0.7152068018913269 -0.05456679314374924
0.6064672470092773 0.711102306842804 -0.05607675388455391
0.6286697387695312 0.698017954826355 -0.054718662053346634
0.741075336933136 0.6510817408561707 -0.02697659656405449
0.5188195705413818 0.5037511587142944 -0.03332057595252991
0.5460012555122375 0.45983830094337463 0.01776162162423134
0.564845860004425 0.46347323060035706 0.02147534303367138
0.5855197906494141 0.71526038646698 -0.050795990973711014
0.7547171711921692 0.7209238409996033 -0.0030076107941567898
0.5165306925773621 0.45697492361068726 -0.008771969936788082
0.5751219391822815 0.8270597457885742 -0.06668634712696075
0.48910611867904663 0.5128251910209656 -0.06892946362495422
0.529485285282135 0.5630549192428589 -0.0725894346833229
0.5233476758003235 0.8426822423934937 -0.07806561887264252
0.6461032629013062 0.7692629098892212 -0.04149274155497551
0.5975074768066406 0.6279503703117371 -0.0518629290163517
0.6148254871368408 0.8026567697525024 -0.0530611015856266
0.6650194525718689 0.6237173080444336 -0.05557875707745552
0.6261212825775146 0.6514512896537781 -0.055510152131319046
0.6957647800445557 0.6661947965621948 -0.04692942649126053
0.5302137136459351 0.874993622303009 -0.08544972538948059
0.5514058470726013 0.577292799949646 -0.06254218518733978
0.6714524626731873 0.7976442575454712 -0.030954711139202118
0.6309245824813843 0.8298802375793457 -0.04632971063256264
0.6694942116737366 0.7324307560920715 -0.042056452482938766
0.7858055830001831 0.6908233761787415 0.016376623883843422
0.7108520269393921 0.7458392381668091 -0.027429649606347084
0.8129771947860718 0.7210919857025146 0.06253856420516968
0.6545597314834595 0.6819771528244019 -0.05260557681322098
0.5330990552902222 0.5426374673843384 -0.05197611451148987
0.5141720175743103 0.6115175485610962 -0.1184268370270729
0.53972327709198 0.6173927187919617 -0.09658312052488327
0.49628758430480957 0.5924087762832642 -0.13088557124137878
0.5650305151939392 0.43489062786102295 0.010223150253295898
0.6050722599029541 0.4164842963218689 -0.00028199798543937504
0.6420362591743469 0.4111064076423645 -0.007424031384289265
0.6756830215454102 0.41506052017211914 -0.006456773262470961
0.7019142508506775 0.42791038751602173 0.001910913037136197
0.7262528538703918 0.47781121730804443 0.02693069539964199
0.828901469707489 0.5539343357086182 0.10148926824331284
0.7019474506378174 0.5097830295562744 0.004657763056457043
0.670171320438385 0.5161242485046387 -0.004846172407269478
0.6334770321846008 0.5163363814353943 -0.00793959479779005
0.6003844738006592 0.5122290253639221 -0.0041788737289607525
0.5750786066055298 0.5058397054672241 0.0035960155073553324
0.5570351481437683 0.4984750747680664 0.007052779197692871
0.8515167236328125 0.5646256804466248 0.18759936094284058
0.5432486534118652 0.6241448521614075 -0.08524088561534882
0.5042316913604736 0.5458492636680603 -0.08606085926294327
0.4877869188785553 0.611916720867157 -0.13292665779590607
0.47801846265792847 0.6259016394615173 -0.12218284606933594
0.49217963218688965 0.6175011396408081 -0.12213031947612762
0.5394608974456787 0.632148802280426 -0.07629665732383728
0.4707515239715576 0.6274181604385376 -0.12829194962978363
0.4739290475845337 0.6342349648475647 -0.10109981149435043
0.5607421398162842 0.4797559380531311 0.023264003917574883
0.5427114963531494 0.4853510856628418 0.011159569956362247
0.5293353199958801 0.48836272954940796 -0.005518143065273762
0.6866046190261841 0.464194118976593 0.011766363866627216
0.7030526399612427 0.45193931460380554 0.010742073878645897
