ply
format ascii 1.0
element vertex 468
property float x
property float y
property float z
end_header
0.5221742987632751 0.7158349752426147 -0.056656014174222946
0.5297525525093079 0.6370643973350525 -0.1344016045331955
0.5238890647888184 0.6603015065193176 -0.06771596521139145
0.5043784976005554 0.5460410118103027 -0.1116878092288971
0.5300204157829285 0.609329342842102 -0.14497365057468414
0.5280720591545105 0.5720977783203125 -0.13852503895759583
0.5206694602966309 0.4840131103992462 -0.0808863565325737
0.33935171365737915 0.47852468490600586 0.00010707133333198726
0.518699049949646 0.42431533336639404 -0.06943418085575104
0.5190035104751587 0.389796644449234 -0.07752199470996857
0.5161310434341431 0.2593323588371277 -0.06534255295991898
0.5216103792190552 0.7275967597961426 -0.05222288519144058
0.5205444693565369 0.7343327403068542 -0.04410354420542717
0.5193303227424622 0.7347210049629211 -0.03321177139878273
0.5211031436920166 0.7585456371307373 -0.02540670335292816
0.5213637948036194 0.7685045599937439 -0.029157131910324097
0.5211793780326843 0.7808775901794434 -0.033912744373083115
0.5207471251487732 0.7955958247184753 -0.02985227108001709
0.5193874835968018 0.8231828212738037 -0.006486330181360245
0.5280598402023315 0.650688648223877 -0.12071458995342255
0.501413106918335 0.6468004584312439 -0.08824382722377777
0.2363227754831314 0.38289010524749756 0.09325762093067169
0.41280487179756165 0.4974566102027893 -0.016365844756364822
0.3881385624408722 0.49985843896865845 -0.016827983781695366
0.36348268389701843 0.4994693696498871 -0.012591901235282421
0.3278700113296509 0.48784148693084717 0.00408534798771143
0.43268775939941406 0.4909037947654724 -0.011847265064716339
0.3788507282733917 0.44054412841796875 -0.03374358266592026
0.4044812321662903 0.44097042083740234 -0.030216766521334648
0.35405880212783813 0.4449149966239929 -0.02752862684428692
0.33691030740737915 0.45340126752853394 -0.018063673749566078
0.3072088956832886 0.5037444233894348 0.01647491566836834
0.424869567155838 0.8642264604568481 0.022864602506160736
0.3291527032852173 0.47396373748779297 0.006668009329587221
0.2257060706615448 0.49569928646087646 0.11706474423408508
0.27774301171302795 0.4897075295448303 0.03659512475132942
0.389502614736557 0.6039113998413086 -0.029278382658958435
0.48607292771339417 0.7109743356704712 -0.0575118251144886
0.48686856031417847 0.7326591610908508 -0.04300739988684654
0.4479217827320099 0.7131375074386597 -0.043985459953546524
0.4217208921909332 0.7168267965316772 -0.022438395768404007
0.4586279094219208 0.7305113077163696 -0.03345905989408493
0.43611839413642883 0.7285477519035339 -0.013919639401137829
0.39209115505218506 0.7565722465515137 0.023334022611379623
0.5082715153694153 0.6363386511802673 -0.13404184579849243
0.506091833114624 0.6090393662452698 -0.1441921442747116
0.29653775691986084 0.42812591791152954 -0.019510187208652496
0.44348570704460144 0.5406051874160767 -0.03535616397857666
0.4430643618106842 0.6211302876472473 -0.07894689589738846
0.4406891465187073 0.6061769723892212 -0.07240859419107437
0.3099333643913269 0.5987091660499573 -0.005213537719100714
0.5056405663490295 0.5747933983802795 -0.13314825296401978
0.36111995577812195 0.3998543620109558 -0.05751565843820572
0.32375019788742065 0.4095328450202942 -0.04194425791501999
0.2652508020401001 0.3358916938304901 0.043180834501981735
0.4699726700782776 0.41877034306526184 -0.06729403883218765
0.4266478419303894 0.447444349527359 -0.020037200301885605
0.3699705898761749 0.7266785502433777 0.02266637422144413
0.24734105169773102 0.7431603670120239 0.21168707311153412
0.46019402146339417 0.636067271232605 -0.06611137092113495
0.48156067728996277 0.6457271575927734 -0.0647459477186203
0.39078861474990845 0.7243714332580566 0.02480448968708515
0.40230560302734375 0.7252712845802307 0.019952530041337013
0.30834805965423584 0.39208704233169556 -0.03325275704264641
0.43959975242614746 0.6300208568572998 -0.0637766495347023
0.40982913970947266 0.4008113741874695 -0.06634365022182465
0.4051668047904968 0.37872743606567383 -0.07433503121137619
0.3734833896160126 0.27240753173828125 -0.04634397476911545
0.28786516189575195 0.36276718974113464 2.5996738258982077e-05
0.39218050241470337 0.3228328227996826 -0.060923878103494644
0.27947309613227844 0.4162276089191437 -0.0016127735143527389
0.2580638825893402 0.4008139371871948 0.043683987110853195
0.48618969321250916 0.7247192859649658 -0.05269936844706535
0.4543297290802002 0.7241738438606262 -0.03897901251912117
0.4293886721134186 0.7229781746864319 -0.01977619156241417
0.46580997109413147 0.6403131484985352 -0.05968121066689491
0.3963509500026703 0.7244787812232971 0.022246932610869408
0.41198182106018066 0.738792359828949 0.010559029877185822
0.4056544899940491 0.7259057760238647 0.01960619166493416
0.477434903383255 0.6328158974647522 -0.10168687999248505
0.43923401832580566 0.7259427309036255 -0.009563477709889412
0.46188655495643616 0.7294284701347351 -0.022988297045230865
0.4882819354534149 0.7329999804496765 -0.03238725662231445
0.48164209723472595 0.8212292194366455 -0.00693789916113019
0.4849241077899933 0.7922031879425049 -0.029843436554074287
0.48661696910858154 0.7769652009010315 -0.0333876758813858
0.48836055397987366 0.7649542093276978 -0.028012268245220184
0.490085244178772 0.7566568851470947 -0.02440028078854084
0.43914875388145447 0.7442283630371094 -0.0028462717309594154
0.4354526102542877 0.74675452709198 -0.006373535841703415
0.4304952323436737 0.7525064945220947 -0.0088651143014431
0.42637184262275696 0.7608813047409058 -0.003772771917283535
0.4032072424888611 0.6921753883361816 -0.019467998296022415
0.2197858691215515 0.6131148934364319 0.22959978878498077
0.5261752009391785 0.6551269292831421 -0.08675508201122284
0.4237534999847412 0.7378316521644592 0.011562156490981579
0.4179553985595703 0.7369993329048157 0.009633298963308334
0.49039971828460693 0.6578648090362549 -0.06384734064340591
0.44607365131378174 0.6443989872932434 -0.04211350157856941
0.4861735999584198 0.6521791815757751 -0.06520113348960876
0.416302353143692 0.5540327429771423 -0.027716435492038727
0.37324243783950806 0.5697185397148132 -0.022870710119605064
0.43448683619499207 0.6160930395126343 -0.057151876389980316
0.3091691732406616 0.2978861331939697 -0.005784276872873306
0.330707311630249 0.335590660572052 -0.033795587718486786
0.3516314625740051 0.37840503454208374 -0.05632684379816055
0.415488064289093 0.7828353047370911 0.012977349571883678
0.46261894702911377 0.3838734030723572 -0.08058294653892517
0.4520380198955536 0.3204483985900879 -0.07355879247188568
0.4400683641433716 0.26097825169563293 -0.06576357781887054
0.3410801291465759 0.49574461579322815 -0.0039259931072592735
0.27936190366744995 0.5213892459869385 0.02990579418838024
0.44483140110969543 0.48424050211906433 -0.008264345116913319
0.3072536885738373 0.46063488721847534 0.0003256950876675546
0.46195855736732483 0.524848461151123 -0.04480355232954025
0.4615100622177124 0.6151655316352844 -0.10315809398889542
0.25043821334838867 0.5404521226882935 0.05666031315922737
0.29802438616752625 0.5365704894065857 0.011648036539554596
0.3315442204475403 0.5446637868881226 -0.006857128813862801
0.3800513446331024 0.5419673323631287 -0.014514833688735962
0.4161144196987152 0.5325754284858704 -0.017771640792489052
0.44220536947250366 0.5211805105209351 -0.02323993295431137
0.49698278307914734 0.4910053014755249 -0.07300004363059998
0.2506296634674072 0.5927063822746277 0.05608265846967697
0.2856273055076599 0.4569510221481323 0.0088072270154953
0.5149663090705872 0.6494232416152954 -0.12051264941692352
0.44566887617111206 0.5665090680122375 -0.0433267205953598
0.213609516620636 0.4945843815803528 0.19498318433761597
0.4613422155380249 0.5078243017196655 -0.027038805186748505
0.4297996759414673 0.6163104176521301 -0.031078068539500237
0.32038313150405884 0.4759305715560913 0.010594463907182217
0.45927610993385315 0.5966976284980774 -0.0952678844332695
0.2282073199748993 0.6770776510238647 0.22655542194843292
0.4427858591079712 0.4756515920162201 -0.003677590051665902
0.4824824035167694 0.5833932757377625 -0.11928726732730865
0.3089725971221924 0.8010178804397583 0.09934961050748825
0.3112878203392029 0.8345625996589661 0.14324866235256195
0.2233877182006836 0.6059020161628723 0.1425251066684723
0.2729153335094452 0.7669174075126648 0.1205270066857338
0.24083222448825836 0.4443214237689972 0.08635378628969193
0.42148807644844055 0.893304705619812 0.03783508762717247
0.5158172249794006 0.6537685394287109 -0.08581726998090744
0.42140769958496094 0.5836460590362549 -0.03397199138998985
0.2544754147529602 0.49512362480163574 0.0591660812497139
0.36643460392951965 0.48369818925857544 -0.01153180655092001
0.38842177391052246 0.4848265051841736 -0.015503792092204094
0.40606504678726196 0.7423765659332275 0.014332057908177376
0.25121086835861206 0.6469144225120544 0.07148151844739914
0.46716925501823425 0.9293711185455322 0.049169834703207016
0.389692485332489 0.8941619992256165 0.08961436152458191
0.3542048931121826 0.869463324546814 0.11377417296171188
0.517700731754303 0.32259127497673035 -0.07291735708713531
0.5176410675048828 0.9329483509063721 0.047201115638017654
0.40863046050071716 0.48309433460235596 -0.014799140393733978
0.4271931052207947 0.4789911210536957 -0.009950130246579647
0.4378949701786041 0.4770461916923523 -0.004478721879422665
0.26526468992233276 0.45148590207099915 0.031069427728652954
0.4218895435333252 0.4617171883583069 -0.015791309997439384
0.40112045407295227 0.4569891095161438 -0.022626245394349098
0.38077306747436523 0.4563772678375244 -0.02363528683781624
0.35929960012435913 0.46053701639175415 -0.019234273582696915
0.3450125753879547 0.46668878197669983 -0.011745596304535866
0.22021353244781494 0.43241798877716064 0.14871664345264435
0.35082414746284485 0.48130732774734497 -0.00546712800860405
0.5227663516998291 0.6783303618431091 -0.05822496488690376
0.43083125352859497 0.680215060710907 -0.036845993250608444
0.46095120906829834 0.6337358355522156 -0.07629863917827606
0.4852735996246338 0.6782163977622986 -0.05879506468772888
0.5185439586639404 0.45297175645828247 -0.06562131643295288
0.3484312891960144 0.8361479043960571 0.08344613015651703
0.38416966795921326 0.864971935749054 0.06276386976242065
0.4669272303581238 0.9114797115325928 0.017917105928063393
0.27686893939971924 0.7957406044006348 0.1793631762266159
0.4362318813800812 0.46973273158073425 -0.008822974748909473
0.48190057277679443 0.5335214734077454 -0.07723788172006607
0.5195995569229126 0.9148141145706177 0.01727190986275673
0.42606645822525024 0.9153620600700378 0.06404484808444977
0.22992289066314697 0.6648672819137573 0.1462610960006714
0.46270373463630676 0.7512286305427551 -0.015304268337786198
0.4591091573238373 0.756971538066864 -0.019132213667035103
0.45603686571121216 0.7662862539291382 -0.022234417498111725
0.4531542956829071 0.7799354195594788 -0.01789979264140129
0.4445101022720337 0.8056319952011108 0.00044406476081348956
0.4146631062030792 0.7255769968032837 0.0041003101505339146
0.40779992938041687 0.7227243781089783 0.0034315160010010004
0.4009802043437958 0.7186663746833801 0.0017621207516640425
0.3798261284828186 0.7066237926483154 0.0013436367735266685
0.2846667766571045 0.6580477952957153 0.027109434828162193
0.4801274240016937 0.5065706372261047 -0.057119157165288925
0.46419933438301086 0.4582166373729706 -0.019672900438308716
0.4478021562099457 0.4626128673553467 -0.012365145608782768
0.4199621081352234 0.7230793237686157 0.006399509031325579
0.28136342763900757 0.7243087887763977 0.07207892090082169
0.48693445324897766 0.4570840299129486 -0.05108698830008507
0.4341365694999695 0.8336866497993469 0.012857932597398758
0.5254092216491699 0.5419647693634033 -0.1180751621723175
0.500542163848877 0.5199477076530457 -0.09469577670097351
0.5231003165245056 0.5142107605934143 -0.09870310127735138
0.4642532467842102 0.5738537907600403 -0.07434490323066711
0.5203836560249329 0.8870546817779541 0.0009822642896324396
0.5198720693588257 0.8526151180267334 -0.0029119395185261965
0.4760837256908417 0.8509104251861572 -0.0002304672816535458
0.37403184175491333 0.7731350064277649 0.034658100455999374
0.40776097774505615 0.6365923285484314 -0.023457670584321022
0.40195927023887634 0.8074093461036682 0.026226840913295746
0.3447642922401428 0.6341210007667542 -0.018569331616163254
0.38050368428230286 0.6619741916656494 -0.01489126868546009
0.32012733817100525 0.6754776239395142 0.006275800988078117
0.4696500897407532 0.8844263553619385 0.0032580422703176737
0.44711101055145264 0.5865023732185364 -0.05604914203286171
0.3551729619503021 0.8005218505859375 0.055438775569200516
0.39044106006622314 0.8340132832527161 0.04360737279057503
0.3501207232475281 0.7369507551193237 0.02944432944059372
0.256674200296402 0.693516194820404 0.08707939833402634
0.3177993893623352 0.7492842674255371 0.04917393997311592
0.24438859522342682 0.7190383672714233 0.14366383850574493
0.35578447580337524 0.6907256841659546 0.0007643845747224987
0.46436694264411926 0.5499624013900757 -0.058942150324583054
0.4697389602661133 0.6282598972320557 -0.10752737522125244
0.45066872239112854 0.6307844519615173 -0.08009568601846695
0.4828575551509857 0.6117242574691772 -0.1252680867910385
0.4462819993495941 0.4390507638454437 -0.030781365931034088
0.40772193670272827 0.427239328622818 -0.040152836591005325
0.37271708250045776 0.42554765939712524 -0.04233661666512489
0.3423691987991333 0.4304417371749878 -0.03471251204609871
0.3197329342365265 0.4415988326072693 -0.020502028986811638
0.3021027743816376 0.48264920711517334 0.01983884908258915
0.2215905487537384 0.5502210855484009 0.13048912584781647
0.32242733240127563 0.5132110714912415 0.0062592546455562115
0.3496533930301666 0.51958829164505 -0.00509758573025465
0.38370388746261597 0.5194985866546631 -0.011922198347747326
0.4150228500366211 0.5138920545578003 -0.014199580065906048
0.4387474060058594 0.5053906440734863 -0.013627942651510239
0.45460569858551025 0.4970497786998749 -0.014765954576432705
0.21602118015289307 0.5532213449478149 0.22022025287151337
0.4498141407966614 0.6353797316551208 -0.06688279658555984
0.48395484685897827 0.5577356815338135 -0.09464745223522186
0.4894098937511444 0.6318668723106384 -0.12443524599075317
0.5012961626052856 0.6442188620567322 -0.11146462708711624
0.4879853427410126 0.635531485080719 -0.11208629608154297
0.4552375376224518 0.6422266960144043 -0.05648257955908775
0.506604790687561 0.6472944021224976 -0.11738976836204529
0.5074042677879333 0.6515505313873291 -0.08710195869207382
0.4522829055786133 0.47711485624313354 -0.0058485777117311954
0.46715426445007324 0.4831934869289398 -0.018589144572615623
0.47588351368904114 0.4879830777645111 -0.03511654958128929
0.3363192081451416 0.47108662128448486 -0.003997143357992172
0.32273581624031067 0.46283018589019775 -0.004075779113918543
0.5447796583175659 0.5458935499191284 -0.10650338977575302
0.6783450841903687 0.47803768515586853 0.03682294487953186
0.5487948656082153 0.6464422941207886 -0.08416415005922318
0.7523314356803894 0.38271647691726685 0.1481921374797821
0.6103251576423645 0.497952938079834 0.007478021085262299
0.6336716413497925 0.49989816546440125 0.011823434382677078
0.6564863324165344 0.49884921312332153 0.020444214344024658
0.6872155666351318 0.48690265417099 0.04267957806587219
0.5914844274520874 0.4917621612548828 0.0067308698780834675
0.6438904404640198 0.44160816073417664 -0.0034107405226677656
0.619500994682312 0.44216781854629517 -0.00644746795296669
0.6663693189620972 0.44566625356674194 0.007078326307237148
0.6812843084335327 0.45390915870666504 0.019203608855605125
0.7051748037338257 0.5023750066757202 0.057930395007133484
0.6080918312072754 0.8601004481315613 0.04025896638631821
0.6869182586669922 0.47347521781921387 0.045163594186306
0.7638931274414062 0.49326586723327637 0.17272891104221344
0.7285143136978149 0.4880578815937042 0.08303771913051605
0.6401606798171997 0.6022263765335083 -0.004925487097352743
0.5565964579582214 0.7100713849067688 -0.050854772329330444
0.5520714521408081 0.7318054437637329 -0.036880411207675934
0.5901018381118774 0.7112982869148254 -0.030402380973100662
0.6109268069267273 0.7145979404449463 -0.004001242574304342
0.5767686367034912 0.7288851141929626 -0.021685171872377396
0.5955991148948669 0.7266107201576233 0.0018534858245402575
0.6344478130340576 0.7538865804672241 0.04688329994678497
0.5497443675994873 0.6359907984733582 -0.13056477904319763
0.5520623922348022 0.6087580919265747 -0.14006111025810242
0.7164496183395386 0.42817240953445435 0.024723513051867485
0.587356686592102 0.5402958393096924 -0.01938001811504364
0.600374162197113 0.6198777556419373 -0.06370978057384491
0.6001464128494263 0.6050068140029907 -0.0569286048412323
0.7090882658958435 0.5956375598907471 0.03438642621040344
0.5488358736038208 0.5745050311088562 -0.1279759556055069
0.6637793779373169 0.4014752209186554 -0.02675541490316391
0.6952074766159058 0.41045236587524414 -0.0034310645423829556
0.7326021790504456 0.33714404702186584 0.09253282845020294
0.5648298263549805 0.4197704792022705 -0.05688488855957985
0.5980842113494873 0.44855061173439026 -0.0007039090851321816
0.6548405885696411 0.723921537399292 0.051013581454753876
0.739884614944458 0.7361245155334473 0.2631605565547943
0.5837133526802063 0.6351485848426819 -0.055153921246528625
0.5639205574989319 0.6450331807136536 -0.05909006670117378
0.6350390315055847 0.7222803831100464 0.04933644086122513
0.623508870601654 0.7233003377914429 0.04169236123561859
0.7071018218994141 0.3932018280029297 0.007883143611252308
0.6013435125350952 0.6286011338233948 -0.049026262015104294
0.6209743618965149 0.4025195240974426 -0.04520523175597191
0.6260267496109009 0.38059860467910767 -0.05243957042694092
0.6471085548400879 0.2748013734817505 -0.017964882776141167
0.7197285890579224 0.36378008127212524 0.044328391551971436
0.6345921158790588 0.3248865306377411 -0.03637887164950371
0.7292032241821289 0.4163650870323181 0.045435596257448196
0.7413589954376221 0.40059638023376465 0.09389784932136536
0.5550596117973328 0.7238993048667908 -0.04597004875540733
0.5827475190162659 0.7224782705307007 -0.026299063116312027
0.6034099459648132 0.720878005027771 -0.002794889733195305
0.5779731273651123 0.6393281817436218 -0.05051164701581001
0.6295775175094604 0.7224916219711304 0.04526165872812271
0.6171351671218872 0.7369669675827026 0.029802905395627022
0.6193999648094177 0.7240031361579895 0.040747709572315216
0.5724231004714966 0.6322458982467651 -0.09150636941194534
0.5904589891433716 0.72406005859375 0.0051886942237615585
0.5712928175926208 0.7281180024147034 -0.012034625746309757
0.5480917692184448 0.7321595549583435 -0.026184426620602608
0.5551605224609375 0.8198778033256531 -0.0010213014902547002
0.5546509623527527 0.7912991046905518 -0.023615285754203796
0.5538544058799744 0.7763473391532898 -0.02671361155807972
0.552362322807312 0.7642619609832764 -0.021467475220561028
0.549769937992096 0.7560637593269348 -0.018124621361494064
0.5931460857391357 0.7425185441970825 0.01205692533403635
0.5972871780395508 0.7448763847351074 0.008566935546696186
0.6022928357124329 0.7507827281951904 0.00648178206756711
0.6061194539070129 0.7590271234512329 0.01264323852956295
0.6297011971473694 0.6897393465042114 0.0016614431515336037
0.7591606378555298 0.6082479357719421 0.28597816824913025
0.6052040457725525 0.7359998226165771 0.030186496675014496
0.6114263534545898 0.7352504730224609 0.028276050463318825
0.5558410882949829 0.6572924256324768 -0.058219898492097855
0.5938160419464111 0.6430447101593018 -0.030348118394613266
0.5598093271255493 0.6515432596206665 -0.05979694053530693
0.612389087677002 0.5533362030982971 -0.006487939972430468
0.6524268388748169 0.5681929588317871 0.005497846752405167
0.6041965484619141 0.6146466732025146 -0.04125811532139778
0.6996257901191711 0.3001251220703125 0.03438948839902878
0.6857584714889526 0.33757543563842773 0.002095996169373393
0.671851634979248 0.38025230169296265 -0.023550065234303474
0.6148353219032288 0.7800160050392151 0.03207249939441681
0.5733878016471863 0.38507041335105896 -0.06943369656801224
0.5808119177818298 0.3216754198074341 -0.06057880446314812
0.5883784890174866 0.26247164607048035 -0.051516201347112656
0.6760091781616211 0.4949134290218353 0.03260156139731407
0.7295099496841431 0.5193256139755249 0.07593970745801926
0.5801901817321777 0.4852312207221985 0.008217374794185162
0.7058191895484924 0.4601287841796875 0.04273373633623123
0.5710505247116089 0.5248287916183472 -0.03206995129585266
0.5865390300750732 0.6145142316818237 -0.09099854528903961
0.7524696588516235 0.5375820398330688 0.10822698473930359
0.715606153011322 0.5346884727478027 0.055020108819007874
0.687649667263031 0.543113648891449 0.030487386509776115
0.6436819434165955 0.5408874750137329 0.014062276110053062
0.6099985837936401 0.5321371555328369 0.00424041785299778
0.58570396900177 0.5213096141815186 -0.00684262765571475
0.5422961115837097 0.4910469055175781 -0.06758180260658264
0.7549240589141846 0.5886391401290894 0.10768771916627884
0.7237739562988281 0.45610225200653076 0.055189672857522964
0.5403319001197815 0.6492710709571838 -0.11780685931444168
0.5884844064712524 0.5658486485481262 -0.02782583422958851
0.763873279094696 0.49190858006477356 0.2538698613643646
0.5684583187103271 0.508080005645752 -0.014360085129737854
0.6055809259414673 0.6147589683532715 -0.014909312129020691
0.693770170211792 0.4752817749977112 0.05093459412455559
0.5855704545974731 0.5959329009056091 -0.08272864669561386
0.7540589570999146 0.6710524559020996 0.280777245759964
0.581015408039093 0.47646158933639526 0.013601195998489857
0.5674952268600464 0.5829609036445618 -0.11022455990314484
0.7024064064025879 0.7942359447479248 0.13812358677387238
0.6937507390975952 0.827328622341156 0.18238435685634613
0.7691646814346313 0.6011044979095459 0.19801265001296997
0.7311031222343445 0.7598719596862793 0.16615986824035645
0.7530887126922607 0.4429038465023041 0.1399054080247879
0.610418975353241 0.8885056376457214 0.05679015442728996
0.5360867977142334 0.6537957191467285 -0.08423776179552078
0.6101595163345337 0.5825526714324951 -0.014763658866286278
0.7464221715927124 0.4930253028869629 0.11007324606180191
0.6543515920639038 0.48379552364349365 0.02091100811958313
0.6337083578109741 0.4853476285934448 0.013169081881642342
0.6225948333740234 0.7404961585998535 0.03490995988249779
0.7547301650047302 0.6415978670120239 0.12150121480226517
0.5661612153053284 0.9266803860664368 0.05948273465037346
0.6322587132453918 0.8881235122680664 0.11547145992517471
0.660294234752655 0.8627235889434814 0.1460464596748352
0.6141967177391052 0.4839920103549957 0.009541654959321022
0.5963410139083862 0.4801284074783325 0.010679320432245731
0.5858159065246582 0.4779861569404602 0.013870568946003914
0.738641619682312 0.4502524733543396 0.08065100759267807
0.6010349988937378 0.4624515175819397 0.005412871949374676
0.6207783818244934 0.4575504660606384 0.0022679816465824842
0.6405857801437378 0.45666223764419556 0.005578965879976749
0.6609007716178894 0.4605100154876709 0.013914833776652813
0.6738036870956421 0.46634092926979065 0.023632753640413284
0.7620899677276611 0.4310716986656189 0.20632849633693695
0.6684775948524475 0.4810348153114319 0.029552504420280457
0.6066522598266602 0.6781729459762573 -0.020586978644132614
0.5845236778259277 0.6327837705612183 -0.06560944765806198
0.5585569739341736 0.6773520112037659 -0.05189979076385498
0.6696515679359436 0.8297226428985596 0.11524247378110886
0.6407788395881653 0.8593173623085022 0.08772197365760803
0.5700072050094604 0.9087425470352173 0.027814103290438652
0.7187944650650024 0.7885159254074097 0.22541311383247375
0.5874233841896057 0.470386266708374 0.010100780054926872
0.5591236352920532 0.5333373546600342 -0.06849724054336548
0.6027684807777405 0.9105030298233032 0.08304879069328308
0.7642830014228821 0.6588636636734009 0.19982576370239258
0.5737944841384888 0.7499717473983765 -0.00426257262006402
0.5778214335441589 0.755573570728302 -0.007604093290865421
0.5810946822166443 0.7649677395820618 -0.010081558488309383
0.5834847688674927 0.7783529758453369 -0.005241648759692907
0.5894500613212585 0.8031697869300842 0.014222046360373497
0.6130831837654114 0.7236656546592712 0.02326449565589428
0.6202903985977173 0.7207033634185791 0.024433955550193787
0.6271162629127502 0.7167362570762634 0.024339880794286728
0.648345947265625 0.7038010358810425 0.027527866885066032
0.7299680113792419 0.6534101963043213 0.06952351331710815
0.5560692548751831 0.506757378578186 -0.04820987209677696
0.5640015006065369 0.4589805603027344 -0.008270666003227234
0.5775054693222046 0.46338319778442383 0.00374671071767807
0.6066712141036987 0.7213028073310852 0.02529839053750038
0.7290717959403992 0.7182602286338806 0.11515513062477112
0.5465685129165649 0.4575441777706146 -0.0440639890730381
0.5988721251487732 0.8303828239440918 0.028208937495946884
0.5439419746398926 0.5198917388916016 -0.08995232731103897
0.5764957070350647 0.5731815695762634 -0.06300770491361618
0.5613856315612793 0.8490185141563416 0.00689868675544858
0.6505022048950195 0.7693310379981995 0.0616084448993206
0.6249091029167175 0.63482266664505 -0.003264880273491144
0.6262689828872681 0.8036948442459106 0.04747788980603218
0.6806914806365967 0.6311309933662415 0.012744924053549767
0.6490926742553711 0.6594750285148621 0.010526685975492
0.7008583545684814 0.6711474061012268 0.04191639646887779
0.568413257598877 0.8820518255233765 0.012726680375635624
0.5900221467018127 0.5856542587280273 -0.041817836463451385
0.6660890579223633 0.7952024936676025 0.0858495682477951
0.6367347240447998 0.8292059898376465 0.06687337160110474
0.6725022196769714 0.7331328988075256 0.06157079339027405
0.7486129999160767 0.6875329613685608 0.1347435861825943
0.6993417143821716 0.7437543869018555 0.08593589067459106
0.7527907490730286 0.7123404145240784 0.1949755996465683
0.6695613861083984 0.6873860359191895 0.030497323721647263
0.5729502439498901 0.5496304631233215 -0.04664836823940277
0.5801030993461609 0.6274720430374146 -0.09633080661296844
0.594160795211792 0.6295340657234192 -0.06714624911546707
0.5708557963371277 0.6112549901008606 -0.11666806787252426
0.5821400880813599 0.4399608075618744 -0.015450295992195606
0.6192640662193298 0.4284176826477051 -0.01753503642976284
0.6517421007156372 0.42689985036849976 -0.01280368585139513
0.6786673665046692 0.4311537742614746 0.0009505664929747581
0.6970576047897339 0.4418755769729614 0.01931251771748066
0.708738386631012 0.48150479793548584 0.0624053068459034
0.7689164876937866 0.546735405921936 0.187702476978302
0.6929594278335571 0.5120171308517456 0.04578951373696327
0.6694402694702148 0.5184981822967529 0.029192926362156868
0.6386193037033081 0.518978476524353 0.01639167033135891
0.6091285943984985 0.5138832926750183 0.008449847809970379
0.5869768857955933 0.5057725310325623 0.003331344109028578
0.5722289085388184 0.49763450026512146 -0.0006555704167112708
0.7606563568115234 0.5495845079421997 0.2783425748348236
0.5930185317993164 0.6341019868850708 -0.0544038787484169
0.5616114735603333 0.5572730302810669 -0.0858442559838295
0.5653120279312134 0.6312451958656311 -0.11741147935390472
0.5511983633041382 0.6437976956367493 -0.10741560161113739
0.5641181468963623 0.6348961591720581 -0.10482438653707504
0.5869268178939819 0.6410813331604004 -0.045903146266937256
0.5475414991378784 0.6469960808753967 -0.11410488188266754
0.5437718629837036 0.651223361492157 -0.08416961133480072
0.5731528401374817 0.4779176712036133 0.008640749379992485
0.5608637928962708 0.48396164178848267 -0.007540611550211906
0.5554896593093872 0.48849058151245117 -0.02586589939892292
0.6814618110656738 0.47055596113204956 0.033050522208213806
0.6927779316902161 0.46248072385787964 0.03498595207929611
