ply
format ascii 1.0
element vertex 468
property float x
property float y
property float z
end_header
0.48956385254859924 0.7370316982269287 -0.048720475286245346
0.4840276539325714 0.6601843237876892 -0.13350863754749298
0.4883204400539398 0.6812063455581665 -0.06277734786272049
0.4677335023880005 0.5646824240684509 -0.11314412951469421
0.4837385416030884 0.6327548027038574 -0.1462775617837906
0.4856078326702118 0.5943102836608887 -0.14205913245677948
0.49239403009414673 0.4968150854110718 -0.09226147830486298
0.32484954595565796 0.47076648473739624 0.022046547383069992
0.4944218397140503 0.4233666658401489 -0.08709964156150818
0.4943755865097046 0.38456812500953674 -0.09974469989538193
0.49914273619651794 0.23530364036560059 -0.10302695631980896
0.49013835191726685 0.7491163611412048 -0.0434337854385376
0.4912462532520294 0.7560182809829712 -0.03422582149505615
0.4924975335597992 0.756434977054596 -0.022549277171492577
0.49182039499282837 0.7877505421638489 -0.010593435727059841
0.4913349449634552 0.7991426587104797 -0.012831688858568668
0.4910849630832672 0.812488317489624 -0.015218282118439674
0.49138104915618896 0.8267652988433838 -0.007999182678759098
0.49274173378944397 0.8451513648033142 0.020215246826410294
0.48505687713623047 0.6725707054138184 -0.11858715116977692
0.4658566117286682 0.6662234663963318 -0.08166607469320297
0.24413299560546875 0.35042041540145874 0.12466392666101456
0.3981616795063019 0.4994714856147766 -0.0057213203981518745
0.3733321726322174 0.5001959800720215 -0.0013437389861792326
0.34900712966918945 0.4974709451198578 0.00743506196886301
0.3160877525806427 0.47890976071357727 0.029386937618255615
0.41773203015327454 0.49433276057243347 -0.006190314423292875
0.36068060994148254 0.429293155670166 -0.021537424996495247
0.387825071811676 0.43264415860176086 -0.025133827701210976
0.33600273728370667 0.4320831894874573 -0.010021758265793324
0.32016634941101074 0.440398633480072 0.0024067030753940344
0.2965630292892456 0.49527356028556824 0.04635727033019066
0.4045201539993286 0.8681703805923462 0.06927770376205444
0.3154861629009247 0.46329590678215027 0.029957644641399384
0.23416319489479065 0.47111546993255615 0.1618952751159668
0.2715107500553131 0.47447407245635986 0.06993048638105392
0.36882853507995605 0.6135482788085938 -0.007274548523128033
0.45537543296813965 0.7303245663642883 -0.0432557612657547
0.4600721001625061 0.7524188160896301 -0.027589797973632812
0.4220792055130005 0.7305232286453247 -0.022475307807326317
0.4017724394798279 0.7328709363937378 0.004669126123189926
0.43592166900634766 0.7488569021224976 -0.012488365173339844
0.417592316865921 0.7458601593971252 0.011765442788600922
0.3766758441925049 0.770297646522522 0.06304410099983215
0.4644845724105835 0.6579593420028687 -0.13000980019569397
0.46129557490348816 0.6316046714782715 -0.14174959063529968
0.28276658058166504 0.4100320041179657 0.005875682458281517
0.4227752685546875 0.5488800406455994 -0.027098476886749268
0.4138296842575073 0.6381125450134277 -0.06439235806465149
0.41363102197647095 0.6220768094062805 -0.058550287038087845
0.2951439619064331 0.6016618609428406 0.031220365315675735
0.4641692638397217 0.5957613587379456 -0.13221926987171173
0.33660292625427246 0.38737422227859497 -0.04807036742568016
0.30428582429885864 0.3931344747543335 -0.023760130628943443
0.2641487717628479 0.30487900972366333 0.06317434459924698
0.4420543909072876 0.41645047068595886 -0.07647326588630676
0.41115841269493103 0.44288596510887146 -0.018722034990787506
0.3569973111152649 0.7391886115074158 0.06342215090990067
0.2718128263950348 0.7193021178245544 0.2828451097011566
0.43160584568977356 0.6537536978721619 -0.05394156649708748
0.45114612579345703 0.6648271083831787 -0.05597921088337898
0.3772979974746704 0.7400103211402893 0.061131224036216736
0.3891420364379883 0.7421518564224243 0.05345205217599869
0.29135215282440186 0.37272438406944275 -0.015054939314723015
0.4138583242893219 0.6467602252960205 -0.04835129156708717
0.38116544485092163 0.3930138945579529 -0.06638570129871368
0.37603020668029785 0.36920082569122314 -0.07626287639141083
0.3549318313598633 0.24632659554481506 -0.05449735373258591
0.27771124243736267 0.3383026719093323 0.01827431097626686
0.36757150292396545 0.30635321140289307 -0.06764860451221466
0.26898452639579773 0.39485809206962585 0.024974975734949112
0.2560977637767792 0.37435898184776306 0.0711667612195015
0.4569636285305023 0.7441107630729675 -0.03774959221482277
0.42945900559425354 0.7421149015426636 -0.017710551619529724
0.40943393111228943 0.7396647930145264 0.006480576936155558
0.43742483854293823 0.6584725975990295 -0.048661570996046066
0.3828691244125366 0.7410351037979126 0.05681394785642624
0.39493733644485474 0.757980465888977 0.04367293789982796
0.39332664012908936 0.7423535585403442 0.05250129476189613
0.441947877407074 0.650789737701416 -0.09152152389287949
0.4229886531829834 0.7433499097824097 0.015315665863454342
0.4418661594390869 0.7479074001312256 -0.0022448962554335594
0.4643959105014801 0.7529886960983276 -0.016059404239058495
0.45595085620880127 0.8416661620140076 0.025153420865535736
0.4559560716152191 0.8209843635559082 -0.0021554927807301283
0.45690011978149414 0.8062936067581177 -0.00837645772844553
0.4590831398963928 0.7932804226875305 -0.005822676233947277
0.46209973096847534 0.7837247848510742 -0.0036772226449102163
0.41927802562713623 0.7659620046615601 0.025224488228559494
0.41484522819519043 0.7686876654624939 0.022824447602033615
0.40898072719573975 0.7744667530059814 0.02238166704773903
0.4047938883304596 0.7822372317314148 0.029535837471485138
0.38322529196739197 0.7064346671104431 0.00848026480525732
0.24501150846481323 0.583815336227417 0.29178911447525024
0.4864540100097656 0.675960123538971 -0.0830758810043335
0.4076484739780426 0.7572999000549316 0.042855892330408096
0.40101295709609985 0.756873369216919 0.041704729199409485
0.45857587456703186 0.6777371764183044 -0.05345658212900162
0.42127329111099243 0.6616224646568298 -0.027524467557668686
0.4550948441028595 0.6717220544815063 -0.05582479014992714
0.39724820852279663 0.561117947101593 -0.012845741584897041
0.3545217514038086 0.575674295425415 0.0004951937007717788
0.4100237190723419 0.631388783454895 -0.04181283339858055
0.298469603061676 0.26935261487960815 0.0011493766214698553
0.31275469064712524 0.31419655680656433 -0.02705651894211769
0.3277185559272766 0.3632965385913849 -0.04822155833244324
0.39638906717300415 0.7979248762130737 0.05172164738178253
0.4330522418022156 0.3786360025405884 -0.09245032072067261
0.4266508221626282 0.30676108598709106 -0.09228730946779251
0.41961297392845154 0.23625320196151733 -0.0894370824098587
0.32775968313217163 0.49035367369651794 0.019363248720765114
0.2705526649951935 0.5123648643493652 0.06574007868766785
0.4297018349170685 0.48843252658843994 -0.00534085975959897
0.29523390531539917 0.4456931948661804 0.026449907571077347
0.43931007385253906 0.5339770317077637 -0.04071071371436119
0.42662757635116577 0.6329346299171448 -0.09222391247749329
0.24697038531303406 0.5276923775672913 0.10117480158805847
0.28532058000564575 0.5329002737998962 0.04593987762928009
0.31570345163345337 0.545584499835968 0.02201252616941929
0.36327970027923584 0.5452463626861572 0.006164902821183205
0.39885973930358887 0.5370496511459351 -0.0043134987354278564
0.423690527677536 0.5269282460212708 -0.016383741050958633
0.4697883427143097 0.502805233001709 -0.07906482368707657
0.2467380166053772 0.5842434167861938 0.10543382167816162
0.27609944343566895 0.43959343433380127 0.03838394582271576
0.47350746393203735 0.670639157295227 -0.1160992756485939
0.4230380654335022 0.5775500535964966 -0.0333523228764534
0.23405632376670837 0.4618143141269684 0.24503974616527557
0.4414844214916229 0.5147287845611572 -0.025195755064487457
0.4085274934768677 0.6302170753479004 -0.015673601999878883
0.308443546295166 0.46364569664001465 0.036194585263729095
0.4272165596485138 0.613496720790863 -0.08547976613044739
0.25432679057121277 0.6498767137527466 0.29372847080230713
0.42910364270210266 0.47850102186203003 -0.0013598769437521696
0.4448621869087219 0.6024264693260193 -0.11367390304803848
0.31319379806518555 0.7925910353660583 0.15942391753196716
0.32330164313316345 0.8187445402145386 0.2092016637325287
0.233700692653656 0.5863300561904907 0.1994350552558899
0.2820356488227844 0.754976212978363 0.18416006863117218
0.24422895908355713 0.41854870319366455 0.12286587804555893
0.4048941433429718 0.890453040599823 0.08937953412532806
0.47742193937301636 0.6743476390838623 -0.08091483265161514
0.4010525345802307 0.5938130617141724 -0.01892670802772045
0.252472460269928 0.4769153594970703 0.09777764976024628
0.35078150033950806 0.4815462827682495 0.006371777970343828
0.37296614050865173 0.48504015803337097 -0.0012243737000972033
0.38924694061279297 0.7606438398361206 0.04934920370578766
0.2506960928440094 0.638668954372406 0.12524405121803284
0.4489971399307251 0.9251744747161865 0.09767558425664902
0.3860715627670288 0.8826520442962646 0.14811937510967255
0.35861659049987793 0.8558599948883057 0.1755020171403885
0.4964776337146759 0.30922168493270874 -0.10384898632764816
0.49539870023727417 0.9335414171218872 0.0865907073020935
0.3937510848045349 0.4844985604286194 -0.004526307340711355
0.41294124722480774 0.4814046621322632 -0.0035490940790623426
0.42438268661499023 0.47992897033691406 -0.00035232360824011266
0.25982069969177246 0.43054524064064026 0.06371170282363892
0.4081113338470459 0.45852845907211304 -0.011148091405630112
0.38687989115715027 0.44973844289779663 -0.01445673406124115
0.36447077989578247 0.4471336007118225 -0.011097983457148075
0.3425082564353943 0.4501081705093384 -0.0024897155817598104
0.3287699818611145 0.4559482932090759 0.007697015535086393
0.2344246208667755 0.3995971083641052 0.18919098377227783
0.335551381111145 0.47639885544776917 0.015100741758942604
0.48917368054389954 0.6991175413131714 -0.05181884765625
0.4069765508174896 0.6966488361358643 -0.014630481600761414
0.43047162890434265 0.651236891746521 -0.06528767943382263
0.4543711543083191 0.6980264782905579 -0.04556218907237053
0.4946015775203705 0.45800021290779114 -0.08050364255905151
0.346780389547348 0.8292295336723328 0.14112065732479095
0.3757191300392151 0.8591064214706421 0.11757565289735794
0.4435887038707733 0.9142318964004517 0.0636550784111023
0.2956025302410126 0.7765072584152222 0.24954193830490112
0.4223823845386505 0.4708227515220642 -0.0055523645132780075
0.45239368081092834 0.547500729560852 -0.07658849656581879
0.49319666624069214 0.9214352369308472 0.053823769092559814
0.4143107235431671 0.9070125818252563 0.11877153068780899
0.24200022220611572 0.6466667056083679 0.207438126206398
0.4381214380264282 0.7758098840713501 0.009644858539104462
0.4336339235305786 0.7819910645484924 0.007171292323619127
0.4296351671218872 0.7919721603393555 0.006774907931685448
0.4268527925014496 0.8050233721733093 0.013703060336411
0.42181044816970825 0.8229886293411255 0.03716663271188736
0.4002055525779724 0.7423882484436035 0.03407587856054306
0.39237648248672485 0.7387524843215942 0.03498043492436409
0.38558709621429443 0.7340059280395508 0.034165285527706146
0.36429715156555176 0.7198865413665771 0.03589395806193352
0.27677005529403687 0.6576591730117798 0.07294204831123352
0.45501816272735596 0.5169747471809387 -0.058303602039813995
0.4455750584602356 0.46046656370162964 -0.02521161362528801
0.43205687403678894 0.46346354484558105 -0.012945970520377159
0.4069226384162903 0.7397843599319458 0.036052219569683075
0.28194308280944824 0.7197424173355103 0.1266661435365677
0.4640830159187317 0.46113353967666626 -0.05994553491473198
0.41235601902008057 0.8440490365028381 0.054543472826480865
0.48798203468322754 0.5617332458496094 -0.12438159435987473
0.4683213233947754 0.5357645750045776 -0.09911927580833435
0.4900211691856384 0.5310482382774353 -0.10774412006139755
0.4351719915866852 0.5885818004608154 -0.0676967203617096
0.49217358231544495 0.8996390104293823 0.035145193338394165
0.4924725890159607 0.8702398538589478 0.0278614591807127
0.44964420795440674 0.8655967712402344 0.03680909052491188
0.3608936369419098 0.7813291549682617 0.07960080355405807
0.3875187039375305 0.6496052145957947 -0.002076364355161786
0.38496920466423035 0.815509557723999 0.07025418430566788
0.3269813656806946 0.6420025825500488 0.013207480311393738
0.3619920015335083 0.6737464666366577 0.01401728019118309
0.30818450450897217 0.6809385418891907 0.04644487425684929
0.4435551166534424 0.8936208486557007 0.04542650282382965
0.4226221442222595 0.5999165773391724 -0.045213568955659866
0.3469569683074951 0.8013832569122314 0.10725047439336777
0.3764519691467285 0.8351705074310303 0.0928468406200409
0.3389984667301178 0.7451361417770386 0.0748085081577301
0.26018354296684265 0.6847671270370483 0.14367155730724335
0.3126782774925232 0.750173032283783 0.09990928322076797
0.25678056478500366 0.7028549313545227 0.2087545096874237
0.3421633243560791 0.7012335062026978 0.03735201433300972
0.43828874826431274 0.5622562170028687 -0.053405508399009705
0.4341299831867218 0.6462298035621643 -0.09716233611106873
0.4207218885421753 0.6479294300079346 -0.0668666660785675
0.44271036982536316 0.631465494632721 -0.11772976815700531
0.42564722895622253 0.4364435374736786 -0.03466247767210007
0.38570618629455566 0.41973644495010376 -0.03731022775173187
0.3509242534637451 0.415025532245636 -0.0316048227250576
0.32264000177383423 0.41733670234680176 -0.017159927636384964
0.30386650562286377 0.42697903513908386 0.001771740149706602
0.29275381565093994 0.46922603249549866 0.04855797439813614
0.23106729984283447 0.5283585786819458 0.1828596591949463
0.30966198444366455 0.5081077218055725 0.03453903645277023
0.3351593613624573 0.5182427167892456 0.018647577613592148
0.3685840368270874 0.5206689238548279 0.0060181948356330395
0.3995162844657898 0.5166693329811096 -0.0025256189983338118
0.42230868339538574 0.5095778107643127 -0.008009584620594978
0.4373014569282532 0.5021128058433533 -0.012873475439846516
0.23979255557060242 0.5218498110771179 0.2764519155025482
0.4221757650375366 0.6526434421539307 -0.05315098538994789
0.45007482171058655 0.5744666457176208 -0.09160905331373215
0.4493061602115631 0.6516614556312561 -0.11744583398103714
0.46337491273880005 0.6638164520263672 -0.10578687489032745
0.45042911171913147 0.6541202068328857 -0.10460038483142853
0.4283906817436218 0.6599562764167786 -0.04357980191707611
0.46673375368118286 0.667773962020874 -0.11234553158283234
0.4706317186355591 0.6714476943016052 -0.08115039765834808
0.43708187341690063 0.4809885025024414 -0.006146096158772707
0.4491339921951294 0.4883630871772766 -0.02135801501572132
0.4549233317375183 0.4949105381965637 -0.03838619962334633
0.3210233449935913 0.46035170555114746 0.017553603276610374
0.30875149369239807 0.4493752121925354 0.019198263064026833
0.5090991854667664 0.5657589435577393 -0.11765827238559723
0.6823158860206604 0.47925764322280884 -0.011376945301890373
0.5092306733131409 0.6683200001716614 -0.08502345532178879
0.7990849018096924 0.3595651686191559 0.0720411166548729
0.6044166684150696 0.5042725801467896 -0.027214735746383667
0.630332350730896 0.5060939788818359 -0.026998622342944145
0.6564101576805115 0.5045248866081238 -0.02267042174935341
0.6937785148620605 0.48800337314605713 -0.006251438520848751
0.5831993818283081 0.4981706738471985 -0.023115813732147217
0.6430354714393616 0.43387046456336975 -0.04899090155959129
0.6148732304573059 0.43589162826538086 -0.04649356007575989
0.6691240072250366 0.43803322315216064 -0.041824039071798325
0.6868923902511597 0.4475882649421692 -0.03181067481637001
0.7164289951324463 0.5051621198654175 0.008020428009331226
0.5875052213668823 0.876893162727356 0.054014697670936584
0.6933948993682861 0.4720727801322937 -0.0048718820326030254
0.8057717084884644 0.4838195741176605 0.10858742147684097
0.7486513257026672 0.48522600531578064 0.02680438756942749
0.6263855695724487 0.6209670305252075 -0.028889041393995285
0.5255651473999023 0.7329145073890686 -0.049297790974378586
0.5246136784553528 0.7550042271614075 -0.03278177231550217
0.5635905861854553 0.7363120317459106 -0.034312356263399124
0.5895898342132568 0.7402120232582092 -0.011667683720588684
0.5524265766143799 0.7536056041717529 -0.023052675649523735
0.5753222107887268 0.7518658638000488 -0.0023073283955454826
0.622346043586731 0.7800235748291016 0.042497970163822174
0.5045109987258911 0.6594603657722473 -0.1328907310962677
0.5074453353881836 0.6328532099723816 -0.14505493640899658
0.7300256490707397 0.41786980628967285 -0.03479916229844093
0.572080135345459 0.5525984168052673 -0.04130995273590088
0.5686575174331665 0.6433121562004089 -0.07764019817113876
0.5716028809547424 0.6271988153457642 -0.0722421258687973
0.7100743055343628 0.6131781339645386 -0.004386327229440212
0.5082062482833862 0.5969957113265991 -0.13629327714443207
0.6639490127563477 0.39014363288879395 -0.07494661957025528
0.7020750045776367 0.39867204427719116 -0.058192115277051926
0.7690737247467041 0.3117613196372986 0.01613619364798069
0.5489495396614075 0.4169236421585083 -0.08496078103780746
0.5909337401390076 0.4456765949726105 -0.03611911088228226
0.6435249447822571 0.7496837377548218 0.03854924812912941
0.7721781134605408 0.7369487881660461 0.23485633730888367
0.5505874752998352 0.658413290977478 -0.0638926699757576
0.5289707779884338 0.6678323745727539 -0.060920462012290955
0.6226412653923035 0.7491373419761658 0.039409540593624115
0.6110819578170776 0.7501656413078308 0.03417179733514786
0.7192079424858093 0.37828052043914795 -0.05199754983186722
0.5715663433074951 0.6523270010948181 -0.06113017350435257
0.613537609577179 0.39439547061920166 -0.08508746325969696
0.6184958219528198 0.37035489082336426 -0.09556832909584045
0.6532567739486694 0.2491561472415924 -0.08106830716133118
0.743441641330719 0.3446894586086273 -0.023697540163993835
0.6325008869171143 0.3083497881889343 -0.09026605635881424
0.7494353652000427 0.4030744135379791 -0.01846904680132866
0.7744939923286438 0.3833027780056 0.02363424189388752
0.525359570980072 0.7469223737716675 -0.04345410689711571
0.5570647716522217 0.7472699284553528 -0.029123850166797638
0.5821558237075806 0.7463542222976685 -0.008584941737353802
0.5449337959289551 0.6627478003501892 -0.056457892060279846
0.6169384717941284 0.7495905756950378 0.036767784506082535
0.6018086671829224 0.7658303380012512 0.026535814628005028
0.607536256313324 0.7502644062042236 0.03369627892971039
0.5340898036956787 0.6547133922576904 -0.10045240819454193
0.5716741681098938 0.7486827969551086 0.0019752217922359705
0.548888087272644 0.7521018385887146 -0.012127549387514591
0.5230124592781067 0.755234956741333 -0.021550126373767853
0.531199038028717 0.8447733521461487 0.02004976198077202
0.528529167175293 0.8239762187004089 -0.00804419256746769
0.5271459221839905 0.8092868328094482 -0.014425097964704037
0.5253429412841797 0.7961629629135132 -0.011865503154695034
0.5232040882110596 0.7864103317260742 -0.009385517798364162
0.5742356181144714 0.7719578146934509 0.012009728699922562
0.5781872868537903 0.7749975919723511 0.009517724625766277
0.5835704207420349 0.7813768982887268 0.008737718686461449
0.5880395174026489 0.7893117070198059 0.015267631970345974
0.608191728591919 0.7141203880310059 -0.009902226738631725
0.8079492449760437 0.5993319749832153 0.23803941905498505
0.5893505811691284 0.7640796899795532 0.026385968551039696
0.5956538915634155 0.7643135786056519 0.025027191266417503
0.5206785202026367 0.6800852417945862 -0.05813397467136383
0.5653464198112488 0.6667935252189636 -0.037782881408929825
0.5244551301002502 0.6743125319480896 -0.060653988271951675
0.5999085903167725 0.5663933157920837 -0.031853266060352325
0.644576907157898 0.5833913683891296 -0.0251119714230299
0.5775684118270874 0.6368754506111145 -0.05602731555700302
0.7221988439559937 0.27375978231430054 -0.03723045438528061
0.6980441808700562 0.317973256111145 -0.06034392863512039
0.6743987202644348 0.36607056856155396 -0.07722783833742142
0.5983585119247437 0.8061368465423584 0.0350068099796772
0.556986927986145 0.378939151763916 -0.10157209634780884
0.5679432153701782 0.3080523908138275 -0.10400353372097015
0.5816521048545837 0.2376667857170105 -0.10250645875930786
0.6799968481063843 0.49874359369277954 -0.01422620378434658
0.7465807199478149 0.5237862467765808 0.023109208792448044
0.5700863599777222 0.49191874265670776 -0.02045774832367897
0.7174286246299744 0.4544811248779297 -0.012660526670515537
0.5533091425895691 0.536777138710022 -0.05209275335073471
0.5507540702819824 0.6373097896575928 -0.10288117080926895
0.7769864201545715 0.5409135818481445 0.05239978805184364
0.7262293696403503 0.5437885522842407 0.006188021972775459
0.6902371644973755 0.5549503564834595 -0.012034201994538307
0.6383212804794312 0.5521328449249268 -0.01955118216574192
0.6007672548294067 0.5419363379478455 -0.023849960416555405
0.5741133093833923 0.5305691361427307 -0.031045036390423775
0.5169045329093933 0.503661036491394 -0.08376717567443848
0.7735146284103394 0.5985904335975647 0.05756019800901413
0.7414406538009644 0.44892293214797974 -0.004501600284129381
0.4971359968185425 0.6716076731681824 -0.11816205084323883
0.5686417818069458 0.5813868045806885 -0.04716610535979271
0.8202486634254456 0.47431933879852295 0.18896277248859406
0.5541555881500244 0.5172622203826904 -0.036375049501657486
0.5826336741447449 0.6357187628746033 -0.029483024030923843
0.7025929689407349 0.4726612865924835 -0.0003555557341314852
0.553555428981781 0.6174544095993042 -0.09631235152482986
0.7954825162887573 0.6670740842819214 0.24250072240829468
0.5716539621353149 0.48204267024993896 -0.017087845131754875
0.531053900718689 0.6048457026481628 -0.12150179594755173
0.7028712034225464 0.8085752725601196 0.12362334132194519
0.7006403207778931 0.8350521922111511 0.17279037833213806
0.8027922511100769 0.6022911071777344 0.14688783884048462
0.7421770095825195 0.7719894051551819 0.14200377464294434
0.7919414043426514 0.4291187524795532 0.0719555914402008
0.5891972184181213 0.8996405601501465 0.07259780168533325
0.4958571195602417 0.6750167012214661 -0.08223313838243484
0.5929895639419556 0.5992258191108704 -0.03581329062581062
0.7741101980209351 0.488692969083786 0.04981658235192299
0.6532598733901978 0.48862868547439575 -0.022662369534373283
0.6300544142723083 0.49084365367889404 -0.026851674541831017
0.6081012487411499 0.7689666152000427 0.031063547357916832
0.7698270678520203 0.6543729901313782 0.07876758277416229
0.5438224673271179 0.9302195906639099 0.08863969892263412
0.6193323135375977 0.8945016860961914 0.12469974905252457
0.6552110910415649 0.870344877243042 0.14594042301177979
0.6085953712463379 0.48929181694984436 -0.02664804831147194
0.5886173248291016 0.485382080078125 -0.022496413439512253
0.5767783522605896 0.48364466428756714 -0.017533084377646446
0.764208197593689 0.4405732750892639 0.017308156937360764
0.5949801206588745 0.46240121126174927 -0.030779041349887848
0.6179961562156677 0.45422375202178955 -0.03730425983667374
0.6402923464775085 0.45296260714530945 -0.03794560953974724
0.6629526615142822 0.45719826221466064 -0.032744187861680984
0.6775156259536743 0.4639164209365845 -0.02478921040892601
0.8152443170547485 0.41066306829452515 0.1343780905008316
0.6699223518371582 0.4843781292438507 -0.016734756529331207
0.5802123546600342 0.7026200890541077 -0.028566857799887657
0.5500750541687012 0.6559020280838013 -0.07464616000652313
0.5262348651885986 0.7003999948501587 -0.051288679242134094
0.6619065999984741 0.8436839580535889 0.11195055395364761
0.6259242296218872 0.8713738918304443 0.09469278156757355
0.5446549654006958 0.9194408655166626 0.05462738499045372
0.7390153408050537 0.7936583161354065 0.20624002814292908
0.5788153409957886 0.4745703339576721 -0.02312530390918255
0.5324204564094543 0.5493753552436829 -0.08419743180274963
0.5833449363708496 0.9158598184585571 0.10162363946437836
0.7930152416229248 0.6637163758277893 0.157200425863266
0.5505719780921936 0.7804981470108032 -0.0006279749213717878
0.5547330975532532 0.7869715690612793 -0.0031468751840293407
0.5583434104919434 0.7972376942634583 -0.004069782327860594
0.5609815120697021 0.810409665107727 0.002478149486705661
0.5688063502311707 0.8290538787841797 0.025008441880345345
0.597319483757019 0.74957275390625 0.016647731885313988
0.604446530342102 0.746761679649353 0.016013015061616898
0.6112194657325745 0.7424726486206055 0.014325686730444431
0.632033109664917 0.7291308641433716 0.012822778895497322
0.733157217502594 0.6715912818908691 0.033892273902893066
0.5345669388771057 0.5187636017799377 -0.06627584993839264
0.5518046617507935 0.46215036511421204 -0.03548627719283104
0.5679908394813538 0.46602293848991394 -0.0276423841714859
0.5917713046073914 0.7465892434120178 0.01948085054755211
0.7334520816802979 0.7351137399673462 0.08712178468704224
0.5281814932823181 0.4620453715324402 -0.06607343256473541
0.5793114900588989 0.8514938950538635 0.04120976850390434
0.5132302641868591 0.5367841720581055 -0.1032441258430481
0.5496888160705566 0.5916776061058044 -0.07800744473934174
0.5371930003166199 0.8695507049560547 0.030598336830735207
0.6396132111549377 0.792516827583313 0.05568404868245125
0.6054798364639282 0.656424343585968 -0.019868021830916405
0.6117082834243774 0.8253816962242126 0.051556218415498734
0.6713351011276245 0.652269184589386 -0.014579500071704388
0.6328571438789368 0.6823999881744385 -0.008149618282914162
0.6947594881057739 0.6931731104850769 0.014350846409797668
0.5429845452308655 0.898350715637207 0.03706666827201843
0.5663410425186157 0.6040350198745728 -0.057953525334596634
0.6570082902908325 0.8144276142120361 0.07963310927152634
0.6220868825912476 0.8465874195098877 0.0718843936920166
0.6632591485977173 0.7569696307182312 0.04609445482492447
0.761060893535614 0.7009022235870361 0.09934939444065094
0.6950882077217102 0.7642427086830139 0.06642094254493713
0.7751309871673584 0.7202726602554321 0.1608119010925293
0.6569033861160278 0.7115998268127441 0.010737260803580284
0.5501060485839844 0.5652914047241211 -0.06432562321424484
0.5419981479644775 0.6504429578781128 -0.10682035237550735
0.5605864524841309 0.6531854271888733 -0.07797638326883316
0.5300480723381042 0.6344285011291504 -0.12579958140850067
0.5719581246376038 0.4384993314743042 -0.04877403378486633
0.6133924722671509 0.42260587215423584 -0.057663943618535995
0.6501710414886475 0.4190320372581482 -0.05820439010858536
0.6816495656967163 0.4232454299926758 -0.04948210343718529
0.7045167684555054 0.4346027374267578 -0.03454370051622391
0.7223324775695801 0.4788517653942108 0.00916478130966425
0.8074671030044556 0.5428425669670105 0.1288374811410904
0.700082540512085 0.5174741744995117 -0.0014418013161048293
0.6712942719459534 0.5264254212379456 -0.01252505648881197
0.6349713206291199 0.5270621180534363 -0.019581658765673637
0.6020398736000061 0.5213616490364075 -0.022646533325314522
0.577728807926178 0.5131478905677795 -0.02300546132028103
0.5610569715499878 0.5050406455993652 -0.025256862863898277
0.8149513602256775 0.5357747673988342 0.22119227051734924
0.5611933469772339 0.6580368876457214 -0.0641811415553093
0.5302317142486572 0.5765787363052368 -0.09953470528125763
0.5225340723991394 0.6545051336288452 -0.1234508603811264
0.5098262429237366 0.6658874154090881 -0.10930577665567398
0.5233824849128723 0.6572504639625549 -0.11080993711948395
0.5557350516319275 0.6649549007415771 -0.05285533890128136
0.5048547387123108 0.6693341135978699 -0.11517828702926636
0.5038160085678101 0.6728457808494568 -0.08353927731513977
0.5623759031295776 0.48391076922416687 -0.019312670454382896
0.5481825470924377 0.490510493516922 -0.030957475304603577
0.5392970442771912 0.4965606927871704 -0.04619995132088661
0.6863923072814941 0.4686877727508545 -0.016095386818051338
0.7007968425750732 0.45764583349227905 -0.01703936979174614
