ply
format ascii 1.0
element vertex 468
property float x
property float y
property float z
end_header
0.4647133946418762 0.7305018901824951 -0.05868607759475708
0.43697354197502136 0.6447939276695251 -0.12174000591039658
0.4607473611831665 0.6691859364509583 -0.06139114871621132
0.43117061257362366 0.555442750453949 -0.08567377179861069
0.4340585470199585 0.6180248856544495 -0.13097548484802246
0.43958529829978943 0.5820944309234619 -0.1231941357254982
0.4621947407722473 0.49349141120910645 -0.06689568608999252
0.3468608558177948 0.47918418049812317 0.09557700157165527
0.46694058179855347 0.4333376884460449 -0.0544205904006958
0.46411800384521484 0.3996995985507965 -0.06090814620256424
0.472456157207489 0.26949673891067505 -0.04264124110341072
0.46671754121780396 0.7427027225494385 -0.05493730679154396
0.4705096483230591 0.7511216402053833 -0.04710792750120163
0.4754146933555603 0.7536923289299011 -0.03626742213964462
0.4736146926879883 0.7627788782119751 -0.032807014882564545
0.4720776677131653 0.7731664180755615 -0.03614601120352745
0.4719473719596863 0.7864056825637817 -0.04038769379258156
0.4741249680519104 0.80138099193573 -0.0364791639149189
0.4830031991004944 0.8277934789657593 -0.013022147119045258
0.44401657581329346 0.6578934788703918 -0.10952961444854736
0.4333992600440979 0.6538994908332825 -0.07027649134397507
0.3150078058242798 0.390182226896286 0.23387084901332855
0.4070197343826294 0.5009740591049194 0.04862925782799721
0.3860586881637573 0.5032541155815125 0.05886433273553848
0.366428017616272 0.5030134916305542 0.07318583130836487
0.3442310392856598 0.48861974477767944 0.10299134999513626
0.4227873682975769 0.4948928952217102 0.040231965482234955
0.3693801164627075 0.4425225257873535 0.048396289348602295
0.392562597990036 0.44389963150024414 0.036436304450035095
0.3505164384841919 0.44606250524520874 0.06471101194620132
0.34026405215263367 0.45411187410354614 0.07972228527069092
0.3319928050041199 0.5072603821754456 0.12070054560899734
0.41317376494407654 0.8629875183105469 0.050397489219903946
0.3411128520965576 0.4731195569038391 0.10554410517215729
0.31137385964393616 0.49537432193756104 0.2520526349544525
0.3185722827911377 0.49086326360702515 0.15230692923069
0.37618517875671387 0.6123088598251343 0.03179360553622246
0.4389287233352661 0.7255034446716309 -0.044163111597299576
0.4502187967300415 0.7497723698616028 -0.03303714096546173
0.418820858001709 0.7293685078620911 -0.017794057726860046
0.41019317507743835 0.7369769215583801 0.009035254828631878
0.43609392642974854 0.7487276792526245 -0.01336952205747366
0.4267149269580841 0.7493520975112915 0.00988162960857153
0.3984995484352112 0.7723883390426636 0.05709368363022804
0.42004066705703735 0.6433548927307129 -0.11372476071119308
0.4147264361381531 0.6178888082504272 -0.12080026417970657
0.31407323479652405 0.4339144229888916 0.0965084433555603
0.41802293062210083 0.5468041300773621 0.008692475967109203
0.39406049251556396 0.6297399401664734 -0.0347185954451561
0.3968137502670288 0.6151512265205383 -0.02708672732114792
0.3261800706386566 0.6070071458816528 0.08973226696252823
0.42167770862579346 0.5843685865402222 -0.10651057213544846
0.3432619571685791 0.4094609022140503 0.028940007090568542
0.3228808641433716 0.41696882247924805 0.06161580607295036
0.3181324303150177 0.34707117080688477 0.17517448961734772
0.42584171891212463 0.428705096244812 -0.028363604098558426
0.41387706995010376 0.4508263170719147 0.03538984805345535
0.38180533051490784 0.7481282353401184 0.06993770599365234
0.35199686884880066 0.7295559048652649 0.3172919452190399
0.41088801622390747 0.6445589065551758 -0.03212517127394676
0.42764532566070557 0.6547691822052002 -0.045297205448150635
0.4038347601890564 0.7504978775978088 0.0604904443025589
0.41454941034317017 0.750116765499115 0.04866695776581764
0.3159867525100708 0.40088415145874023 0.07726510614156723
0.3995208740234375 0.6400249600410461 -0.022084467113018036
0.37607550621032715 0.41165709495544434 -0.0017707266379147768
0.36955684423446655 0.3912087082862854 -0.00651756813749671
0.3640102446079254 0.288326233625412 0.04339845851063728
0.31581971049308777 0.373109370470047 0.11959648132324219
0.3665475845336914 0.33769387006759644 0.016572603955864906
0.3084108829498291 0.4231305718421936 0.12185555696487427
0.3105274736881256 0.40814208984375 0.17403562366962433
0.4434172809123993 0.7401853799819946 -0.040871236473321915
0.4274784326553345 0.7413228750228882 -0.016580553725361824
0.4176563620567322 0.7437511086463928 0.0073431143537163734
0.4176202416419983 0.6493714451789856 -0.03180038556456566
0.40905195474624634 0.7505892515182495 0.05368424579501152
0.41420111060142517 0.7565559148788452 0.03343270719051361
0.41824251413345337 0.7489879727363586 0.04665094614028931
0.4107441306114197 0.6388145685195923 -0.06687529385089874
0.4343416392803192 0.7479890584945679 0.012368107214570045
0.44426554441452026 0.7494423985481262 -0.005440587177872658
0.4579232335090637 0.751975953578949 -0.02254326269030571
0.45533275604248047 0.8239122033119202 -0.0012493791291490197
0.4491034150123596 0.7970297932624817 -0.023304440081119537
0.44852250814437866 0.7821299433708191 -0.0262447539716959
0.4503837525844574 0.7693166732788086 -0.02170529216527939
0.45401859283447266 0.7608710527420044 -0.01882176101207733
0.4296853840351105 0.7551928758621216 0.01479533314704895
0.42571091651916504 0.7578367590904236 0.011602753773331642
0.4208589792251587 0.7639051079750061 0.009789030067622662
0.4173509478569031 0.7719014883041382 0.016657758504152298
0.38993656635284424 0.7075402140617371 0.019844915717840195
0.3400132656097412 0.6031438112258911 0.35434895753860474
0.45218831300735474 0.6625115275382996 -0.07864898443222046
0.42470240592956543 0.7532458305358887 0.03347819298505783
0.4192427694797516 0.7541221380233765 0.03180506452918053
0.43516552448272705 0.6676890850067139 -0.04520075023174286
0.41056323051452637 0.6558752655982971 -0.010096152313053608
0.4313175082206726 0.6616510152816772 -0.04625396430492401
0.4003646671772003 0.560875415802002 0.027600841596722603
0.36794528365135193 0.5781418681144714 0.04837474226951599
0.39866435527801514 0.6256695985794067 -0.012588264420628548
0.33187782764434814 0.31232064962387085 0.1086144745349884
0.33319932222366333 0.348606139421463 0.06804671138525009
0.3363432288169861 0.3893800675868988 0.0356721393764019
0.4122488498687744 0.7911631464958191 0.03871352598071098
0.41408658027648926 0.39656367897987366 -0.037347737699747086
0.40996938943862915 0.33456599712371826 -0.02318132296204567
0.40901488065719604 0.27552393078804016 -0.008525353856384754
0.3514961004257202 0.49813854694366455 0.08988018333911896
0.3155176043510437 0.5257701277732849 0.14311420917510986
0.43190687894821167 0.4884205460548401 0.03937112167477608
0.32688483595848083 0.4619525671005249 0.10894162207841873
0.4287095069885254 0.5313050746917725 -0.006541136652231216
0.3977068364620209 0.6227343678474426 -0.0633838102221489
0.30292069911956787 0.542722761631012 0.18145278096199036
0.32138338685035706 0.5439351201057434 0.118187814950943
0.3407977223396301 0.5534777045249939 0.08508502691984177
0.3769632577896118 0.5489864349365234 0.05736737698316574
0.4045673906803131 0.5378901362419128 0.03913336247205734
0.42310813069343567 0.5264182090759277 0.021731659770011902
0.4451014995574951 0.49979135394096375 -0.04726430028676987
0.29999566078186035 0.5953261256217957 0.17739836871623993
0.3159291446208954 0.459247350692749 0.1269157975912094
0.43342316150665283 0.6563363671302795 -0.1033608466386795
0.4142654538154602 0.5736703872680664 -0.00010340045992052183
0.33013415336608887 0.49264150857925415 0.3337565064430237
0.43546587228775024 0.513956606388092 0.01081286184489727
0.4035739302635193 0.6262754797935486 0.010876248590648174
0.3379334509372711 0.4750639796257019 0.11336376518011093
0.4021872282028198 0.6049318909645081 -0.05504922941327095
0.3433149456977844 0.6640908718109131 0.342990905046463
0.43222731351852417 0.4789852201938629 0.04594971612095833
0.4102002680301666 0.5921966433525085 -0.08469407260417938
0.3521568775177002 0.7959883213043213 0.17377817630767822
0.3701130747795105 0.8253360986709595 0.21731841564178467
0.3086441457271576 0.6008139848709106 0.2694408893585205
0.33642715215682983 0.7589597105979919 0.21370479464530945
0.3109377920627594 0.4479854702949524 0.22021394968032837
0.41181623935699463 0.8925883769989014 0.06761277467012405
0.4434991776943207 0.661217987537384 -0.07383179664611816
0.4006298780441284 0.5919358730316162 0.01620904728770256
0.3107930123806 0.4955655336380005 0.18470744788646698
0.36543452739715576 0.48710134625434875 0.07397542148828506
0.38430100679397583 0.48899412155151367 0.0614536814391613
0.4100777208805084 0.7605333924293518 0.04054783657193184
0.30579450726509094 0.6462515592575073 0.18445833027362823
0.4528980255126953 0.93677818775177 0.05896195396780968
0.4039827585220337 0.891059398651123 0.13263648748397827
0.3876938819885254 0.863061785697937 0.170607790350914
0.4667109251022339 0.3332993686199188 -0.053340282291173935
0.5003305673599243 0.9475390315055847 0.032935772091150284
0.40262213349342346 0.4871085286140442 0.05204528570175171
0.4187214970588684 0.4827616810798645 0.04836733639240265
0.4282764196395874 0.48057401180267334 0.04835410416126251
0.31019628047943115 0.45458298921585083 0.15702128410339355
0.41449666023254395 0.4630579948425293 0.04508509114384651
0.3964143693447113 0.45719122886657715 0.04757699742913246
0.3761780858039856 0.45557188987731934 0.056332215666770935
0.35792726278305054 0.4592490494251251 0.06948202103376389
0.3482113778591156 0.465526282787323 0.08176475763320923
0.3188018202781677 0.4356657564640045 0.29058316349983215
0.3539142906665802 0.4833475351333618 0.08619445562362671
0.46362364292144775 0.6885581612586975 -0.054911866784095764
0.40288811922073364 0.6935436129570007 -0.0027306401170790195
0.4071272611618042 0.6411833167076111 -0.04274545982480049
0.435075581073761 0.6893909573554993 -0.04080642759799957
0.46928519010543823 0.4617787301540375 -0.05174621567130089
0.3724328577518463 0.8316331505775452 0.1391432136297226
0.39153003692626953 0.8620579242706299 0.10470257699489594
0.44296666979789734 0.9153384566307068 0.029484184458851814
0.36075159907341003 0.7838955521583557 0.27133142948150635
0.42622441053390503 0.4723222553730011 0.0456550233066082
0.42852118611335754 0.5415652990341187 -0.04560425877571106
0.48990970849990845 0.9260704517364502 0.004519836511462927
0.423409104347229 0.9167578220367432 0.09329834580421448
0.31484454870224 0.6564777493476868 0.2648566961288452
0.4393230974674225 0.7577440142631531 -0.002129696309566498
0.4352102279663086 0.7636464834213257 -0.005337085574865341
0.4317464232444763 0.7731647491455078 -0.0072459750808775425
0.4297559857368469 0.7863736152648926 -0.0024110465310513973
0.4302394688129425 0.8094474077224731 0.01849089376628399
0.4194077253341675 0.7496049404144287 0.03139524161815643
0.41158008575439453 0.7470603585243225 0.034461285918951035
0.4049364924430847 0.7430106401443481 0.0369003526866436
0.381597638130188 0.7260309457778931 0.046958714723587036
0.3186571002006531 0.6613073945045471 0.12367349117994308
0.43737882375717163 0.5141370892524719 -0.025467542931437492
0.441421240568161 0.46447038650512695 0.016612669453024864
0.43288660049438477 0.4663889408111572 0.03490949049592018
0.42642295360565186 0.7466782331466675 0.03215470910072327
0.3287535309791565 0.7224592566490173 0.16274358332157135
0.4482860863208771 0.46529054641723633 -0.022430283948779106
0.42253512144088745 0.8347684144973755 0.03535138815641403
0.447435587644577 0.5517691969871521 -0.10353381186723709
0.43703585863113403 0.5289974212646484 -0.07021951675415039
0.4546855092048645 0.5236881375312805 -0.08462228626012802
0.4151402711868286 0.5816776752471924 -0.037581369280815125
0.4847865402698517 0.8948907852172852 -0.009806844405829906
0.4838884472846985 0.8583077192306519 -0.011136495508253574
0.45013749599456787 0.8523390889167786 0.007688334211707115
0.3811922073364258 0.782190203666687 0.07771013677120209
0.38969773054122925 0.6469593048095703 0.02467847615480423
0.4008792042732239 0.8114118576049805 0.05780994892120361
0.3470248281955719 0.6417490243911743 0.0553426668047905
0.3727058470249176 0.6723847985267639 0.03928356245160103
0.3373801112174988 0.6820750832557678 0.08470399677753448
0.4429120123386383 0.8860131502151489 0.015270836651325226
0.410126656293869 0.5945755243301392 -0.014511713758111
0.36949557065963745 0.8018412590026855 0.10803287476301193
0.3920665979385376 0.8338344097137451 0.0815185010433197
0.36330342292785645 0.7498524188995361 0.08840111643075943
0.31544673442840576 0.6900098323822021 0.1911156326532364
0.34550583362579346 0.7526023387908936 0.12101961672306061
0.3239973485469818 0.7091374397277832 0.2526252269744873
0.36229878664016724 0.7051105499267578 0.060442615300416946
0.4220319390296936 0.5572476983070374 -0.021196871995925903
0.40295857191085815 0.6346344947814941 -0.07030850648880005
0.39888107776641846 0.6386182904243469 -0.041422151029109955
0.4039083421230316 0.6194002628326416 -0.09203322976827621
0.4222049117088318 0.44474267959594727 0.016584955155849457
0.386825829744339 0.4330003559589386 0.02445327304303646
0.35809803009033203 0.43086671829223633 0.03915682062506676
0.337367981672287 0.43509891629219055 0.06055368855595589
0.32744404673576355 0.44518718123435974 0.08357837796211243
0.3298715054988861 0.4831865727901459 0.12764236330986023
0.30779698491096497 0.5474711656570435 0.2649008333683014
0.33911755681037903 0.5179200172424316 0.10490640252828598
0.3565203845500946 0.5252230167388916 0.08130751550197601
0.38235700130462646 0.5243154168128967 0.060442276298999786
0.4074651896953583 0.5178207159042358 0.04547939449548721
0.4254453480243683 0.5098146796226501 0.03304976969957352
0.43664854764938354 0.5022667646408081 0.025408107787370682
0.3385329842567444 0.5472742319107056 0.35280299186706543
0.40419256687164307 0.6446491479873657 -0.030016576871275902
0.42072799801826477 0.5663325190544128 -0.061684031039476395
0.4096468687057495 0.6379608511924744 -0.09589827060699463
0.42715388536453247 0.6506249308586121 -0.09141335636377335
0.4148029386997223 0.6412099003791809 -0.0840759426355362
0.41281813383102417 0.6525624394416809 -0.025655709207057953
0.42833101749420166 0.6539260149002075 -0.09879690408706665
0.4372979402542114 0.6585857272148132 -0.07211630046367645
0.4377802312374115 0.48139679431915283 0.03695393726229668
0.4452855587005615 0.48915672302246094 0.015820449218153954
0.4449284076690674 0.49502623081207275 -0.004120624624192715
0.3435156047344208 0.470015287399292 0.09263166785240173
0.3351844847202301 0.4626512825489044 0.0974813774228096
0.46924304962158203 0.5554807782173157 -0.10503178834915161
0.6674240231513977 0.478890597820282 -0.045387350022792816
0.47788354754447937 0.6553454995155334 -0.08513414114713669
0.814821720123291 0.3745056390762329 0.017395831644535065
0.5903905630111694 0.49965402483940125 -0.0421731062233448
0.6154267191886902 0.5021673440933228 -0.04985804483294487
0.6419585347175598 0.502234160900116 -0.05274585261940956
0.682108998298645 0.4884057641029358 -0.04635227099061012
0.569823145866394 0.4937813878059387 -0.030930064618587494
0.62191241979599 0.4379284977912903 -0.06588441133499146
0.595319926738739 0.43911013007164 -0.05350491777062416
0.6484082937240601 0.44161999225616455 -0.06752882152795792
0.6683483123779297 0.45030051469802856 -0.06307295709848404
0.7077422142028809 0.506193995475769 -0.03983188048005104
0.5888593196868896 0.8769265413284302 -0.015076388604938984
0.6800299882888794 0.472514271736145 -0.041943226009607315
0.8288903832435608 0.491529643535614 0.031794603914022446
0.746210515499115 0.48902636766433716 -0.02820068784058094
0.6042699217796326 0.6133918166160583 -0.059141598641872406
0.4960317015647888 0.7263518571853638 -0.06738964468240738
0.49824684858322144 0.7508717179298401 -0.05405323952436447
0.5340085029602051 0.7320181727409363 -0.06573180854320526
0.5615049600601196 0.7394003868103027 -0.05694553628563881
0.5263235569000244 0.7507324814796448 -0.054900456219911575
0.5497665405273438 0.7511124610900879 -0.04557075351476669
0.6072941422462463 0.7782722115516663 -0.027725091204047203
0.45873841643333435 0.6440929174423218 -0.1260751336812973
0.4589441120624542 0.6180899143218994 -0.13546545803546906
0.708854079246521 0.42858001589775085 -0.07374178618192673
0.5527740716934204 0.5464087128639221 -0.050681885331869125
0.5403252840042114 0.6308088898658752 -0.09025856107473373
0.5449615120887756 0.6156254410743713 -0.08463757485151291
0.6929774284362793 0.6100525259971619 -0.061099037528038025
0.4629538059234619 0.5844056606292725 -0.12536148726940155
0.6288251280784607 0.4023752212524414 -0.0889812782406807
0.6724333167076111 0.41062021255493164 -0.08595092594623566
0.7657341957092285 0.328873872756958 -0.019421374425292015
0.5161908864974976 0.42590850591659546 -0.06688357889652252
0.5733752250671387 0.44666439294815063 -0.03751230612397194
0.6270695328712463 0.753226637840271 -0.033149704337120056
0.8451367616653442 0.7497613430023193 0.11614099889993668
0.5244011282920837 0.646209716796875 -0.0734260231256485
0.5028810501098633 0.6558635234832764 -0.06565020233392715
0.5970088839530945 0.7521395683288574 -0.028335832059383392
0.5869801044464111 0.7512356638908386 -0.029245031997561455
0.6904679536819458 0.39326316118240356 -0.08065341413021088
0.5471693277359009 0.640906810760498 -0.07622961699962616
0.5765648484230042 0.40577006340026855 -0.08283551037311554
0.5793299674987793 0.3842373490333557 -0.09007681161165237
0.6226382851600647 0.2740924656391144 -0.06809850037097931
0.7255374193191528 0.3602750599384308 -0.054721806198358536
0.5958513021469116 0.32766664028167725 -0.07996023446321487
0.7326600551605225 0.41602444648742676 -0.06040336936712265
0.7721576690673828 0.3971986174583435 -0.0228856410831213
0.4967280924320221 0.7412726879119873 -0.06376912444829941
0.5283401608467102 0.7437903881072998 -0.06138584017753601
0.5543180704116821 0.7458029389381409 -0.052956610918045044
0.5195956826210022 0.6507695317268372 -0.0653858631849289
0.5912492871284485 0.7517986297607422 -0.028394551947712898
0.5760567784309387 0.7582560777664185 -0.03558741882443428
0.5861127972602844 0.7505942583084106 -0.02905546873807907
0.500151515007019 0.6411066651344299 -0.10497952997684479
0.5490881204605103 0.7485998272895813 -0.04031965509057045
0.5260387659072876 0.7505006790161133 -0.04429596662521362
0.5006159543991089 0.7526285648345947 -0.044329944998025894
0.5168544054031372 0.8271334171295166 -0.02246461808681488
0.5055665969848633 0.7992377877235413 -0.04631221666932106
0.5018309354782104 0.7840274572372437 -0.05002424865961075
0.5001036524772644 0.7707602977752686 -0.04523706063628197
0.4998522102832794 0.7620464563369751 -0.04067964479327202
0.5505919456481934 0.7568768858909607 -0.03771446272730827
0.552904486656189 0.7598375082015991 -0.04128139838576317
0.5571473836898804 0.76628577709198 -0.04453347995877266
0.5627288818359375 0.775030255317688 -0.041880179196596146
0.5839439034461975 0.710501492023468 -0.05603256821632385
0.8737084865570068 0.6100051999092102 0.12998639047145844
0.5677356123924255 0.7547839879989624 -0.032352615147829056
0.5707026124000549 0.755621075630188 -0.03447912633419037
0.4935982823371887 0.6684236526489258 -0.06526123732328415
0.542811393737793 0.6567667126655579 -0.053059447556734085
0.4979485869407654 0.6624500155448914 -0.06615497171878815
0.5808899402618408 0.5604488253593445 -0.051870983093976974
0.6233211159706116 0.5785699486732483 -0.05917192995548248
0.5538462996482849 0.6261853575706482 -0.07169170677661896
0.7029215097427368 0.29421761631965637 -0.05038589611649513
0.668628454208374 0.3357829749584198 -0.07231718301773071
0.6385281085968018 0.3809059262275696 -0.08879037201404572
0.5831196904182434 0.7980771064758301 -0.030516844242811203
0.519474983215332 0.39206022024154663 -0.07948146760463715
0.5316640138626099 0.32883739471435547 -0.07347865402698517
0.5488158464431763 0.2672521471977234 -0.06454546749591827
0.6670220494270325 0.497816801071167 -0.05066480115056038
0.7420030236244202 0.5254374146461487 -0.035156454890966415
0.5566774606704712 0.48791593313217163 -0.02429317869246006
0.7035538554191589 0.45922350883483887 -0.05481326952576637
0.5317164063453674 0.5308529734611511 -0.05432864651083946
0.5155299305915833 0.6239911317825317 -0.10847491770982742
0.7831448316574097 0.5437214970588684 -0.020478853955864906
0.715398907661438 0.5437949895858765 -0.04912469908595085
0.6737526059150696 0.5531599521636963 -0.057015154510736465
0.6205114126205444 0.5484588742256165 -0.05092552304267883
0.5843457579612732 0.5371253490447998 -0.04279741272330284
0.5577788352966309 0.5257982611656189 -0.03967949375510216
0.4873800575733185 0.4994058609008789 -0.06764718145132065
0.7796899080276489 0.6002417206764221 -0.023509971797466278
0.7308951616287231 0.4556211829185486 -0.052213553339242935
0.4570844769477844 0.6570268869400024 -0.11296200007200241
0.5470312833786011 0.573521614074707 -0.057386916130781174
0.8675576448440552 0.48696252703666687 0.10169122368097305
0.5360850691795349 0.5131298303604126 -0.03709669038653374
0.5626047849655151 0.6265518069267273 -0.047792963683605194
0.6913996338844299 0.47401270270347595 -0.04162910580635071
0.5213042497634888 0.6053014397621155 -0.10061027109622955
0.8676915168762207 0.6779341697692871 0.12752263247966766
0.5597245693206787 0.4789896607398987 -0.020399654284119606
0.49110740423202515 0.5924025177955627 -0.11807141453027725
0.7394180297851562 0.8187041282653809 0.02375451847910881
0.758376955986023 0.8520885109901428 0.06493615359067917
0.8376792073249817 0.6075147390365601 0.05024867132306099
0.7836573719978333 0.7800624370574951 0.036940425634384155
0.8034198880195618 0.4394429326057434 0.009609170258045197
0.6011053323745728 0.9093551635742188 -0.0035280645824968815
0.46228572726249695 0.6613981127738953 -0.07999696582555771
0.5727517008781433 0.5919045805931091 -0.05439306050539017
0.7793710827827454 0.4935699701309204 -0.014010589569807053
0.6363239288330078 0.4861782193183899 -0.049491457641124725
0.6132553219795227 0.4874141812324524 -0.047813404351472855
0.583181619644165 0.7626304626464844 -0.03373684361577034
0.7821379899978638 0.6556959748268127 -0.009098270907998085
0.5562989115715027 0.9468152523040771 0.019806338474154472
0.6552295088768005 0.9137259721755981 0.03435433283448219
0.7027528285980225 0.8890594244003296 0.04666374251246452
0.5934043526649475 0.48530662059783936 -0.04106300696730614
0.5753189325332642 0.48159947991371155 -0.031563278287649155
0.5643283128738403 0.4801206588745117 -0.023179156705737114
0.7602394223213196 0.4494306445121765 -0.03599739819765091
0.5808205604553223 0.46184447407722473 -0.03707835078239441
0.6023943424224854 0.4552324414253235 -0.048146046698093414
0.6233797669410706 0.4543886184692383 -0.055222585797309875
0.6457293033599854 0.45839744806289673 -0.05717693269252777
0.6610474586486816 0.4646282494068146 -0.05391291156411171
0.8473133444786072 0.423855721950531 0.06312954425811768
0.653748095035553 0.4829716086387634 -0.0482194721698761
0.5559433102607727 0.6955340504646301 -0.060396503657102585
0.5214397311210632 0.6428179144859314 -0.08180687576532364
0.49836260080337524 0.6902173757553101 -0.06477871537208557
0.6934661865234375 0.8547704815864563 0.017989030107855797
0.6495763659477234 0.8835088014602661 0.008862180635333061
0.5467046499252319 0.9251024723052979 -0.009160364046692848
0.8054019808769226 0.8083071708679199 0.09114634245634079
0.5658572316169739 0.47234758734703064 -0.027743615210056305
0.5014635920524597 0.5414473414421082 -0.07782074809074402
0.606198251247406 0.93422931432724 0.02046491950750351
0.834723949432373 0.6691961884498596 0.054529737681150436
0.5261266231536865 0.7595855593681335 -0.04127492755651474
0.528412938117981 0.765807569026947 -0.04579227417707443
0.5315597057342529 0.7756868004798889 -0.0498223714530468
0.5357048511505127 0.7895940542221069 -0.046836838126182556
0.5527247190475464 0.8151735067367554 -0.0315193310379982
0.5723783373832703 0.7507060170173645 -0.038000233471393585
0.5777413249015808 0.7485485076904297 -0.04166972264647484
0.5846384763717651 0.7446010112762451 -0.04425627738237381
0.6098029017448425 0.7296664118766785 -0.0480690598487854
0.7290177941322327 0.6696726679801941 -0.03998826816678047
0.5090741515159607 0.5136855840682983 -0.05906623601913452
0.5327240228652954 0.46310311555862427 -0.026318194344639778
0.552473247051239 0.4648565649986267 -0.026402059942483902
0.5696283578872681 0.7475993633270264 -0.03404202684760094
0.7500298023223877 0.7374404072761536 -0.0032409001141786575
0.5037626624107361 0.464310884475708 -0.048045095056295395
0.5726349353790283 0.8449141979217529 -0.021107442677021027
0.47846055030822754 0.5288738012313843 -0.08750225603580475
0.520518958568573 0.5817034840583801 -0.07977677881717682
0.526885986328125 0.8579847812652588 -0.01954031176865101
0.6392297744750977 0.7940195202827454 -0.021172238513827324
0.586507260799408 0.6481364369392395 -0.049349766224622726
0.609862208366394 0.8235535621643066 -0.01990659162402153
0.6500644087791443 0.6458489894866943 -0.061890654265880585
0.6128603219985962 0.6759496927261353 -0.0533096045255661
0.6832640171051025 0.6899659633636475 -0.049337711185216904
0.5368996858596802 0.893753170967102 -0.02116570807993412
0.5428905487060547 0.5944806933403015 -0.06737098842859268
0.6717396974563599 0.8196532726287842 -0.0060493433848023415
0.6316296458244324 0.8511569499969482 -0.006229748949408531
0.658987283706665 0.7598246932029724 -0.031151268631219864
0.7821818590164185 0.70351642370224 0.005891741719096899
0.705277681350708 0.7677479982376099 -0.018260382115840912
0.8204911947250366 0.726803719997406 0.0529305599629879
0.6403035521507263 0.7106531858444214 -0.049498166888952255
0.5243972539901733 0.5571104884147644 -0.06675523519515991
0.5066738128662109 0.6368454098701477 -0.11140546202659607
0.5320708155632019 0.6403085589408875 -0.0884178951382637
0.4875126779079437 0.6206600666046143 -0.12509314715862274
0.5483415126800537 0.4425620436668396 -0.04278278350830078
0.5864540338516235 0.42906394600868225 -0.06208408996462822
0.621932327747345 0.42551925778388977 -0.07403049618005753
0.6552503108978271 0.4293772876262665 -0.07687463611364365
0.6833486557006836 0.44044557213783264 -0.07042378932237625
0.7146735787391663 0.4819023311138153 -0.03769734874367714
0.8365675806999207 0.5487997531890869 0.03969135135412216
0.6886743307113647 0.5169568061828613 -0.045849110931158066
0.6571510434150696 0.5243511199951172 -0.049716707319021225
0.6200888156890869 0.5233179926872253 -0.047219168394804
0.5876127481460571 0.5167945027351379 -0.03944437950849533
0.5635390281677246 0.5088973045349121 -0.030826453119516373
0.5460601449012756 0.5015652775764465 -0.02679974026978016
0.8726726770401001 0.5476890802383423 0.12229786813259125
0.5355835556983948 0.646008312702179 -0.07615374028682709
0.49427086114883423 0.566466748714447 -0.09469068050384521
0.480999231338501 0.6401205658912659 -0.12182515114545822
0.4739922285079956 0.6524331569671631 -0.10639446973800659
0.48651450872421265 0.6436344385147095 -0.1107918918132782
0.5315402746200562 0.6537022590637207 -0.06424341350793839
0.466572105884552 0.655217170715332 -0.11108436435461044
0.4715392291545868 0.6596640944480896 -0.08252480626106262
0.5483567118644714 0.4809296131134033 -0.01842004619538784
0.5315341949462891 0.48846524953842163 -0.02508469857275486
0.5189608335494995 0.4941745102405548 -0.03824545815587044
0.6709032654762268 0.4692504405975342 -0.04923786222934723
0.6857861876487732 0.46020475029945374 -0.053759656846523285
