ply
format ascii 1.0
element vertex 468
property float x
property float y
property float z
end_header
0.5465866327285767 0.7207595109939575 -0.04994971305131912
0.5738658905029297 0.6441778540611267 -0.11540316790342331
0.5471731424331665 0.6646900177001953 -0.054999012500047684
0.5385292172431946 0.5610195398330688 -0.10500476509332657
0.5762053728103638 0.619633674621582 -0.1254579722881317
0.5685952305793762 0.5856583714485168 -0.1197146475315094
0.5407872200012207 0.5004938840866089 -0.07219984382390976
0.33829066157341003 0.48450493812561035 -0.05655323341488838
0.5341020226478577 0.44185954332351685 -0.06428239494562149
0.5367432832717896 0.410063773393631 -0.07343236356973648
0.5253896713256836 0.2785291075706482 -0.06414639949798584
0.5446895956993103 0.732699453830719 -0.04596368968486786
0.5408681035041809 0.7409979104995728 -0.03800606355071068
0.535651445388794 0.7436180710792542 -0.027349697425961494
0.5375789403915405 0.7505083084106445 -0.024884412065148354
0.5396192669868469 0.7616162300109863 -0.027225032448768616
0.5401588678359985 0.7749320268630981 -0.030194204300642014
0.5376832485198975 0.7884017825126648 -0.024683363735675812
0.526881754398346 0.8071635961532593 0.0007332750828936696
0.5662720203399658 0.6556432247161865 -0.10287775099277496
0.5339704155921936 0.65425044298172 -0.07985914498567581
0.19266508519649506 0.3807719945907593 -0.007862959988415241
0.4136015772819519 0.506223201751709 -0.05056613311171532
0.38966551423072815 0.5087970495223999 -0.05882328003644943
0.36456385254859924 0.5089360475540161 -0.06231163442134857
0.3245653510093689 0.4935545325279236 -0.0566481314599514
0.4334249496459961 0.500359058380127 -0.03942466899752617
0.3827742040157318 0.4421868920326233 -0.07623763382434845
0.41007623076438904 0.4437090754508972 -0.06413844227790833
0.3557736873626709 0.44636648893356323 -0.07802652567625046
0.3354893624782562 0.45497673749923706 -0.07439916580915451
0.30118870735168457 0.5122764110565186 -0.04988366737961769
0.4295755624771118 0.8479102849960327 -0.001567560131661594
0.32524240016937256 0.4766838550567627 -0.05350803583860397
0.18510973453521729 0.4939972162246704 0.014468519948422909
0.2642418146133423 0.49532344937324524 -0.0410318486392498
0.4079636037349701 0.6172994375228882 -0.05976070091128349
0.5182185173034668 0.7185318470001221 -0.059342194348573685
0.5151699781417847 0.7422382235527039 -0.045399729162454605
0.4828135669231415 0.7259751558303833 -0.0584668405354023
0.45602816343307495 0.7337387800216675 -0.05009857565164566
0.48920783400535583 0.74351966381073 -0.0470673032104969
0.46690231561660767 0.7445465326309204 -0.03801893815398216
0.41045281291007996 0.7689363360404968 -0.01922772452235222
0.5540406703948975 0.6445303559303284 -0.1202574223279953
0.5530146360397339 0.6207568645477295 -0.13057468831539154
0.2983536720275879 0.43691882491111755 -0.08822051435709
0.4544193148612976 0.5517773032188416 -0.054910603910684586
0.4744243919849396 0.6350468397140503 -0.08808363974094391
0.46811479330062866 0.6202401518821716 -0.08328037708997726
0.3220309913158417 0.615031898021698 -0.06391087174415588
0.5467841625213623 0.588833749294281 -0.12264011800289154
0.3776302933692932 0.41310644149780273 -0.10224501043558121
0.3343660831451416 0.42009782791137695 -0.10049071907997131
0.23974575102329254 0.3384285867214203 -0.04530376195907593
0.4870429039001465 0.4359067976474762 -0.07753206789493561
0.43162721395492554 0.4521510601043701 -0.04782559722661972
0.39271438121795654 0.7465234994888306 -0.026850303635001183
0.1813446283340454 0.7259414792060852 0.11281157284975052
0.4897974729537964 0.6484926342964172 -0.07054964452981949
0.5097743272781372 0.655810534954071 -0.06128549203276634
0.419756680727005 0.7457786798477173 -0.02162812650203705
0.4295927882194519 0.7444900870323181 -0.021799452602863312
0.31653523445129395 0.40338242053985596 -0.09724217653274536
0.4672599136829376 0.6443009376525879 -0.07371197640895844
0.42882978916168213 0.4171915650367737 -0.09511280059814453
0.42647668719291687 0.3969953954219818 -0.10390915721654892
0.37987151741981506 0.2864122688770294 -0.09278148412704468
0.2811536192893982 0.3707816004753113 -0.07607386261224747
0.4085942506790161 0.3404213488101959 -0.10012520849704742
0.27504000067710876 0.42494815587997437 -0.07697522640228271
0.23577463626861572 0.40467366576194763 -0.04438958689570427
0.5173874497413635 0.732813835144043 -0.055402081459760666
0.4878446161746979 0.7370427250862122 -0.05378546193242073
0.46269142627716064 0.7396299242973328 -0.04550330340862274
0.4941836893558502 0.6525602340698242 -0.06212122365832329
0.42533937096595764 0.7453462481498718 -0.021563787013292313
0.4397445321083069 0.7513725757598877 -0.027268296107649803
0.43086156249046326 0.7430391311645508 -0.021776024252176285
0.514035165309906 0.6433634757995605 -0.10112173110246658
0.4669369161128998 0.742044985294342 -0.03266158327460289
0.4886579215526581 0.7434390187263489 -0.03629050403833389
0.5119571685791016 0.7440109252929688 -0.03568800911307335
0.4954226016998291 0.8087522983551025 -0.008504164405167103
0.5079036355018616 0.7882966995239258 -0.03450167551636696
0.5119383335113525 0.7740951776504517 -0.03955439478158951
0.513214111328125 0.7605336308479309 -0.036459069699048996
0.5130077004432678 0.751294732093811 -0.033208951354026794
0.46458694338798523 0.748420238494873 -0.030400574207305908
0.4623996615409851 0.7521046996116638 -0.03316819295287132
0.45807138085365295 0.7589411735534668 -0.035277098417282104
0.45267727971076965 0.7671384215354919 -0.03232802450656891
0.4344383478164673 0.7067801356315613 -0.05073300376534462
0.14694514870643616 0.5986559987068176 0.11644421517848969
0.5571684241294861 0.659375011920929 -0.07226454466581345
0.448256254196167 0.7467081546783447 -0.024885352700948715
0.4450547695159912 0.7483022212982178 -0.02673850953578949
0.517905056476593 0.6662529706954956 -0.05970311909914017
0.4710157513618469 0.6583514213562012 -0.049781978130340576
0.5142441987991333 0.6614062786102295 -0.06111931800842285
0.4273262023925781 0.5657626986503601 -0.05555792525410652
0.38754481077194214 0.5841312408447266 -0.0623006634414196
0.45923754572868347 0.6300866603851318 -0.07017479836940765
0.30125710368156433 0.30621573328971863 -0.07555648684501648
0.33729979395866394 0.34822890162467957 -0.09304959326982498
0.36830857396125793 0.3928072154521942 -0.10493098199367523
0.4338849186897278 0.7857816815376282 -0.01985001191496849
0.4838683605194092 0.40408825874328613 -0.09254884719848633
0.4706611633300781 0.34052321314811707 -0.09247753769159317
0.4519871771335602 0.2781602740287781 -0.08752531558275223
0.3398052752017975 0.5040286779403687 -0.0608777180314064
0.26980817317962646 0.5316299200057983 -0.045086365193128586
0.4467637538909912 0.4942209720611572 -0.033287566155195236
0.3030264377593994 0.4653724431991577 -0.06733426451683044
0.47455739974975586 0.5367709994316101 -0.05873652920126915
0.4983345866203308 0.6279189586639404 -0.10558097064495087
0.23172713816165924 0.5476235151290894 -0.031090332195162773
0.29591286182403564 0.5506150722503662 -0.05737670511007309
0.3370075523853302 0.5603075623512268 -0.06292135268449783
0.38820958137512207 0.5543415546417236 -0.05632318556308746
0.42210865020751953 0.5427498817443848 -0.04834791272878647
0.4476877748966217 0.5314372181892395 -0.04581252112984657
0.5171453952789307 0.5065929293632507 -0.07336457818746567
0.23801124095916748 0.6020828485488892 -0.0306098572909832
0.27752915024757385 0.4632144570350647 -0.0665648803114891
0.5544148683547974 0.6554859280586243 -0.10683413594961166
0.46201974153518677 0.5781295299530029 -0.0595727264881134
0.14583925902843475 0.484760582447052 0.08061762154102325
0.46866753697395325 0.5191861987113953 -0.04400600120425224
0.44983115792274475 0.6298599243164062 -0.0470694974064827
0.3143881559371948 0.47856268286705017 -0.053222112357616425
0.4910131096839905 0.6098275184631348 -0.09906130284070969
0.15660393238067627 0.660874605178833 0.11905749142169952
0.44412165880203247 0.484987735748291 -0.030189398676156998
0.5197451710700989 0.5969608426094055 -0.11560780555009842
0.28895628452301025 0.7946939468383789 0.02984127402305603
0.2707478106021881 0.8180657625198364 0.07108388096094131
0.1827508509159088 0.602820098400116 0.03961069881916046
0.24399790167808533 0.7597546577453613 0.03934532403945923
0.20704059302806854 0.44486886262893677 -0.010543664917349815
0.41994205117225647 0.8711459040641785 0.011295032687485218
0.5481340289115906 0.658761739730835 -0.07397311180830002
0.43717190623283386 0.595933735370636 -0.055767543613910675
0.2329733967781067 0.4990417957305908 -0.02830413542687893
0.3689280152320862 0.4932951033115387 -0.05951876938343048
0.3908367455005646 0.49467530846595764 -0.05750485137104988
0.4326513111591339 0.7556560039520264 -0.02558605931699276
0.23897629976272583 0.6525097489356995 -0.012992413714528084
0.4594264030456543 0.8969323635101318 0.037228427827358246
0.369811475276947 0.8712145090103149 0.04652993381023407
0.325269490480423 0.8505998253822327 0.05634649470448494
0.5331043601036072 0.342972069978714 -0.07088089734315872
0.5069338083267212 0.8953518867492676 0.05124680697917938
0.4099563658237457 0.49264222383499146 -0.04995480179786682
0.4278939664363861 0.4886298179626465 -0.04075586050748825
0.4390968084335327 0.48665857315063477 -0.03301035240292549
0.24965022504329681 0.45693090558052063 -0.05175916105508804
0.4232184588909149 0.4651080369949341 -0.04706982523202896
0.4017074406147003 0.4558435082435608 -0.05777118727564812
0.38031846284866333 0.4544282555580139 -0.06517861783504486
0.3577086925506592 0.4592726230621338 -0.06750195473432541
0.34303826093673706 0.4666202664375305 -0.06426794826984406
0.16297121345996857 0.4267295002937317 0.03894801810383797
0.3518548607826233 0.4895697832107544 -0.05866604298353195
0.545087456703186 0.6824915409088135 -0.0477580726146698
0.4604863226413727 0.6930810213088989 -0.054800063371658325
0.4931792914867401 0.6456989645957947 -0.07904480397701263
0.5139967203140259 0.6863051056861877 -0.057997506111860275
0.5323114395141602 0.46882081031799316 -0.05946056544780731
0.3335350751876831 0.8262798190116882 0.027110684663057327
0.37491992115974426 0.8497098088264465 0.02101914957165718
0.4687606692314148 0.8842512965202332 0.008257963694632053
0.22248271107673645 0.7788640260696411 0.09310925006866455
0.4381506145000458 0.4776407480239868 -0.03764105960726738
0.5057744979858398 0.5474122762680054 -0.08054083585739136
0.5180578231811523 0.8823399543762207 0.02286982536315918
0.41524025797843933 0.8876656293869019 0.03572354465723038
0.18914923071861267 0.6589120030403137 0.04786451905965805
0.48832568526268005 0.7501755952835083 -0.03378847613930702
0.4862118661403656 0.7570955753326416 -0.037582267075777054
0.4833245575428009 0.7673070430755615 -0.03999349847435951
0.4792769253253937 0.7803589105606079 -0.03608401119709015
0.4622538685798645 0.7998976111412048 -0.019019044935703278
0.4446430206298828 0.743963897228241 -0.030987076461315155
0.43929967284202576 0.7422853708267212 -0.0348946638405323
0.43290001153945923 0.7388679385185242 -0.03804522752761841
0.40987589955329895 0.7250595092773438 -0.04279211908578873
0.29081931710243225 0.6684786677360535 -0.04067714512348175
0.49638426303863525 0.5202029347419739 -0.06436137855052948
0.4702664911746979 0.470073401927948 -0.036231186240911484
0.4507233500480652 0.4711538255214691 -0.03673605993390083
0.447250097990036 0.7407436966896057 -0.02666367031633854
0.27443328499794006 0.7267725467681885 -0.0014916027430444956
0.49930405616760254 0.47153347730636597 -0.056327737867832184
0.4433683454990387 0.8233121633529663 -0.007527926936745644
0.5589359402656555 0.5569494962692261 -0.10293374210596085
0.5278578996658325 0.5353835821151733 -0.09037892520427704
0.5501300096511841 0.5299286246299744 -0.08704092353582382
0.4889654815196991 0.5863628387451172 -0.08025023341178894
0.5238252878189087 0.8600425720214844 0.007185682654380798
0.5249691009521484 0.8315502405166626 0.004581933841109276
0.4853982925415039 0.8338565230369568 -0.004715056158602238
0.38201916217803955 0.7806372046470642 -0.012415193021297455
0.4276469647884369 0.6500334143638611 -0.04790334030985832
0.4090331196784973 0.8057966232299805 -0.008649923838675022
0.3663434684276581 0.6484085321426392 -0.06109923496842384
0.4041551947593689 0.6756792068481445 -0.05072197690606117
0.3370460271835327 0.6881512403488159 -0.04724305495619774
0.47690391540527344 0.8621319532394409 -0.0052439747378230095
0.46757030487060547 0.5986779928207397 -0.06770222634077072
0.3526845872402191 0.8002077341079712 0.0021428335458040237
0.3901827335357666 0.8260403275489807 0.00511834304779768
0.3629976511001587 0.7511212825775146 -0.025375183671712875
0.24160176515579224 0.6949985027313232 0.004561316221952438
0.31946036219596863 0.7556320428848267 -0.01363383885473013
0.20543184876441956 0.7110788226127625 0.05059097707271576
0.3799685537815094 0.7076148986816406 -0.045733124017715454
0.48374444246292114 0.5623049139976501 -0.06923578679561615
0.5079464316368103 0.6397148966789246 -0.10766714811325073
0.48313602805137634 0.6437831521034241 -0.08528809249401093
0.5256752967834473 0.623722493648529 -0.1212010383605957
0.45549237728118896 0.4502239227294922 -0.0536746010184288
0.4190257489681244 0.4367538094520569 -0.07380737364292145
0.38343167304992676 0.4335222840309143 -0.08572486788034439
0.35002416372299194 0.4370359480381012 -0.08886871486902237
0.3220641613006592 0.44712358713150024 -0.08331437408924103
0.2933770716190338 0.48741811513900757 -0.04951281100511551
0.18070977926254272 0.5479356050491333 0.026050038635730743
0.32011932134628296 0.5232850313186646 -0.05478312075138092
0.35140109062194824 0.5309594869613647 -0.05775768309831619
0.38693660497665405 0.5294956564903259 -0.054461222141981125
0.4173279106616974 0.5228850841522217 -0.04622485861182213
0.4405508041381836 0.5148637890815735 -0.038478605449199677
0.4577067494392395 0.5076413154602051 -0.034255389124155045
0.1436123251914978 0.5409178733825684 0.10442500561475754
0.47907698154449463 0.6489381790161133 -0.07302729040384293
0.5143895149230957 0.5715937614440918 -0.09506602585315704
0.5326549410820007 0.6419057250022888 -0.11697443574666977
0.5384827852249146 0.6521499752998352 -0.10106965899467468
0.5270965099334717 0.6450832486152649 -0.10603464394807816
0.4823940098285675 0.6554993391036987 -0.06062377616763115
0.5457413196563721 0.6542202234268188 -0.10501492023468018
0.539950430393219 0.6578364968299866 -0.07695908099412918
0.45503684878349304 0.48723146319389343 -0.027777070179581642
0.4716622233390808 0.4947316646575928 -0.033417023718357086
0.48511818051338196 0.5005751848220825 -0.045582883059978485
0.3339259922504425 0.472214937210083 -0.06007402017712593
0.31913167238235474 0.4649323523044586 -0.06542760133743286
0.5735679268836975 0.5595722794532776 -0.08498742431402206
0.6413710117340088 0.47615528106689453 0.09069736301898956
0.5728394985198975 0.6507810950279236 -0.06434047222137451
0.6619954705238342 0.3815644681453705 0.21933992207050323
0.5873462557792664 0.5021820068359375 0.04330425709486008
0.6071200370788574 0.502869725227356 0.054386965930461884
0.6248693466186523 0.500885009765625 0.06901103258132935
0.6419749855995178 0.48435014486312866 0.09898608922958374
0.5724483728408813 0.4974486827850342 0.034339919686317444
0.6212097406387329 0.44182896614074707 0.043119002133607864
0.5985974669456482 0.4445057213306427 0.029371123760938644
0.6390854120254517 0.4444786310195923 0.05969460681080818
0.6482585668563843 0.451498806476593 0.07482503354549408
0.6524807214736938 0.5009498596191406 0.11709108203649521
0.5821871757507324 0.8291025757789612 0.06605662405490875
0.6452614068984985 0.4691081643104553 0.10073111951351166
0.6596190333366394 0.48185038566589355 0.24526171386241913
0.6611745357513428 0.4835795760154724 0.147444486618042
0.6187245845794678 0.6069201827049255 0.03393181785941124
0.5685584545135498 0.7148861289024353 -0.035681456327438354
0.5586274862289429 0.7388800382614136 -0.02394258975982666
0.5852793455123901 0.7176320552825928 -0.009262396953999996
0.5926965475082397 0.7236525416374207 0.01745619624853134
0.5704026818275452 0.7369885444641113 -0.0047086067497730255
0.5782508850097656 0.7366316318511963 0.018435079604387283
0.5999982357025146 0.7541942000389099 0.06749517470598221
0.5883216261863708 0.6420020461082458 -0.1069837287068367
0.5925008654594421 0.6185281276702881 -0.11495623737573624
0.6714233160018921 0.4332932233810425 0.089650958776474
0.5795459151268005 0.5470744967460632 0.006269967649132013
0.604863166809082 0.6270461678504944 -0.0299029853194952
0.6011377573013306 0.6129650473594666 -0.023402146995067596
0.6613187789916992 0.5980015993118286 0.09208324551582336
0.5843693017959595 0.5869481563568115 -0.10285671055316925
0.6467732191085815 0.4155804216861725 0.02020285092294216
0.6649490594863892 0.4199915826320648 0.05357222259044647
0.6629410982131958 0.3429499566555023 0.15868820250034332
0.572212815284729 0.4372186064720154 -0.03741372004151344
0.5789283514022827 0.4529092311859131 0.02785678766667843
0.6137595176696777 0.7306404113769531 0.07884854078292847
0.6144150495529175 0.6921055912971497 0.32369279861450195
0.5902707576751709 0.6413046717643738 -0.026928775012493134
0.5758548974990845 0.6511101126670837 -0.03955676406621933
0.596842348575592 0.7349621653556824 0.0689607784152031
0.5874318480491638 0.7348442077636719 0.05724191293120384
0.6699336767196655 0.40404483675956726 0.06753750145435333
0.5992662906646729 0.6364638805389404 -0.016994647681713104
0.6174577474594116 0.4197990298271179 -0.01081518642604351
0.6231408715248108 0.4002515971660614 -0.01686718314886093
0.625456690788269 0.2922717332839966 0.024164192378520966
0.6673330664634705 0.3727257251739502 0.10641366243362427
0.6245288848876953 0.344581663608551 0.0009909661021083593
0.6750595569610596 0.4215875267982483 0.1135096475481987
0.6701422929763794 0.4030309021472931 0.16230891644954681
0.5649787783622742 0.7290619611740112 -0.031783320009708405
0.5782785415649414 0.7293899059295654 -0.007590380031615496
0.5864444375038147 0.7305344939231873 0.015739681199193
0.5841125845909119 0.6461194753646851 -0.02670471929013729
0.5925860404968262 0.7353964447975159 0.06218211352825165
0.5891408920288086 0.7418534755706787 0.043195806443691254
0.5836572051048279 0.7335942983627319 0.05540907755494118
0.5933375954627991 0.6364644765853882 -0.06151788681745529
0.5703195333480835 0.7354866862297058 0.020782729610800743
0.562012791633606 0.7382285594940186 0.0030624810606241226
0.5509867668151855 0.7412878274917603 -0.013806840404868126
0.551068127155304 0.8031642436981201 0.012590168975293636
0.5603299140930176 0.7835270762443542 -0.01164889708161354
0.561426043510437 0.7696367502212524 -0.016092410311102867
0.5591439604759216 0.756790041923523 -0.012974981218576431
0.5550432205200195 0.748028039932251 -0.010950048454105854
0.5753912925720215 0.7409296631813049 0.023179609328508377
0.5796141028404236 0.743971586227417 0.020360566675662994
0.5844560861587524 0.7498728036880493 0.01995745114982128
0.587135910987854 0.7571210861206055 0.027552876621484756
0.6077380180358887 0.6952389478683472 0.027563707903027534
0.6253656148910522 0.5761958360671997 0.35186460614204407
0.5789891481399536 0.7383744120597839 0.04223513975739479
0.5844886898994446 0.7395344376564026 0.04072195664048195
0.5694411396980286 0.6624258756637573 -0.038642484694719315
0.5891026854515076 0.6511640548706055 -0.004941464867442846
0.5728702545166016 0.6572639346122742 -0.0403648242354393
0.5956413149833679 0.5592181086540222 0.026413941755890846
0.6253277063369751 0.5739485025405884 0.04846973344683647
0.5992483496665955 0.6223435997962952 -0.008845449425280094
0.6526727676391602 0.31243687868118286 0.09057551622390747
0.6530472636222839 0.3523043990135193 0.053895656019449234
0.6523572206497192 0.39595893025398254 0.025544416159391403
0.5881726145744324 0.7720038890838623 0.0509834922850132
0.5831676125526428 0.407190203666687 -0.04834457486867905
0.5854935646057129 0.34257417917251587 -0.03965060040354729
0.5849714279174805 0.28175830841064453 -0.02869797870516777
0.6369255781173706 0.4946078360080719 0.0858907699584961
0.6653822660446167 0.517225980758667 0.14069966971874237
0.5634984374046326 0.4920492172241211 0.032498735934495926
0.6582241654396057 0.4582410454750061 0.1039101779460907
0.5702318549156189 0.5334182977676392 -0.00963593740016222
0.6039128303527832 0.6211721897125244 -0.05843405798077583
0.6732465028762817 0.5305944681167603 0.17967525124549866
0.6634074449539185 0.5362156629562378 0.11695314198732376
0.6483774185180664 0.5479896068572998 0.08421643823385239
0.6162564158439636 0.5458711981773376 0.055438004434108734
0.5907643437385559 0.5368404984474182 0.036323484033346176
0.5740057229995728 0.5273491144180298 0.017807140946388245
0.5562716722488403 0.5056559443473816 -0.05233210325241089
0.6773298382759094 0.5805500149726868 0.1787402629852295
0.6665459871292114 0.4551851153373718 0.12141124904155731
0.5752286911010742 0.6538287997245789 -0.09660056978464127
0.5836067199707031 0.5729859471321106 -0.00017821037909016013
0.6379013657569885 0.47485557198524475 0.3235863745212555
0.5628019571304321 0.5164452791213989 0.005716977175325155
0.5938891172409058 0.6221693754196167 0.013786290772259235
0.6474483013153076 0.4707178473472595 0.10869051516056061
0.598125696182251 0.6040175557136536 -0.05119888857007027
0.6216123700141907 0.6321524381637573 0.3446982502937317
0.5619240999221802 0.48247015476226807 0.03904281184077263
0.5930560827255249 0.5932134389877319 -0.08086222410202026
0.6238067150115967 0.7614527344703674 0.1858142912387848
0.603137195110321 0.7826224565505981 0.23043125867843628
0.6606411933898926 0.5796139240264893 0.2693692445755005
0.6361890435218811 0.7258241772651672 0.22345080971717834
0.6648343801498413 0.438721239566803 0.21041804552078247
0.5796273946762085 0.8496589064598083 0.08495703339576721
0.5646330118179321 0.657784640789032 -0.0676923468708992
0.5958021879196167 0.5887937545776367 0.017220834270119667
0.6651804447174072 0.4862056076526642 0.17962603271007538
0.6262584924697876 0.48655784130096436 0.06938178837299347
0.6092345714569092 0.48980990052223206 0.05643371120095253
0.5925309062004089 0.7452408075332642 0.050403133034706116
0.6707202196121216 0.626987874507904 0.18822452425956726
0.5445455312728882 0.8845078349113464 0.0779087170958519
0.5793904066085815 0.8430972099304199 0.1495371311903
0.5901720523834229 0.8176511526107788 0.18571579456329346
0.591437041759491 0.4891471266746521 0.04650569707155228
0.5756551623344421 0.4859066605567932 0.041975416243076324
0.5661384463310242 0.48425644636154175 0.04162238538265228
0.6694486141204834 0.44910311698913574 0.15027131140232086
0.5777172446250916 0.4625431299209595 0.03836292773485184
0.5942709445953369 0.4532548785209656 0.04143034666776657
0.6140779852867126 0.45003578066825867 0.05078749731183052
0.6318157315254211 0.45327049493789673 0.06439840793609619
0.640144944190979 0.46010756492614746 0.07703433185815811
0.6535419821739197 0.42295515537261963 0.277523010969162
0.6359564065933228 0.481411874294281 0.08184687793254852
0.5965691804885864 0.6840142011642456 0.004939591977745295
0.5943235158920288 0.6383054256439209 -0.0379917174577713
0.5703721046447754 0.6821243762969971 -0.033349428325891495
0.6076524257659912 0.7945423126220703 0.1531905084848404
0.593482255935669 0.8218850493431091 0.12061053514480591
0.556134819984436 0.8720365166664124 0.04803850129246712
0.6088484525680542 0.7431234121322632 0.28162112832069397
0.5673297047615051 0.47469329833984375 0.0384644977748394
0.5727092027664185 0.5448346138000488 -0.04724939912557602
0.5664780139923096 0.8660641312599182 0.11160211265087128
0.6542909145355225 0.6304019689559937 0.2681049108505249
0.5676302909851074 0.7444203495979309 0.006195233669131994
0.5719090104103088 0.7504575848579407 0.003612126689404249
0.5756900906562805 0.7600786685943604 0.0029938798397779465
0.5768604278564453 0.7721316814422607 0.009041203185915947
0.5727512836456299 0.7894854545593262 0.031658146530389786
0.5839405655860901 0.7353076338768005 0.03990983963012695
0.5909644365310669 0.7327776551246643 0.04296586290001869
0.5966928005218506 0.728329598903656 0.045045509934425354
0.6147283315658569 0.7110818028450012 0.054789941757917404
0.6637938022613525 0.6456173658370972 0.12801674008369446
0.5628982186317444 0.5182223916053772 -0.029672453179955482
0.555686891078949 0.4694773554801941 0.008318955078721046
0.5622578859329224 0.4701019525527954 0.026598067954182625
0.5768537521362305 0.7329844832420349 0.040721673518419266
0.6496595740318298 0.6980892419815063 0.1702718436717987
0.5509601831436157 0.4712029993534088 -0.030214672908186913
0.5763443112373352 0.8082249164581299 0.049857985228300095
0.565686821937561 0.5340818166732788 -0.07253599166870117
0.5852185487747192 0.5818851590156555 -0.036426227539777756
0.5541620254516602 0.825694739818573 0.023159556090831757
0.6100527048110962 0.7594722509384155 0.08878111094236374
0.606962263584137 0.6401525139808655 0.02838893048465252
0.5934649705886841 0.7864455580711365 0.07150691747665405
0.6438788771629333 0.6327416300773621 0.05926456302404404
0.6222028136253357 0.6624778509140015 0.044822026044130325
0.6500332355499268 0.6676827669143677 0.09022309631109238
0.5591930150985718 0.8517410755157471 0.03173630312085152
0.588403046131134 0.5929964780807495 -0.012826635502278805
0.6155439019203186 0.7727022767066956 0.12039685994386673
0.5972940325737 0.8016549944877625 0.09594718366861343
0.6262964010238647 0.7299102544784546 0.09739808738231659
0.6600449085235596 0.6662625074386597 0.19721132516860962
0.6368645429611206 0.7283949851989746 0.13007085025310516
0.6458954811096191 0.6784548759460449 0.25942444801330566
0.6301327347755432 0.6909593343734741 0.06693179905414581
0.5775327086448669 0.5584703087806702 -0.022045353427529335
0.600016176700592 0.6324001550674438 -0.06468089669942856
0.6011892557144165 0.6358883380889893 -0.03612266108393669
0.6005038619041443 0.6187270879745483 -0.08663636445999146
0.5736004114151001 0.4498884081840515 0.007910563610494137
0.6060193777084351 0.43692678213119507 0.016271214932203293
0.6329975724220276 0.43393129110336304 0.032024867832660675
0.6519405841827393 0.4361140727996826 0.05453495308756828
0.6601249575614929 0.4438733458518982 0.07754164934158325
0.6533877849578857 0.47750091552734375 0.12310964614152908
0.6618000268936157 0.5302227139472961 0.26142433285713196
0.6479095816612244 0.5122014880180359 0.10198055952787399
0.6337273120880127 0.5213525891304016 0.07843729853630066
0.6106716394424438 0.5222774744033813 0.057106997817754745
0.5873754620552063 0.5178419351577759 0.041607923805713654
0.5708677172660828 0.5112276673316956 0.027797387912869453
0.560433030128479 0.5050616264343262 0.019499555230140686
0.6279627084732056 0.524822473526001 0.3460761308670044
0.5956188440322876 0.641197144985199 -0.025150466710329056
0.5817713737487793 0.5685234665870667 -0.060652852058410645
0.5963790416717529 0.6362846493721008 -0.08959969878196716
0.5797103643417358 0.6477507948875427 -0.0850868746638298
0.5906242728233337 0.6390879154205322 -0.07805998623371124
0.5877163410186768 0.6488633751869202 -0.02063215710222721
0.5794181227684021 0.6511994004249573 -0.0922262892127037
0.569852888584137 0.6552137732505798 -0.06587996333837509
0.5578269362449646 0.4854575991630554 0.029563970863819122
0.5522994995117188 0.4933304190635681 0.008711269125342369
0.5540279150009155 0.4991857707500458 -0.01037939079105854
0.6437609791755676 0.4651491045951843 0.08790784329175949
0.651436448097229 0.45908087491989136 0.09248390793800354
