ply
format ascii 1.0
element vertex 468
property float x
property float y
property float z
end_header
0.5213668346405029 0.7224427461624146 -0.06474951654672623
0.5280898213386536 0.6345438957214355 -0.11700073629617691
0.5217270255088806 0.6614471673965454 -0.06112483888864517
0.5028270483016968 0.5460118651390076 -0.08973626047372818
0.5287220478057861 0.607590913772583 -0.12466224282979965
0.5263042449951172 0.5717520713806152 -0.11559627950191498
0.5176774263381958 0.48531782627105713 -0.05309651419520378
0.3361700475215912 0.4740597903728485 0.010473375208675861
0.5156214237213135 0.4079383611679077 -0.03589988127350807
0.5163424611091614 0.37146317958831787 -0.03967303782701492
0.5144357681274414 0.27859431505203247 -0.017276573926210403
0.5206320881843567 0.7351256608963013 -0.061685070395469666
0.5191839337348938 0.744722843170166 -0.05366061255335808
0.5173019170761108 0.7487671971321106 -0.0437547042965889
0.5184327363967896 0.75406813621521 -0.045356232672929764
0.5190489292144775 0.7657390832901001 -0.04865572601556778
0.5189145803451538 0.7802411913871765 -0.05287648364901543
0.5177507996559143 0.7944990992546082 -0.048981767147779465
0.5136902332305908 0.817762017250061 -0.026853565126657486
0.5259954333305359 0.6484747529029846 -0.10541391372680664
0.5029879212379456 0.6463664770126343 -0.07749234139919281
0.24190929532051086 0.38257086277008057 0.10761503875255585
0.4077149033546448 0.499184250831604 -0.006656937301158905
0.3836404085159302 0.501433253288269 -0.006728020031005144
0.3603488504886627 0.5002225041389465 -0.002384273800998926
0.3274375796318054 0.48311465978622437 0.01339505985379219
0.427704393863678 0.4921145439147949 -5.24523165950086e-05
0.376115620136261 0.42208045721054077 -0.015782054513692856
0.4024032950401306 0.42572328448295593 -0.01281669270247221
0.3509123921394348 0.4261626899242401 -0.010341979563236237
0.33338457345962524 0.4372516870498657 -0.003209924092516303
0.3092116117477417 0.5019590854644775 0.02383054420351982
0.4194355607032776 0.8520305156707764 -0.00751600181683898
0.32659533619880676 0.46541041135787964 0.017484847456216812
0.23062589764595032 0.488791286945343 0.1147572472691536
0.2811054587364197 0.4809530973434448 0.04415413364768028
0.39637497067451477 0.6103134751319885 -0.027354145422577858
0.49295347929000854 0.7184271812438965 -0.06523241102695465
0.494887113571167 0.744484007358551 -0.05387692153453827
0.46260517835617065 0.7264584302902222 -0.05585957691073418
0.4421132206916809 0.7352665662765503 -0.04275202378630638
0.47331854701042175 0.7458013892173767 -0.04871553182601929
0.4557779133319855 0.7474456429481506 -0.036306485533714294
0.404953271150589 0.7705215215682983 -0.011754374019801617
0.5084976553916931 0.6338320970535278 -0.11694689095020294
0.505603551864624 0.6078226566314697 -0.1241583600640297
0.2964770793914795 0.40209341049194336 0.003616472240537405
0.4428136944770813 0.5441650152206421 -0.024848848581314087
0.4509179890155792 0.6273305416107178 -0.06938426196575165
0.4471016526222229 0.6131230592727661 -0.0633489340543747
0.32226791977882385 0.6054643392562866 -0.005322087090462446
0.5045597553253174 0.5744847655296326 -0.11109460145235062
0.3529306650161743 0.36703529953956604 -0.02468595840036869
0.3203941881656647 0.3788951635360718 -0.011020025238394737
0.2696440815925598 0.3376119136810303 0.06742553412914276
0.460345059633255 0.3946448564529419 -0.034526482224464417
0.42435556650161743 0.4374139904975891 -0.0048437779769301414
0.388078510761261 0.7462178468704224 -0.008860238827764988
0.24748091399669647 0.7245414853096008 0.17563949525356293
0.46769091486930847 0.641744077205658 -0.05974383279681206
0.4859948754310608 0.6500383019447327 -0.05698860436677933
0.4169025421142578 0.7485848069190979 -0.010457583703100681
0.4278687536716461 0.7474445104598999 -0.0156289953738451
0.30546844005584717 0.36214566230773926 -0.003339872695505619
0.4490337669849396 0.639215350151062 -0.05711955949664116
0.3980851173400879 0.3693908751010895 -0.03354295343160629
0.3942791819572449 0.3495003879070282 -0.03893303498625755
0.3759964406490326 0.28368115425109863 -0.0058119879104197025
0.28730449080467224 0.3515574634075165 0.025987446308135986
0.38786953687667847 0.31873005628585815 -0.023948024958372116
0.2808353900909424 0.3921217918395996 0.020534981042146683
0.2615579068660736 0.39034372568130493 0.06084693968296051
0.4938531816005707 0.7336049675941467 -0.06244818493723869
0.4690391421318054 0.7384079694747925 -0.0534035749733448
0.4493412673473358 0.7418080568313599 -0.04141171649098396
0.47298577427864075 0.6468761563301086 -0.05220954120159149
0.4229063093662262 0.748381495475769 -0.01268016453832388
0.432890385389328 0.7537862658500671 -0.025402383878827095
0.42960959672927856 0.7457554936408997 -0.015728535130620003
0.4821993410587311 0.6328057646751404 -0.08869258314371109
0.45904144644737244 0.7458893060684204 -0.03224383294582367
0.4762343764305115 0.7470172643661499 -0.03955267742276192
0.49576225876808167 0.7479585409164429 -0.04463839530944824
0.4813174903392792 0.8163688778877258 -0.028650673106312752
0.48745328187942505 0.7920042276382446 -0.05091559886932373
0.49034827947616577 0.7767770886421204 -0.05405867099761963
0.4927254915237427 0.762937068939209 -0.04966997727751732
0.4944022595882416 0.7535148859024048 -0.046197667717933655
0.4544490575790405 0.7503304481506348 -0.03277401626110077
0.4508834183216095 0.7539955973625183 -0.03637855872511864
0.4457434415817261 0.7607181668281555 -0.0402178131043911
0.4402613043785095 0.7691159248352051 -0.036338500678539276
0.4194694757461548 0.7052015066146851 -0.036291591823101044
0.2228328287601471 0.5985447764396667 0.20508411526679993
0.5239728093147278 0.6536506414413452 -0.07622692734003067
0.4424792230129242 0.7492856383323669 -0.022907717153429985
0.43844255805015564 0.7508655786514282 -0.025405624881386757
0.49359315633773804 0.662001371383667 -0.05857357010245323
0.45532935857772827 0.6556543111801147 -0.03951980918645859
0.4900740087032318 0.6562978625297546 -0.05794162303209305
0.4177655279636383 0.5594115257263184 -0.019739994779229164
0.37841999530792236 0.5764737129211426 -0.015817608684301376
0.4424431324005127 0.6249510645866394 -0.050993312150239944
0.3119920492172241 0.30322331190109253 0.026645179837942123
0.32645830512046814 0.3256896138191223 -0.001956716412678361
0.3435378074645996 0.34792840480804443 -0.023734917864203453
0.42382314801216125 0.7888201475143433 -0.02047230303287506
0.45421913266181946 0.36047500371932983 -0.04358411952853203
0.4494883418083191 0.32435524463653564 -0.03376096859574318
0.4416152536869049 0.27768033742904663 -0.020876357331871986
0.33959364891052246 0.49425584077835083 0.005924082361161709
0.2833864688873291 0.5212517976760864 0.03296048194169998
0.4404725134372711 0.48464369773864746 0.004068825859576464
0.30752015113830566 0.4456118047237396 0.014057634398341179
0.4597093164920807 0.5269364714622498 -0.03062519244849682
0.4662618339061737 0.6170384883880615 -0.08951065689325333
0.2560637593269348 0.5381739735603333 0.054645322263240814
0.30163121223449707 0.5406741499900818 0.013899114914238453
0.33440667390823364 0.5513421893119812 -0.003531254827976227
0.38089585304260254 0.5472711324691772 -0.0076115932315588
0.4144425392150879 0.5363574028015137 -0.009564138017594814
0.4393400549888611 0.5239853262901306 -0.012139942497015
0.49444639682769775 0.4914225935935974 -0.047720324248075485
0.2613431215286255 0.5928874015808105 0.04838116466999054
0.28748786449432373 0.4394790530204773 0.0228700190782547
0.5145092010498047 0.6470609903335571 -0.10564970225095749
0.44792211055755615 0.5707389712333679 -0.035159166902303696
0.21748387813568115 0.48717695474624634 0.1872221827507019
0.4582759439945221 0.5096883177757263 -0.013219993561506271
0.4378074109554291 0.6263993978500366 -0.029603218659758568
0.31923985481262207 0.466142475605011 0.02122395858168602
0.463106632232666 0.5998689532279968 -0.08143594115972519
0.2297983169555664 0.6600388884544373 0.1961546093225479
0.4393725097179413 0.4745418429374695 0.008723840117454529
0.48301491141319275 0.5838909149169922 -0.10069873183965683
0.3092251121997833 0.7903589010238647 0.06213615462183952
0.3043578863143921 0.8165197372436523 0.10309741646051407
0.23072826862335205 0.5965341925621033 0.12560933828353882
0.27845728397369385 0.7543208599090576 0.08678241074085236
0.2456928938627243 0.4367704391479492 0.09373991936445236
0.4117746353149414 0.8769774436950684 0.0054256245493888855
0.5152692198753357 0.6525494456291199 -0.07565314322710037
0.4259416460990906 0.5902230739593506 -0.02918113023042679
0.2589149475097656 0.48606324195861816 0.06350257992744446
0.36203667521476746 0.4844198226928711 -0.0007638077368028462
0.3830725848674774 0.4868898391723633 -0.004276033490896225
0.4264039397239685 0.7581996917724609 -0.02210867777466774
0.26587700843811035 0.6436881422996521 0.05589086562395096
0.4535486400127411 0.9130333662033081 0.016479628160595894
0.37688910961151123 0.8750797510147095 0.051836736500263214
0.3429872989654541 0.8510832190513611 0.07392900437116623
0.5158600807189941 0.32978007197380066 -0.031281162053346634
0.5046066641807556 0.91859370470047 0.015201989561319351
0.40337425470352173 0.4854416847229004 -0.0024900618009269238
0.4220379889011383 0.4808369278907776 0.002249743789434433
0.4336276650428772 0.47746938467025757 0.008208797313272953
0.26868146657943726 0.4351268410682678 0.043825916945934296
0.41852307319641113 0.4557204246520996 -0.002265559509396553
0.39765074849128723 0.4474881589412689 -0.0067204018123447895
0.3765050768852234 0.44527143239974976 -0.007958880625665188
0.35483288764953613 0.4489358067512512 -0.0044546062126755714
0.341018408536911 0.4559037983417511 0.0012211129069328308
0.2253550887107849 0.4295154809951782 0.15274165570735931
0.34703612327575684 0.47957563400268555 0.0051810904406011105
0.5208013653755188 0.6805203557014465 -0.056860968470573425
0.44229820370674133 0.6918256282806396 -0.04428743198513985
0.4682048261165619 0.6374505162239075 -0.0668116882443428
0.48961251974105835 0.6837624311447144 -0.05879244580864906
0.5149939656257629 0.4475538432598114 -0.03669796511530876
0.342345654964447 0.8241643905639648 0.044865552335977554
0.37560057640075684 0.8503783941268921 0.026537509635090828
0.4557868242263794 0.8965885639190674 -0.011079937219619751
0.27397409081459045 0.7770407199859619 0.14140382409095764
0.43311333656311035 0.4672534465789795 0.004512093495577574
0.4801464378833771 0.5343670845031738 -0.05901869386434555
0.5083916783332825 0.9016899466514587 -0.01152098085731268
0.4126703143119812 0.897072434425354 0.02937912382185459
0.238015279173851 0.6528510451316833 0.12299513816833496
0.4728432595729828 0.751680850982666 -0.04072685167193413
0.46942344307899475 0.7583103775978088 -0.04489170014858246
0.4656048119068146 0.7689582705497742 -0.04905366152524948
0.46145111322402954 0.782461941242218 -0.04584921523928642
0.4491506814956665 0.8048612475395203 -0.02782428078353405
0.4396750330924988 0.7473241686820984 -0.025011351332068443
0.43286752700805664 0.7452873587608337 -0.02608598582446575
0.4259304404258728 0.7412479519844055 -0.026920132339000702
0.4002072215080261 0.7238718867301941 -0.024032466113567352
0.30244770646095276 0.659417986869812 0.015583558939397335
0.47726428508758545 0.5074734091758728 -0.037605445832014084
0.4602099359035492 0.45326054096221924 -0.0034822893794625998
0.4446309804916382 0.45885032415390015 0.0027357242070138454
0.44398748874664307 0.7444347143173218 -0.022539881989359856
0.29515987634658813 0.7198755741119385 0.04646427184343338
0.4831070601940155 0.4506811499595642 -0.027030540630221367
0.43325090408325195 0.8276240229606628 -0.015858275815844536
0.523385226726532 0.5422590970993042 -0.09430189430713654
0.4981175363063812 0.5203155875205994 -0.07062865793704987
0.5206453204154968 0.514985203742981 -0.07317894697189331
0.465769499540329 0.5763694047927856 -0.0612809844315052
0.510646641254425 0.875836968421936 -0.024272484704852104
0.512209951877594 0.8443077802658081 -0.024964509531855583
0.4720240533351898 0.8420521020889282 -0.024130133911967278
0.3780198097229004 0.7794403433799744 0.0004657454846892506
0.41593581438064575 0.6467322111129761 -0.02599363401532173
0.4020622968673706 0.8072094917297363 -0.007198306266218424
0.35842958092689514 0.6396374702453613 -0.021713735535740852
0.39248815178871155 0.6708850860595703 -0.024824244901537895
0.33683380484580994 0.6799930334091187 -0.007876661606132984
0.46181344985961914 0.8716422319412231 -0.02277482859790325
0.45089277625083923 0.5916062593460083 -0.047552965581417084
0.35395315289497375 0.7977147102355957 0.01978144608438015
0.38606518507003784 0.8261305093765259 0.009163972921669483
0.36052918434143066 0.7476215958595276 0.00018580100731924176
0.27090728282928467 0.6869979500770569 0.06430314481258392
0.3266240358352661 0.7499901652336121 0.019542638212442398
0.25127866864204407 0.705141544342041 0.11409583687782288
0.37249755859375 0.7029857039451599 -0.017232291400432587
0.4642566740512848 0.5522825717926025 -0.04622053727507591
0.474811315536499 0.6286985874176025 -0.09353182464838028
0.4587254524230957 0.6359125971794128 -0.07061890512704849
0.4848455786705017 0.6109873652458191 -0.107154481112957
0.44045382738113403 0.4241505265235901 -0.012331328354775906
0.4019380807876587 0.40545499324798584 -0.017781374976038933
0.3679967224597931 0.4017636179924011 -0.018226340413093567
0.33927857875823975 0.40766629576683044 -0.01238822191953659
0.31897401809692383 0.4214329123497009 -0.0013270486379042268
0.3030553460121155 0.4736664295196533 0.029668563976883888
0.22716209292411804 0.5420781970024109 0.12009166181087494
0.3232474625110626 0.5135793685913086 0.012605467811226845
0.3490981161594391 0.5223561525344849 0.0021954199764877558
0.38126838207244873 0.5222271084785461 -0.003659312380477786
0.41138285398483276 0.5161329507827759 -0.006368020083755255
0.43451565504074097 0.5070478916168213 -0.0024359957315027714
0.45071494579315186 0.4983368515968323 -0.002807899145409465
0.21952039003372192 0.5421755909919739 0.20337767899036407
0.45826709270477295 0.6430286169052124 -0.05948787182569504
0.483422189950943 0.5583258867263794 -0.0769365206360817
0.4918861985206604 0.6298154592514038 -0.10824021697044373
0.5028070211410522 0.6427030563354492 -0.09764382988214493
0.49137115478515625 0.634043276309967 -0.09777114540338516
0.4637623727321625 0.6513065695762634 -0.0508839376270771
0.5074155926704407 0.6451826691627502 -0.10293590277433395
0.5080420970916748 0.6506639719009399 -0.07653383910655975
0.4488407373428345 0.47614800930023193 0.007246504537761211
0.4636325538158417 0.4833569824695587 -0.003593332367017865
0.47291800379753113 0.488004207611084 -0.016210773959755898
0.3328777551651001 0.46116912364959717 0.00829692929983139
0.3210543692111969 0.44891175627708435 0.00830830354243517
0.5417576432228088 0.5466865301132202 -0.084266297519207
0.6631329655647278 0.48350727558135986 0.049480266869068146
0.5425001978874207 0.646283745765686 -0.07313141971826553
0.7258384823799133 0.39669862389564514 0.16814681887626648
0.6003360152244568 0.5051742792129517 0.018233193084597588
0.6223801374435425 0.5079438090324402 0.023164836689829826
0.6430618166923523 0.5072230100631714 0.03274235129356384
0.6684428453445435 0.49241364002227783 0.054740577936172485
0.5823707580566406 0.49757927656173706 0.019292142242193222
0.632917046546936 0.4340181350708008 0.015794744715094566
0.6094064712524414 0.43562519550323486 0.01212198007851839
0.6539106369018555 0.4394098222255707 0.026343457400798798
0.6673405170440674 0.4506440758705139 0.03650938346982002
0.6832301020622253 0.510631799697876 0.06777123361825943
0.5896972417831421 0.8513287901878357 0.010536487214267254
0.6704230308532715 0.4763370156288147 0.058217644691467285
0.7328765392303467 0.5001492500305176 0.17539027333259583
0.7038489580154419 0.49161040782928467 0.09392719715833664
0.620612621307373 0.6119203567504883 -0.0022484557703137398
0.5469515323638916 0.717463493347168 -0.057833973318338394
0.5402219295501709 0.7436995506286621 -0.0473502054810524
0.5704402923583984 0.7237524390220642 -0.04072552174329758
0.5838612914085388 0.7322468161582947 -0.022935574874281883
0.5570091009140015 0.7436918616294861 -0.03592822328209877
0.5690574645996094 0.7450186610221863 -0.01946779526770115
0.6072425842285156 0.7691930532455444 0.012546001933515072
0.5458804965019226 0.6340047717094421 -0.11320538073778152
0.549250602722168 0.6082150936126709 -0.11984258890151978
0.6980972290039062 0.41984832286834717 0.050571151077747345
0.5772119760513306 0.5464417338371277 -0.00764894112944603
0.5848112106323242 0.6270948052406311 -0.05247563123703003
0.5853570103645325 0.6130418181419373 -0.045907195657491684
0.6793302297592163 0.6092302203178406 0.03526710346341133
0.5460951328277588 0.5749666094779968 -0.1058739423751831
0.6587958931922913 0.3852461576461792 0.005975543055683374
0.682727038860321 0.39744874835014343 0.028155526146292686
0.7115881443023682 0.35218334197998047 0.1212250292301178
0.5667728185653687 0.4015063941478729 -0.024915333837270737
0.5884121656417847 0.44516292214393616 0.015638038516044617
0.6225053071975708 0.7447079420089722 0.019882947206497192
0.6991358399391174 0.728841245174408 0.23194728791713715
0.5688914656639099 0.6410226225852966 -0.04666778817772865
0.5531076788902283 0.6494144201278687 -0.05024582892656326
0.5987186431884766 0.7463651299476624 0.014772548340260983
0.5880019664764404 0.7451827526092529 0.006652101408690214
0.6933860182762146 0.38253769278526306 0.03919712454080582
0.5831429362297058 0.6385694146156311 -0.040366820991039276
0.6225590109825134 0.3832811713218689 -0.012228901498019695
0.6274378299713135 0.3640477955341339 -0.016301248222589493
0.6372912526130676 0.2936120927333832 0.024800673127174377
0.7042012214660645 0.3679935932159424 0.07352601736783981
0.6313152313232422 0.33065080642700195 0.002606532536447048
0.7088033556938171 0.4100117087364197 0.07092125713825226
0.718332052230835 0.4057471454143524 0.1153688132762909
0.544331431388855 0.732618510723114 -0.054915495216846466
0.563191294670105 0.735918402671814 -0.03936765715479851
0.5769112706184387 0.7389081120491028 -0.02307146228849888
0.5631831884384155 0.6459456086158752 -0.04207278788089752
0.5932356119155884 0.7461725473403931 0.010300077497959137
0.5871568322181702 0.7521663308143616 -0.005282506346702576
0.5852126479148865 0.74373459815979 0.005986294709146023
0.5622732043266296 0.632683277130127 -0.07736455649137497
0.5633666515350342 0.7438832521438599 -0.016521083191037178
0.5508293509483337 0.7454245090484619 -0.02788960561156273
0.5355739593505859 0.747255802154541 -0.03798290342092514
0.5422694087028503 0.8160120248794556 -0.02268214151263237
0.5445757508277893 0.7917554378509521 -0.04390278086066246
0.54456627368927 0.7764761447906494 -0.04667149856686592
0.5424118638038635 0.7624204754829407 -0.042212966829538345
0.5393922924995422 0.7529431581497192 -0.03896961733698845
0.5694165825843811 0.7489345669746399 -0.016960082575678825
0.5733535885810852 0.7526793479919434 -0.020465010777115822
0.5786842703819275 0.7597154974937439 -0.02396714873611927
0.5829956531524658 0.768436074256897 -0.019049031659960747
0.6027829647064209 0.7034785747528076 -0.01376116368919611
0.7196618914604187 0.6071770787239075 0.26734939217567444
0.576706051826477 0.7477327585220337 -0.0034743978176265955
0.5818201899528503 0.7491856217384338 -0.005853593815118074
0.5465812683105469 0.6611933708190918 -0.05239930376410484
0.5751013159751892 0.6542498469352722 -0.026511916890740395
0.5497345328330994 0.6557976603507996 -0.051809780299663544
0.5987133979797363 0.5619798898696899 0.00237660831771791
0.6335488557815552 0.579628586769104 0.013126842677593231
0.5867707133293152 0.6246529221534729 -0.03327851742506027
0.684721827507019 0.3166186213493347 0.07022164016962051
0.6776481866836548 0.3418481647968292 0.03637048229575157
0.66702800989151 0.3667948842048645 0.009833624586462975
0.5917436480522156 0.7877019643783569 -0.0008687292574904859
0.574903130531311 0.3687152862548828 -0.032902512699365616
0.5784967541694641 0.33035314083099365 -0.019831595942378044
0.5825514793395996 0.2828914225101471 -0.005439994856715202
0.6595607399940491 0.5022215247154236 0.04462254047393799
0.7036005854606628 0.5295127630233765 0.08226583153009415
0.5712765455245972 0.48957034945487976 0.021449433639645576
0.6861459612846375 0.45894938707351685 0.05910557135939598
0.5634928941726685 0.5290707349777222 -0.017083115875720978
0.5757902264595032 0.6172583699226379 -0.0757710337638855
0.7223712205886841 0.5468220114707947 0.11018326878547668
0.692075252532959 0.5472791194915771 0.060209643095731735
0.667844295501709 0.5564922094345093 0.03559097647666931
0.6285315752029419 0.551392674446106 0.021865617483854294
0.5984053611755371 0.5399719476699829 0.013043958693742752
0.5765814781188965 0.5271444320678711 0.005105307325720787
0.5379974842071533 0.4928714632987976 -0.04234028235077858
0.719369649887085 0.5991478562355042 0.10351648926734924
0.7022007703781128 0.45332884788513184 0.07299807667732239
0.5367153882980347 0.6473113894462585 -0.10273349285125732
0.5763753056526184 0.5721451044082642 -0.018393434584140778
0.7304195165634155 0.4991301894187927 0.25133970379829407
0.5608375072479248 0.5125069618225098 7.497522165067494e-05
0.5869741439819336 0.6260503530502319 -0.012527505867183208
0.6751722097396851 0.4776153862476349 0.06379384547472
0.5750703811645508 0.6002419590950012 -0.06741297990083694
0.7131023406982422 0.6667715311050415 0.25622978806495667
0.5711849331855774 0.4797225296497345 0.026936471462249756
0.5619180202484131 0.5847168564796448 -0.09076440334320068
0.6694893836975098 0.7907719016075134 0.10349200665950775
0.6621063351631165 0.8173421025276184 0.14567619562149048
0.7304409742355347 0.6043045520782471 0.18640218675136566
0.6911268830299377 0.7563885450363159 0.13576039671897888
0.725948691368103 0.44988858699798584 0.1522607058286667
0.5929660797119141 0.8761868476867676 0.025415809825062752
0.5322491526603699 0.6525160074234009 -0.073923759162426
0.5943979620933533 0.5916722416877747 -0.008808372542262077
0.7188825011253357 0.4972224235534668 0.11877059936523438
0.6423127055168152 0.49229198694229126 0.03325410932302475
0.6231846213340759 0.4943494200706482 0.02575794793665409
0.5924702286720276 0.7566055059432983 -0.0005454735364764929
0.7131332159042358 0.6482318639755249 0.10924554616212845
0.5519622564315796 0.912794291973114 0.027427997440099716
0.6118474006652832 0.8743863105773926 0.08001571148633957
0.6355364322662354 0.8507394194602966 0.10883338749408722
0.6044676899909973 0.4923524856567383 0.022705521434545517
0.5871312618255615 0.4868168532848358 0.02394653484225273
0.5763681530952454 0.482958048582077 0.027657711878418922
0.714570164680481 0.4490281939506531 0.0975956991314888
0.5902377367019653 0.4627206325531006 0.020374702289700508
0.6093690991401672 0.45622900128364563 0.01941569335758686
0.6294156312942505 0.4550325870513916 0.023052331060171127
0.6488959789276123 0.4594627320766449 0.03078361600637436
0.660330593585968 0.46663397550582886 0.03884083777666092
0.7323580980300903 0.44270485639572144 0.21545809507369995
0.6548141837120056 0.48806387186050415 0.04217281565070152
0.5859061479568481 0.6900349259376526 -0.026656633242964745
0.5704706907272339 0.6369767785072327 -0.054673563688993454
0.5489716529846191 0.6827577352523804 -0.05126966908574104
0.6444015502929688 0.8236463069915771 0.07878944277763367
0.6196295619010925 0.8496997356414795 0.05329078063368797
0.5564075708389282 0.8960965871810913 -0.0007559814257547259
0.6812604665756226 0.7794493436813354 0.19209028780460358
0.5774007439613342 0.4727778136730194 0.02465124987065792
0.5535957217216492 0.535772442817688 -0.0496864914894104
0.5859279632568359 0.8962719440460205 0.04943045228719711
0.7224686145782471 0.6585513353347778 0.18156956136226654
0.5564336776733398 0.750635027885437 -0.028399264439940453
0.5604612827301025 0.7574286460876465 -0.03215992450714111
0.5642752647399902 0.7682594060897827 -0.035929374396800995
0.5668386220932007 0.7820448875427246 -0.0324503555893898
0.570539116859436 0.8043531179428101 -0.013730422593653202
0.5798614621162415 0.7450371384620667 -0.004472329281270504
0.5871487855911255 0.7426639795303345 -0.0038869697600603104
0.5938559174537659 0.7385542392730713 -0.0034522991627454758
0.6161603927612305 0.7221383452415466 0.0032665918115526438
0.6900157332420349 0.6623084545135498 0.05990685522556305
0.5505271553993225 0.5093755125999451 -0.028227120637893677
0.5577362775802612 0.45807331800460815 0.009123966097831726
0.5686743259429932 0.46414363384246826 0.01981421560049057
0.5743798613548279 0.7422550320625305 -0.003200471866875887
0.6877574324607849 0.7216828465461731 0.09209194034337997
0.5426250696182251 0.4535785913467407 -0.020022692158818245
0.5796827077865601 0.8269103169441223 -0.0002530548081267625
0.5407207608222961 0.5213178992271423 -0.06573933362960815
0.5671901702880859 0.5772866606712341 -0.04872428625822067
0.5475926399230957 0.841677188873291 -0.016875863075256348
0.6261850595474243 0.778435468673706 0.027714936062693596
0.6048729419708252 0.6465575098991394 -0.004407790955156088
0.6054273843765259 0.806053876876831 0.014666466973721981
0.6522053480148315 0.6416361927986145 0.00961402989923954
0.623992919921875 0.6708933711051941 0.0013498722109943628
0.6660628318786621 0.6815782785415649 0.028015246614813805
0.5542740225791931 0.8714107275009155 -0.013124163262546062
0.5770874619483948 0.5923182964324951 -0.03175819665193558
0.6417192220687866 0.7968063950538635 0.051505740731954575
0.6161110401153564 0.8251922130584717 0.03345630690455437
0.642927348613739 0.7468440532684326 0.032774537801742554
0.7053579092025757 0.6903722882270813 0.11524566262960434
0.665802001953125 0.7501357197761536 0.057905737310647964
0.7108315229415894 0.7093186378479004 0.16992327570915222
0.6377152800559998 0.7027853727340698 0.013327772729098797
0.564460039138794 0.5536400675773621 -0.032906174659729004
0.5694360136985779 0.6287593841552734 -0.0809907466173172
0.5788419246673584 0.6353528499603271 -0.0561726838350296
0.564493715763092 0.6115099191665649 -0.09701091796159744
0.5782913565635681 0.43120524287223816 0.004351439885795116
0.614044725894928 0.41653376817703247 0.005747063085436821
0.6434317827224731 0.4157484471797943 0.011724771000444889
0.6662416458129883 0.4223328232765198 0.024787595495581627
0.6803122162818909 0.43644648790359497 0.040553100407123566
0.6871274709701538 0.4847329258918762 0.07507048547267914
0.7341604232788086 0.5519376993179321 0.18264445662498474
0.6733559370040894 0.5211406946182251 0.054304338991642
0.6535247564315796 0.5284125804901123 0.03837685286998749
0.6257967948913574 0.5276581048965454 0.02591918781399727
0.5984652042388916 0.5209345817565918 0.01697174273431301
0.5778514742851257 0.5112022757530212 0.015246665105223656
0.5640952587127686 0.5020865201950073 0.01165687758475542
0.7238993644714355 0.5524945259094238 0.26720717549324036
0.5763624310493469 0.6422657370567322 -0.04528597742319107
0.5562303066253662 0.5593416690826416 -0.0672631785273552
0.5586897730827332 0.6301785707473755 -0.10063830018043518
0.5451182723045349 0.6427372097969055 -0.09330835193395615
0.5562053918838501 0.6340353488922119 -0.0897008553147316
0.5698085427284241 0.6501414775848389 -0.038982123136520386
0.5426584482192993 0.6455387473106384 -0.09934404492378235
0.5385254621505737 0.6506103873252869 -0.07353370636701584
0.5641123652458191 0.4808487594127655 0.022506047040224075
0.5532718300819397 0.4869113564491272 0.0077646467834711075
0.5489037036895752 0.4908522963523865 -0.006841964088380337
0.6663402318954468 0.4720193147659302 0.04752572998404503
0.6756458282470703 0.46177780628204346 0.050192490220069885
