ply
format ascii 1.0
element vertex 468
property float x
property float y
property float z
end_header
0.5359249114990234 0.7079214453697205 -0.07150253653526306
0.5532993078231812 0.6263195872306824 -0.13892100751399994
0.5394435524940491 0.6523184180259705 -0.07653395086526871
0.5207952260971069 0.5436660051345825 -0.10978256165981293
0.5540434122085571 0.5997037291526794 -0.14692147076129913
0.5489688515663147 0.5663174390792847 -0.13663224875926971
0.5305636525154114 0.4872567653656006 -0.0675097405910492
0.3331175446510315 0.4869418144226074 -0.008355597034096718
0.5239211916923523 0.42906391620635986 -0.04779518023133278
0.5236408114433289 0.3954058885574341 -0.05079915001988411
0.5139937400817871 0.2794147729873657 -0.022010106593370438
0.534583568572998 0.7198752760887146 -0.06798014789819717
0.53226637840271 0.7271801233291626 -0.06088416278362274
0.5290668606758118 0.7281201481819153 -0.05054010823369026
0.5306358933448792 0.7626625895500183 -0.04093780368566513
0.532044529914856 0.7720098495483398 -0.04612863436341286
0.5324165225028992 0.7835875749588013 -0.05235179513692856
0.5316648483276367 0.7974819540977478 -0.050100889056921005
0.5274333357810974 0.8212464451789856 -0.030539454892277718
0.5496193766593933 0.640225887298584 -0.12632863223552704
0.5193382501602173 0.6384479999542236 -0.0972582995891571
0.20524871349334717 0.39870691299438477 0.08796178549528122
0.40804627537727356 0.5047295093536377 -0.018370840698480606
0.3828406035900116 0.5068444013595581 -0.021998655050992966
0.3575446307659149 0.506244421005249 -0.02056610956788063
0.3191757798194885 0.4961507320404053 -0.007071565371006727
0.42901530861854553 0.4987325668334961 -0.010196802206337452
0.37603995203971863 0.4474426507949829 -0.034421175718307495
0.40185460448265076 0.44809025526046753 -0.026074910536408424
0.35010209679603577 0.4518052339553833 -0.03152133896946907
0.33120328187942505 0.46058565378189087 -0.024344610050320625
0.2955806255340576 0.5115069150924683 0.0016652981285005808
0.4228345453739166 0.8596742153167725 -0.01647895760834217
0.3220442533493042 0.4832186698913574 -0.002132100984454155
0.19524571299552917 0.5070527791976929 0.09561019390821457
0.2614690363407135 0.49810028076171875 0.021214298903942108
0.3907807171344757 0.604685366153717 -0.04665258526802063
0.49716439843177795 0.7035759091377258 -0.07639048248529434
0.49572136998176575 0.7257299423217773 -0.06367453932762146
0.453660786151886 0.7076007127761841 -0.06722655147314072
0.42227527499198914 0.7132582664489746 -0.048242297023534775
0.4635727107524872 0.7249532341957092 -0.05719564110040665
0.43667837977409363 0.7245867848396301 -0.039517659693956375
0.38499337434768677 0.7575749158859253 -0.009185457602143288
0.5314781665802002 0.6257992386817932 -0.14024774730205536
0.529159665107727 0.6001283526420593 -0.14833573997020721
0.2874329686164856 0.4356859624385834 -0.025535479187965393
0.4460572302341461 0.5444188714027405 -0.038880251348018646
0.45486778020858765 0.6169146299362183 -0.09238846600055695
0.45043134689331055 0.6035815477371216 -0.0848691388964653
0.3035898804664612 0.6009654998779297 -0.031145595014095306
0.5256207585334778 0.5692887306213379 -0.13457928597927094
0.3594246208667755 0.4049437344074249 -0.05165731906890869
0.31916195154190063 0.4160059690475464 -0.04160343483090401
0.24209891259670258 0.35174494981765747 0.04711489751935005
0.4727591872215271 0.42263782024383545 -0.05121032893657684
0.4239378273487091 0.4548851549625397 -0.013836460188031197
0.3621149957180023 0.7270792722702026 -0.010423919185996056
0.20694154500961304 0.7514826059341431 0.1615280658006668
0.47253286838531494 0.6309450268745422 -0.0787348821759224
0.49477729201316833 0.6399631500244141 -0.07553064078092575
0.38288581371307373 0.7254741191864014 -0.005623274017125368
0.3947160840034485 0.7261090874671936 -0.008466538973152637
0.30110102891921997 0.39972788095474243 -0.032398439943790436
0.4490014314651489 0.626815676689148 -0.07843772321939468
0.41041314601898193 0.40506523847579956 -0.05528722330927849
0.4058387875556946 0.38402068614959717 -0.06088532879948616
0.3661726713180542 0.2894401252269745 -0.02211589924991131
0.2730727195739746 0.3748532235622406 0.00259347353130579
0.3896220624446869 0.3343670666217804 -0.04127512127161026
0.26656943559646606 0.4251723885536194 -0.007873142138123512
0.23670485615730286 0.4133349359035492 0.038820475339889526
0.49634459614753723 0.7175369262695312 -0.07233056426048279
0.4598100781440735 0.718544602394104 -0.06271854788064957
0.4301704466342926 0.7192085385322571 -0.04556537792086601
0.47755366563796997 0.635623037815094 -0.07135241478681564
0.38866090774536133 0.7255566120147705 -0.006815686356276274
0.4068530797958374 0.741072416305542 -0.017465580254793167
0.39792534708976746 0.726603090763092 -0.00857703946530819
0.4948216378688812 0.6249747276306152 -0.11211599409580231
0.4388270378112793 0.7220349311828613 -0.035145629197359085
0.4655878245830536 0.7241677641868591 -0.047000281512737274
0.4953382611274719 0.7265172004699707 -0.05377885699272156
0.48645874857902527 0.8202862739562988 -0.03474492207169533
0.49201497435569763 0.7944222688674927 -0.054473672062158585
0.4944762587547302 0.7801737785339355 -0.05641347914934158
0.4957199990749359 0.768772542476654 -0.04920017719268799
0.49673646688461304 0.7607365250587463 -0.04429253190755844
0.43804931640625 0.7474156022071838 -0.02731284685432911
0.4344717860221863 0.7496294379234314 -0.03138197213411331
0.42904800176620483 0.755186140537262 -0.03547418490052223
0.42419663071632385 0.763201117515564 -0.03186413273215294
0.40448808670043945 0.6894739866256714 -0.0444527342915535
0.17543643712997437 0.624746561050415 0.1926281601190567
0.5447871088981628 0.6455481052398682 -0.09401493519544601
0.41930776834487915 0.7402238249778748 -0.014773339033126831
0.413226455450058 0.7395561933517456 -0.017499422654509544
0.5037340521812439 0.6515755653381348 -0.07624875009059906
0.45375320315361023 0.6415693759918213 -0.0567842498421669
0.49968791007995605 0.64594966173172 -0.07645867764949799
0.4165727198123932 0.5576869249343872 -0.0366443432867527
0.3718540072441101 0.572536289691925 -0.0383622907102108
0.44205352663993835 0.6141244173049927 -0.07127703726291656
0.29401594400405884 0.3139665424823761 0.007722320966422558
0.32193851470947266 0.34737488627433777 -0.022860458120703697
0.34876519441604614 0.3848278820514679 -0.048777077347040176
0.41164740920066833 0.7829763293266296 -0.019115231931209564
0.46578097343444824 0.3885672688484192 -0.060540374368429184
0.4527503550052643 0.3327496349811554 -0.04549334570765495
0.4367198348045349 0.2793004512786865 -0.03169192373752594
0.33377256989479065 0.5030240416526794 -0.01431060116738081
0.26447317004203796 0.5287865400314331 0.010378658771514893
0.44230425357818604 0.49232620000839233 -0.004757840186357498
0.2972058057785034 0.4687192440032959 -0.008706389926373959
0.4661901295185089 0.5286487340927124 -0.04451008886098862
0.4776395857334137 0.6088811755180359 -0.11352087557315826
0.23019123077392578 0.5480121970176697 0.03082522191107273
0.2870025038719177 0.5425146222114563 -0.008934812620282173
0.3247182071208954 0.5491896271705627 -0.024315357208251953
0.37644994258880615 0.546680212020874 -0.026191774755716324
0.4141198396682739 0.5378537774085999 -0.02369089052081108
0.44211632013320923 0.5267852544784546 -0.02437983825802803
0.5057624578475952 0.49423879384994507 -0.06334424763917923
0.2320312112569809 0.5981530547142029 0.023974649608135223
0.27211660146713257 0.46524718403816223 -0.0018355242209509015
0.5364986658096313 0.639157772064209 -0.1277894228696823
0.4507208466529846 0.5677447319030762 -0.050287261605262756
0.1714783012866974 0.5089179277420044 0.17268995940685272
0.46304652094841003 0.5131480097770691 -0.02427433244884014
0.4344051778316498 0.615388810634613 -0.044987402856349945
0.31074202060699463 0.4842754602432251 0.000687840860337019
0.4727709889411926 0.5924915671348572 -0.10381992161273956
0.1846938133239746 0.6869656443595886 0.1825854480266571
0.44012609124183655 0.48409968614578247 0.0009130992111749947
0.4997388422489166 0.5785373449325562 -0.12423825263977051
0.289302796125412 0.8022853136062622 0.05225330591201782
0.2847127914428711 0.83742356300354 0.09116949141025543
0.19223937392234802 0.6142770648002625 0.10683463513851166
0.24740274250507355 0.7705113291740417 0.07225825637578964
0.21436375379562378 0.4563899040222168 0.07349757105112076
0.41831040382385254 0.8871212005615234 -0.00565725564956665
0.5347281694412231 0.64442378282547 -0.09425799548625946
0.42423978447914124 0.5850830078125 -0.045462578535079956
0.23348073661327362 0.5041981935501099 0.0408795066177845
0.36165425181388855 0.4911474585533142 -0.017638592049479485
0.38393282890319824 0.4923446774482727 -0.01947956345975399
0.4001665711402893 0.7446679472923279 -0.015043811872601509
0.23111483454704285 0.6510130167007446 0.03337464481592178
0.46677032113075256 0.9205713272094727 0.005867979023605585
0.3774208426475525 0.8909602165222168 0.041465528309345245
0.335249662399292 0.8690451383590698 0.06379935890436172
0.519632875919342 0.3361594080924988 -0.03713562339544296
0.5201740860939026 0.9223516583442688 0.010068989358842373
0.40420907735824585 0.49115705490112305 -0.015816759318113327
0.42291638255119324 0.487792044878006 -0.008573492057621479
0.43443137407302856 0.48582249879837036 -0.0009673892636783421
0.24736109375953674 0.46072086691856384 0.01889084465801716
0.41883155703544617 0.4735318720340729 -0.0125722736120224
0.3975715637207031 0.4704360067844391 -0.02148342691361904
0.378098726272583 0.47016552090644836 -0.024928420782089233
0.3566291332244873 0.4732888340950012 -0.023583894595503807
0.34117966890335083 0.4778291583061218 -0.018056724220514297
0.1832207441329956 0.44766372442245483 0.13486038148403168
0.34552299976348877 0.4891061782836914 -0.013366278260946274
0.5369718074798584 0.6711874604225159 -0.069122813642025
0.4365285038948059 0.6765971183776855 -0.058291222900152206
0.4747321605682373 0.6278080344200134 -0.08736218512058258
0.49705275893211365 0.6721428632736206 -0.07417935878038406
0.5246555805206299 0.458111047744751 -0.048200540244579315
0.3337500989437103 0.8354851007461548 0.03764824941754341
0.3743521571159363 0.861890435218811 0.01779394969344139
0.4696768522262573 0.9031435251235962 -0.022537963464856148
0.242855504155159 0.801780641078949 0.12622715532779694
0.433714896440506 0.47949084639549255 -0.004735681228339672
0.49218329787254333 0.5341889262199402 -0.07494611293077469
0.5253263115882874 0.9040641784667969 -0.017280463129281998
0.4204970598220825 0.9091703295707703 0.017856961116194725
0.19804975390434265 0.6718916296958923 0.10456506162881851
0.4657798409461975 0.7549463510513306 -0.03795470669865608
0.4623563885688782 0.7604576945304871 -0.042630765587091446
0.4591211676597595 0.7693195343017578 -0.047843076288700104
0.4557942748069763 0.7820237278938293 -0.04473134130239487
0.44471627473831177 0.804928719997406 -0.0305212140083313
0.4104834198951721 0.7236070036888123 -0.023314757272601128
0.40361523628234863 0.7211561799049377 -0.024646373465657234
0.3966781497001648 0.7172694206237793 -0.026363205164670944
0.3764888048171997 0.7052037119865417 -0.02743726782500744
0.2731929421424866 0.6597164869308472 -0.008191956207156181
0.4866495728492737 0.5099843740463257 -0.05215567722916603
0.46381157636642456 0.464959979057312 -0.009333202615380287
0.4460035562515259 0.4702734649181366 -0.005220341496169567
0.4152534008026123 0.7209675312042236 -0.020489931106567383
0.2639005184173584 0.7263253331184387 0.029859449714422226
0.49063166975975037 0.46241438388824463 -0.037854623049497604
0.43253618478775024 0.8310745358467102 -0.02222129888832569
0.5426315665245056 0.5395150780677795 -0.11262954771518707
0.5133779048919678 0.5204708576202393 -0.0879783108830452
0.5367530584335327 0.5145673751831055 -0.08887578547000885
0.47456198930740356 0.5724114775657654 -0.07924586534500122
0.5276547074317932 0.8782519698143005 -0.029783787205815315
0.5275034308433533 0.8471024632453918 -0.030152499675750732
0.47985291481018066 0.8469683527946472 -0.03225373104214668
0.36560875177383423 0.7731782793998718 -0.0015903651947155595
0.4101698398590088 0.6360183358192444 -0.04191956669092178
0.396106481552124 0.8062024116516113 -0.009846393950283527
0.3434080183506012 0.6342412829399109 -0.043352656066417694
0.38065820932388306 0.6610843539237976 -0.038577549159526825
0.3146617114543915 0.675372838973999 -0.025508182123303413
0.47342449426651 0.8778777718544006 -0.03354981914162636
0.45420563220977783 0.5857428312301636 -0.06484556198120117
0.34426701068878174 0.7999514937400818 0.014013564214110374
0.38294634222984314 0.8314697742462158 0.002818191424012184
0.341664582490921 0.7372388243675232 -0.0070331464521586895
0.23493832349777222 0.6970694661140442 0.044695232063531876
0.3056332767009735 0.7498477697372437 0.009244577959179878
0.21348872780799866 0.7247353792190552 0.09647135436534882
0.352193146944046 0.6898319721221924 -0.02901809848845005
0.47198688983917236 0.5510545372962952 -0.06141204759478569
0.48716872930526733 0.6205843687057495 -0.11777490377426147
0.4636051058769226 0.6255475282669067 -0.09290417283773422
0.5031528472900391 0.6037017703056335 -0.1330960988998413
0.4455360174179077 0.4448089599609375 -0.02037799172103405
0.40642082691192627 0.43258658051490784 -0.032513830810785294
0.3709438443183899 0.43100816011428833 -0.039316169917583466
0.3387814462184906 0.4366481304168701 -0.036579281091690063
0.31328263878822327 0.44875583052635193 -0.025732988491654396
0.2894400358200073 0.49121198058128357 0.007631388027220964
0.190841943025589 0.5600263476371765 0.10116982460021973
0.3129761219024658 0.5200740694999695 -0.007995804771780968
0.3426664471626282 0.5255342721939087 -0.01687539741396904
0.37836897373199463 0.5254138708114624 -0.020167049020528793
0.41106685996055603 0.5203903317451477 -0.017698273062705994
0.4363100826740265 0.5122625231742859 -0.012849112041294575
0.4535118639469147 0.5038195848464966 -0.011188111267983913
0.17195582389831543 0.5665572285652161 0.19018416106700897
0.46071410179138184 0.6311549544334412 -0.08048315346240997
0.4979715347290039 0.5556247234344482 -0.09636161476373672
0.5105631351470947 0.6223632097244263 -0.13243770599365234
0.5211659073829651 0.6352099180221558 -0.11945254355669022
0.5074982643127441 0.6266796588897705 -0.12070482224225998
0.46504396200180054 0.6383758783340454 -0.0698377937078476
0.5275553464889526 0.6374197602272034 -0.12518315017223358
0.5257843136787415 0.6426780819892883 -0.09560215473175049
0.4508195221424103 0.48474109172821045 0.00020174043311271816
0.4670957922935486 0.4898051619529724 -0.011237075552344322
0.4784596562385559 0.49338728189468384 -0.027583487331867218
0.3308972418308258 0.481076717376709 -0.011636669747531414
0.31479892134666443 0.47044360637664795 -0.012489520013332367
0.5608953833580017 0.5437697172164917 -0.09833036363124847
0.6664705276489258 0.4888550043106079 0.07381284981966019
0.5649136304855347 0.6383594870567322 -0.0882921814918518
0.7223978042602539 0.40740829706192017 0.21342608332633972
0.6057040095329285 0.506863534450531 0.03494264930486679
0.6280669569969177 0.5085793137550354 0.04180716723203659
0.6491559147834778 0.5076764822006226 0.053339675068855286
0.6746386289596558 0.49802637100219727 0.08017952740192413
0.5870235562324524 0.5006744265556335 0.031397029757499695
0.6356343626976013 0.4515244960784912 0.03208300471305847
0.6124176383018494 0.4519214630126953 0.026523780077695847
0.656880795955658 0.4561254382133484 0.04536240175366402
0.670067548751831 0.46485716104507446 0.05860716849565506
0.6929109692573547 0.5134326219558716 0.09551114588975906
0.6098690629005432 0.852243185043335 0.02310030348598957
0.6730664968490601 0.48573142290115356 0.08384659886360168
0.7352356910705566 0.5100168585777283 0.22259098291397095
0.7115262746810913 0.5004987120628357 0.12623174488544464
0.6422193050384521 0.6045791506767273 0.00830246601253748
0.5695410966873169 0.7032748460769653 -0.06090746074914932
0.5625479221343994 0.7255107164382935 -0.04911242052912712
0.6002547740936279 0.7066921591758728 -0.03599479794502258
0.6179500222206116 0.7130143642425537 -0.00611675251275301
0.5850297808647156 0.7244424819946289 -0.029538605362176895
0.6012921333312988 0.724708616733551 -0.0030164283234626055
0.6355838179588318 0.7559140920639038 0.04395757615566254
0.5720069408416748 0.625601053237915 -0.13298001885414124
0.5748250484466553 0.6001353859901428 -0.13974528014659882
0.702835202217102 0.4404344856739044 0.07333435863256454
0.5899766087532043 0.544979989528656 -0.003069510217756033
0.6126649379730225 0.616938591003418 -0.05855558440089226
0.6110430359840393 0.603510856628418 -0.04984291270375252
0.7047600746154785 0.600460946559906 0.05851374939084053
0.5686814188957214 0.5692087411880493 -0.12336800992488861
0.65876305103302 0.41043102741241455 0.016485683619976044
0.6855736970901489 0.4212382733821869 0.04394585266709328
0.7081341743469238 0.36217671632766724 0.1591266393661499
0.5678207874298096 0.42435574531555176 -0.02880905754864216
0.5917623043060303 0.4578845500946045 0.028758741915225983
0.6539837121963501 0.72605299949646 0.053158361464738846
0.7066681385040283 0.7423704862594604 0.2787517011165619
0.595458984375 0.6311541199684143 -0.05346216261386871
0.576626181602478 0.6399616003036499 -0.0626218244433403
0.6364428997039795 0.7264503240585327 0.04980204626917839
0.6246553659439087 0.7272803783416748 0.040634021162986755
0.6954579949378967 0.4060449004173279 0.05908234789967537
0.6115835309028625 0.626789927482605 -0.045213352888822556
0.6205311417579651 0.4092489778995514 -0.008543847128748894
0.6255550384521484 0.3888623118400574 -0.012718817219138145
0.6364567875862122 0.29780369997024536 0.04146454855799675
0.7024608850479126 0.38284584879875183 0.1030980795621872
0.6301513314247131 0.34085366129875183 0.013635988347232342
0.7123793363571167 0.43067193031311035 0.0978509783744812
0.718520998954773 0.4201689064502716 0.1527058333158493
0.5671101808547974 0.7170213460922241 -0.05705400928854942
0.5923788547515869 0.7177003026008606 -0.03317774832248688
0.6102333068847656 0.718977689743042 -0.006397305056452751
0.5893106460571289 0.6356212496757507 -0.05078323185443878
0.6311945915222168 0.7267649173736572 0.04491106793284416
0.6211920976638794 0.741555392742157 0.02655305340886116
0.6195399761199951 0.7276742458343506 0.0393080934882164
0.5882227420806885 0.6248870491981506 -0.08919381350278854
0.5946441292762756 0.7225975394248962 -0.0005357381887733936
0.5779686570167542 0.7240982055664062 -0.02073037624359131
0.5567102432250977 0.7264476418495178 -0.038960300385951996
0.5632006525993347 0.8186110258102417 -0.020589686930179596
0.5657715201377869 0.7933120727539062 -0.038724955171346664
0.5654528141021729 0.7791035175323486 -0.03997747227549553
0.5630763173103333 0.7679482698440552 -0.03303785249590874
0.5594485402107239 0.7600990533828735 -0.028673242777585983
0.5984821915626526 0.7472861409187317 0.0073896790854632854
0.6032267808914185 0.7494040727615356 0.0030214160215109587
0.6089152097702026 0.7547858953475952 0.0002825634437613189
0.6130349636077881 0.7622185945510864 0.006012520287185907
0.6341812014579773 0.6884884834289551 0.0032773141283541918
0.721316397190094 0.6223270893096924 0.3225446045398712
0.6079506874084473 0.740723729133606 0.02727019041776657
0.6152587532997131 0.7400170564651489 0.0250800009816885
0.569411039352417 0.651374340057373 -0.06359317898750305
0.6025480031967163 0.641363799571991 -0.030322149395942688
0.5729254484176636 0.6460697650909424 -0.06411590427160263
0.6139190196990967 0.5582634210586548 0.011098717339336872
0.6523596048355103 0.5730081796646118 0.02607322297990322
0.6132959127426147 0.6140092611312866 -0.03507872298359871
0.6816222667694092 0.3244974911212921 0.0989738181233406
0.6747499704360962 0.355512410402298 0.05748892202973366
0.6660847067832947 0.3910730183124542 0.023569555953145027
0.6179875135421753 0.7798646688461304 0.02452470175921917
0.5762451887130737 0.3914436101913452 -0.03654658421874046
0.5803441405296326 0.33632099628448486 -0.017016863450407982
0.5829278230667114 0.2842603325843811 0.0002227753575425595
0.6659541726112366 0.5044150352478027 0.0679921880364418
0.7159327268600464 0.5303037166595459 0.11439970135688782
0.5756217837333679 0.4940028786659241 0.03222434222698212
0.6917256712913513 0.4720461368560791 0.08608708530664444
0.5746500492095947 0.5291482210159302 -0.016102060675621033
0.602205753326416 0.6089926362037659 -0.08628647029399872
0.7351326942443848 0.5487971901893616 0.1481926441192627
0.7065204381942749 0.5436493754386902 0.08887819200754166
0.6829459071159363 0.5502963066101074 0.05964316800236702
0.6418893933296204 0.5474931001663208 0.03806459531188011
0.609281063079834 0.5387035608291626 0.02520901709794998
0.5854147672653198 0.5276533961296082 0.012408602051436901
0.5503382682800293 0.4946025609970093 -0.051512643694877625
0.7406148910522461 0.5968790650367737 0.14113369584083557
0.707545280456543 0.46879148483276367 0.10215867310762405
0.5607686638832092 0.6391876339912415 -0.12195566296577454
0.5939911603927612 0.5680720210075378 -0.01558778341859579
0.7260751128196716 0.5126856565475464 0.3071715533733368
0.5690661668777466 0.514062225818634 0.004302574787288904
0.611985445022583 0.6153099536895752 -0.008997907862067223
0.6797844171524048 0.48704296350479126 0.09082932770252228
0.5992376804351807 0.5926939249038696 -0.07617616653442383
0.7177351713180542 0.6811977624893188 0.30747002363204956
0.5746799111366272 0.48548373579978943 0.03947465866804123
0.5844019055366516 0.5785062909126282 -0.1041850671172142
0.6860025525093079 0.7912933826446533 0.1398727148771286
0.6719090938568115 0.8241827487945557 0.18004824221134186
0.7430459260940552 0.6118342280387878 0.23403695225715637
0.7102130651473999 0.7607828378677368 0.17533105611801147
0.7269149422645569 0.461767315864563 0.19546149671077728
0.6101074814796448 0.8778183460235596 0.03654414787888527
0.5540340542793274 0.6444891095161438 -0.09057989716529846
0.6139574646949768 0.585324227809906 -0.00265244347974658
0.7257956862449646 0.5065653324127197 0.15629714727401733
0.6466728448867798 0.4930666387081146 0.05455555394291878
0.6276909708976746 0.4947792887687683 0.04457574710249901
0.6260586977005005 0.7448910474777222 0.03195270150899887
0.7393350601196289 0.6472848057746887 0.14707723259925842
0.5675562620162964 0.9148898124694824 0.029686734080314636
0.6236410140991211 0.878409206867218 0.09984294325113297
0.6455637216567993 0.8552492260932922 0.13647103309631348
0.6087983846664429 0.49366581439971924 0.03879024088382721
0.5910394191741943 0.490032434463501 0.037937432527542114
0.580060601234436 0.4875275790691376 0.04051164910197258
0.7187889814376831 0.4649965465068817 0.13090969622135162
0.5924866199493408 0.4751351773738861 0.035371456295251846
0.6108415126800537 0.4726261794567108 0.034387458115816116
0.6294775605201721 0.47230905294418335 0.04005354642868042
0.6483563184738159 0.4755479097366333 0.0505121685564518
0.6605030298233032 0.48022884130477905 0.06109369546175003
0.7279012203216553 0.4544963240623474 0.2666504979133606
0.6585559844970703 0.4909403324127197 0.06510935723781586
0.6142950057983398 0.675575852394104 -0.021840490400791168
0.5972892045974731 0.6278566122055054 -0.06325873732566833
0.5712849497795105 0.6716018915176392 -0.058706093579530716
0.6586523652076721 0.8235400915145874 0.10871231555938721
0.6344417929649353 0.8503199815750122 0.07437057793140411
0.5744788646697998 0.897797703742981 0.000814307015389204
0.6910033226013184 0.7904577851295471 0.2318725436925888
0.5803699493408203 0.48069941997528076 0.037890322506427765
0.5689288973808289 0.5344310402870178 -0.0558709055185318
0.6001547574996948 0.8991533517837524 0.06064809113740921
0.7387617826461792 0.6665226221084595 0.22697345912456512
0.5818949937820435 0.7542375326156616 -0.01132532674819231
0.5867205858230591 0.7596451640129089 -0.015437187626957893
0.5908921360969543 0.76835697889328 -0.018953509628772736
0.593197226524353 0.780620813369751 -0.015163634903728962
0.5954335927963257 0.8022565841674805 0.0018869455670937896
0.615967869758606 0.7245582938194275 0.02124118246138096
0.6241192817687988 0.7216815948486328 0.0237521231174469
0.6309551000595093 0.7178346514701843 0.024426119402050972
0.6500132083892822 0.7044126987457275 0.03135146573185921
0.7208722829818726 0.6565999984741211 0.08933266997337341
0.5616768598556519 0.5105632543563843 -0.032037004828453064
0.5617619752883911 0.4663255214691162 0.015546275302767754
0.5722534656524658 0.4718695878982544 0.030358104035258293
0.60820072889328 0.7220599055290222 0.022300897166132927
0.7149190902709961 0.7197924256324768 0.12785165011882782
0.5497244596481323 0.4630441665649414 -0.023244637995958328
0.6019628047943115 0.8256484270095825 0.013048917055130005
0.5561758279800415 0.5205184817314148 -0.07773004472255707
0.5868741273880005 0.5724357962608337 -0.05389425531029701
0.568345308303833 0.8437907695770264 -0.015258973464369774
0.6479211449623108 0.7682610750198364 0.05913140997290611
0.6288105845451355 0.6353890299797058 0.0037518974859267473
0.6260132789611816 0.8003308773040771 0.03832186385989189
0.6793838739395142 0.6331206560134888 0.027201225981116295
0.6503273844718933 0.6598809361457825 0.018181078135967255
0.695621132850647 0.6723748445510864 0.05498155578970909
0.5748751163482666 0.8735800981521606 -0.011412897147238255
0.5981584191322327 0.5859044790267944 -0.03275427967309952
0.659537136554718 0.791234016418457 0.08245744556188583
0.6336492300033569 0.8226341009140015 0.05566193908452988
0.6683435440063477 0.7335270047187805 0.06590486317873001
0.7316209077835083 0.6911774277687073 0.1535109132528305
0.6896594762802124 0.7430406212806702 0.09233376383781433
0.7282283902168274 0.7170883417129517 0.21327131986618042
0.6675376892089844 0.6881499886512756 0.03864017501473427
0.5803128480911255 0.55133455991745 -0.0342181921005249
0.5961552262306213 0.6205199360847473 -0.09298606216907501
0.6067617535591125 0.6254467368125916 -0.06418967247009277
0.5901890993118286 0.6036767363548279 -0.11323533952236176
0.5795931816101074 0.4465040862560272 0.013736845925450325
0.6152916550636292 0.4358880817890167 0.017193686217069626
0.6457215547561646 0.43562448024749756 0.02604743465781212
0.6700265407562256 0.4413844347000122 0.04294474422931671
0.6853503584861755 0.45315247774124146 0.06315351277589798
0.693723738193512 0.49354618787765503 0.10359355807304382
0.7414621114730835 0.5602377653121948 0.2314954400062561
0.6832925081253052 0.5216186046600342 0.08050336688756943
0.6632971167564392 0.526689887046814 0.06025237590074539
0.6346460580825806 0.5267547369003296 0.04340529814362526
0.6061210632324219 0.5218580365180969 0.03241680562496185
0.5841569900512695 0.5136530995368958 0.02498055063188076
0.569913387298584 0.5050157904624939 0.019575994461774826
0.7219712734222412 0.5673344135284424 0.32421401143074036
0.6041507124900818 0.6310757994651794 -0.05221017822623253
0.5751150250434875 0.5558228492736816 -0.076610267162323
0.5848931074142456 0.6220012307167053 -0.11683235317468643
0.5688028931617737 0.6348311901092529 -0.11053508520126343
0.5815370082855225 0.6263421773910522 -0.10472938418388367
0.597224771976471 0.6382566690444946 -0.04584154859185219
0.566723644733429 0.6373003125190735 -0.11792941391468048
0.5606892704963684 0.6424870491027832 -0.08940935879945755
0.5680388808250427 0.48617804050445557 0.03213334083557129
0.5590301752090454 0.490936279296875 0.012977026402950287
0.5568841695785522 0.49433836340904236 -0.0074538192711770535
0.6677446365356445 0.48347094655036926 0.07122606784105301
0.6798128485679626 0.4739220142364502 0.0752682164311409
