ply
format ascii 1.0
element vertex 468
property float x
property float y
property float z
end_header
0.5117482542991638 0.7025535702705383 -0.047508783638477325
0.5164956450462341 0.6436207890510559 -0.13585592806339264
0.5120315551757812 0.6571342945098877 -0.06515830755233765
0.48698335886001587 0.5598495006561279 -0.11936666816473007
0.5156946182250977 0.6202082633972168 -0.14865361154079437
0.5125899910926819 0.5860278606414795 -0.14514735341072083
0.5027153491973877 0.4966343939304352 -0.09474559873342514
0.31273508071899414 0.4865637719631195 -0.005271479953080416
0.497078001499176 0.42306405305862427 -0.08845017105340958
0.49531885981559753 0.38785552978515625 -0.09993011504411697
0.4872714877128601 0.2678914964199066 -0.10563721507787704
0.5115888714790344 0.7127130031585693 -0.04136115312576294
0.5109100937843323 0.7188418507575989 -0.032241787761449814
0.5100446343421936 0.7190252542495728 -0.02049637958407402
0.5103619694709778 0.7610355019569397 0.0010978825157508254
0.5112003087997437 0.7721949815750122 -0.0011380151845514774
0.5118321776390076 0.7841091156005859 -0.0038069472648203373
0.512045681476593 0.7959542274475098 0.0033413672354072332
0.511681318283081 0.8044292330741882 0.028339117765426636
0.515709400177002 0.6532725095748901 -0.12074777483940125
0.48727139830589294 0.64837247133255 -0.0862768143415451
0.20653876662254333 0.3729349970817566 0.08388706296682358
0.3920021653175354 0.5016127228736877 -0.025149807333946228
0.3670731782913208 0.5044664740562439 -0.02294025756418705
0.34139546751976013 0.5044050812721252 -0.01670592650771141
0.30221015214920044 0.49191829562187195 0.0008845797856338322
0.41180992126464844 0.4955557882785797 -0.022166822105646133
0.34759068489074707 0.4408523142337799 -0.045118480920791626
0.3765527606010437 0.4412339925765991 -0.04404200240969658
0.3206736445426941 0.4460905194282532 -0.03574959561228752
0.3033146262168884 0.45580214262008667 -0.024746324867010117
0.284091591835022 0.5038700699806213 0.015886908397078514
0.41964733600616455 0.8134158849716187 0.06930088251829147
0.3007122278213501 0.48105666041374207 0.0018095902632921934
0.20646345615386963 0.4768998920917511 0.12035014480352402
0.2536388039588928 0.48467200994491577 0.036548007279634476
0.37177759408950806 0.6018357276916504 -0.024091875180602074
0.4719869792461395 0.6988847851753235 -0.04642811417579651
0.47464320063591003 0.7176108360290527 -0.02917836233973503
0.43085283041000366 0.7010422945022583 -0.02892058715224266
0.40485867857933044 0.7029073238372803 -0.0032216827385127544
0.44434991478919983 0.7156724333763123 -0.017264429479837418
0.4211440682411194 0.7138280868530273 0.005010263528674841
0.3750246465206146 0.7361717224121094 0.05571218580007553
0.4947715997695923 0.6428887248039246 -0.13426731526851654
0.49033138155937195 0.6202781796455383 -0.14644677937030792
0.2653542757034302 0.4293464124202728 -0.02502691000699997
0.4239192306995392 0.544471025466919 -0.03917347639799118
0.42560359835624695 0.6248857975006104 -0.07561641931533813
0.42233747243881226 0.6105000972747803 -0.07048460841178894
0.2945266366004944 0.5923609137535095 0.005065031815320253
0.48873665928840637 0.5882092118263245 -0.13819684088230133
0.32472872734069824 0.4040250778198242 -0.06867837905883789
0.2896069884300232 0.4133347272872925 -0.04902900382876396
0.2289327085018158 0.33569014072418213 0.027108214795589447
0.4387936592102051 0.4182676374912262 -0.08457142859697342
0.4015355110168457 0.44903531670570374 -0.0350695364177227
0.35371774435043335 0.7083785533905029 0.05234495922923088
0.25967684388160706 0.6749736666679382 0.24724562466144562
0.4443127512931824 0.6375306248664856 -0.06332292407751083
0.4657739996910095 0.6458484530448914 -0.06117621064186096
0.37152230739593506 0.7107431888580322 0.051935046911239624
0.3846878111362457 0.7127479910850525 0.045320238918066025
0.2742149233818054 0.39588144421577454 -0.042106516659259796
0.422788143157959 0.6311208009719849 -0.05939852446317673
0.372458815574646 0.40252578258514404 -0.08131758868694305
0.366676390171051 0.38286468386650085 -0.09123410284519196
0.33210456371307373 0.28349676728248596 -0.07570461928844452
0.25191444158554077 0.3663216233253479 -0.012312485836446285
0.35297131538391113 0.3340693712234497 -0.08439598977565765
0.2482142299413681 0.41499167680740356 -0.008323444984853268
0.2271205484867096 0.39585453271865845 0.03503270819783211
0.4726954698562622 0.7104631066322327 -0.04002213478088379
0.43826496601104736 0.7105326652526855 -0.02327243611216545
0.4128611981868744 0.7086361646652222 -0.0006824250449426472
0.44961875677108765 0.6410813927650452 -0.05600009113550186
0.3778041899204254 0.711809515953064 0.04829469695687294
0.39290446043014526 0.7312251925468445 0.0388159304857254
0.38910049200057983 0.7126027345657349 0.0448497049510479
0.46184641122817993 0.6366169452667236 -0.10010833293199539
0.4258711040019989 0.7109242677688599 0.009139158762991428
0.44931477308273315 0.7145403027534485 -0.006698255427181721
0.4771210849285126 0.7175676226615906 -0.018071193248033524
0.47097235918045044 0.8027040958404541 0.029147593304514885
0.4706040024757385 0.7923893332481384 0.0040209246799349785
0.4717424511909485 0.780870258808136 -0.0019282199209555984
0.47381430864334106 0.7684862613677979 0.0010177282383665442
0.47621145844459534 0.7588974833488464 0.0031783354934304953
0.42307591438293457 0.7405831813812256 0.024253683164715767
0.418368935585022 0.7436190843582153 0.022151034325361252
0.41140806674957275 0.7491985559463501 0.02085000090301037
0.4062802791595459 0.754957377910614 0.026887234300374985
0.3872275650501251 0.6808093786239624 -0.002611473435536027
0.21899518370628357 0.5636109709739685 0.2497483640909195
0.513987123966217 0.6548423171043396 -0.08534661680459976
0.4079103171825409 0.7299231290817261 0.03799543157219887
0.4002833366394043 0.7303682565689087 0.03704546019434929
0.4749142825603485 0.655642569065094 -0.05882956460118294
0.4287487268447876 0.6421051025390625 -0.03694852069020271
0.47058409452438354 0.6509764790534973 -0.060879841446876526
0.3972848653793335 0.5554364323616028 -0.028265848755836487
0.354736328125 0.5693254470825195 -0.018974589183926582
0.41691797971725464 0.6177933216094971 -0.053906574845314026
0.2683940529823303 0.30498212575912476 -0.02805504947900772
0.2915162444114685 0.3448237180709839 -0.05130445957183838
0.3137504458427429 0.38422995805740356 -0.06999970972537994
0.4004077613353729 0.7617399096488953 0.04700922220945358
0.42927518486976624 0.385778546333313 -0.10035043209791183
0.4175615906715393 0.33168673515319824 -0.10115749388933182
0.4027787744998932 0.27207696437835693 -0.10131105780601501
0.31724900007247925 0.5004424452781677 -0.0071829757653176785
0.2580193877220154 0.5169406533241272 0.032725896686315536
0.423818975687027 0.4897193908691406 -0.02011619694530964
0.2778828740119934 0.46185368299484253 -0.003918683622032404
0.44184747338294983 0.5313539505004883 -0.05108150839805603
0.4440672993659973 0.6211545467376709 -0.1020723432302475
0.23268026113510132 0.5283677577972412 0.06424439698457718
0.2769879400730133 0.5346109867095947 0.01521284505724907
0.3106025457382202 0.5445870161056519 -0.0047434731386601925
0.36012330651283264 0.5427417755126953 -0.014596392400562763
0.39599156379699707 0.5341157913208008 -0.021005941554903984
0.4213877320289612 0.5245897173881531 -0.029104694724082947
0.47757184505462646 0.5026482343673706 -0.08473102748394012
0.23875364661216736 0.575282633304596 0.07013048976659775
0.25723332166671753 0.4547126293182373 0.00541310291737318
0.502043604850769 0.6525458693504333 -0.11972475796937943
0.42736977338790894 0.5698190331459045 -0.04538669437170029
0.19799166917800903 0.4630482494831085 0.19994677603244781
0.4403499960899353 0.5133422613143921 -0.03586935997009277
0.4126552939414978 0.6153789162635803 -0.02799028530716896
0.29141420125961304 0.4789127707481384 0.006811391096562147
0.44069787859916687 0.6033377647399902 -0.09547077864408493
0.23506227135658264 0.6174883246421814 0.2547278106212616
0.4213254153728485 0.48186400532722473 -0.016897831112146378
0.46431365609169006 0.5939199924468994 -0.12218089401721954
0.317843496799469 0.744379997253418 0.1401439756155014
0.3248164653778076 0.7612563967704773 0.1877121478319168
0.21768194437026978 0.5727409720420837 0.15954463183879852
0.2824181318283081 0.7121148109436035 0.1579420268535614
0.2149667739868164 0.4328281283378601 0.08349953591823578
0.4207330346107483 0.8288098573684692 0.08912379294633865
0.5030378103256226 0.6541131734848022 -0.08398497849702835
0.40367457270622253 0.5840544700622559 -0.032782889902591705
0.23193752765655518 0.48530781269073486 0.06081552803516388
0.3431071937084198 0.4922354817390442 -0.018299344927072525
0.3666236698627472 0.4922899007797241 -0.023651644587516785
0.38609379529953003 0.7323836088180542 0.043329790234565735
0.2459593266248703 0.6198137998580933 0.09265213459730148
0.4657043516635895 0.8542336225509644 0.10273081064224243
0.3959796726703644 0.8173816800117493 0.14032894372940063
0.3647061586380005 0.7936514019966125 0.1616712361574173
0.4916648864746094 0.33107686042785645 -0.10536295175552368
0.5128236413002014 0.8580746650695801 0.09900785982608795
0.3871642053127289 0.4896312952041626 -0.024521486833691597
0.4058457314968109 0.4850507378578186 -0.021601838991045952
0.41685721278190613 0.48279157280921936 -0.01687856949865818
0.2373926043510437 0.44507184624671936 0.027786729857325554
0.3982880115509033 0.4712654948234558 -0.029457855969667435
0.3755475878715515 0.46805986762046814 -0.035130005329847336
0.35336756706237793 0.46892303228378296 -0.03448658809065819
0.33085158467292786 0.47269347310066223 -0.0278998464345932
0.3161408305168152 0.47723063826560974 -0.019637109711766243
0.19658929109573364 0.4128950238227844 0.14562860131263733
0.32596877217292786 0.48984768986701965 -0.011402375996112823
0.5115776062011719 0.6715759634971619 -0.053775887936353683
0.41338732838630676 0.6725178956985474 -0.02497216872870922
0.44500747323036194 0.6360366344451904 -0.07411035895347595
0.4702431857585907 0.6728023886680603 -0.05112839862704277
0.49913421273231506 0.45818912982940674 -0.08329107612371445
0.35448700189590454 0.7757210731506348 0.12916016578674316
0.38698410987854004 0.8013332486152649 0.11150479316711426
0.462942510843277 0.8489990234375 0.07010482996702194
0.29069820046424866 0.7241706848144531 0.21985994279384613
0.41382041573524475 0.4779394567012787 -0.02204744517803192
0.4628010392189026 0.5441930294036865 -0.08468759059906006
0.5131385922431946 0.8524662256240845 0.06749485433101654
0.4283534288406372 0.8392449617385864 0.11733859777450562
0.2306324541568756 0.6220622658729553 0.17075318098068237
0.44734200835227966 0.7515366673469543 0.012122247368097305
0.4426364302635193 0.7579571008682251 0.010168316774070263
0.437935471534729 0.7673264741897583 0.0083312401548028
0.4352014660835266 0.7776389718055725 0.014416472986340523
0.4308033883571625 0.7857264280319214 0.035793278366327286
0.3989533483982086 0.7117196917533875 0.026204416528344154
0.3906136155128479 0.7087563276290894 0.026596546173095703
0.3832501471042633 0.704410195350647 0.025204500183463097
0.36510223150253296 0.6922019720077515 0.02428239956498146
0.2777731120586395 0.6378046274185181 0.04671667516231537
0.45999208092689514 0.516006350517273 -0.06657011806964874
0.4401702284812927 0.46254289150238037 -0.03560309857130051
0.42465636134147644 0.46679675579071045 -0.027092982083559036
0.40562474727630615 0.709015965461731 0.028476951643824577
0.2834131717681885 0.6870648860931396 0.10259179025888443
0.46427953243255615 0.46200108528137207 -0.06728824228048325
0.4244115650653839 0.7969840168952942 0.053250763565301895
0.5091769099235535 0.556440532207489 -0.12762019038200378
0.48214253783226013 0.5335664749145508 -0.1047409400343895
0.5060361623764038 0.5286880135536194 -0.11059092730283737
0.44559717178344727 0.5803220272064209 -0.077374167740345
0.5127819180488586 0.8387805819511414 0.04897621273994446
0.5120800733566284 0.8197908401489258 0.03963405266404152
0.4668988883495331 0.8170626163482666 0.043369051069021225
0.36382150650024414 0.7417770028114319 0.07066243141889572
0.3904561400413513 0.6318060159683228 -0.015605350956320763
0.3915185034275055 0.7711286544799805 0.06478110700845718
0.3311355710029602 0.6270155906677246 -0.006257303059101105
0.36597809195518494 0.6530479192733765 -0.000847162154968828
0.31247782707214355 0.6585842370986938 0.02613743208348751
0.4629853665828705 0.8355141878128052 0.052313126623630524
0.42886146903038025 0.5895372033119202 -0.05657114088535309
0.3531363606452942 0.7559700012207031 0.09625859558582306
0.38612890243530273 0.7846101522445679 0.08784905076026917
0.3401566743850708 0.7111644744873047 0.061456430703401566
0.25744402408599854 0.6569971442222595 0.11367619037628174
0.31616413593292236 0.7139279842376709 0.08270113170146942
0.25072506070137024 0.6681799292564392 0.1755819022655487
0.34518855810165405 0.6753187775611877 0.022095724940299988
0.4454084038734436 0.5570240616798401 -0.06349744647741318
0.45370805263519287 0.6330504417419434 -0.10607971251010895
0.43417686223983765 0.6335151791572571 -0.07677743583917618
0.4665028750896454 0.6204280257225037 -0.12504330277442932
0.4181435704231262 0.4399087429046631 -0.04720074683427811
0.37543371319770813 0.4276205003261566 -0.05414535477757454
0.33842000365257263 0.4275200068950653 -0.05300121381878853
0.30798226594924927 0.4335920810699463 -0.041994858533144
0.28727099299430847 0.44477206468582153 -0.02560732513666153
0.27592217922210693 0.4818231761455536 0.017581216990947723
0.20941263437271118 0.5248358249664307 0.14106813073158264
0.29959550499916077 0.5146266222000122 0.005761024076491594
0.32787638902664185 0.5216800570487976 -0.006414263043552637
0.36275988817214966 0.5217583775520325 -0.015053479932248592
0.39436131715774536 0.5161871910095215 -0.020635398104786873
0.4175048768520355 0.5086760520935059 -0.021887658163905144
0.4332389533519745 0.5016787052154541 -0.025171853601932526
0.2080552875995636 0.5120117664337158 0.23225277662277222
0.4332190454006195 0.6365993022918701 -0.06325582414865494
0.465636283159256 0.5683979392051697 -0.10012400150299072
0.4748453199863434 0.6382380127906799 -0.1239621564745903
0.48726192116737366 0.6473027467727661 -0.11040353029966354
0.47333234548568726 0.639756977558136 -0.11125212162733078
0.438372403383255 0.6416063904762268 -0.05228634178638458
0.4933148920536041 0.6505753993988037 -0.11635948717594147
0.4938719868659973 0.6523540019989014 -0.08498308062553406
0.4310363829135895 0.48239409923553467 -0.019515663385391235
0.44540905952453613 0.4886321425437927 -0.03191361203789711
0.4545447826385498 0.494742751121521 -0.04660433903336525
0.30723336338996887 0.4799710512161255 -0.010429516434669495
0.2915307283401489 0.4656935930252075 -0.009362696669995785
0.5304399728775024 0.5580750107765198 -0.11787784099578857
0.6734248399734497 0.4718184769153595 0.0063903359696269035
0.5386560559272766 0.6463849544525146 -0.08516938984394073
0.7517043352127075 0.3521578311920166 0.102005235850811
0.5997853875160217 0.4942096173763275 -0.017501313239336014
0.6246486902236938 0.49490612745285034 -0.013929368928074837
0.6493463516235352 0.49251335859298706 -0.006256262306123972
0.6827731132507324 0.4763649106025696 0.013567818328738213
0.5796387195587158 0.48960965871810913 -0.016026753932237625
0.6379998922348022 0.42776596546173096 -0.03619001805782318
0.609700083732605 0.43088358640670776 -0.036737605929374695
0.6641329526901245 0.4309156537055969 -0.025536416098475456
0.6806097030639648 0.43942928314208984 -0.013391241431236267
0.7011182904243469 0.487112432718277 0.029763543978333473
0.5972921848297119 0.8049137592315674 0.074977345764637
0.6831668615341187 0.4650881886482239 0.014102607034146786
0.7594573497772217 0.4546162486076355 0.13912098109722137
0.7252082824707031 0.4652306139469147 0.05198020860552788
0.6336262226104736 0.5917333364486694 -0.01577005535364151
0.5491245985031128 0.6958297491073608 -0.04387003183364868
0.544535756111145 0.715172290802002 -0.026423335075378418
0.5852508544921875 0.6949895620346069 -0.02374727465212345
0.6061511635780334 0.6949476003646851 0.0037892197724431753
0.5711579322814941 0.7109225988388062 -0.012258617207407951
0.5899454951286316 0.7075680494308472 0.01148411724716425
0.6305837035179138 0.7260172367095947 0.06469346582889557
0.5371763110160828 0.6411697268486023 -0.13348044455051422
0.5393054485321045 0.6182485818862915 -0.1452162265777588
0.7146489024162292 0.4082753658294678 -0.010961557738482952
0.5783578157424927 0.5385734438896179 -0.034328531473875046
0.5927765965461731 0.6182178854942322 -0.0714089572429657
0.5928851366043091 0.6037903428077698 -0.06579960882663727
0.7029768228530884 0.576219379901886 0.0194198377430439
0.5354084372520447 0.5864095687866211 -0.1366041600704193
0.6599442958831787 0.387123703956604 -0.058531999588012695
0.692536473274231 0.393532931804657 -0.03648834303021431
0.7320268154144287 0.31630200147628784 0.04305758327245712
0.5527822375297546 0.41269272565841675 -0.08110116422176361
0.5859481692314148 0.4412827491760254 -0.029270464554429054
0.6485028862953186 0.6967215538024902 0.06282007694244385
0.7159308195114136 0.6528117060661316 0.26497748494148254
0.575510561466217 0.6322832703590393 -0.06049657240509987
0.5556316375732422 0.6426292657852173 -0.0595976822078228
0.6308989524841309 0.7008587121963501 0.06132904067635536
0.6185787320137024 0.7040114402770996 0.05388329178094864
0.7049067616462708 0.37481918931007385 -0.02902071736752987
0.5939512848854065 0.6245325803756714 -0.055083442479372025
0.6148605942726135 0.39040690660476685 -0.07437397539615631
0.6187528371810913 0.3701714873313904 -0.08447548002004623
0.6368277072906494 0.2717401683330536 -0.06687500327825546
0.718555212020874 0.3463267683982849 0.0019432564731687307
0.6249986290931702 0.3223658800125122 -0.07713785767555237
0.7276498675346375 0.393033504486084 0.006544576957821846
0.7403488755226135 0.37464022636413574 0.05118754133582115
0.5475431084632874 0.7075997591018677 -0.037493396550416946
0.5776986479759216 0.7051435112953186 -0.018254069611430168
0.5982925295829773 0.7015935778617859 0.006197687238454819
0.5698935389518738 0.6363962292671204 -0.053555361926555634
0.6252058744430542 0.7024530172348022 0.05732160806655884
0.6134768128395081 0.7227681875228882 0.04654465988278389
0.6141794919967651 0.7039565443992615 0.05348680168390274
0.5627484321594238 0.632462739944458 -0.0970553308725357
0.5842177271842957 0.7052544355392456 0.015265611000359058
0.5651631355285645 0.7102665901184082 -0.0022002586629241705
0.5404239892959595 0.7154475450515747 -0.015348759479820728
0.5503888130187988 0.7995606660842896 0.03194459155201912
0.5510213971138 0.7894881963729858 0.007355368696153164
0.5493026375770569 0.7778241634368896 0.0016404077177867293
0.5460643172264099 0.7656344175338745 0.004559692926704884
0.5422524809837341 0.7561869621276855 0.006512760650366545
0.5871643424034119 0.7341134548187256 0.03077024780213833
0.592409074306488 0.736964225769043 0.028534987941384315
0.5995936393737793 0.742026150226593 0.027599314227700233
0.6048410534858704 0.7474223375320435 0.034176941961050034
0.6225064396858215 0.6717485189437866 0.004954254720360041
0.7443515062332153 0.5409361720085144 0.26933959126472473
0.598966121673584 0.7226939797401428 0.04537671431899071
0.6064468622207642 0.7224546074867249 0.04481973871588707
0.5474004149436951 0.6531398296356201 -0.057201217859983444
0.586935818195343 0.6362596154212952 -0.033276431262493134
0.5515254735946655 0.6482154130935669 -0.059350594878196716
0.6045508980751038 0.5476948618888855 -0.02101009711623192
0.645959734916687 0.5582876801490784 -0.008916369639337063
0.5971660017967224 0.6107755899429321 -0.04898645356297493
0.6960455179214478 0.28847360610961914 -0.015408814884722233
0.682277262210846 0.3277432322502136 -0.04022611677646637
0.6682404279708862 0.3666381239891052 -0.05964338034391403
0.6100001931190491 0.7533062696456909 0.05477086454629898
0.5593916773796082 0.37927377223968506 -0.09665274620056152
0.5634749531745911 0.325771689414978 -0.0977126732468605
0.569528341293335 0.265756219625473 -0.0968613475561142
0.6707456707954407 0.4863346219062805 0.004430416971445084
0.7255722284317017 0.4983826279640198 0.0481574609875679
0.5674374103546143 0.4844968318939209 -0.014845306053757668
0.7034690976142883 0.4433596432209015 0.009405260905623436
0.5607696771621704 0.5266596078872681 -0.04722270742058754
0.5778413414955139 0.6158577799797058 -0.09868354350328445
0.7474784851074219 0.507543683052063 0.08174532651901245
0.7119767069816589 0.5175830721855164 0.029672866687178612
0.6835858821868896 0.5304162502288818 0.008096138015389442
0.6368776559829712 0.5323724746704102 -0.00463696476072073
0.6017689108848572 0.5264868140220642 -0.013700050301849842
0.5766075253486633 0.5187159776687622 -0.023877881467342377
0.5268005728721619 0.5005269646644592 -0.08323345333337784
0.7469891309738159 0.5544739961624146 0.08777114748954773
0.7214275598526001 0.4345644414424896 0.01991857774555683
0.5284376740455627 0.651524543762207 -0.11896327137947083
0.5796871185302734 0.5639168620109558 -0.04080476611852646
0.758539080619812 0.44075730443000793 0.22033387422561646
0.5578364133834839 0.5088765621185303 -0.03191835805773735
0.5986271500587463 0.6083337068557739 -0.022650424391031265
0.6911023855209351 0.4622756242752075 0.0199247058480978
0.5773059129714966 0.5978773832321167 -0.09208854287862778
0.7338255047798157 0.594813346862793 0.27332860231399536
0.5682882070541382 0.47642576694488525 -0.011543471366167068
0.556853175163269 0.5901164412498474 -0.11968322843313217
0.6785029172897339 0.7259894013404846 0.15270854532718658
0.668283224105835 0.7421575784683228 0.2003403604030609
0.7567291855812073 0.549453616142273 0.17852823436260223
0.7066981792449951 0.6912761926651001 0.1728326678276062
0.7513383626937866 0.4112725257873535 0.1010623574256897
0.596722424030304 0.8194028735160828 0.0951748639345169
0.5248076319694519 0.6533409357070923 -0.08348627388477325
0.6027193069458008 0.5765231251716614 -0.027023181319236755
0.7429380416870117 0.46426618099212646 0.07760497182607651
0.6468304395675659 0.48050516843795776 -0.00784643366932869
0.6242475509643555 0.4827836751937866 -0.014294182881712914
0.619778573513031 0.7233428955078125 0.05152694880962372
0.7419664859771729 0.598682165145874 0.10952543467283249
0.5572797656059265 0.8491370677947998 0.10645215213298798
0.6143099665641785 0.8046690225601196 0.14862732589244843
0.6379197835922241 0.7778840661048889 0.17183873057365417
0.6032595038414001 0.4818510413169861 -0.016784023493528366
0.5839617252349854 0.47873300313949585 -0.014483122155070305
0.5727505087852478 0.4772418737411499 -0.010772831737995148
0.7367320656776428 0.423839807510376 0.04388576000928879
0.5893526077270508 0.46328985691070557 -0.023149453103542328
0.6111190915107727 0.4578522741794586 -0.02776017040014267
0.6330938339233398 0.4565761089324951 -0.025655262172222137
0.6552199125289917 0.4586125314235687 -0.0176321379840374
0.6692326664924622 0.46214908361434937 -0.008439602330327034
0.7601702809333801 0.39128512144088745 0.16537177562713623
0.6622288227081299 0.4765521287918091 -0.00019521893409546465
0.6009405851364136 0.6653478741645813 -0.019428512081503868
0.575987696647644 0.6307811141014099 -0.07122810184955597
0.5503923296928406 0.6695430278778076 -0.04860910028219223
0.6493521332740784 0.7604426741600037 0.1389838010072708
0.6224888563156128 0.788366436958313 0.1197914406657219
0.5609352588653564 0.8440108299255371 0.07369275391101837
0.6935931444168091 0.7030877470970154 0.2353672981262207
0.5751377940177917 0.47158876061439514 -0.01622694544494152
0.5468705296516418 0.5407325625419617 -0.08216408640146255
0.5893218517303467 0.8300167918205261 0.12325788289308548
0.7471432685852051 0.5987699031829834 0.18858398497104645
0.5674216151237488 0.7468060851097107 0.017330599948763847
0.573074221611023 0.7529772520065308 0.015458334237337112
0.5784607529640198 0.7619436383247375 0.013975974172353745
0.5818859338760376 0.7720697522163391 0.020278556272387505
0.5851543545722961 0.7795124053955078 0.04206889495253563
0.6075302958488464 0.7038102149963379 0.03392091765999794
0.6156961917877197 0.7001200914382935 0.03455078601837158
0.6226136684417725 0.6952064633369446 0.033474043011665344
0.6400929689407349 0.6816043853759766 0.03384461998939514
0.7174984216690063 0.6194801330566406 0.0619075745344162
0.543437123298645 0.512630045413971 -0.06384459137916565
0.5514160394668579 0.458018958568573 -0.032974448055028915
0.5648671388626099 0.46120911836624146 -0.022239042446017265
0.6002712845802307 0.7018864154815674 0.036043472588062286
0.7102217674255371 0.6678059101104736 0.11721096932888031
0.5318651795387268 0.4590303897857666 -0.06530456244945526
0.5908806324005127 0.7894799709320068 0.0593731664121151
0.5291106104850769 0.5315707325935364 -0.10347263514995575
0.5674087405204773 0.5754499435424805 -0.0743645578622818
0.554718554019928 0.8130235075950623 0.04625110700726509
0.6413093209266663 0.7299644351005554 0.08043452352285385
0.6191008687019348 0.6230347752571106 -0.008925213478505611
0.6181138753890991 0.7611135244369507 0.07268022000789642
0.6722167730331421 0.6135036945343018 0.0046932087279856205
0.6409675478935242 0.6424418687820435 0.007604722399264574
0.6888518333435059 0.6432472467422485 0.03864461928606033
0.5603276491165161 0.8308224678039551 0.055615611374378204
0.5821605920791626 0.5836527943611145 -0.052551496773958206
0.6518169641494751 0.7420594692230225 0.10629220306873322
0.6235013008117676 0.7729644179344177 0.0959121361374855
0.6616240739822388 0.6977423429489136 0.07304868847131729
0.7313535213470459 0.6358130574226379 0.13008679449558258
0.6830549836158752 0.697363018989563 0.09521925449371338
0.7314107418060303 0.6456241607666016 0.19250549376010895
0.6582224369049072 0.6632522940635681 0.032630499452352524
0.5628907680511475 0.5523279905319214 -0.06006830930709839
0.5705647468566895 0.6283645033836365 -0.10310111939907074
0.5857966542243958 0.6274141073226929 -0.07315719872713089
0.5600012540817261 0.6166113018989563 -0.12280832231044769
0.5711981058120728 0.4330640137195587 -0.04329217970371246
0.6116163730621338 0.41654524207115173 -0.04724164307117462
0.6472219824790955 0.4131122827529907 -0.043390654027462006
0.6762354373931885 0.41682446002960205 -0.030604811385273933
0.6953355073928833 0.42638036608695984 -0.012909535318613052
0.7054152488708496 0.4640098810195923 0.03156617656350136
0.7606312036514282 0.5019129514694214 0.16058500111103058
0.6888526678085327 0.49922528862953186 0.01884782873094082
0.6640991568565369 0.5086244940757751 0.0050501530058681965
0.630935788154602 0.5116682648658752 -0.005515048746019602
0.5997650623321533 0.5086668729782104 -0.013367763720452785
0.5767065286636353 0.5029255151748657 -0.0164286307990551
0.5611417889595032 0.4970865547657013 -0.020743871107697487
0.7510971426963806 0.48974815011024475 0.25308871269226074
0.5852505564689636 0.6307081580162048 -0.05941421538591385
0.550062358379364 0.5650768876075745 -0.09758248925209045
0.5540862679481506 0.6349435448646545 -0.12198364734649658
0.5404691100120544 0.645176351070404 -0.10931570082902908
0.5536161661148071 0.6364885568618774 -0.10937560349702835
0.5792961716651917 0.6363294124603271 -0.049073558300733566
0.5360560417175293 0.6488639712333679 -0.11554017663002014
0.532932460308075 0.6508105993270874 -0.08422102779150009
0.5598112940788269 0.47772419452667236 -0.014947624877095222
0.5486964583396912 0.4848591685295105 -0.02825712226331234
0.5429636836051941 0.4913785457611084 -0.043963368982076645
0.6773385405540466 0.46428465843200684 0.0014217807911336422
0.691102147102356 0.4484315514564514 0.0026688806246966124
