ply
format ascii 1.0
element vertex 468
property float x
property float y
property float z
end_header
0.5372896790504456 0.7399969100952148 -0.01952553540468216
0.5918023586273193 0.6764345169067383 -0.10314521938562393
0.5485370755195618 0.6910865902900696 -0.041134659200906754
0.5569807291030884 0.5872683525085449 -0.11559867858886719
0.5972012281417847 0.6519931554794312 -0.11658425629138947
0.5893605947494507 0.6156497001647949 -0.11827749758958817
0.5566993355751038 0.5199025273323059 -0.09640055149793625
0.3416977524757385 0.4888100326061249 -0.11855057626962662
0.5524857640266418 0.4516584873199463 -0.10365670174360275
0.5582178235054016 0.4171709716320038 -0.12006369978189468
0.5506289005279541 0.2621295154094696 -0.146034836769104
0.532482385635376 0.7508189082145691 -0.013769197277724743
0.5257357358932495 0.7576147317886353 -0.006086544133722782
0.5181052684783936 0.758849024772644 0.0038978883530944586
0.5209783315658569 0.8009228706359863 0.02691240981221199
0.5230647921562195 0.8140909671783447 0.027090933173894882
0.5223954916000366 0.828777551651001 0.028260966762900352
0.5186856985092163 0.8435277938842773 0.03924575075507164
0.5050597190856934 0.8591620922088623 0.06686718016862869
0.5798507332801819 0.6869508624076843 -0.08978547155857086
0.5416922569274902 0.6840188503265381 -0.0719090923666954
0.162470743060112 0.34613800048828125 -0.12243881076574326
0.4209962487220764 0.5124125480651855 -0.09577351808547974
0.395853191614151 0.5151064395904541 -0.10687386244535446
0.3681904077529907 0.5141630172729492 -0.11467712372541428
0.32305899262428284 0.4945850968360901 -0.11786825209856033
0.44166266918182373 0.5058265328407288 -0.082126684486866
0.38843870162963867 0.4426143169403076 -0.13631200790405273
0.4173283874988556 0.4446629285812378 -0.11974537372589111
0.3591453731060028 0.44582802057266235 -0.14062882959842682
0.33698421716690063 0.4542408883571625 -0.1383032351732254
0.2935982942581177 0.5110273361206055 -0.11164968460798264
0.39977362751960754 0.8903491497039795 0.057234205305576324
0.3259871006011963 0.4797254204750061 -0.11828448623418808
0.14831623435020447 0.4742552638053894 -0.07279062271118164
0.2502789795398712 0.48907655477523804 -0.11323745548725128
0.4018581807613373 0.6302666664123535 -0.07796484977006912
0.504798948764801 0.7389801740646362 -0.03435128927230835
0.4945058226585388 0.7598310112953186 -0.01798897236585617
0.4603084623813629 0.744498610496521 -0.0368366613984108
0.4249365031719208 0.748982310295105 -0.028045492246747017
0.46290406584739685 0.7603431940078735 -0.022464675828814507
0.434694766998291 0.7600494623184204 -0.013095216825604439
0.37008941173553467 0.7908722758293152 0.015563096851110458
0.5720407366752625 0.6768778562545776 -0.11054831743240356
0.5737859606742859 0.6522704362869263 -0.12471485882997513
0.29985272884368896 0.4314080476760864 -0.167092427611351
0.457572340965271 0.5629847645759583 -0.08092588186264038
0.47779709100723267 0.656345784664154 -0.09347250312566757
0.4703276455402374 0.6390700936317444 -0.09204406291246414
0.3059168756008148 0.621608316898346 -0.09889093786478043
0.5672153234481812 0.617824137210846 -0.12532220780849457
0.3913152515888214 0.41287145018577576 -0.17120049893856049
0.34322643280029297 0.41696760058403015 -0.17576907575130463
0.22557666897773743 0.30650267004966736 -0.16087034344673157
0.5043055415153503 0.44385796785354614 -0.12697410583496094
0.4396686255931854 0.4539392590522766 -0.09979548305273056
0.3524044156074524 0.7614322900772095 -0.00494455685839057
0.11741581559181213 0.7249847650527954 0.08352530002593994
0.4918956756591797 0.6718243360519409 -0.07246429473161697
0.5122309923171997 0.6808555126190186 -0.05550605058670044
0.3742438852787018 0.760811448097229 0.003764693159610033
0.3866601586341858 0.761716902256012 0.00633977260440588
0.3239048421382904 0.396039754152298 -0.18049857020378113
0.4664573073387146 0.6626760363578796 -0.07764168828725815
0.445599228143692 0.42072594165802 -0.15571536123752594
0.4451082646846771 0.3981555700302124 -0.16937124729156494
0.393263041973114 0.26336470246315 -0.19521501660346985
0.278668612241745 0.3521871268749237 -0.1732863187789917
0.42613470554351807 0.3304668068885803 -0.18391400575637817
0.27132999897003174 0.4142912030220032 -0.16427399218082428
0.21955645084381104 0.38307642936706543 -0.144773468375206
0.500370442867279 0.7520285844802856 -0.028491294011473656
0.46314722299575806 0.7545135021209717 -0.029573598876595497
0.431042343378067 0.7549349069595337 -0.021449053660035133
0.49505332112312317 0.6756849884986877 -0.0612117163836956
0.3807489275932312 0.7613551616668701 0.0054504661820828915
0.3996679186820984 0.7794423699378967 0.010369930416345596
0.3888929784297943 0.7608382105827332 0.007412263657897711
0.5233491659164429 0.6727126836776733 -0.10087867081165314
0.43391668796539307 0.7563897371292114 -0.007830321788787842
0.46103715896606445 0.758630633354187 -0.011202600784599781
0.4889513850212097 0.759662389755249 -0.008494238369166851
0.46836936473846436 0.858639657497406 0.05277499556541443
0.4824557900428772 0.841730535030365 0.023574311286211014
0.4882226288318634 0.8274158835411072 0.014113384298980236
0.49109870195388794 0.8124381899833679 0.012478126212954521
0.4913415312767029 0.8015915155410767 0.013347734697163105
0.43272167444229126 0.7863690853118896 0.008861400187015533
0.4295714199542999 0.7902677059173584 0.00877328496426344
0.4231542646884918 0.7974099516868591 0.009523803368210793
0.4161325693130493 0.8052449822425842 0.013295306824147701
0.4115607738494873 0.7239289879798889 -0.037241823971271515
0.08409664034843445 0.5787758827209473 0.047138508409261703
0.565555214881897 0.6889179348945618 -0.06019870936870575
0.41197118163108826 0.7765891551971436 0.009863360784947872
0.40689828991889954 0.7776967287063599 0.010216668248176575
0.5184688568115234 0.6916055679321289 -0.0494382306933403
0.46570777893066406 0.6756560802459717 -0.04907654598355293
0.5156842470169067 0.6866154074668884 -0.053450945764780045
0.42755043506622314 0.5748123526573181 -0.0828566700220108
0.38346242904663086 0.5923554301261902 -0.09289142489433289
0.4579586982727051 0.6466941237449646 -0.07834991067647934
0.30178120732307434 0.27823176980018616 -0.18548621237277985
0.34609830379486084 0.333423376083374 -0.18505209684371948
0.3824002146720886 0.38940152525901794 -0.18158778548240662
0.39745813608169556 0.8190301656723022 0.025020334869623184
0.5044196844100952 0.40951353311538696 -0.14796185493469238
0.4924224019050598 0.33408018946647644 -0.1659749448299408
0.47289758920669556 0.2590370774269104 -0.17972184717655182
0.3402923047542572 0.5070895552635193 -0.1181335300207138
0.25447142124176025 0.5281304717063904 -0.10803725570440292
0.4554670453071594 0.49991315603256226 -0.07670844346284866
0.3004474639892578 0.4628903567790985 -0.13794469833374023
0.4809848368167877 0.5503742098808289 -0.0847945362329483
0.5084396600723267 0.6539605855941772 -0.1090831309556961
0.20663386583328247 0.5411679148674011 -0.09647497534751892
0.2846684753894806 0.5500556230545044 -0.1114044189453125
0.33028700947761536 0.5629333257675171 -0.10756976902484894
0.387291818857193 0.56014084815979 -0.09348650276660919
0.4248097538948059 0.5495392680168152 -0.08184417337179184
0.4517056941986084 0.5396940112113953 -0.07762379199266434
0.5319699048995972 0.5247514843940735 -0.10099060088396072
0.20855681598186493 0.60011887550354 -0.08285592496395111
0.2703947126865387 0.4567772150039673 -0.14357702434062958
0.5680577754974365 0.6870476007461548 -0.09576701372861862
0.46349844336509705 0.5924731492996216 -0.07892116904258728
0.09239429235458374 0.45205777883529663 -0.018404031172394753
0.47476547956466675 0.5297577381134033 -0.07629379630088806
0.4450019896030426 0.6437779664993286 -0.056080952286720276
0.31207752227783203 0.478049099445343 -0.11967070400714874
0.49959811568260193 0.6323267221450806 -0.10654149949550629
0.09182354807853699 0.6486685276031494 0.06829026341438293
0.4517006576061249 0.4917638301849365 -0.07821115851402283
0.5353092551231384 0.6234124898910522 -0.12097164243459702
0.24489282071590424 0.8178935050964355 0.04254499450325966
0.21845100820064545 0.841179370880127 0.08355500549077988
0.13614702224731445 0.5943110585212708 -0.022826017811894417
0.19507241249084473 0.774902880191803 0.03245466947555542
0.17937518656253815 0.4232243299484253 -0.10654442757368088
0.38858115673065186 0.9169694781303406 0.07305879145860672
0.5565361380577087 0.6885780096054077 -0.06284257024526596
0.434717059135437 0.6081842184066772 -0.07450541853904724
0.21119457483291626 0.48902541399002075 -0.1063113585114479
0.3768049478530884 0.5000683665275574 -0.11511623859405518
0.40038907527923584 0.5018218755722046 -0.10917818546295166
0.3907209634780884 0.7813730835914612 0.011100291274487972
0.20204254984855652 0.6554632782936096 -0.051085446029901505
0.42715081572532654 0.9486610889434814 0.11179210990667343
0.3298037648200989 0.9109128713607788 0.09319177269935608
0.2798100411891937 0.8829379081726074 0.08752265572547913
0.5570497512817383 0.3382830321788788 -0.1355970948934555
0.475246399641037 0.9478765726089478 0.13548053801059723
0.4192414879798889 0.4989857077598572 -0.09972216933965683
0.43730461597442627 0.4938557744026184 -0.08900999277830124
0.4477129578590393 0.49195367097854614 -0.08121509104967117
0.23536279797554016 0.44510960578918457 -0.13646478950977325
0.4300631284713745 0.4743177592754364 -0.09994230419397354
0.40740376710891724 0.46739888191223145 -0.11379900574684143
0.3856310546398163 0.46719497442245483 -0.1239297091960907
0.36239826679229736 0.4704415202140808 -0.12847042083740234
0.346745103597641 0.4750388264656067 -0.12717397511005402
0.12000517547130585 0.3916810154914856 -0.07030672580003738
0.3576383590698242 0.4952659010887146 -0.11772385984659195
0.5424489974975586 0.7067892551422119 -0.02863597869873047
0.4460345506668091 0.7116339206695557 -0.04379057139158249
0.4976917803287506 0.6708430051803589 -0.08111375570297241
0.5085999965667725 0.7100622653961182 -0.0416623055934906
0.5477911233901978 0.4814848303794861 -0.0931665301322937
0.2944830060005188 0.8564311265945435 0.060209792107343674
0.33927956223487854 0.8877934217453003 0.06932578980922699
0.4407721757888794 0.9352679252624512 0.08352362364530563
0.16360844671726227 0.7907620668411255 0.08367861807346344
0.4456276297569275 0.48579660058021545 -0.08787821233272552
0.5180705785751343 0.5681629180908203 -0.09991396963596344
0.48966872692108154 0.9357203245162964 0.10791017860174179
0.37982937693595886 0.9345791339874268 0.09692330658435822
0.13737553358078003 0.6569275856018066 0.0020042441319674253
0.4618620276451111 0.7959747314453125 0.008301898837089539
0.4586735665798187 0.8037910461425781 0.007767306640744209
0.4538065195083618 0.8149333000183105 0.008659588173031807
0.4480864107608795 0.8283920288085938 0.015610609203577042
0.42994678020477295 0.843041718006134 0.0339512899518013
0.40540385246276855 0.7589366436004639 -0.00502913910895586
0.39950302243232727 0.7562078833580017 -0.010111669078469276
0.3930334150791168 0.7517271041870117 -0.01513038482517004
0.37740662693977356 0.7397274971008301 -0.026993123814463615
0.2617134153842926 0.6777834296226501 -0.06577685475349426
0.5071516036987305 0.5364500284194946 -0.09175536781549454
0.47960352897644043 0.4761272072792053 -0.0815080776810646
0.4589354395866394 0.4751525819301605 -0.08555374294519424
0.4084779620170593 0.7555180788040161 -0.0005530124763026834
0.23449662327766418 0.7404345273971558 -0.012016784399747849
0.5119743943214417 0.48231226205825806 -0.09619627892971039
0.4120461940765381 0.8638312816619873 0.04824710637331009
0.5777599811553955 0.5840631723403931 -0.11001303046941757
0.5445433855056763 0.558430016040802 -0.10921948403120041
0.5675429105758667 0.5539683699607849 -0.10297154635190964
0.4959181547164917 0.6063898205757141 -0.09375471621751785
0.4978548288345337 0.911907970905304 0.08911147713661194
0.5005900263786316 0.8821854591369629 0.07856320589780807
0.45850589871406555 0.8815193772315979 0.06306473910808563
0.34608203172683716 0.8036118745803833 0.02031949907541275
0.41808417439460754 0.6639783382415771 -0.054416071623563766
0.3742987811565399 0.8368720412254333 0.03722980618476868
0.3520358204841614 0.6625136137008667 -0.07751939445734024
0.3879425823688507 0.6913506984710693 -0.0520230196416378
0.3133499324321747 0.7026400566101074 -0.0568675771355629
0.45059049129486084 0.9107673168182373 0.06695094704627991
0.4689312279224396 0.6150527000427246 -0.08122815191745758
0.31722915172576904 0.827198326587677 0.03358672931790352
0.35631686449050903 0.8607854247093201 0.052053600549697876
0.32778728008270264 0.7679733633995056 -0.00883782934397459
0.19931137561798096 0.7022452354431152 -0.021273428574204445
0.28271329402923584 0.7753239870071411 -0.004364221356809139
0.15308809280395508 0.7163307666778564 0.022251423448324203
0.3537103235721588 0.7216317653656006 -0.0416937917470932
0.49036693572998047 0.5800213813781738 -0.08858783543109894
0.5183678269386292 0.6685113906860352 -0.10840490460395813
0.4869002103805542 0.6672358512878418 -0.08752939105033875
0.5426290035247803 0.653441309928894 -0.12067615985870361
0.4669317305088043 0.45401453971862793 -0.105199433863163
0.4300733208656311 0.4388658404350281 -0.13168688118457794
0.3932037353515625 0.4338330626487732 -0.14787782728672028
0.35695114731788635 0.43574556708335876 -0.15462404489517212
0.3249358832836151 0.44522857666015625 -0.15205052495002747
0.28632548451423645 0.4844469130039215 -0.11831489950418472
0.13999654352664948 0.5339294075965881 -0.049596428871154785
0.3150504231452942 0.524289071559906 -0.11054322868585587
0.34956517815589905 0.5346349477767944 -0.10650822520256042
0.38902944326400757 0.5351108312606812 -0.09697979688644409
0.4218805730342865 0.5288650989532471 -0.08536674082279205
0.4462549090385437 0.5210636258125305 -0.0753779411315918
0.4638112783432007 0.5151032209396362 -0.07098320126533508
0.08433496952056885 0.5137304663658142 0.018625222146511078
0.4796292781829834 0.6701474189758301 -0.07488959282636642
0.5284897089004517 0.5952354669570923 -0.10800585150718689
0.5481855869293213 0.6739214658737183 -0.11198142170906067
0.5492735505104065 0.6834478974342346 -0.09236060082912445
0.5388453006744385 0.6763484477996826 -0.10205736756324768
0.480391263961792 0.675666868686676 -0.05974794551730156
0.5580344796180725 0.6859588623046875 -0.09478149563074112
0.5477909445762634 0.6878632307052612 -0.06752975285053253
0.46358856558799744 0.4930327832698822 -0.07243312150239944
0.47904467582702637 0.5029076933860779 -0.0723961591720581
0.493633896112442 0.511968195438385 -0.07982255518436432
0.3363160789012909 0.4781440794467926 -0.12392126023769379
0.3186945915222168 0.46445614099502563 -0.13138853013515472
0.5900609493255615 0.5856562852859497 -0.08901552855968475
0.6308079957962036 0.47841721773147583 0.08022014796733856
0.5812147259712219 0.6778759360313416 -0.051275745034217834
0.6442886590957642 0.3601072430610657 0.18711340427398682
0.5777575969696045 0.5057052969932556 0.03021719865500927
0.5962224006652832 0.5067988634109497 0.045453134924173355
0.6137596964836121 0.5045522451400757 0.06224903091788292
0.6296721696853638 0.4838885962963104 0.09233734756708145
0.5658077001571655 0.5008335113525391 0.016466686502099037
0.6224744319915771 0.44259870052337646 0.02423420548439026
0.6004949808120728 0.4463995695114136 0.005769303999841213
0.6384850144386292 0.44407325983047485 0.04499255120754242
0.6440873146057129 0.4506186842918396 0.062439993023872375
0.6371171474456787 0.49959731101989746 0.11370225995779037
0.5465953350067139 0.8651955127716064 0.1486988067626953
0.6344150304794312 0.47052377462387085 0.08950881659984589
0.627848207950592 0.4682700037956238 0.24025863409042358
0.6422433257102966 0.47822901606559753 0.14133934676647186
0.6123976707458496 0.6193370223045349 0.04909021407365799
0.5600154995918274 0.7320276498794556 -0.0013966874685138464
0.5432740449905396 0.7538436651229858 0.012644308619201183
0.5726912021636963 0.7299179434776306 0.030503535643219948
0.5741379261016846 0.7322280406951904 0.06551120430231094
0.5531295537948608 0.7489838600158691 0.03714880719780922
0.5570601224899292 0.7473215460777283 0.06622610241174698
0.5681994557380676 0.769924521446228 0.13647060096263885
0.6045310497283936 0.6726251840591431 -0.09302316606044769
0.6105359792709351 0.6493791937828064 -0.10400017350912094
0.6660765409469604 0.4283372461795807 0.0737609788775444
0.5802998542785645 0.5579638481140137 0.0014128239126875997
0.6078828573226929 0.6456838250160217 -0.015895601361989975
0.6034895181655884 0.6302146911621094 -0.012065484188497066
0.6482559442520142 0.6038174629211426 0.11346887052059174
0.6022108793258667 0.615791916847229 -0.09919709712266922
0.6551385521888733 0.4167778193950653 -0.005227020476013422
0.6671494841575623 0.4178539514541626 0.03353048488497734
0.6565938591957092 0.3232676684856415 0.11658915877342224
0.5882647037506104 0.4462222456932068 -0.07268644869327545
0.5804541707038879 0.4551432430744171 0.001206590561196208
0.5822033882141113 0.7393976449966431 0.1408577710390091
0.5530499815940857 0.6857563257217407 0.36975857615470886
0.5927852988243103 0.6608911752700806 -0.013537611812353134
0.5785083770751953 0.674633264541626 -0.02599819377064705
0.569338321685791 0.7444177269935608 0.13026681542396545
0.5599724054336548 0.7469502091407776 0.11767373234033585
0.6713566780090332 0.39846161007881165 0.0438157357275486
0.5983604788780212 0.6535712480545044 -0.0018177219899371266
0.6306596994400024 0.42490026354789734 -0.041494887322187424
0.6382483839988708 0.40336084365844727 -0.05174778774380684
0.642266035079956 0.2759283185005188 -0.03664848953485489
0.6654460430145264 0.3607441782951355 0.07471306622028351
0.6409101486206055 0.33809593319892883 -0.047084271907806396
0.6678603887557983 0.4128738045692444 0.09410358965396881
0.6578187942504883 0.3890075087547302 0.13580039143562317
0.553028404712677 0.7448678612709045 0.0043595279566943645
0.5635862350463867 0.741519570350647 0.034274376928806305
0.5667279362678528 0.7398204803466797 0.06427672505378723
0.5857933759689331 0.6667130589485168 -0.013970011845231056
0.5653009414672852 0.746035099029541 0.12309877574443817
0.563755214214325 0.7645318508148193 0.1094168871641159
0.5553790926933289 0.7466074228286743 0.11598145961761475
0.6033850908279419 0.6606453061103821 -0.04806621000170708
0.548189640045166 0.746080219745636 0.06769884377717972
0.5431493520736694 0.749841570854187 0.04385176673531532
0.5335330963134766 0.7552527189254761 0.022497529163956642
0.530104398727417 0.8500767946243286 0.08377749472856522
0.5430670380592346 0.8339061737060547 0.05696001276373863
0.5450249910354614 0.8198886513710022 0.0485641285777092
0.542755126953125 0.805561900138855 0.046859994530677795
0.537983775138855 0.795233964920044 0.0460507869720459
0.5517641305923462 0.7741606831550598 0.08499877154827118
0.5567982792854309 0.777406632900238 0.08459924906492233
0.5620121955871582 0.7828494310379028 0.08784890919923782
0.564126193523407 0.7891930341720581 0.09786298125982285
0.5918903350830078 0.7084296941757202 0.07058081030845642
0.5711631774902344 0.5594019293785095 0.368154376745224
0.5525904297828674 0.7637350559234619 0.10475323349237442
0.5592054128646851 0.763762891292572 0.10553815960884094
0.5698550939559937 0.6867387890815735 -0.020909547805786133
0.5861222743988037 0.6684367656707764 0.011401509866118431
0.5748071670532227 0.6813205480575562 -0.025094108656048775
0.5920863151550293 0.5679722428321838 0.027660677209496498
0.6182936429977417 0.5819091796875 0.05713061988353729
0.59819495677948 0.638218104839325 0.004203333519399166
0.6583139300346375 0.2944453954696655 0.04022252559661865
0.6607179641723633 0.34256845712661743 0.014247089624404907
0.6615500450134277 0.39422017335891724 -0.004418734926730394
0.5598109364509583 0.7994909286499023 0.12471901625394821
0.60257488489151 0.4149724245071411 -0.08859232068061829
0.6071724891662598 0.3382813036441803 -0.09522038698196411
0.6080821752548218 0.2660965919494629 -0.09958487004041672
0.6249719858169556 0.4963761270046234 0.08001922816038132
0.6453348994255066 0.5143944621086121 0.14294137060642242
0.5601950883865356 0.49617263674736023 0.010963767766952515
0.6481064558029175 0.4553435146808624 0.09305056929588318
0.5745960474014282 0.5466578602790833 -0.018869057297706604
0.6129518747329712 0.6438388228416443 -0.04627604782581329
0.6473051905632019 0.5257055759429932 0.18875449895858765
0.6468111276626587 0.5362765192985535 0.12410137802362442
0.6362131834030151 0.5511212944984436 0.09097108244895935
0.607619047164917 0.5513063669204712 0.05748605728149414
0.5846923589706421 0.5430603623390198 0.03204754739999771
0.5723033547401428 0.534976065158844 0.008089939132332802
0.5694063901901245 0.5237180590629578 -0.07299163192510605
0.6525600552558899 0.578784704208374 0.20074519515037537
0.6538658738136292 0.4493657946586609 0.10996522754430771
0.5884544849395752 0.6841589212417603 -0.08205915987491608
0.5854319334030151 0.586854100227356 0.0005923954886384308
0.5967666506767273 0.4523457884788513 0.3132060766220093
0.5653011798858643 0.5261008143424988 -0.009827161207795143
0.5900949835777283 0.6357342600822449 0.02513548731803894
0.6359912157058716 0.46882230043411255 0.09865815192461014
0.6060817241668701 0.6246830224990845 -0.04278234764933586
0.5638010501861572 0.6191203594207764 0.3749912679195404
0.5596720576286316 0.4872213304042816 0.01446767058223486
0.6063898801803589 0.6185058355331421 -0.07451247423887253
0.5726279020309448 0.7744953632354736 0.25329160690307617
0.5453973412513733 0.7946161031723022 0.2978686988353729
0.6212031841278076 0.5718066096305847 0.28925177454948425
0.5855942368507385 0.7325103878974915 0.281694620847702
0.643251895904541 0.424619197845459 0.19349059462547302
0.5406062006950378 0.8883336782455444 0.17224611341953278
0.5730094909667969 0.6868947148323059 -0.05450890213251114
0.5930860638618469 0.6008555293083191 0.023647017776966095
0.6410415768623352 0.47833675146102905 0.17508243024349213
0.6161971092224121 0.4908859133720398 0.058272916823625565
0.5992168188095093 0.4940755367279053 0.04356573894619942
0.5663561820983887 0.765194296836853 0.11724455654621124
0.6422241926193237 0.6274686455726624 0.22193290293216705
0.5095369815826416 0.9319143295288086 0.16681431233882904
0.5329328775405884 0.8733768463134766 0.23135210573673248
0.5368949174880981 0.8390618562698364 0.2614983320236206
0.5826395750045776 0.49269646406173706 0.03027333877980709
0.5689114332199097 0.4887438416481018 0.02230743132531643
0.5616926550865173 0.4875227212905884 0.018876051530241966
0.6534620523452759 0.44011250138282776 0.1369398683309555
0.5745978951454163 0.470801442861557 0.014825588092207909
0.590450644493103 0.46395066380500793 0.019849419593811035
0.6096357703208923 0.4612177014350891 0.03228425234556198
0.6253259778022766 0.4628193974494934 0.04925373196601868
0.6319191455841064 0.4668586254119873 0.06352972239255905
0.6249488592147827 0.40068745613098145 0.2542681097984314
0.6257258653640747 0.4850478768348694 0.07118676602840424
0.5871841311454773 0.7002692818641663 0.038126152008771896
0.5991863012313843 0.6586731672286987 -0.026224926114082336
0.5663955807685852 0.7038280963897705 -0.007705300115048885
0.55790114402771 0.814685046672821 0.23018832504749298
0.5476999878883362 0.8502646684646606 0.20347589254379272
0.5234948992729187 0.9188002347946167 0.1376582235097885
0.5481534600257874 0.7458706498146057 0.3393566906452179
0.5653121471405029 0.48092716932296753 0.014058377593755722
0.5831883549690247 0.5650920867919922 -0.055532075464725494
0.5266061425209045 0.9057552814483643 0.198577418923378
0.6114243268966675 0.6259196996688843 0.30040207505226135
0.5479231476783752 0.7857736945152283 0.06587003171443939
0.5530007481575012 0.792600154876709 0.06676002591848373
0.556989848613739 0.8027836084365845 0.07047741860151291
0.5575577020645142 0.8153347969055176 0.08002140372991562
0.548566460609436 0.8277823328971863 0.10669241845607758
0.5587077140808105 0.745320737361908 0.09454157203435898
0.5666027069091797 0.7408005595207214 0.09862304478883743
0.5727425813674927 0.7352041006088257 0.10068270564079285
0.5906328558921814 0.7206873297691345 0.10742923617362976
0.6405132412910461 0.6516836881637573 0.16502468287944794
0.5716229677200317 0.5342329144477844 -0.04504479840397835
0.5610902309417725 0.4751007854938507 -0.021894317120313644
0.5633318424224854 0.47344955801963806 -0.0010698930127546191
0.5511757135391235 0.7434302568435669 0.09432467818260193
0.6111873388290405 0.7051895260810852 0.2219999134540558
0.5627586841583252 0.48200029134750366 -0.06095046550035477
0.5449240207672119 0.843039333820343 0.12799440324306488
0.5803146362304688 0.556921124458313 -0.08546196669340134
0.5925941467285156 0.6009501814842224 -0.03545382246375084
0.5277255773544312 0.8700339794158936 0.101497121155262
0.5717645883560181 0.7750548720359802 0.16014406085014343
0.598067045211792 0.6536068916320801 0.049051180481910706
0.5574772357940674 0.8104848861694336 0.14780382812023163
0.6311954259872437 0.6447375416755676 0.08684247732162476
0.6068729162216187 0.6761666536331177 0.07857819646596909
0.626584529876709 0.678204357624054 0.13142400979995728
0.5293524265289307 0.8965630531311035 0.11781210452318192
0.5910377502441406 0.6085498929023743 -0.007982015609741211
0.5717433094978333 0.7905095219612122 0.19415923953056335
0.5557207465171814 0.8280473351478577 0.17537996172904968
0.5902407765388489 0.7401978373527527 0.1602538675069809
0.6241247653961182 0.6687410473823547 0.24061524868011475
0.5970322489738464 0.7395070791244507 0.19159181416034698
0.5976731777191162 0.678429365158081 0.3053196370601654
0.6050879955291748 0.7012316584587097 0.11318499594926834
0.5838889479637146 0.575502872467041 -0.025531869381666183
0.6099478006362915 0.6560906171798706 -0.05146969109773636
0.6049379110336304 0.6554872989654541 -0.021955708041787148
0.6143970489501953 0.6460687518119812 -0.07433134317398071
0.580905556678772 0.453691303730011 -0.02225804328918457
0.6127301454544067 0.4387969672679901 -0.00978940725326538
0.6377565860748291 0.43415117263793945 0.010653366334736347
0.6529898643493652 0.4356158971786499 0.03915441036224365
0.6559238433837891 0.4423145651817322 0.06507997214794159
0.638533353805542 0.4740353524684906 0.11486736685037613
0.6250245571136475 0.5195633769035339 0.26987597346305847
0.6341487765312195 0.5130676627159119 0.10072826594114304
0.6218384504318237 0.5243757963180542 0.0774574801325798
0.6000910401344299 0.5267961025238037 0.05368528142571449
0.5790119767189026 0.5224065780639648 0.032318178564310074
0.5665926933288574 0.5161740779876709 0.013256942853331566
0.559914231300354 0.5114386677742004 0.00043687145807780325
0.578596293926239 0.5044586658477783 0.34833940863609314
0.5965453386306763 0.6597958207130432 -0.01094126421958208
0.5943666696548462 0.591912567615509 -0.062023766338825226
0.6102750301361084 0.6643841862678528 -0.07574005424976349
0.5909032821655273 0.6759396195411682 -0.0710739716887474
0.6025004386901855 0.6654906868934631 -0.06470603495836258
0.5872629880905151 0.6677663922309875 -0.006097229663282633
0.5914283394813538 0.6807214021682739 -0.07770375907421112
0.5779051780700684 0.6833308339118958 -0.052876830101013184
0.5571520328521729 0.4900362491607666 0.004018185660243034
0.5554434061050415 0.5004866719245911 -0.016250262036919594
0.5605460405349731 0.5098927021026611 -0.03273864835500717
0.634278416633606 0.469411700963974 0.07559191435575485
0.6433607339859009 0.4575168490409851 0.08135542273521423
