ply
format ascii 1.0
element vertex 468
property float x
property float y
property float z
end_header
0.4650610387325287 0.7107990384101868 -0.07065992802381516
0.45164626836776733 0.6211348176002502 -0.11123791337013245
0.46808603405952454 0.6501227617263794 -0.06254453957080841
0.4479134678840637 0.5391280651092529 -0.06840325146913528
0.4506687521934509 0.5948333144187927 -0.11614801734685898
0.45670294761657715 0.5621889233589172 -0.10470334440469742
0.47683635354042053 0.4835798740386963 -0.04183158278465271
0.3677276074886322 0.47886383533477783 0.09512383490800858
0.4813043177127838 0.4381796717643738 -0.022956348955631256
0.480027437210083 0.4082905650138855 -0.023459417745471
0.49046096205711365 0.27806082367897034 0.01666407100856304
0.46557682752609253 0.724158525466919 -0.06909354031085968
0.4680928587913513 0.7349429726600647 -0.06288139522075653
0.4715680181980133 0.7402322888374329 -0.05423305556178093
0.4705694913864136 0.7494847774505615 -0.054413262754678726
0.4687042832374573 0.7602365016937256 -0.05902358517050743
0.46783241629600525 0.7743961811065674 -0.0645233690738678
0.469046413898468 0.7899728417396545 -0.0628412663936615
0.47542402148246765 0.8157387971878052 -0.04456346482038498
0.4565896689891815 0.6351268887519836 -0.10204427689313889
0.4443661570549011 0.6344476938247681 -0.06858806312084198
0.33108893036842346 0.4003681540489197 0.22949150204658508
0.4200253486633301 0.498405396938324 0.055300597101449966
0.4011254906654358 0.5010627508163452 0.06227652356028557
0.3832437992095947 0.5011929273605347 0.07292620837688446
0.3635675311088562 0.4892159104347229 0.09885741770267487
0.43530136346817017 0.4921342730522156 0.04908602684736252
0.389973521232605 0.4450802206993103 0.059233278036117554
0.4105849862098694 0.44533300399780273 0.051091790199279785
0.3728882670402527 0.44906020164489746 0.07091549038887024
0.36293068528175354 0.45641028881073 0.082679882645607
0.3493700623512268 0.5080808997154236 0.11093157529830933
0.4063374996185303 0.8524570465087891 -0.0019426326034590602
0.3625905513763428 0.47379377484321594 0.10370144993066788
0.3215551972389221 0.503258228302002 0.22649498283863068
0.3345566987991333 0.49557578563690186 0.14038152992725372
0.3897068500518799 0.6046614050865173 0.021442754194140434
0.4422633647918701 0.7067309617996216 -0.05902200937271118
0.449989914894104 0.7351937294006348 -0.052433501929044724
0.4215667247772217 0.7159592509269714 -0.039025913923978806
0.41079145669937134 0.7299079298973083 -0.018841810524463654
0.43570682406425476 0.737594485282898 -0.037266943603754044
0.425455242395401 0.7429662346839905 -0.018770482391119003
0.39407792687416077 0.7727643251419067 0.013465650379657745
0.43560099601745605 0.6203036904335022 -0.10485590249300003
0.4322749972343445 0.5955169200897217 -0.10816122591495514
0.3379232585430145 0.44553643465042114 0.09767057001590729
0.42992550134658813 0.5394742488861084 0.012932226993143559
0.4050215482711792 0.6143555045127869 -0.03624574840068817
0.407795786857605 0.6012022495269775 -0.02784411795437336
0.34383702278137207 0.6042832136154175 0.06761298328638077
0.4392775595188141 0.5649280548095703 -0.09110640734434128
0.3725818991661072 0.42382413148880005 0.04286189004778862
0.35022270679473877 0.43071407079696655 0.06840711086988449
0.3396099805831909 0.35705748200416565 0.18536461889743805
0.44778501987457275 0.4377725124359131 -0.0024255968164652586
0.4297739863395691 0.4503670632839203 0.05139884725213051
0.38113731145858765 0.7498578429222107 0.027818389236927032
0.3407639265060425 0.7404698729515076 0.24287013709545135
0.4202895760536194 0.6291218400001526 -0.03403080627322197
0.43646788597106934 0.6380629539489746 -0.047878447920084
0.4015966057777405 0.7533442974090576 0.02040727250277996
0.4118413031101227 0.7519182562828064 0.010900451801717281
0.34396645426750183 0.4170973598957062 0.08533322811126709
0.40855756402015686 0.626439094543457 -0.026688089594244957
0.404582142829895 0.42517948150634766 0.019355513155460358
0.3998359441757202 0.40611565113067627 0.018907571211457253
0.3918248116970062 0.2970174551010132 0.08238012343645096
0.3420836627483368 0.38484662771224976 0.12955375015735626
0.3962517976760864 0.3474414646625519 0.04952346906065941
0.33178186416625977 0.4362778067588806 0.12272880226373672
0.33089765906333923 0.41886621713638306 0.17376309633255005
0.4447978138923645 0.7229213118553162 -0.05804810672998428
0.42863333225250244 0.729049563407898 -0.03963471204042435
0.4174894690513611 0.7368860840797424 -0.021062029525637627
0.4265955984592438 0.6341649889945984 -0.03508678078651428
0.40657132863998413 0.7533955574035645 0.015009787864983082
0.4116438329219818 0.755623996257782 -0.004122158512473106
0.41522324085235596 0.7501355409622192 0.008932719007134438
0.42354869842529297 0.6199032664299011 -0.06398168206214905
0.43223631381988525 0.7423930168151855 -0.01666502095758915
0.442812442779541 0.7399440407752991 -0.03067184053361416
0.45600593090057373 0.7398359775543213 -0.04386921226978302
0.44998079538345337 0.8138067722320557 -0.03667932376265526
0.4457874298095703 0.7873090505599976 -0.053582821041345596
0.4464748501777649 0.7711904048919678 -0.05433656647801399
0.44915229082107544 0.7571009397506714 -0.04820850118994713
0.45274436473846436 0.7485327124595642 -0.04423809051513672
0.4280542731285095 0.749309778213501 -0.01700703240931034
0.4242657423019409 0.7524754405021667 -0.021148910745978355
0.418814480304718 0.7592655420303345 -0.024248534813523293
0.4143335223197937 0.7679416537284851 -0.019497621804475784
0.39637383818626404 0.6995501518249512 -0.005784624721854925
0.3353498578071594 0.6159246563911438 0.29766133427619934
0.46256351470947266 0.6416288018226624 -0.07605057209730148
0.42238813638687134 0.7504985332489014 -0.002284787828102708
0.4169580340385437 0.752149760723114 -0.004575986880809069
0.44289886951446533 0.6499695777893066 -0.05013585835695267
0.41841983795166016 0.6433373689651489 -0.017629612237215042
0.43958306312561035 0.6443567872047424 -0.04968736693263054
0.4125872254371643 0.5546403527259827 0.025281844660639763
0.38335204124450684 0.5729824304580688 0.038285110145807266
0.40790295600891113 0.613219141960144 -0.01665515825152397
0.35830503702163696 0.3219764828681946 0.13278570771217346
0.3633301854133606 0.36063140630722046 0.08952741324901581
0.36740821599960327 0.40539851784706116 0.0533713661134243
0.40834254026412964 0.7873753309249878 -0.003481360850855708
0.4390251338481903 0.4083017110824585 -0.00566984573379159
0.4352749288082123 0.34106603264808655 0.018689287826418877
0.433709979057312 0.2832803428173065 0.04261549562215805
0.36992204189300537 0.49759364128112793 0.08692609518766403
0.331881046295166 0.5270829796791077 0.12775778770446777
0.44476330280303955 0.4855440855026245 0.04999833181500435
0.34770214557647705 0.46669214963912964 0.10664462298154831
0.4415510296821594 0.5231502652168274 0.0020591854117810726
0.4119572937488556 0.6048405170440674 -0.059712864458560944
0.3170219361782074 0.5457800030708313 0.15628671646118164
0.33819425106048584 0.5434647798538208 0.10316886752843857
0.3571861982345581 0.5512970685958862 0.07421459257602692
0.39099958539009094 0.5453012585639954 0.051673609763383865
0.41668233275413513 0.5333795547485352 0.0393090546131134
0.4348883628845215 0.5211765766143799 0.02715965360403061
0.46038004755973816 0.49049365520477295 -0.0266671571880579
0.3139524459838867 0.5976739525794983 0.14389045536518097
0.335568368434906 0.46706515550613403 0.1227036789059639
0.44655269384384155 0.6340229511260986 -0.09720171988010406
0.4255935549736023 0.5638718605041504 0.0019423055928200483
0.33388006687164307 0.5052172541618347 0.29933932423591614
0.4478231370449066 0.5080968141555786 0.020653944462537766
0.41159236431121826 0.6156692504882812 0.004654397256672382
0.3582383990287781 0.4769030511379242 0.10945848375558853
0.41570648550987244 0.5888776779174805 -0.04977564513683319
0.3350185751914978 0.6764270067214966 0.27683547139167786
0.4455249309539795 0.47656702995300293 0.05828055739402771
0.4264165759086609 0.5743749141693115 -0.07379623502492905
0.34525036811828613 0.7967320084571838 0.11022303998470306
0.356708824634552 0.8287979960441589 0.14324206113815308
0.3141157627105713 0.6075630784034729 0.22363047301769257
0.3323882818222046 0.7620420455932617 0.1493503302335739
0.3263624310493469 0.45656973123550415 0.20744381844997406
0.4022420048713684 0.8814297914505005 0.00797743909060955
0.45424121618270874 0.6405272483825684 -0.07227370142936707
0.4115692973136902 0.5835225582122803 0.012823653407394886
0.3250347375869751 0.5016242861747742 0.16799184679985046
0.38422417640686035 0.48560571670532227 0.07668033242225647
0.40110304951667786 0.48694002628326416 0.06668569147586823
0.4067264795303345 0.7605111598968506 0.0010184234706684947
0.3171443045139313 0.6486889719963074 0.14124666154384613
0.43954798579216003 0.9234933853149414 -0.002784731099382043
0.38971757888793945 0.8859830498695374 0.0644582062959671
0.37269824743270874 0.862302839756012 0.09967737644910812
0.48405250906944275 0.33901411294937134 -0.0035950271412730217
0.48511266708374023 0.9324735403060913 -0.023347418755292892
0.41733503341674805 0.48483806848526 0.05963551625609398
0.4322488009929657 0.4806596636772156 0.05800454691052437
0.4413049817085266 0.4783443212509155 0.05913802236318588
0.3285931646823883 0.4642806649208069 0.14958475530147552
0.42998361587524414 0.4609476923942566 0.058646172285079956
0.41368719935417175 0.4551544785499573 0.05946618691086769
0.39619559049606323 0.4538862705230713 0.06585177034139633
0.3797648847103119 0.45819786190986633 0.07534407824277878
0.3705514073371887 0.46480125188827515 0.0852193757891655
0.3296600580215454 0.4464620351791382 0.2708822190761566
0.37411099672317505 0.4824630618095398 0.08703214675188065
0.4683501720428467 0.6696304678916931 -0.06016294285655022
0.409822940826416 0.6817983388900757 -0.020943094044923782
0.4176866412162781 0.6246663331985474 -0.04255887493491173
0.4412617087364197 0.6720589995384216 -0.05058220028877258
0.48270028829574585 0.45953381061553955 -0.023390118032693863
0.3623000979423523 0.8297082185745239 0.07554777711629868
0.38112306594848633 0.8558471202850342 0.04240144044160843
0.4330676198005676 0.9006190896034241 -0.02597776986658573
0.34813567996025085 0.7913713455200195 0.19508056342601776
0.4404461979866028 0.46981990337371826 0.058407723903656006
0.4436379671096802 0.5292713046073914 -0.03153166174888611
0.47785815596580505 0.9087546467781067 -0.04543643072247505
0.41016829013824463 0.9069622755050659 0.027800841256976128
0.31695643067359924 0.6630706191062927 0.21013407409191132
0.43850892782211304 0.7480911612510681 -0.030566062778234482
0.43436169624328613 0.7544875144958496 -0.03492429479956627
0.4301064610481262 0.7649699449539185 -0.038329895585775375
0.42703384160995483 0.7786677479743958 -0.03564998134970665
0.4260105490684509 0.801920473575592 -0.02139163762331009
0.4175143837928772 0.7481484413146973 -0.002442852361127734
0.4101952314376831 0.7460814714431763 -6.378443504218012e-05
0.4039158821105957 0.7419415712356567 0.0025824825279414654
0.38562536239624023 0.7231032252311707 0.013333884999155998
0.3329005837440491 0.6602853536605835 0.08711111545562744
0.4515109658241272 0.5053287148475647 -0.010693899355828762
0.4561520218849182 0.4637607932090759 0.0356585718691349
0.4470047950744629 0.4645669460296631 0.04999775066971779
0.4238826036453247 0.7450780868530273 -0.0016300705028697848
0.333316445350647 0.7233940958976746 0.11154033243656158
0.46342527866363525 0.46407654881477356 0.0011114272056147456
0.41688215732574463 0.8261898756027222 -0.010384662076830864
0.4637228548526764 0.5350091457366943 -0.08242622762918472
0.453332781791687 0.515632688999176 -0.050193656235933304
0.4701851010322571 0.5098249912261963 -0.06101313978433609
0.42824894189834595 0.5682801604270935 -0.030405081808567047
0.474987268447876 0.8776586055755615 -0.0539063923060894
0.47515061497688293 0.843486487865448 -0.049286749213933945
0.4435824155807495 0.8399758338928223 -0.03474164754152298
0.3771127462387085 0.7811086177825928 0.029227551072835922
0.398605078458786 0.6378889083862305 0.011229519732296467
0.39519649744033813 0.8068112730979919 0.009792398661375046
0.36288774013519287 0.636145293712616 0.034594692289829254
0.38275212049484253 0.6654660105705261 0.017020199447870255
0.3500744104385376 0.6790083050727844 0.052596792578697205
0.4351620674133301 0.8718109726905823 -0.03417495638132095
0.4206158220767975 0.5826779007911682 -0.013077819719910622
0.3639056980609894 0.7998329997062683 0.052473075687885284
0.3847796320915222 0.8276633024215698 0.026295365765690804
0.3638501763343811 0.750206708908081 0.04290255159139633
0.3218490481376648 0.6927204132080078 0.1404736340045929
0.34692397713661194 0.7524895668029785 0.07098623365163803
0.3222682476043701 0.7147387266159058 0.18985165655612946
0.37008917331695557 0.7024378180503845 0.02807486429810524
0.43523937463760376 0.5463334321975708 -0.013397667557001114
0.416598916053772 0.6156400442123413 -0.06663521379232407
0.40963780879974365 0.6225649118423462 -0.04303162917494774
0.420360803604126 0.5988086462020874 -0.08443532139062881
0.44078004360198975 0.4483741521835327 0.036920905113220215
0.4090886116027832 0.43894636631011963 0.040965545922517776
0.38268548250198364 0.43785351514816284 0.050452761352062225
0.3622114062309265 0.441744327545166 0.06649212539196014
0.3507552742958069 0.45129263401031494 0.08493912220001221
0.3481731116771698 0.48646533489227295 0.12066098302602768
0.3154556453227997 0.5545037984848022 0.22834093868732452
0.35629191994667053 0.517367959022522 0.096402607858181
0.3720517158508301 0.5232294201850891 0.07563312351703644
0.3959306478500366 0.5215592384338379 0.058677054941654205
0.41963768005371094 0.5145452618598938 0.04929544776678085
0.4371334910392761 0.506025493144989 0.04008496552705765
0.4487416744232178 0.4982234537601471 0.035893190652132034
0.3372972905635834 0.5603585839271545 0.30684521794319153
0.41349077224731445 0.6300740242004395 -0.03351229056715965
0.43654894828796387 0.551199197769165 -0.04941749945282936
0.42492592334747314 0.6165603399276733 -0.08900398761034012
0.43993616104125977 0.6299681663513184 -0.08633778989315033
0.4286765456199646 0.6211694478988647 -0.07893137633800507
0.4213770031929016 0.6384966969490051 -0.03035528026521206
0.4416448473930359 0.6324344277381897 -0.09321636706590652
0.448331356048584 0.6385047435760498 -0.07044323533773422
0.45095616579055786 0.4785008728504181 0.050303954631090164
0.4579726457595825 0.4855291247367859 0.030920470133423805
0.45814138650894165 0.48978477716445923 0.01108906976878643
0.36583539843559265 0.46983790397644043 0.09373951703310013
0.3569186329841614 0.46515196561813354 0.09706609696149826
0.4830451011657715 0.5394793152809143 -0.08224602043628693
0.657109260559082 0.47729721665382385 -0.006957437843084335
0.4862825870513916 0.6360759139060974 -0.07948769629001617
0.7866588234901428 0.3904680609703064 0.07264631986618042
0.5882638096809387 0.4971023499965668 -0.010484321974217892
0.6106226444244385 0.4999614655971527 -0.0169130340218544
0.6342319250106812 0.5007884502410889 -0.01834237575531006
0.6695318818092346 0.48822540044784546 -0.009665093384683132
0.5699772238731384 0.49090147018432617 -0.002535992069169879
0.6162549257278442 0.43688511848449707 -0.02255333587527275
0.5923295021057129 0.437949538230896 -0.013117456808686256
0.6404954195022583 0.4408186674118042 -0.024379245936870575
0.6583858132362366 0.4492136836051941 -0.02046862803399563
0.6919934153556824 0.5083703398704529 -0.005566866137087345
0.5702998042106628 0.8656154870986938 -0.04877404496073723
0.6678426861763 0.47109800577163696 -0.003046675119549036
0.797849178314209 0.5040596127510071 0.06576889753341675
0.726660966873169 0.495186448097229 0.008684886619448662
0.5950249433517456 0.608154296875 -0.0437404029071331
0.49276748299598694 0.7077725529670715 -0.07565745711326599
0.49115845561027527 0.7363321781158447 -0.06713637709617615
0.5250157713890076 0.7195634245872498 -0.07321483641862869
0.5465180277824402 0.7336514592170715 -0.06556453555822372
0.5148741602897644 0.740182638168335 -0.06647361814975739
0.533886194229126 0.7456866502761841 -0.057728469371795654
0.5850710272789001 0.7800865769386292 -0.04578857123851776
0.4714096486568451 0.6210750937461853 -0.11403164267539978
0.4736628234386444 0.5961553454399109 -0.11890584975481033
0.6953274011611938 0.4361621141433716 -0.025097254663705826
0.5530538558959961 0.5403295159339905 -0.030168261379003525
0.5438323616981506 0.6179096102714539 -0.07688621431589127
0.5480557084083557 0.6045190691947937 -0.06966898590326309
0.6711687445640564 0.6095882654190063 -0.04128481075167656
0.4776857793331146 0.5653637647628784 -0.10478441417217255
0.6229837536811829 0.41018497943878174 -0.04102569818496704
0.6627446413040161 0.4185711443424225 -0.03718452900648117
0.7456302642822266 0.34369993209838867 0.04437001049518585
0.521680474281311 0.43174830079078674 -0.029077861458063126
0.5727441310882568 0.44495779275894165 -0.0008393297321163118
0.602472722530365 0.7568397521972656 -0.044769130647182465
0.7980115413665771 0.7612464427947998 0.09605305641889572
0.5278986096382141 0.6323361992835999 -0.06464235484600067
0.5081306099891663 0.6404744982719421 -0.06300176680088043
0.5730535984039307 0.7570374011993408 -0.041913021355867386
0.5638728141784668 0.7553110718727112 -0.04348351061344147
0.6789942383766174 0.40366753935813904 -0.02771831676363945
0.54847252368927 0.630467414855957 -0.06618492305278778
0.5750501155853271 0.4135565459728241 -0.037904467433691025
0.5788577795028687 0.3934990167617798 -0.04052882641553879
0.6225464344024658 0.2855202555656433 0.002217713510617614
0.7099477648735046 0.37194928526878357 0.003830381203442812
0.5968773365020752 0.33608701825141907 -0.019716361537575722
0.716022789478302 0.4266813397407532 -0.009472152218222618
0.7502705454826355 0.4096750020980835 0.03063613921403885
0.49150368571281433 0.724199652671814 -0.07434305548667908
0.5183020830154419 0.7320483326911926 -0.0710277184844017
0.5390759706497192 0.7401672601699829 -0.0635073184967041
0.5231594443321228 0.6374799013137817 -0.05982618033885956
0.5676558017730713 0.7566714286804199 -0.04265649989247322
0.556117594242096 0.7589740753173828 -0.052250511944293976
0.563122034072876 0.7537170052528381 -0.04393993318080902
0.5076608657836914 0.6223146319389343 -0.09199196845293045
0.5326681137084961 0.744610071182251 -0.053323518484830856
0.5136775374412537 0.7419825792312622 -0.05751953274011612
0.49230271577835083 0.7405890822410583 -0.059013597667217255
0.5053872466087341 0.8170510530471802 -0.051114633679389954
0.496857225894928 0.7894386053085327 -0.06925991922616959
0.4936458170413971 0.7729911208152771 -0.0705975815653801
0.49249014258384705 0.7586919069290161 -0.06442806124687195
0.4923723638057709 0.7498854994773865 -0.059439875185489655
0.5344994068145752 0.7520291805267334 -0.05394086614251137
0.5367236137390137 0.755448579788208 -0.058106835931539536
0.5410060882568359 0.7629227042198181 -0.06199943274259567
0.5463120937347412 0.7721209526062012 -0.06054915487766266
0.5698657631874084 0.7046337127685547 -0.06004565581679344
0.8298813104629517 0.626603364944458 0.13353079557418823
0.5484309196472168 0.7537517547607422 -0.0481807217001915
0.5511974692344666 0.7553400993347168 -0.05097086355090141
0.49896883964538574 0.6522193551063538 -0.06482529640197754
0.5424296259880066 0.6472111344337463 -0.049104269593954086
0.5033506751060486 0.6466328501701355 -0.06425213068723679
0.5772461891174316 0.556114137172699 -0.03180189058184624
0.612737238407135 0.5754153728485107 -0.038940075784921646
0.5546794533729553 0.6168094873428345 -0.059798553586006165
0.6917567849159241 0.3077077269554138 0.018315475434064865
0.6601510047912598 0.34645357728004456 -0.011667538434267044
0.6320125460624695 0.39059939980506897 -0.03569961339235306
0.563738226890564 0.7948057055473328 -0.052287377417087555
0.5269604921340942 0.4002723693847656 -0.03547230362892151
0.5413298606872559 0.33511537313461304 -0.017354128882288933
0.558079719543457 0.2770329415798187 0.002268523443490267
0.6562235951423645 0.4971447288990021 -0.01500548142939806
0.7215863466262817 0.5294367074966431 -0.0023385114036500454
0.5581649541854858 0.48454684019088745 0.004099754616618156
0.6899769306182861 0.4619286060333252 -0.012355242855846882
0.5352720022201538 0.5234367847442627 -0.0323839969933033
0.5226820111274719 0.6073254346847534 -0.09270799905061722
0.756727933883667 0.549907922744751 0.00908836629241705
0.6972621083259583 0.5460575819015503 -0.018825918436050415
0.6593535542488098 0.5535649061203003 -0.028843287378549576
0.6122519373893738 0.5464649796485901 -0.026444215327501297
0.5809699296951294 0.5338191390037537 -0.019716760143637657
0.5575428605079651 0.5213898420333862 -0.017400169745087624
0.49890509247779846 0.49016332626342773 -0.04129943251609802
0.7493521571159363 0.6054185032844543 -0.002495723543688655
0.7141068577766418 0.4625672399997711 -0.007835401222109795
0.4684467911720276 0.6346464157104492 -0.10434914380311966
0.5482923984527588 0.5655971765518188 -0.03917519003152847
0.8287686109542847 0.5053976774215698 0.1306939274072647
0.5387076735496521 0.507731556892395 -0.013921943493187428
0.5605231523513794 0.6192945837974548 -0.037917330861091614
0.6781577467918396 0.47410035133361816 -0.002894234610721469
0.5278034806251526 0.5910796523094177 -0.08336750417947769
0.8216245174407959 0.6924713850021362 0.11909037083387375
0.5608015656471252 0.47548431158065796 0.010174141265451908
0.5019484758377075 0.5754493474960327 -0.09839119017124176
0.7033306360244751 0.8182470798492432 0.0020101561676710844
0.7188294529914856 0.8537105917930603 0.032502468675374985
0.8005294799804688 0.6173162460327148 0.06336181610822678
0.7427753806114197 0.782799243927002 0.021215301007032394
0.7767041921615601 0.45188969373703003 0.05393044278025627
0.5809555649757385 0.8970589637756348 -0.04321891814470291
0.4719454050064087 0.6409987807273865 -0.07678289711475372
0.569591224193573 0.5859416723251343 -0.03809455782175064
0.7554643154144287 0.5021143555641174 0.022960085421800613
0.6303011178970337 0.48420342803001404 -0.012801987119019032
0.6096382141113281 0.48507159948349 -0.012601758353412151
0.5626882910728455 0.7644479274749756 -0.0508517324924469
0.7467844486236572 0.6598179340362549 0.0003714131598826498
0.5378856062889099 0.9330941438674927 -0.030827263370156288
0.628166675567627 0.9071277379989624 -0.006774757988750935
0.6700225472450256 0.8861820697784424 0.009829907678067684
0.5917454957962036 0.4828150272369385 -0.007630269043147564
0.5754797458648682 0.4789571464061737 2.453608249197714e-05
0.5653576254844666 0.4771885871887207 0.0072408984415233135
0.7395099401473999 0.4597019553184509 0.009321743622422218
0.5791903138160706 0.45829665660858154 -0.0006772294291295111
0.5981000661849976 0.45141100883483887 -0.009319394826889038
0.6171093583106995 0.4499838352203369 -0.014487813226878643
0.6373884677886963 0.45410069823265076 -0.015802480280399323
0.6510540246963501 0.4610455632209778 -0.012643028981983662
0.8132694959640503 0.44089287519454956 0.1059582382440567
0.6454226970672607 0.48132413625717163 -0.010237472131848335
0.5489336848258972 0.6861753463745117 -0.06247495114803314
0.5260467529296875 0.6276921629905701 -0.07136974483728409
0.49977099895477295 0.6737575531005859 -0.06782286614179611
0.663421630859375 0.851243257522583 -0.011878791265189648
0.6246225237846375 0.8757287859916687 -0.026419099420309067
0.5313119292259216 0.909975528717041 -0.05340755358338356
0.7609851360321045 0.8150618076324463 0.06408084183931351
0.5660536289215088 0.4686214327812195 0.005216248333454132
0.5103449821472168 0.5298012495040894 -0.05498671159148216
0.5839406847953796 0.92333984375 -0.02443424053490162
0.7940685153007507 0.6775382161140442 0.056646715849637985
0.5142914056777954 0.7503975629806519 -0.05813620984554291
0.5163690447807312 0.7571324110031128 -0.06342381983995438
0.5195196270942688 0.768000602722168 -0.06803546845912933
0.5233597159385681 0.7825905084609985 -0.06663529574871063
0.537386953830719 0.8079096078872681 -0.05645906925201416
0.5517297387123108 0.7509623765945435 -0.05108392983675003
0.557019829750061 0.7491145133972168 -0.05385781452059746
0.5639585852622986 0.7453898787498474 -0.05483083054423332
0.5888818502426147 0.7291733026504517 -0.054128095507621765
0.6980605721473694 0.6698621511459351 -0.030930625274777412
0.5165749788284302 0.5051366090774536 -0.03493967279791832
0.536296546459198 0.4611636996269226 0.004918077494949102
0.554154098033905 0.46201950311660767 0.006266461219638586
0.549045741558075 0.7478805780410767 -0.04775801673531532
0.7130246758460999 0.7385708093643188 -0.008517376147210598
0.511688232421875 0.4623245596885681 -0.016609370708465576
0.5552831888198853 0.8357635736465454 -0.050193026661872864
0.4911710321903229 0.515697717666626 -0.06262807548046112
0.5260763764381409 0.5697686672210693 -0.061010949313640594
0.5144733786582947 0.8454701900482178 -0.05400857329368591
0.6152082085609436 0.7934139966964722 -0.04041313752532005
0.5789118409156799 0.6423187255859375 -0.04193796589970589
0.588568389415741 0.8188613653182983 -0.045127034187316895
0.6310000419616699 0.6417503356933594 -0.04917919263243675
0.5977016091346741 0.6712741255760193 -0.049060966819524765
0.6564789414405823 0.6878901720046997 -0.042782511562108994
0.5234954953193665 0.8790535926818848 -0.060012541711330414
0.5449740886688232 0.5848209857940674 -0.05143587663769722
0.6445047855377197 0.8169934153556824 -0.029058458283543587
0.6087892651557922 0.8439658880233765 -0.03612136468291283
0.6329649090766907 0.7611005306243896 -0.04152915999293327
0.7435237169265747 0.7071050405502319 0.005909538362175226
0.6736238598823547 0.767429530620575 -0.028282059356570244
0.7782184481620789 0.7331951260566711 0.04506126791238785
0.6172093152999878 0.7099075317382812 -0.0496644526720047
0.5291647911071777 0.5471627712249756 -0.046394042670726776
0.5141830444335938 0.6183684468269348 -0.09662585705518723
0.5359176397323608 0.6261942982673645 -0.07716869562864304
0.49856552481651306 0.6006250977516174 -0.10912337899208069
0.5494682192802429 0.4434646666049957 -0.005667732562869787
0.5840775370597839 0.4307206869125366 -0.020512619987130165
0.6169060468673706 0.4276684522628784 -0.03007136844098568
0.6477146148681641 0.43191343545913696 -0.03214118257164955
0.6728242635726929 0.4431295394897461 -0.026253223419189453
0.6988785266876221 0.4849323034286499 3.8540885725524276e-05
0.8027700185775757 0.5595670938491821 0.06401482224464417
0.674679160118103 0.5179506540298462 -0.01259461510926485
0.6464048624038696 0.5239114761352539 -0.019269365817308426
0.6135114431381226 0.5216500163078308 -0.019207583740353584
0.5849047899246216 0.5141780972480774 -0.011950064450502396
0.5633893609046936 0.5056104063987732 -0.006139570847153664
0.5476456880569458 0.49755603075027466 -0.001694626989774406
0.8308737277984619 0.5658566355705261 0.1387481540441513
0.538152813911438 0.633721649646759 -0.06714872270822525
0.5040162801742554 0.5520702004432678 -0.07325756549835205
0.49170559644699097 0.6183499097824097 -0.10807321220636368
0.4834763705730438 0.631568193435669 -0.09749740362167358
0.49542415142059326 0.6233348846435547 -0.09869922697544098
0.5333266258239746 0.6420974731445312 -0.058553434908390045
0.47689369320869446 0.6333150267601013 -0.10248471051454544
0.4802802801132202 0.6397860050201416 -0.07807901501655579
0.5505271553993225 0.47712284326553345 0.010297215543687344
0.5350432991981506 0.48439642786979675 0.0017290025716647506
0.5243697166442871 0.48894137144088745 -0.013187741860747337
0.6597689390182495 0.46655794978141785 -0.008906880393624306
0.6737574934959412 0.4601150155067444 -0.012545419856905937
