ply
format ascii 1.0
element vertex 468
property float x
property float y
property float z
end_header
0.5693389177322388 0.7094918489456177 -0.05993910878896713
0.6110779047012329 0.6149588823318481 -0.08916731923818588
0.5672807097434998 0.6467549800872803 -0.05175207555294037
0.5701528787612915 0.5397694706916809 -0.0750214159488678
0.614721417427063 0.5899941325187683 -0.09244340658187866
0.6031066179275513 0.5605188012123108 -0.08251087367534637
0.5614676475524902 0.4891805648803711 -0.029648076742887497
0.3640432357788086 0.47344136238098145 -0.0830015018582344
0.5511184334754944 0.43128645420074463 -0.011896307580173016
0.5550707578659058 0.3993533253669739 -0.011167279444634914
0.5391727685928345 0.291355699300766 0.020270023494958878
0.5669119954109192 0.7226587533950806 -0.0587124265730381
0.5606479048728943 0.73350590467453 -0.05376802012324333
0.5525216460227966 0.7390285730361938 -0.04676089435815811
0.5526818633079529 0.747991681098938 -0.04567301273345947
0.5559390783309937 0.7590264081954956 -0.04870200157165527
0.5566958785057068 0.7728613615036011 -0.052595581859350204
0.5526928901672363 0.7877119779586792 -0.050709258764982224
0.5350816249847412 0.810145378112793 -0.036871861666440964
0.5980443358421326 0.629576563835144 -0.08179602026939392
0.5630813837051392 0.6314892768859863 -0.0725359320640564
0.1960175782442093 0.36999523639678955 -0.05607838183641434
0.43291884660720825 0.4994829297065735 -0.0595698207616806
0.4115098714828491 0.5005613565444946 -0.07368406653404236
0.3874838054180145 0.4986765384674072 -0.08330036699771881
0.3465798497200012 0.4812009930610657 -0.08844815939664841
0.45017844438552856 0.4935559630393982 -0.04106495529413223
0.41467970609664917 0.4262355864048004 -0.08020655810832977
0.4375661611557007 0.43047064542770386 -0.059296030551195145
0.38812193274497986 0.4276323914527893 -0.09011942148208618
0.3660939037799835 0.43581509590148926 -0.09329178184270859
0.32193824648857117 0.49907928705215454 -0.09105180203914642
0.4360203742980957 0.8518030643463135 -0.07738704234361649
0.3511781394481659 0.4650730490684509 -0.08280831575393677
0.18435245752334595 0.48298802971839905 -0.06656278669834137
0.28259843587875366 0.47949689626693726 -0.08959457278251648
0.4349091947078705 0.6031436920166016 -0.08608207106590271
0.5459412932395935 0.7052449584007263 -0.07585583627223969
0.539919376373291 0.734052300453186 -0.06782595813274384
0.5105602145195007 0.7159225344657898 -0.0868171975016594
0.4829808175563812 0.727564811706543 -0.09048596769571304
0.513482391834259 0.7369327545166016 -0.07785167545080185
0.4906957149505615 0.740464448928833 -0.07886220514774323
0.4264845848083496 0.7705388069152832 -0.08566096425056458
0.5935809016227722 0.6142202019691467 -0.09787901490926743
0.5940333008766174 0.5903593301773071 -0.1027749553322792
0.3279435932636261 0.41112852096557617 -0.10826874524354935
0.4756236970424652 0.5409716963768005 -0.055045731365680695
0.505571186542511 0.6139805316925049 -0.09245205670595169
0.49720585346221924 0.6008785963058472 -0.08792708814144135
0.34900328516960144 0.6007382869720459 -0.11557331681251526
0.5833688974380493 0.5626882910728455 -0.09306081384420395
0.41216880083084106 0.3867817223072052 -0.09138818830251694
0.3684353232383728 0.39331674575805664 -0.10401938855648041
0.2571524977684021 0.3266470432281494 -0.06562753021717072
0.5103551745414734 0.41907674074172974 -0.039587996900081635
0.4539896249771118 0.44090449810028076 -0.040622130036354065
0.41249901056289673 0.7467923164367676 -0.09544219821691513
0.14369647204875946 0.7381725907325745 -0.03454999253153801
0.5177979469299316 0.6290427446365356 -0.0760519951581955
0.5352602601051331 0.6375983953475952 -0.061848025768995285
0.44129687547683716 0.7479135394096375 -0.08535968512296677
0.449779748916626 0.7467544078826904 -0.08044854551553726
0.349462628364563 0.37647098302841187 -0.10239773988723755
0.49402564764022827 0.6269206404685974 -0.08354335278272629
0.459502637386322 0.39383816719055176 -0.06977593153715134
0.45875054597854614 0.3738623857498169 -0.07283812016248703
0.4093450605869293 0.28200578689575195 -0.05524882301688194
0.30688557028770447 0.3521590828895569 -0.08724764734506607
0.439852774143219 0.3270552158355713 -0.06394203752279282
0.30147844552993774 0.4003969728946686 -0.10229577869176865
0.25172266364097595 0.387266606092453 -0.07971389591693878
0.5443072319030762 0.721679151058197 -0.0745450109243393
0.5150285363197327 0.7284707427024841 -0.08345145732164383
0.48904529213905334 0.7344225645065308 -0.08554032444953918
0.5197547674179077 0.6349412798881531 -0.06686901301145554
0.44673293828964233 0.7477892637252808 -0.0820298045873642
0.4605221450328827 0.7509149312973022 -0.08171702921390533
0.45020222663879395 0.7454612255096436 -0.07908458262681961
0.5482757091522217 0.6176698207855225 -0.09461504966020584
0.4875098764896393 0.7396272420883179 -0.07400459796190262
0.509777307510376 0.7388870120048523 -0.06991589814424515
0.5330564379692078 0.7383219599723816 -0.06175004690885544
0.507152259349823 0.8100826740264893 -0.05311424285173416
0.5263739824295044 0.7857062220573425 -0.06795370578765869
0.5320148468017578 0.7701120376586914 -0.06935050338506699
0.533337414264679 0.7560498714447021 -0.06534145027399063
0.5317680835723877 0.7471192479133606 -0.06081390008330345
0.4837835133075714 0.7459936141967773 -0.07351838797330856
0.48269858956336975 0.7493249773979187 -0.07661612331867218
0.47863224148750305 0.7560670375823975 -0.08108582347631454
0.47249794006347656 0.7649164795875549 -0.08269375562667847
0.46063101291656494 0.6977485418319702 -0.0915006473660469
0.11296528577804565 0.601718544960022 -0.015852030366659164
0.5825269222259521 0.637000322341919 -0.0621151477098465
0.46644943952560425 0.7463139295578003 -0.07647999376058578
0.46525514125823975 0.7479102611541748 -0.07941072434186935
0.5415141582489014 0.6488713622093201 -0.06408192217350006
0.49376964569091797 0.6443647146224976 -0.06474858522415161
0.5388907194137573 0.6435741782188416 -0.06291823089122772
0.44934940338134766 0.5549254417419434 -0.06807566434144974
0.41391730308532715 0.5712154507637024 -0.08878922462463379
0.4856520891189575 0.6133078336715698 -0.08126366883516312
0.3277553915977478 0.2963048815727234 -0.06708834320306778
0.36807069182395935 0.33062195777893066 -0.08116038143634796
0.4030507802963257 0.36728647351264954 -0.09201251715421677
0.44899845123291016 0.7866963148117065 -0.0816931203007698
0.510417640209198 0.38650044798851013 -0.046270743012428284
0.49736130237579346 0.3342713415622711 -0.035931095480918884
0.4772533178329468 0.28174927830696106 -0.024377955123782158
0.3625139892101288 0.49231016635894775 -0.0881769135594368
0.2896159291267395 0.5171768665313721 -0.0985795110464096
0.4618721604347229 0.4867715835571289 -0.0318937823176384
0.32803526520729065 0.4462222456932068 -0.09717459231615067
0.49612775444984436 0.5252664089202881 -0.049966126680374146
0.5343806147575378 0.602047324180603 -0.09879717975854874
0.2453557252883911 0.5340834856033325 -0.10303717106580734
0.3191254734992981 0.5364940762519836 -0.10681498050689697
0.3622654974460602 0.5471302270889282 -0.10097827762365341
0.4111844003200531 0.5437878370285034 -0.07944852113723755
0.44193705916404724 0.5338424444198608 -0.06004490330815315
0.466202974319458 0.5227751731872559 -0.046188488602638245
0.5399919748306274 0.4940640926361084 -0.0405709482729435
0.2514461576938629 0.5904447436332703 -0.11236577481031418
0.3010360300540924 0.442665696144104 -0.10122586786746979
0.5885926485061646 0.6286566257476807 -0.08920023590326309
0.4852810800075531 0.5646413564682007 -0.06304996460676193
0.12328256666660309 0.48081913590431213 -0.020357821136713028
0.48668599128723145 0.510271430015564 -0.035931654274463654
0.4725204110145569 0.6164635419845581 -0.06486661732196808
0.3371552526950836 0.46426743268966675 -0.08624354004859924
0.5239836573600769 0.5870266556739807 -0.09182225912809372
0.11902028322219849 0.6676257252693176 -0.02292177639901638
0.45871666073799133 0.47833773493766785 -0.029628951102495193
0.5560420155525208 0.5717431306838989 -0.09651639312505722
0.28133097290992737 0.8022487163543701 -0.08509325236082077
0.24624039232730865 0.8347609043121338 -0.06145970895886421
0.17446200549602509 0.5968883633613586 -0.06967728585004807
0.23243176937103271 0.7656627893447876 -0.08345571905374527
0.21379315853118896 0.43094953894615173 -0.06930149346590042
0.42066490650177 0.8802828788757324 -0.07574868947267532
0.5750682950019836 0.6358861923217773 -0.06589198857545853
0.46033382415771484 0.5835469961166382 -0.07015158236026764
0.24659374356269836 0.4837002158164978 -0.08850468695163727
0.3941785395145416 0.4836428165435791 -0.07882431149482727
0.4149635136127472 0.48685628175735474 -0.07109788060188293
0.45305055379867554 0.755759596824646 -0.08365807682275772
0.24761492013931274 0.6442958116531372 -0.10660401731729507
0.45560547709465027 0.914474368095398 -0.04822670668363571
0.3563382625579834 0.8886292576789856 -0.06277555227279663
0.30682334303855896 0.8678973317146301 -0.06392940133810043
0.5506016612052917 0.34493714570999146 0.0033995520789176226
0.5031564235687256 0.9143336415290833 -0.02021385170519352
0.43124091625213623 0.48628130555152893 -0.05797316133975983
0.4452269673347473 0.48272180557250977 -0.04457368701696396
0.45404571294784546 0.48022550344467163 -0.03417463228106499
0.2683446705341339 0.4371044933795929 -0.09491891413927078
0.445524126291275 0.4623008966445923 -0.046820517629384995
0.4294849634170532 0.45503267645835876 -0.05990637466311455
0.4118689000606537 0.4523777365684509 -0.07229164242744446
0.3900885581970215 0.45384472608566284 -0.08160991221666336
0.37399211525917053 0.45803123712539673 -0.08424026519060135
0.15350429713726044 0.41820228099823 -0.036314163357019424
0.3775821030139923 0.47892171144485474 -0.08237644284963608
0.5657368898391724 0.6670077443122864 -0.05021524056792259
0.48519158363342285 0.6816504001617432 -0.08279504626989365
0.5238243937492371 0.623773455619812 -0.07909563928842545
0.5394139289855957 0.6710097789764404 -0.06866078823804855
0.548686146736145 0.46042704582214355 -0.014344923198223114
0.32733532786369324 0.835199236869812 -0.07978758215904236
0.3711496591567993 0.8593773245811462 -0.07660362869501114
0.4731539189815521 0.8935146927833557 -0.06591535359621048
0.19035537540912628 0.7947336435317993 -0.04949301481246948
0.4552644193172455 0.4722605347633362 -0.036688175052404404
0.5328097343444824 0.5308603048324585 -0.05990820750594139
0.5214897990226746 0.8935669660568237 -0.03802322596311569
0.40750059485435486 0.9047622680664062 -0.06214309111237526
0.17612004280090332 0.6569806933403015 -0.07085132598876953
0.5080391764640808 0.7460574507713318 -0.06939054280519485
0.5070452690124512 0.7524768114089966 -0.07357044517993927
0.5041647553443909 0.7632381916046143 -0.07875220477581024
0.4990461766719818 0.7771376371383667 -0.07924564182758331
0.47608068585395813 0.800194501876831 -0.07348791509866714
0.46686410903930664 0.7436099052429199 -0.08092159032821655
0.4634632170200348 0.7411919832229614 -0.08634572476148605
0.45748066902160645 0.7373067736625671 -0.09080912172794342
0.43534037470817566 0.7202661037445068 -0.097797691822052
0.3098384141921997 0.6579446792602539 -0.11481817811727524
0.5185487270355225 0.508018970489502 -0.043577950447797775
0.48638036847114563 0.4606962203979492 -0.018491283059120178
0.4675285220146179 0.4619690179824829 -0.028279120102524757
0.46732428669929504 0.7410103678703308 -0.07691888511180878
0.2805393636226654 0.7248369455337524 -0.10044894367456436
0.5176011323928833 0.46138477325439453 -0.024547496810555458
0.4529086947441101 0.8255537748336792 -0.07315218448638916
0.588408350944519 0.5364646911621094 -0.06415552645921707
0.5554782152175903 0.5181875824928284 -0.05703108385205269
0.5751627683639526 0.5139846205711365 -0.045804448425769806
0.5176248550415039 0.5681303143501282 -0.07167281210422516
0.5305289030075073 0.865902304649353 -0.04423048719763756
0.5322078466415405 0.8352369666099548 -0.04048618674278259
0.49528980255126953 0.8358773589134216 -0.059454381465911865
0.3929849863052368 0.7825116515159607 -0.08881174027919769
0.4511848986148834 0.637725830078125 -0.0757632628083229
0.4181550145149231 0.8081726431846619 -0.08142335712909698
0.3956717252731323 0.6338780522346497 -0.1049119308590889
0.4311006963253021 0.6641635894775391 -0.09193816035985947
0.3611038029193878 0.6778262257575989 -0.11031018942594528
0.48566704988479614 0.8658831119537354 -0.06957752257585526
0.4927103519439697 0.5828076601028442 -0.07068590819835663
0.35683128237724304 0.8037232756614685 -0.08939489722251892
0.3942156434059143 0.8304799795150757 -0.08008190989494324
0.3786793053150177 0.7500089406967163 -0.10142064094543457
0.2445499747991562 0.6913719177246094 -0.09919247776269913
0.3284904658794403 0.7550181150436401 -0.10204267501831055
0.19028672575950623 0.7136332392692566 -0.07568920403718948
0.40586575865745544 0.7007387280464172 -0.10129165649414062
0.5087789297103882 0.547335147857666 -0.061151474714279175
0.5435150861740112 0.6132715940475464 -0.09983928501605988
0.5144980549812317 0.6222132444381714 -0.0880301371216774
0.5655899047851562 0.5947539806365967 -0.1040668860077858
0.47622954845428467 0.43575239181518555 -0.03558974713087082
0.4465741813182831 0.41765880584716797 -0.06144121289253235
0.41594305634498596 0.4111529588699341 -0.08312559872865677
0.3831656277179718 0.4132096767425537 -0.09735669940710068
0.3525379002094269 0.4243124723434448 -0.10172957926988602
0.31371912360191345 0.4722048044204712 -0.08870957791805267
0.17678052186965942 0.5388831496238708 -0.07131190598011017
0.34199440479278564 0.5105268955230713 -0.09207293391227722
0.37404605746269226 0.5195016264915466 -0.08645971119403839
0.40814679861068726 0.5202523469924927 -0.07380210608243942
0.43628349900245667 0.5153182744979858 -0.056883662939071655
0.45722970366477966 0.5073826313018799 -0.039267249405384064
0.4731971025466919 0.5002131462097168 -0.029505150392651558
0.11397185921669006 0.5408122539520264 -0.013829735107719898
0.5067001581192017 0.6302008032798767 -0.07955057919025421
0.5458705425262451 0.5510777235031128 -0.07582644373178482
0.5718960762023926 0.6125720143318176 -0.10092318803071976
0.5715838074684143 0.626650333404541 -0.08684670180082321
0.5630812644958496 0.6182122826576233 -0.09400410205125809
0.5067859888076782 0.6393251419067383 -0.06881133466959
0.5797551870346069 0.6275888681411743 -0.08919008076190948
0.5682302713394165 0.6349466443061829 -0.06927498430013657
0.46976569294929504 0.47914770245552063 -0.022181568667292595
0.48660093545913696 0.4868302047252655 -0.020245365798473358
0.5025281310081482 0.49156373739242554 -0.026783224195241928
0.36252671480178833 0.4617905616760254 -0.08456577360630035
0.34584110975265503 0.44738292694091797 -0.09188633412122726
0.5989320874214172 0.5414526462554932 -0.04259047657251358
0.6091722249984741 0.4950166344642639 0.15411491692066193
0.5934366583824158 0.6319782137870789 -0.04787684977054596
0.5851621031761169 0.4256238341331482 0.30877161026000977
0.5743575096130371 0.5124562382698059 0.09241463243961334
0.5878848433494568 0.5164989233016968 0.10911279171705246
0.5992245674133301 0.5168969035148621 0.1279832273721695
0.6039102077484131 0.5040842294692993 0.1623142808675766
0.5652270317077637 0.5039675235748291 0.07814048230648041
0.6029693484306335 0.45186489820480347 0.11041131615638733
0.5871336460113525 0.4525272846221924 0.09029623121023178
0.6141620874404907 0.4565693736076355 0.1309405267238617
0.6175107955932617 0.46607136726379395 0.14640463888645172
0.6062119007110596 0.5233662128448486 0.17828461527824402
0.5664388537406921 0.8414809107780457 0.03276767209172249
0.6094306111335754 0.489434152841568 0.1655009388923645
0.5768864750862122 0.5184295773506165 0.30702346563339233
0.6025590896606445 0.5077883005142212 0.21475283801555634
0.6051530838012695 0.6126348376274109 0.06491688638925552
0.5848020315170288 0.70750492811203 -0.03865097090601921
0.5713735818862915 0.7351447343826294 -0.03415514901280403
0.5925099849700928 0.7185348272323608 -0.008649264462292194
0.5915796160697937 0.7327647805213928 0.017335401847958565
0.5759640336036682 0.738813579082489 -0.011086301878094673
0.5777471661567688 0.7440946698188782 0.010922914370894432
0.5837780237197876 0.7726901769638062 0.05451621487736702
0.6207766532897949 0.6154198050498962 -0.07693535834550858
0.6259831190109253 0.5922834873199463 -0.07771019637584686
0.6285911798477173 0.4468831419944763 0.1772337257862091
0.5786574482917786 0.5482385158538818 0.04282918944954872
0.6140696406364441 0.6180177927017212 -5.117286491440609e-05
0.6089347004890442 0.6056389808654785 0.007537491619586945
0.6225665211677551 0.6152852773666382 0.13736172020435333
0.614149272441864 0.5644513964653015 -0.061455607414245605
0.6263201236724854 0.41664570569992065 0.10670017451047897
0.6331688165664673 0.4276236891746521 0.14455772936344147
0.6012468934059143 0.3824530839920044 0.2609655559062958
0.5794021487236023 0.4287233054637909 0.02521008439362049
0.5720715522766113 0.4586896300315857 0.08037316054105759
0.593397855758667 0.7516347169876099 0.07605522125959396
0.5213568806648254 0.7365564703941345 0.3067722022533417
0.6000736951828003 0.6313488483428955 -0.0066276597790420055
0.5881515741348267 0.6386589407920837 -0.027748093008995056
0.5818439722061157 0.7549925446510315 0.061091043055057526
0.5749155282974243 0.7521752119064331 0.04703056439757347
0.6332381963729858 0.41494232416152954 0.1625710129737854
0.6041831374168396 0.6306136250495911 0.0067670694552361965
0.609745979309082 0.4155888855457306 0.06608723104000092
0.6145014762878418 0.3975011110305786 0.06736060231924057
0.5982919931411743 0.31899961829185486 0.13339847326278687
0.6196279525756836 0.3983413875102997 0.2055104821920395
0.6082646250724792 0.35631290078163147 0.09937310218811035
0.6248650550842285 0.43978065252304077 0.20342503488063812
0.6074953079223633 0.4347113370895386 0.2523902356624603
0.5798391103744507 0.7231910824775696 -0.03760331869125366
0.5856081247329712 0.7304085493087769 -0.010645928792655468
0.5862370133399963 0.7388367652893066 0.01183480117470026
0.5928233861923218 0.6363794803619385 -0.010309259407222271
0.5787087678909302 0.7543953657150269 0.053184058517217636
0.5798623561859131 0.755699098110199 0.030622752383351326
0.5718851089477539 0.7498933672904968 0.04478287324309349
0.6121237874031067 0.6188262104988098 -0.030981944873929024
0.5689144134521484 0.7431522607803345 0.011287734843790531
0.5663115382194519 0.7409250736236572 -0.007354338653385639
0.5617810487747192 0.7397815585136414 -0.027297811582684517
0.5533866286277771 0.808580756187439 -0.019040443003177643
0.5696209669113159 0.7851342558860779 -0.03172527253627777
0.5719823837280273 0.7703233361244202 -0.032520294189453125
0.569283127784729 0.7571160793304443 -0.02830098569393158
0.5643166899681091 0.7484321594238281 -0.02597014419734478
0.5719428658485413 0.749631404876709 0.01156597025692463
0.5759825110435486 0.7526833415031433 0.008217349648475647
0.580412745475769 0.7590105533599854 0.006773804780095816
0.5826218128204346 0.7670398354530334 0.012906699441373348
0.6015151739120483 0.7026574015617371 0.03447122871875763
0.5212346315383911 0.6216129064559937 0.3667619526386261
0.5713930726051331 0.7505527138710022 0.030395522713661194
0.57619708776474 0.7523718476295471 0.028831664472818375
0.5825024843215942 0.6493852138519287 -0.030642295256257057
0.5914291143417358 0.646928608417511 0.007395615801215172
0.5854480266571045 0.644467294216156 -0.029543718323111534
0.5871891975402832 0.5646569728851318 0.06344673782587051
0.6056270599365234 0.5839311480522156 0.09039783477783203
0.6027204990386963 0.6180510520935059 0.01710842177271843
0.6056066751480103 0.34604859352111816 0.19933688640594482
0.6189326047897339 0.3712262511253357 0.15504483878612518
0.6291805505752563 0.39985907077789307 0.11791438609361649
0.5769424438476562 0.7853090763092041 0.03312137350440025
0.5889023542404175 0.3996710181236267 0.025697803124785423
0.5857909917831421 0.35034406185150146 0.049445439130067825
0.5778015851974487 0.30257150530815125 0.07103388756513596
0.603850245475769 0.5128191113471985 0.14751654863357544
0.6086828708648682 0.5421627759933472 0.20137690007686615
0.5601295232772827 0.49608349800109863 0.07477148622274399
0.6149595975875854 0.47574448585510254 0.17804402112960815
0.5750341415405273 0.5310376286506653 0.028674762696027756
0.6208692789077759 0.6055232882499695 -0.02369481325149536
0.6066471338272095 0.5602030158042908 0.23848047852516174
0.616700291633606 0.5586052536964417 0.17475514113903046
0.6151442527770996 0.565575361251831 0.1360475867986679
0.5968809723854065 0.5579306483268738 0.10107102990150452
0.5803333520889282 0.5444880723953247 0.07615643739700317
0.5703214406967163 0.5307552218437195 0.05600053817033768
0.5720868110656738 0.4968045651912689 -0.006951069459319115
0.6133989095687866 0.6092780828475952 0.22738006711006165
0.6147342920303345 0.474818617105484 0.19993944466114044
0.6043590903282166 0.6292877793312073 -0.0725492462515831
0.5859747529029846 0.5710039138793945 0.031668487936258316
0.5373615622520447 0.520123302936554 0.37314262986183167
0.5646544694900513 0.5165007710456848 0.044130902737379074
0.5925518274307251 0.6211708188056946 0.032518789172172546
0.6073338985443115 0.4905480146408081 0.17487676441669464
0.6129179000854492 0.5910464525222778 -0.015299901366233826
0.5211851596832275 0.6772498488426208 0.3434973657131195
0.5576809644699097 0.48744693398475647 0.0826510637998581
0.6157413721084595 0.574860692024231 -0.04020519554615021
0.5708657503128052 0.7914543747901917 0.16835381090641022
0.5411561727523804 0.8191404342651367 0.1970340460538864
0.5761634111404419 0.6170094609260559 0.3028148114681244
0.5685356855392456 0.7594704031944275 0.21537937223911285
0.5905517339706421 0.47384724020957947 0.2868362069129944
0.5622233152389526 0.8663860559463501 0.044243402779102325
0.5878344774246216 0.6364597082138062 -0.05579642578959465
0.5903315544128418 0.5912121534347534 0.04676283895969391
0.5968712568283081 0.5142641663551331 0.24722425639629364
0.602476954460144 0.502605140209198 0.12887316942214966
0.5911620855331421 0.5038192868232727 0.11269554495811462
0.5817707777023315 0.7606337070465088 0.03796578571200371
0.6051428914070129 0.6563752889633179 0.21948865056037903
0.5345261693000793 0.9050639867782593 0.017862573266029358
0.547986626625061 0.870123028755188 0.10376045107841492
0.5460819005966187 0.849192202091217 0.14595775306224823
0.5786336660385132 0.5006993412971497 0.09872464835643768
0.5679186582565308 0.49414563179016113 0.08991623669862747
0.5613266825675964 0.49023300409317017 0.08656039088964462
0.6084586381912231 0.47355324029922485 0.22936692833900452
0.5693133473396301 0.475307822227478 0.09101975709199905
0.5813792943954468 0.4718135595321655 0.09981902688741684
0.5954024195671082 0.471260666847229 0.11369670182466507
0.6066181063652039 0.47484010457992554 0.1301456093788147
0.610327422618866 0.4808250665664673 0.14272353053092957
0.5632759928703308 0.46832191944122314 0.3477899730205536
0.6073740124702454 0.49915483593940735 0.14367088675498962
0.597816526889801 0.6845594644546509 0.012696148827672005
0.6062495112419128 0.6262709498405457 -0.014000285416841507
0.5843355655670166 0.6719151735305786 -0.029790425673127174
0.5684935450553894 0.8206906318664551 0.1249060183763504
0.5645650029182434 0.8432942628860474 0.08457285165786743
0.5512121319770813 0.8853706121444702 -0.0007750263903290033
0.5291469097137451 0.7843151092529297 0.2554667294025421
0.5622656941413879 0.4819886386394501 0.08610447496175766
0.5881949663162231 0.5346990823745728 -0.006386665627360344
0.5466826558113098 0.8891551494598389 0.06078370288014412
0.5707942247390747 0.6681080460548401 0.28569769859313965
0.5703965425491333 0.7486012578010559 -0.0062731304205954075
0.5749062895774841 0.7546467781066895 -0.008866631425917149
0.5788231492042542 0.764548659324646 -0.010775179602205753
0.5793633460998535 0.7773672342300415 -0.007178432773798704
0.5678259134292603 0.7980831861495972 0.008346416987478733
0.5764064788818359 0.7486025094985962 0.03219461068511009
0.5829068422317505 0.7472671866416931 0.037943284958601
0.5874953866004944 0.7442586421966553 0.04276389256119728
0.6004417538642883 0.7262447476387024 0.06023332476615906
0.6135086417198181 0.6671784520149231 0.1590092033147812
0.5730935335159302 0.512361466884613 0.011929823085665703
0.5567866563796997 0.4683130979537964 0.05202168971300125
0.5589267015457153 0.4730110764503479 0.0739467442035675
0.5700241327285767 0.7452925443649292 0.030896475538611412
0.5931345820426941 0.7252823114395142 0.17893114686012268
0.5597019195556641 0.4659214913845062 0.01656210795044899
0.5639169216156006 0.818581223487854 0.020564517006278038
0.5866177082061768 0.5205122232437134 -0.028101421892642975
0.5973861217498779 0.5723516345024109 -0.0018736777128651738
0.5525164604187012 0.8319205045700073 -0.014089257456362247
0.5866557955741882 0.7794171571731567 0.07504686713218689
0.5989778637886047 0.643631100654602 0.04708060622215271
0.5748265981674194 0.8018584847450256 0.04868701845407486
0.6173009276390076 0.6433303952217102 0.09014299511909485
0.607959508895874 0.6707743406295776 0.06215594336390495
0.6137853860855103 0.684436023235321 0.11283207684755325
0.5563781261444092 0.8599340915679932 -0.008364534936845303
0.593934953212738 0.5878621339797974 0.016746703535318375
0.5833773612976074 0.7947852611541748 0.10245309770107269
0.5723879933357239 0.8189582824707031 0.06730994582176208
0.5979540348052979 0.751436710357666 0.09763166308403015
0.5946221351623535 0.6968778967857361 0.21356533467769623
0.5948688983917236 0.7522808313369751 0.1310243010520935
0.566627025604248 0.7155240774154663 0.2622080445289612
0.6077402830123901 0.7067620158195496 0.08068192005157471
0.5862473249435425 0.5522851347923279 0.013733630999922752
0.6186436414718628 0.6151043176651001 -0.0312914103269577
0.6118414998054504 0.6253069043159485 -0.009827814064919949
0.6261091232299805 0.5970314741134644 -0.048035163432359695
0.5719745755195618 0.44822996854782104 0.06244019791483879
0.5951909422874451 0.4381439685821533 0.08320880681276321
0.6132887005805969 0.43826156854629517 0.10678498446941376
0.6239917278289795 0.44489580392837524 0.13396643102169037
0.6241075992584229 0.4569022059440613 0.15754280984401703
0.6048212647438049 0.498914510011673 0.1900712549686432
0.5776138305664062 0.5674647092819214 0.3102702796459198
0.6085547208786011 0.5325628519058228 0.1600419133901596
0.6043940782546997 0.5382583141326904 0.133187934756279
0.5910770297050476 0.5356257557868958 0.10660971701145172
0.5753613114356995 0.5270907878875732 0.08456792682409286
0.565000057220459 0.5165937542915344 0.06779436767101288
0.5589593648910522 0.5073991417884827 0.05712069943547249
0.5234568119049072 0.5701979398727417 0.3775906264781952
0.6030780673027039 0.6331850290298462 -0.0030849750619381666
0.6008633375167847 0.5542871952056885 -0.020838115364313126
0.6230224967002869 0.6133657097816467 -0.05650898814201355
0.6038913726806641 0.626654326915741 -0.0614025704562664
0.6137115955352783 0.6184567213058472 -0.048929549753665924
0.5934520959854126 0.6415151953697205 -0.00485808914527297
0.6059188842773438 0.6284191608428955 -0.06820838153362274
0.5912528038024902 0.6353466510772705 -0.051937464624643326
0.5557867884635925 0.48755067586898804 0.0702083632349968
0.5538666248321533 0.4929569959640503 0.04745515435934067
0.5597119331359863 0.49664241075515747 0.029929084703326225
0.6108258962631226 0.4854423999786377 0.15348319709300995
0.6143761277198792 0.4760950207710266 0.16225121915340424
