ply
format ascii 1.0
element vertex 468
property float x
property float y
property float z
end_header
0.5111149549484253 0.683462381362915 -0.07892850041389465
0.5122917890548706 0.6133071184158325 -0.13446463644504547
0.5111372470855713 0.638272225856781 -0.07435304671525955
0.4905528128147125 0.5342816114425659 -0.09542230516672134
0.5125848650932312 0.5879241824150085 -0.14115005731582642
0.5122948288917542 0.5560842156410217 -0.1287303864955902
0.5112123489379883 0.4838997423648834 -0.0555911548435688
0.3315211534500122 0.48195594549179077 0.039871182292699814
0.511229932308197 0.4360116720199585 -0.03492123261094093
0.5118739604949951 0.4057415723800659 -0.037121377885341644
0.5134098529815674 0.2942805290222168 0.0019013473065569997
0.5109220147132874 0.69452965259552 -0.07648782432079315
0.5105352997779846 0.7031069993972778 -0.0689624547958374
0.5099509954452515 0.7065674066543579 -0.05837313458323479
0.5098305940628052 0.710741400718689 -0.057224564254283905
0.5099308490753174 0.7189029455184937 -0.06258973479270935
0.5096315145492554 0.7305750846862793 -0.06929714232683182
0.5090057849884033 0.7447926998138428 -0.0679628774523735
0.5072777271270752 0.7760900855064392 -0.04698391631245613
0.5115876793861389 0.6268205642700195 -0.12253693491220474
0.4872399866580963 0.6251531839370728 -0.08984524756669998
0.2385961413383484 0.40242186188697815 0.16555051505565643
0.4026210904121399 0.501636803150177 0.014737184159457684
0.3777834177017212 0.5032113194465637 0.01576550491154194
0.35393810272216797 0.5017403364181519 0.022095205262303352
0.3214280903339386 0.490647554397583 0.04264288768172264
0.4234946370124817 0.49584507942199707 0.018388062715530396
0.37118762731552124 0.44914543628692627 0.006925526540726423
0.3962714672088623 0.450813889503479 0.008695624768733978
0.3473513722419739 0.45137152075767517 0.0142514081671834
0.33083805441856384 0.45799553394317627 0.02432306297123432
0.30055665969848633 0.5052085518836975 0.05378436669707298
0.40851151943206787 0.8246585726737976 -0.02422083541750908
0.32294028997421265 0.4775957763195038 0.04816199094057083
0.2249627709388733 0.5019862651824951 0.1655394285917282
0.27200204133987427 0.49160659313201904 0.0798618271946907
0.3833697438240051 0.5926544070243835 -0.018317392095923424
0.47915130853652954 0.6795589327812195 -0.07642626017332077
0.4830106794834137 0.7024813294410706 -0.06635622680187225
0.44585567712783813 0.6873394846916199 -0.06363704800605774
0.4247032105922699 0.6978024244308472 -0.04676932469010353
0.45908495783805847 0.7042751312255859 -0.0573681965470314
0.4405243396759033 0.7079156637191772 -0.041294731199741364
0.3938191533088684 0.7366573214530945 -0.014468987472355366
0.4907110631465912 0.6123785972595215 -0.1327119618654251
0.4882636070251465 0.5877208709716797 -0.138714000582695
0.2889459729194641 0.4312269687652588 0.03331329673528671
0.4345516860485077 0.5365157127380371 -0.015733752399683
0.4296365976333618 0.6047871112823486 -0.07264067232608795
0.42845648527145386 0.592218279838562 -0.06409227102994919
0.30669671297073364 0.5903333425521851 0.011840146966278553
0.4896174669265747 0.55842125415802 -0.12166702002286911
0.3495095372200012 0.4065060019493103 -0.007574090268462896
0.313892662525177 0.4142853617668152 0.010893285274505615
0.26453694701194763 0.3586564064025879 0.12002821266651154
0.45984357595443726 0.42962753772735596 -0.02811324968934059
0.41878822445869446 0.4568973779678345 0.016530601307749748
0.3735688626766205 0.7152895331382751 -0.0066826860420405865
0.23831549286842346 0.7296147346496582 0.20946748554706573
0.4480002820491791 0.6189107894897461 -0.06346293538808823
0.4695218503475189 0.6267052292823792 -0.06669774651527405
0.4027271568775177 0.7135614156723022 -0.008314644917845726
0.41406458616256714 0.7119265794754028 -0.014654186554253101
0.29882991313934326 0.39830684661865234 0.024821514263749123
0.42825818061828613 0.615083634853363 -0.05965070426464081
0.397693395614624 0.41048771142959595 -0.02088969200849533
0.39282363653182983 0.3902573585510254 -0.024370335042476654
0.3683392405509949 0.30258721113204956 0.029642412438988686
0.2823055684566498 0.37718120217323303 0.06593288481235504
0.3830576539039612 0.34350061416625977 0.0016605877317488194
0.27321651577949524 0.4216495156288147 0.05631648749113083
0.2561655640602112 0.41291964054107666 0.10783468186855316
0.4807586073875427 0.6930447816848755 -0.07426606118679047
0.45354461669921875 0.6979785561561584 -0.06190028041601181
0.43299347162246704 0.7033108472824097 -0.04642903059720993
0.45451951026916504 0.6229742169380188 -0.05851047858595848
0.40870100259780884 0.7128215432167053 -0.01150029432028532
0.42029672861099243 0.7155116200447083 -0.028157895430922508
0.4163682460784912 0.7114283442497253 -0.015446130186319351
0.46225079894065857 0.6123071312904358 -0.09717915952205658
0.4449070394039154 0.7067984938621521 -0.037573397159576416
0.463645875453949 0.7054736614227295 -0.048030875623226166
0.48563122749328613 0.7057713270187378 -0.05632076412439346
0.4747341275215149 0.7744355797767639 -0.04675182327628136
0.47916871309280396 0.7428784966468811 -0.0671364814043045
0.48154011368751526 0.7281619906425476 -0.06823692470788956
0.48337322473526 0.7168613076210022 -0.060734912753105164
0.4851425588130951 0.7101438045501709 -0.05548565089702606
0.4430454969406128 0.710761308670044 -0.036733344197273254
0.4397064745426178 0.7131233215332031 -0.04186795651912689
0.43471279740333557 0.7189213633537292 -0.04676108434796333
0.42963907122612 0.7276853322982788 -0.04345857724547386
0.40174490213394165 0.6747686862945557 -0.03731634095311165
0.21731093525886536 0.6130836009979248 0.258409708738327
0.5112605094909668 0.6321196556091309 -0.09085655212402344
0.43048927187919617 0.7119728326797485 -0.02442816086113453
0.4260667562484741 0.7122865319252014 -0.027590282261371613
0.47848525643348694 0.6371585130691528 -0.06879215687513351
0.4369591772556305 0.6295782923698425 -0.04234928637742996
0.4741745889186859 0.6323145627975464 -0.06810954958200455
0.40800997614860535 0.5497229695320129 -0.00912122055888176
0.36686432361602783 0.5638563632965088 -0.003999944310635328
0.4237406253814697 0.6026292443275452 -0.050696805119514465
0.30546051263809204 0.3241855502128601 0.07087389379739761
0.3223615288734436 0.3524203300476074 0.031475771218538284
0.3400323987007141 0.38691169023513794 -0.0010044187074527144
0.4144046902656555 0.7517725229263306 -0.02818373031914234
0.45193347334861755 0.3981072008609772 -0.03560440614819527
0.44427406787872314 0.3440810739994049 -0.015032261610031128
0.4353314936161041 0.29420435428619385 0.006033026147633791
0.33318087458610535 0.4979730248451233 0.03250690922141075
0.27319395542144775 0.521709680557251 0.06605438888072968
0.4366148114204407 0.48983830213546753 0.02251257747411728
0.30089306831359863 0.4629146456718445 0.04560869559645653
0.45262616872787476 0.5212288498878479 -0.023569462820887566
0.44635510444641113 0.5968936085700989 -0.0959022119641304
0.24527549743652344 0.5398477911949158 0.09153402596712112
0.29094213247299194 0.5356764197349548 0.042295392602682114
0.3236258029937744 0.5429515242576599 0.019315877929329872
0.3714686632156372 0.5402482748031616 0.009009016677737236
0.4069419801235199 0.5315296053886414 0.0049142781645059586
0.4335823953151703 0.5206540822982788 -0.00029730444657616317
0.4870477616786957 0.48985856771469116 -0.04669701308012009
0.2469395101070404 0.5876924991607666 0.08023292571306229
0.27929985523223877 0.45950639247894287 0.05775604024529457
0.49848389625549316 0.6253495812416077 -0.12161283940076828
0.43647271394729614 0.5583987236022949 -0.028408946469426155
0.21667587757110596 0.5064228773117065 0.24995562434196472
0.4531269669532776 0.5079690217971802 -0.002415156690403819
0.4213149845600128 0.6047545671463013 -0.02529696188867092
0.314258873462677 0.4788627326488495 0.05259338393807411
0.4454854428768158 0.5814012289047241 -0.08527946472167969
0.22233539819717407 0.670633852481842 0.2409127652645111
0.435945987701416 0.4818992614746094 0.0297075342386961
0.4672996401786804 0.567531943321228 -0.10791182518005371
0.2933971881866455 0.775518000125885 0.07295675575733185
0.2925981283187866 0.8093852996826172 0.11465250700712204
0.22049486637115479 0.6015092730522156 0.16894300282001495
0.2620677649974823 0.7447049021720886 0.1065995842218399
0.24038049578666687 0.4541558623313904 0.144011989235878
0.40008312463760376 0.8549696803092957 -0.01243953499943018
0.50107741355896 0.6309019327163696 -0.08963823318481445
0.41367945075035095 0.5753197073936462 -0.020973311737179756
0.2501545548439026 0.4974896311759949 0.10454746335744858
0.356078177690506 0.4879900813102722 0.025113606825470924
0.3779260516166687 0.4900919198989868 0.019374366849660873
0.4139508903026581 0.7206833362579346 -0.0243079736828804
0.24847915768623352 0.6361210942268372 0.08323437720537186
0.44676676392555237 0.8933852314949036 -0.00823209248483181
0.366016685962677 0.8620438575744629 0.04420030862092972
0.33162611722946167 0.8404346704483032 0.07498428225517273
0.5128324627876282 0.3474939167499542 -0.01895219087600708
0.5026434063911438 0.8984863758087158 -0.014523752965033054
0.3986399173736572 0.48909991979599 0.018953373655676842
0.4178629219532013 0.4858505129814148 0.02301217056810856
0.42988502979278564 0.48376402258872986 0.02899356372654438
0.2608163058757782 0.4561462998390198 0.08349587023258209
0.4150485694408417 0.4710310995578766 0.02014889381825924
0.3939872682094574 0.4678250551223755 0.0151183707639575
0.3738967776298523 0.4666541516780853 0.015797754749655724
0.35311979055404663 0.4686882495880127 0.021245915442705154
0.3390730619430542 0.472592830657959 0.029121452942490578
0.22393450140953064 0.4486299753189087 0.2140248864889145
0.3415776789188385 0.4849247336387634 0.03289502114057541
0.5109620094299316 0.6522567272186279 -0.06976834684610367
0.4253363609313965 0.6611021757125854 -0.04849982261657715
0.44762352108955383 0.6155512928962708 -0.07213333249092102
0.47553762793540955 0.6531830430030823 -0.06932001560926437
0.5109074115753174 0.459883451461792 -0.035408616065979004
0.3285364806652069 0.8069072961807251 0.04522121325135231
0.3625815510749817 0.8316892385482788 0.017492884770035744
0.44715026021003723 0.870217502117157 -0.03790109604597092
0.2632003724575043 0.7755163311958313 0.16373296082019806
0.42960602045059204 0.4768320322036743 0.025883641093969345
0.4704093337059021 0.5255486369132996 -0.057640548795461655
0.5036650896072388 0.8752038478851318 -0.04307291656732559
0.4032650589942932 0.8803019523620605 0.012402741238474846
0.22594252228736877 0.6542198657989502 0.1599864661693573
0.462519109249115 0.7096406817436218 -0.047034163028001785
0.45901328325271606 0.7146102786064148 -0.05300223082304001
0.455545037984848 0.723393440246582 -0.05874154344201088
0.45183947682380676 0.7366008758544922 -0.05678629130125046
0.4411073923110962 0.7648099660873413 -0.04094570130109787
0.42450928688049316 0.7106702327728271 -0.027222590520977974
0.41707175970077515 0.7092725038528442 -0.027301674708724022
0.40944531559944153 0.7060436010360718 -0.027223531156778336
0.38233834505081177 0.6930420994758606 -0.02175687998533249
0.2829745411872864 0.6439077854156494 0.03255543112754822
0.47032102942466736 0.5039815902709961 -0.03320237621665001
0.45702362060546875 0.465725839138031 0.013218412175774574
0.4410170316696167 0.4702250361442566 0.022283777594566345
0.4293188452720642 0.708034098148346 -0.024717463180422783
0.27611243724823 0.7047494649887085 0.06379979103803635
0.4788755774497986 0.46363234519958496 -0.019093791022896767
0.42402878403663635 0.7947257161140442 -0.031188294291496277
0.5119189023971558 0.5309044718742371 -0.10319136083126068
0.4883715808391571 0.5127958655357361 -0.07321687787771225
0.5115535259246826 0.507722020149231 -0.07834268361330032
0.45249733328819275 0.5619670748710632 -0.06084127724170685
0.5047282576560974 0.844232976436615 -0.054587993770837784
0.5059807300567627 0.8078083395957947 -0.05126858502626419
0.4643268585205078 0.8059484362602234 -0.046835530549287796
0.36597496271133423 0.7508707046508789 -0.0016471738927066326
0.400684654712677 0.6233603358268738 -0.02170524373650551
0.3925305902957916 0.7767210006713867 -0.015829870477318764
0.34150129556655884 0.6193938851356506 -0.012014315463602543
0.3758845925331116 0.6461107730865479 -0.020252270624041557
0.3173288404941559 0.6588664650917053 0.003696820931509137
0.4531855583190918 0.8402525782585144 -0.04837578162550926
0.4367332458496094 0.575539767742157 -0.04457700252532959
0.34044668078422546 0.7740073204040527 0.019719814881682396
0.37416988611221313 0.8016006946563721 0.00023908585717435926
0.3452839255332947 0.7210705280303955 0.0039673433639109135
0.2524981200695038 0.6780489087104797 0.08815579861402512
0.3099353611469269 0.728204071521759 0.028555504977703094
0.23731836676597595 0.7023549675941467 0.14363990724086761
0.35403433442115784 0.6768672466278076 -0.012143745087087154
0.4538682699203491 0.5417232513427734 -0.04169527068734169
0.45432016253471375 0.6079608201980591 -0.10176384449005127
0.4371141791343689 0.6130229234695435 -0.07589947432279587
0.46617835760116577 0.5914457440376282 -0.11864588409662247
0.43780896067619324 0.44821086525917053 0.006180501542985439
0.3979372978210449 0.435778945684433 0.0012467458145692945
0.36339205503463745 0.43237268924713135 0.0014369604177772999
0.3340112566947937 0.43540793657302856 0.010579106397926807
0.31270039081573486 0.4450003206729889 0.02580956369638443
0.29554152488708496 0.48484373092651367 0.06217474117875099
0.21929535269737244 0.5511359572410583 0.16839487850666046
0.3145557641983032 0.5140897631645203 0.04054835066199303
0.3404805660247803 0.5199429392814636 0.025780510157346725
0.37353432178497314 0.520378053188324 0.015909714624285698
0.40529054403305054 0.5157005786895752 0.01251983642578125
0.4301275610923767 0.5079822540283203 0.012960618361830711
0.4468359351158142 0.5000402927398682 0.01208172645419836
0.21691328287124634 0.5600513815879822 0.26277461647987366
0.4377695322036743 0.6189442873001099 -0.0639275386929512
0.4707631468772888 0.5457127094268799 -0.0792492926120758
0.47253328561782837 0.6091448068618774 -0.12076348066329956
0.4859038293361664 0.6215566396713257 -0.11154796928167343
0.47226789593696594 0.6135202646255493 -0.10899870842695236
0.44473588466644287 0.6259318590164185 -0.055828239768743515
0.49052754044532776 0.6235834956169128 -0.11824248731136322
0.49275994300842285 0.6289198398590088 -0.0895683616399765
0.44542309641838074 0.48296740651130676 0.025843216106295586
0.4601718783378601 0.48761165142059326 0.010412235744297504
0.46803101897239685 0.4902576208114624 -0.007981174625456333
0.3302787244319916 0.47548675537109375 0.03743669018149376
0.3167073130607605 0.46591246128082275 0.03833179175853729
0.5326107740402222 0.5355368256568909 -0.09392507374286652
0.6828970909118652 0.49334192276000977 0.05057249963283539
0.5347625017166138 0.6266565918922424 -0.08848526328802109
0.7740118503570557 0.41882872581481934 0.18213795125484467
0.6129292249679565 0.508409321308136 0.02156343124806881
0.6374565362930298 0.5112457275390625 0.0239679217338562
0.6611300706863403 0.5110504627227783 0.03163779526948929
0.692725419998169 0.5025771856307983 0.05390675365924835
0.5924789309501648 0.5014994144439697 0.023533346131443977
0.6461291313171387 0.45969995856285095 0.01553546916693449
0.6217181086540222 0.4594098627567291 0.015577164478600025
0.6692358255386353 0.4636000990867615 0.024508899077773094
0.6847683191299438 0.4711228013038635 0.035009339451789856
0.7131644487380981 0.5177979469299316 0.06563914567232132
0.5985918045043945 0.8291807174682617 -0.01925712265074253
0.6912314891815186 0.48995742201805115 0.05932367965579033
0.785110592842102 0.5186468362808228 0.18162643909454346
0.7411855459213257 0.5062281489372253 0.09319842606782913
0.6335044503211975 0.5990815162658691 -0.011394638568162918
0.5422109365463257 0.6808986067771912 -0.07427913695573807
0.5370532870292664 0.7036432027816772 -0.06421606987714767
0.5737268924713135 0.6897916793823242 -0.05919783189892769
0.5931051969528198 0.7010340690612793 -0.04087943211197853
0.5599120855331421 0.706183910369873 -0.05355585739016533
0.5771034955978394 0.7103605270385742 -0.03631461784243584
0.6185826063156128 0.7413614988327026 -0.00771489879116416
0.5334053039550781 0.613592803478241 -0.13169711828231812
0.5363130569458008 0.5889489650726318 -0.13759136199951172
0.7261907458305359 0.44736725091934204 0.045941002666950226
0.5834916234016418 0.540583610534668 -0.011007527820765972
0.5912154912948608 0.6087360382080078 -0.06755512952804565
0.5921354293823242 0.5960029363632202 -0.0588822178542614
0.7073021531105042 0.6011656522750854 0.02279425784945488
0.5346131324768066 0.5596352815628052 -0.1201874390244484
0.6690816879272461 0.4201709032058716 0.00028893345734104514
0.7028648853302002 0.42982718348503113 0.021155674010515213
0.7513870000839233 0.37398532032966614 0.13458152115345
0.5616054534912109 0.43416985869407654 -0.025560975074768066
0.5992763638496399 0.4637641906738281 0.022077124565839767
0.6394741535186768 0.7210109233856201 0.0011104680597782135
0.7619555592536926 0.7450757026672363 0.22464941442012787
0.5725914239883423 0.6220225691795349 -0.05962134525179863
0.5512239933013916 0.6285606026649475 -0.06469839066267014
0.6117359399795532 0.7173512578010559 -0.001362285460345447
0.6005141735076904 0.7151061296463013 -0.008241673931479454
0.7176902890205383 0.41491761803627014 0.0362522155046463
0.5918716788291931 0.618702232837677 -0.054840900003910065
0.6225343942642212 0.42033320665359497 -0.015274903737008572
0.628165602684021 0.40052172541618347 -0.018306076526641846
0.6546839475631714 0.3119879961013794 0.03780742734670639
0.7343312501907349 0.3926214277744293 0.07900558412075043
0.6395072937011719 0.35302430391311646 0.008543826639652252
0.7415370941162109 0.43854212760925293 0.06980377435684204
0.7579209208488464 0.4294002652168274 0.12263432145118713
0.5403382182121277 0.694242000579834 -0.07214292883872986
0.5661011338233948 0.7000044584274292 -0.057748351246118546
0.5848925709724426 0.70610511302948 -0.04082990810275078
0.5659769773483276 0.6256452798843384 -0.05551713705062866
0.6059514880180359 0.7164015173912048 -0.005101863760501146
0.5951374173164368 0.7185468673706055 -0.022112181410193443
0.5978848338127136 0.7146134376525879 -0.009283604100346565
0.559578001499176 0.6152204275131226 -0.09385771304368973
0.572303056716919 0.7090029120445251 -0.03263527527451515
0.5547558665275574 0.7071360349655151 -0.04434574395418167
0.5335754752159119 0.7066795825958252 -0.05429349094629288
0.5388730764389038 0.775793731212616 -0.04490050673484802
0.5378004312515259 0.7437914609909058 -0.06495610624551773
0.5370554327964783 0.7290284037590027 -0.06577599048614502
0.5358354449272156 0.717694878578186 -0.058097679167985916
0.5340877771377563 0.7110272645950317 -0.052892837673425674
0.5736486315727234 0.7129904627799988 -0.03171731159090996
0.5770343542098999 0.7153868675231934 -0.0368315726518631
0.5816445350646973 0.7215180397033691 -0.04174404963850975
0.5859177708625793 0.7303332090377808 -0.037897732108831406
0.6148684024810791 0.6793229579925537 -0.030517347157001495
0.7857214212417603 0.6299451589584351 0.2748447060585022
0.5849319100379944 0.7146664261817932 -0.018604302778840065
0.5896037220954895 0.7151565551757812 -0.02182147279381752
0.5427820682525635 0.6384024024009705 -0.06685929000377655
0.5823749303817749 0.6323853731155396 -0.03830329328775406
0.5467548370361328 0.6338721513748169 -0.06646963953971863
0.6093158721923828 0.5551066994667053 -0.0032140545081347227
0.6495439410209656 0.5713883638381958 0.003989161923527718
0.5960419774055481 0.6064185500144958 -0.04552567005157471
0.7139552235603333 0.3374525308609009 0.08297740668058395
0.6972205638885498 0.3660215437412262 0.04166381433606148
0.6789564490318298 0.4010631740093231 0.008107013069093227
0.5980302691459656 0.7554839849472046 -0.022574836388230324
0.5706949234008789 0.40353497862815857 -0.03283696994185448
0.5802460312843323 0.3488755226135254 -0.01129849161952734
0.5900851488113403 0.299150288105011 0.010174944996833801
0.6811635494232178 0.5087874531745911 0.04318322241306305
0.7399531602859497 0.5353707075119019 0.07941953092813492
0.5800278782844543 0.49484366178512573 0.02717294916510582
0.7137384414672852 0.47741180658340454 0.057921186089515686
0.566114068031311 0.5244513154029846 -0.019899331033229828
0.5755413174629211 0.6003691554069519 -0.09185110777616501
0.7662192583084106 0.5550135970115662 0.10644553601741791
0.722786009311676 0.5479891300201416 0.05482647567987442
0.6911476850509644 0.553179144859314 0.02972063235938549
0.6444950103759766 0.5477544665336609 0.016907701268792152
0.6096783876419067 0.5373053550720215 0.011103701777756214
0.5836136341094971 0.5251744985580444 0.004356417339295149
0.534528374671936 0.4914252758026123 -0.045270320028066635
0.7635874152183533 0.602271556854248 0.09491725265979767
0.7349971532821655 0.4748627543449402 0.0713333934545517
0.5245051980018616 0.6262063980102539 -0.12065017223358154
0.5823844075202942 0.562077522277832 -0.02356601320207119
0.7900153398513794 0.5233264565467834 0.26705488562583923
0.5648807287216187 0.5115344524383545 0.0010421574115753174
0.5974201560020447 0.6085203886032104 -0.0201456006616354
0.6998134851455688 0.49194276332855225 0.06420762836933136
0.575980007648468 0.5847828388214111 -0.08126605302095413
0.7790358066558838 0.6870943903923035 0.2569941282272339
0.5806994438171387 0.4871646761894226 0.03450615331530571
0.5553826093673706 0.5696678161621094 -0.10507054626941681
0.7105711698532104 0.7871021032333374 0.08376244455575943
0.7081815004348755 0.8212608695030212 0.12598641216754913
0.7861700057983398 0.6182219982147217 0.18540355563163757
0.741752028465271 0.7587236166000366 0.11966661363840103
0.7717614769935608 0.4705629050731659 0.15988251566886902
0.6051632165908813 0.8599522113800049 -0.007240152917802334
0.5214642286300659 0.6315197944641113 -0.0890030711889267
0.6042142510414124 0.5800125002861023 -0.015261104330420494
0.7621912956237793 0.5131649971008301 0.11942461878061295
0.6588591933250427 0.49751538038253784 0.03447756543755531
0.6375386118888855 0.4984196722507477 0.02775680273771286
0.6008697152137756 0.7241204977035522 -0.018141092732548714
0.7601246237754822 0.6507810354232788 0.09773813933134079
0.5574982762336731 0.8960877656936646 -0.005323496647179127
0.6359142661094666 0.8689728379249573 0.05151999369263649
0.669902503490448 0.8494805097579956 0.08416072279214859
0.6171354055404663 0.49634894728660583 0.02591576986014843
0.5982480645179749 0.4919189214706421 0.028962036594748497
0.5866007208824158 0.4892558455467224 0.034030184149742126
0.7529704570770264 0.47218817472457886 0.09808745235204697
0.6012426018714905 0.4779474139213562 0.026308424770832062
0.6218639612197876 0.476252019405365 0.022206272929906845
0.6415755748748779 0.47639089822769165 0.024304060265421867
0.661853015422821 0.47963717579841614 0.030969224870204926
0.6756343245506287 0.4841921329498291 0.03938459977507591
0.7859083414077759 0.4655115306377411 0.2310224324464798
0.6730271577835083 0.49545907974243164 0.04295109212398529
0.5929889678955078 0.6643569469451904 -0.043234776705503464
0.5734471082687378 0.6188799142837524 -0.06839635968208313
0.5452799201011658 0.6545112729072571 -0.0669812560081482
0.6756354570388794 0.8160045742988586 0.0539519228041172
0.6417652368545532 0.8389621376991272 0.02459392510354519
0.5591264963150024 0.8729667663574219 -0.03494281321763992
0.7369437217712402 0.7896056771278381 0.17736545205116272
0.5869547724723816 0.48260897397994995 0.031191866844892502
0.5505257248878479 0.5278980731964111 -0.055100370198488235
0.5998250246047974 0.8850071430206299 0.01771729066967964
0.7791746854782104 0.6705990433692932 0.17577752470970154
0.5558403730392456 0.7113022208213806 -0.04325453191995621
0.558985710144043 0.7162710428237915 -0.04876787215471268
0.5619053840637207 0.7251396775245667 -0.054511066526174545
0.5643135905265808 0.738449215888977 -0.05245698615908623
0.5716092586517334 0.767551839351654 -0.03672538697719574
0.591565728187561 0.7135828733444214 -0.021118585020303726
0.5990363955497742 0.7124557495117188 -0.02095891162753105
0.6066101789474487 0.7096847295761108 -0.020609768107533455
0.6325018405914307 0.6983194351196289 -0.014138252474367619
0.7278528809547424 0.6562382578849792 0.04455208033323288
0.5497583746910095 0.5064642429351807 -0.030688023194670677
0.5617654919624329 0.4698423147201538 0.016679715365171432
0.5766535997390747 0.47524529695510864 0.026867005974054337
0.5863375663757324 0.7107633948326111 -0.019156882539391518
0.731157660484314 0.7175607681274414 0.07584381848573685
0.5417242050170898 0.4661264717578888 -0.017060667276382446
0.5853700637817383 0.7983404994010925 -0.026479313150048256
0.5339315533638 0.5141180157661438 -0.07185996323823929
0.5678245425224304 0.5650373101234436 -0.057171452790498734
0.5463395714759827 0.8077722787857056 -0.0448155514895916
0.6436218023300171 0.7575618028640747 0.005937092937529087
0.6166262030601501 0.6280626058578491 -0.015279335901141167
0.6165363788604736 0.7819037437438965 -0.009890424087643623
0.6733972430229187 0.6281771063804626 -0.0035825830418616533
0.6397238373756409 0.6523553729057312 -0.01289657037705183
0.6951379179954529 0.6688922047615051 0.013389576226472855
0.5551090836524963 0.84272700548172 -0.045643873512744904
0.5828587412834167 0.5790835022926331 -0.04007325321435928
0.6663118004798889 0.7824477553367615 0.027991199865937233
0.6325576305389404 0.8081339001655579 0.006807571742683649
0.6653762459754944 0.7289655208587646 0.012753136456012726
0.7542038559913635 0.6924222707748413 0.10192655771970749
0.698307454586029 0.7386319041252136 0.03882082924246788
0.7666780948638916 0.718114972114563 0.15889769792556763
0.6594429612159729 0.6841909289360046 -0.003838374512270093
0.5658013820648193 0.5447502136230469 -0.03794001787900925
0.5676780939102173 0.6113700270652771 -0.09805507957935333
0.5839406847953796 0.6167551279067993 -0.07158849388360977
0.55732661485672 0.5940952897071838 -0.1156468316912651
0.5815233588218689 0.45400553941726685 0.010733315721154213
0.6210993528366089 0.4447857737541199 0.007424971554428339
0.6547989845275879 0.4440508484840393 0.00939983781427145
0.6830065846443176 0.4488082826137543 0.02047969214618206
0.7031140327453613 0.45950931310653687 0.03704332932829857
0.7181558609008789 0.49852994084358215 0.07432612776756287
0.7889187335968018 0.5679009556770325 0.185207799077034
0.6994097232818604 0.5255621075630188 0.05172474682331085
0.6743908524513245 0.5295995473861694 0.03547051176428795
0.6419190168380737 0.5282983779907227 0.02384011447429657
0.6107035875320435 0.5218602418899536 0.01901162415742874
0.5864098072052002 0.5129307508468628 0.017521828413009644
0.5703213810920715 0.5040997266769409 0.016017349436879158
0.7873473167419434 0.5768371820449829 0.2800886929035187
0.5826380848884583 0.6223559975624084 -0.05961073189973831
0.5510329604148865 0.5479071736335754 -0.07647957652807236
0.550626277923584 0.6114999651908875 -0.1185493990778923
0.5363697409629822 0.6231757402420044 -0.11020009964704514
0.550136923789978 0.6161044836044312 -0.1067308709025383
0.5751588940620422 0.6288558840751648 -0.05219729617238045
0.5322803258895874 0.6249420046806335 -0.11716002970933914
0.5293936133384705 0.6301307082176208 -0.08861509710550308
0.5716817378997803 0.4875313639640808 0.02998308092355728
0.5579459071159363 0.49108511209487915 0.013428502716124058
0.5510581135749817 0.49322372674942017 -0.005340212490409613
0.6843013763427734 0.4874522089958191 0.04819564148783684
0.6980491280555725 0.47942054271698 0.04983699694275856
