ply
format ascii 1.0
element vertex 468
property float x
property float y
property float z
end_header
0.5196201205253601 0.7149621844291687 -0.05447915568947792
0.5426267981529236 0.6481897830963135 -0.14039605855941772
0.5289540886878967 0.6688710451126099 -0.07061248272657394
0.5148430466651917 0.558031439781189 -0.11992211639881134
0.5440372228622437 0.6206932067871094 -0.151632621884346
0.5408775210380554 0.583881676197052 -0.14510619640350342
0.5278714895248413 0.4951189160346985 -0.08912104368209839
0.3303087651729584 0.4847011864185333 -0.014966263435781002
0.5235323905944824 0.4383149743080139 -0.07860458642244339
0.5237011909484863 0.40483927726745605 -0.08827457576990128
0.5167267322540283 0.256126344203949 -0.08048578351736069
0.5175117254257202 0.7260843515396118 -0.05003083869814873
0.5148493647575378 0.7325196266174316 -0.04277180880308151
0.5123780965805054 0.7322531938552856 -0.032287318259477615
0.5115403532981873 0.7819523811340332 -0.014023453928530216
0.5120164752006531 0.7918475270271301 -0.017640866339206696
0.5116543769836426 0.8037474155426025 -0.022374771535396576
0.5111178159713745 0.8178881406784058 -0.01674596033990383
0.509111762046814 0.8419751524925232 0.006855161394923925
0.5392673015594482 0.6615110635757446 -0.1259741187095642
0.5097281336784363 0.6579247713088989 -0.09366118907928467
0.21315701305866241 0.38135790824890137 0.0669456198811531
0.4084562659263611 0.5054582357406616 -0.02744799107313156
0.38261961936950684 0.5073531866073608 -0.029712626710534096
0.3566630482673645 0.5065634250640869 -0.027307314798235893
0.31763631105422974 0.49354732036590576 -0.012410822324454784
0.4294773042201996 0.500059962272644 -0.02209366112947464
0.3715095520019531 0.4453343152999878 -0.04653032869100571
0.39956849813461304 0.4464914798736572 -0.041625916957855225
0.3450652062892914 0.44971519708633423 -0.042191412299871445
0.32624906301498413 0.45830023288726807 -0.03378262370824814
0.29559704661369324 0.5097613334655762 -0.0008373620803467929
0.40942317247390747 0.8789149522781372 0.03301476687192917
0.31799519062042236 0.47907671332359314 -0.009235573001205921
0.19986316561698914 0.49962180852890015 0.09543423354625702
0.2633271813392639 0.49655163288116455 0.017425984144210815
0.38205838203430176 0.6112942695617676 -0.04164145886898041
0.47817036509513855 0.7110584378242493 -0.057584248483181
0.47474250197410583 0.7314074635505676 -0.043318428099155426
0.4314841628074646 0.7131970524787903 -0.045134007930755615
0.397563636302948 0.7159489393234253 -0.021378902718424797
0.44050902128219604 0.7293246984481812 -0.033911172300577164
0.41188162565231323 0.7272242903709412 -0.012447625398635864
0.36246052384376526 0.7630829811096191 0.031079452484846115
0.5214493274688721 0.6480093002319336 -0.14073120057582855
0.51970374584198 0.6209139227867126 -0.15179653465747833
0.2898436188697815 0.4391719102859497 -0.04088785499334335
0.4424067735671997 0.5485084652900696 -0.0455733947455883
0.44690269231796265 0.6313914060592651 -0.08783697336912155
0.44357532262802124 0.6155709028244019 -0.08139815926551819
0.29470622539520264 0.6053745746612549 -0.022668752819299698
0.5181388854980469 0.5867529511451721 -0.14092682301998138
0.36149388551712036 0.41623085737228394 -0.07640515267848969
0.32091253995895386 0.42287641763687134 -0.06337438523769379
0.24873073399066925 0.3352314531803131 0.01715179719030857
0.4728306829929352 0.4368852376937866 -0.07920236140489578
0.42312806844711304 0.45398643612861633 -0.029662588611245155
0.33942386507987976 0.7285574674606323 0.025272009894251823
0.2078293412923813 0.7538852691650391 0.19999632239341736
0.4639742374420166 0.646636962890625 -0.0728924423456192
0.48593074083328247 0.6551816463470459 -0.07048573344945908
0.35402581095695496 0.7252578139305115 0.030040109530091286
0.3671768307685852 0.7270656228065491 0.02672145515680313
0.30536240339279175 0.4052841067314148 -0.055910710245370865
0.44085583090782166 0.6386595964431763 -0.0719141736626625
0.41204819083213806 0.41976290941238403 -0.08221279084682465
0.4081551134586334 0.3975926637649536 -0.09140560030937195
0.368061363697052 0.2721450626850128 -0.06810024380683899
0.27926522493362427 0.36889806389808655 -0.023862341418862343
0.39225101470947266 0.3312012255191803 -0.08068235218524933
0.27035170793533325 0.4263211190700531 -0.02388175018131733
0.24263040721416473 0.4050842523574829 0.020062822848558426
0.4758274555206299 0.7241281867027283 -0.05257175490260124
0.43657422065734863 0.7234068512916565 -0.039380401372909546
0.40492141246795654 0.721892774105072 -0.01811915449798107
0.46872803568840027 0.6502464413642883 -0.06617341935634613
0.36006495356559753 0.7257651686668396 0.028272878378629684
0.3793962001800537 0.748539924621582 0.02018839865922928
0.37190476059913635 0.7280457615852356 0.02634662389755249
0.48535963892936707 0.645438015460968 -0.1094525158405304
0.4146097004413605 0.7239489555358887 -0.008214054629206657
0.44319358468055725 0.727323055267334 -0.023620063439011574
0.47487497329711914 0.7306944727897644 -0.03315798565745354
0.4665271043777466 0.8403915166854858 0.004339400213211775
0.4694663882255554 0.8144451379776001 -0.01905749924480915
0.471397340297699 0.8001543283462524 -0.023409312590956688
0.4731731116771698 0.7883686423301697 -0.01846383698284626
0.47524017095565796 0.7799652218818665 -0.014834522269666195
0.41377323865890503 0.7605906128883362 0.006436869967728853
0.4094661474227905 0.7631196975708008 0.0036753714084625244
0.403272420167923 0.7687686085700989 0.001989020500332117
0.39855021238327026 0.776584267616272 0.007412169594317675
0.38636159896850586 0.6952536106109619 -0.02063758298754692
0.1797463595867157 0.6169294714927673 0.2104099988937378
0.5349041223526001 0.6653268337249756 -0.0909130796790123
0.3941895067691803 0.7489977478981018 0.020397542044520378
0.3865969181060791 0.74776291847229 0.018983138725161552
0.4938392639160156 0.6664552092552185 -0.06820183992385864
0.4439428150653839 0.6513290405273438 -0.04829838126897812
0.4903678297996521 0.6612081527709961 -0.07055925577878952
0.4130261540412903 0.5608991980552673 -0.03985009342432022
0.3659344017505646 0.5759360790252686 -0.03852502256631851
0.43467047810554504 0.6243540048599243 -0.06587482243776321
0.29884088039398193 0.29798880219459534 -0.029819253832101822
0.32790085673332214 0.34307488799095154 -0.055732887238264084
0.3528347313404083 0.39427024126052856 -0.07635936886072159
0.39002928137779236 0.7954399585723877 0.022909952327609062
0.46602898836135864 0.4028344750404358 -0.0940260961651802
0.4535663425922394 0.32665395736694336 -0.09002237766981125
0.4378325343132019 0.25924384593963623 -0.08416758477687836
0.33241644501686096 0.502337634563446 -0.02044316567480564
0.26465895771980286 0.5277775526046753 0.011555710807442665
0.44280409812927246 0.494348406791687 -0.017932945862412453
0.29712873697280884 0.4680057764053345 -0.017605982720851898
0.46273118257522583 0.5339117050170898 -0.05430445075035095
0.46931418776512146 0.6270430088043213 -0.1117601990699768
0.23044690489768982 0.5469346046447754 0.036878518760204315
0.285618394613266 0.5426844954490662 -0.006049662362784147
0.32218676805496216 0.5503623485565186 -0.022593462839722633
0.37424522638320923 0.5478993058204651 -0.028364671394228935
0.41266465187072754 0.5393180251121521 -0.028808163478970528
0.43994587659835815 0.528952419757843 -0.033323418349027634
0.5027328729629517 0.5023534893989563 -0.08232048153877258
0.2278384566307068 0.5994559526443481 0.03694833070039749
0.2743234634399414 0.4654962122440338 -0.011042235419154167
0.5259678959846497 0.6608262658119202 -0.12652629613876343
0.4456824064254761 0.5747173428535461 -0.052914708852767944
0.178888201713562 0.49421703815460205 0.17170782387256622
0.4606032073497772 0.5165443420410156 -0.03635847941040993
0.42721027135849 0.6233112812042236 -0.03875778242945671
0.30875465273857117 0.48157382011413574 -0.005920532159507275
0.46568581461906433 0.6073557734489441 -0.10384836792945862
0.1873558759689331 0.6839436888694763 0.21064485609531403
0.44041240215301514 0.48554182052612305 -0.01291812676936388
0.49235451221466064 0.5950514674186707 -0.12786249816417694
0.28234875202178955 0.8155637383460999 0.09771080315113068
0.28140345215797424 0.850673258304596 0.14037573337554932
0.19187361001968384 0.6128527522087097 0.12328126281499863
0.2416674643754959 0.7808659076690674 0.11265964806079865
0.21974751353263855 0.4474213421344757 0.06336652487516403
0.4075625538825989 0.9078187942504883 0.04731602594256401
0.5249269604682922 0.6643801927566528 -0.09042277187108994
0.4183829724788666 0.5907220840454102 -0.04438302665948868
0.23629558086395264 0.5017931461334229 0.03852136433124542
0.3605467677116394 0.4915052056312561 -0.025236396118998528
0.3836784362792969 0.4929509162902832 -0.02812880463898182
0.3729285001754761 0.7511579990386963 0.023482024669647217
0.22408108413219452 0.6553066968917847 0.05444798246026039
0.45497822761535645 0.9418363571166992 0.0603887178003788
0.37118667364120483 0.9090631008148193 0.09588516503572464
0.33071333169937134 0.8855588436126709 0.11645857989788055
0.5205297470092773 0.32571515440940857 -0.08617647737264633
0.5051790475845337 0.9432779550552368 0.061891548335552216
0.4043838381767273 0.49143972992897034 -0.026170125231146812
0.4240356981754303 0.48816990852355957 -0.02035335637629032
0.4358546733856201 0.4869876503944397 -0.01429583691060543
0.2508922219276428 0.4589797556400299 0.009554431773722172
0.4164295494556427 0.46600955724716187 -0.025498926639556885
0.3938077390193939 0.4578380286693573 -0.03321649879217148
0.37176603078842163 0.45651504397392273 -0.03560037538409233
0.3489977717399597 0.461275190114975 -0.032737236469984055
0.3341744542121887 0.4689958691596985 -0.025755200535058975
0.19126686453819275 0.43102312088012695 0.1231241300702095
0.3433884084224701 0.4883384704589844 -0.020183341577649117
0.5249613523483276 0.6839203834533691 -0.05901998281478882
0.42141637206077576 0.6846568584442139 -0.04033670946955681
0.46607324481010437 0.6450623869895935 -0.08360745012760162
0.4835363030433655 0.6839288473129272 -0.061106253415346146
0.5238576531410217 0.46429169178009033 -0.07437844574451447
0.3270364999771118 0.8506993055343628 0.08773120492696762
0.36600589752197266 0.8797001838684082 0.07018642127513885
0.45611271262168884 0.9253586530685425 0.029971716925501823
0.24159717559814453 0.8100257515907288 0.17067860066890717
0.4330085813999176 0.47801753878593445 -0.01852918229997158
0.4874720275402069 0.5443455576896667 -0.08576502650976181
0.5084584355354309 0.9269933700561523 0.032711196690797806
0.41149386763572693 0.9293197393417358 0.07305353879928589
0.19539478421211243 0.6739686131477356 0.12960506975650787
0.4427606761455536 0.7719830274581909 -0.0064955963753163815
0.4384973347187042 0.7778817415237427 -0.009441010653972626
0.43453583121299744 0.7872660756111145 -0.011626660823822021
0.4316905438899994 0.8001868724822998 -0.006199263501912355
0.42361581325531006 0.8226413726806641 0.011075164191424847
0.38338419795036316 0.7246997952461243 0.007601105608046055
0.3760015368461609 0.7216873168945312 0.0069982693530619144
0.3693968653678894 0.7177698612213135 0.0051809195429086685
0.3549434542655945 0.7083798050880432 0.0019791361410170794
0.26187950372695923 0.6666684746742249 0.011013740673661232
0.48344212770462036 0.5168806314468384 -0.06649081408977509
0.4633287191390991 0.4692200720310211 -0.02846960537135601
0.4450627267360687 0.47160619497299194 -0.021939732134342194
0.38944172859191895 0.7220881581306458 0.010240438394248486
0.25328850746154785 0.7352173924446106 0.062021829187870026
0.48930010199546814 0.46918368339538574 -0.060184307396411896
0.41537174582481384 0.8487825989723206 0.023537086322903633
0.5363858938217163 0.5537144541740417 -0.12485063821077347
0.5088576078414917 0.5317901372909546 -0.10317808389663696
0.5321281552314758 0.5258044004440308 -0.10596837848424911
0.46845486760139465 0.5837329626083374 -0.08292662352323532
0.5098868608474731 0.9009280204772949 0.016968458890914917
0.5093302130699158 0.868561327457428 0.012511424720287323
0.4618622362613678 0.867632269859314 0.012968642637133598
0.3503245413303375 0.7811761498451233 0.04062995687127113
0.4009990394115448 0.6430807113647461 -0.03178076818585396
0.37992027401924133 0.8190719485282898 0.0354059562087059
0.3311740458011627 0.6425085663795471 -0.031770359724760056
0.3677182197570801 0.6685534119606018 -0.02165154740214348
0.3011135458946228 0.6836509704589844 -0.004413513466715813
0.4580563008785248 0.8995974063873291 0.01576394774019718
0.44849276542663574 0.5951055288314819 -0.06477195024490356
0.33389538526535034 0.8122727870941162 0.05980946496129036
0.37109440565109253 0.8472194671630859 0.05150776728987694
0.3256773352622986 0.7425498366355896 0.028663918375968933
0.22701525688171387 0.7035460472106934 0.07314587384462357
0.29309892654418945 0.759680986404419 0.04547150805592537
0.21004928648471832 0.73088139295578 0.13059623539447784
0.33599603176116943 0.6947730183601379 -0.004743181634694338
0.46705082058906555 0.5596590042114258 -0.06791359931230545
0.4781077802181244 0.6408684253692627 -0.1157405897974968
0.45505353808403015 0.6415239572525024 -0.0879717618227005
0.4944205582141876 0.6239950656890869 -0.13438811898231506
0.44552648067474365 0.4516404867172241 -0.04112899303436279
0.40575525164604187 0.4393685460090637 -0.053643882274627686
0.3691006302833557 0.4365030527114868 -0.05781050771474838
0.33674123883247375 0.4396815299987793 -0.05179809033870697
0.3116810619831085 0.44989630579948425 -0.03910247981548309
0.2902139127254486 0.48919081687927246 0.002281877212226391
0.193478524684906 0.5557555556297302 0.10998173803091049
0.3122102618217468 0.5193516612052917 -0.010028502903878689
0.3419209122657776 0.5259995460510254 -0.020376157015562057
0.3780052661895752 0.5262086987495422 -0.025395814329385757
0.41104656457901 0.5212191343307495 -0.02468656189739704
0.4356067478656769 0.5137559175491333 -0.023637760430574417
0.4524894058704376 0.5061163306236267 -0.02344490960240364
0.1779089868068695 0.5545457601547241 0.19844746589660645
0.4521920680999756 0.6449964046478271 -0.07448171824216843
0.4917858839035034 0.56892991065979 -0.10326221585273743
0.5010006427764893 0.644519031047821 -0.13197951018810272
0.5108944177627563 0.6561706066131592 -0.1177062839269638
0.49750468134880066 0.6480804085731506 -0.11943239718675613
0.4557480812072754 0.6506285667419434 -0.0630447119474411
0.5171541571617126 0.6588947176933289 -0.12358316779136658
0.5160418748855591 0.6622713804244995 -0.09198888391256332
0.45054009556770325 0.4873924255371094 -0.014705260284245014
0.46570098400115967 0.49308353662490845 -0.026785604655742645
0.47621482610702515 0.497988224029541 -0.044136591255664825
0.3251609802246094 0.4747347831726074 -0.01898353174328804
0.3118467926979065 0.46846652030944824 -0.02044769562780857
0.5547841191291809 0.556599497795105 -0.11188206076622009
0.6782823801040649 0.46733924746513367 0.04311542212963104
0.5560912489891052 0.656171441078186 -0.08782333135604858
0.7343775033950806 0.3699990510940552 0.15692482888698578
0.6085684895515442 0.49625056982040405 0.010297702625393867
0.6321491003036499 0.4960930049419403 0.015491210855543613
0.6549540758132935 0.49393948912620544 0.024756774306297302
0.685308575630188 0.476491242647171 0.04958643019199371
0.5899388790130615 0.49242669343948364 0.00762238260358572
0.6449247598648071 0.43203428387641907 0.001412710058502853
0.6178593039512634 0.43646883964538574 -0.003808870678767562
0.6693481206893921 0.4336695075035095 0.013121615163981915
0.6843850612640381 0.4410135746002197 0.025453319773077965
0.7011659145355225 0.49480682611465454 0.06603594124317169
0.5950682163238525 0.866623044013977 0.06150403246283531
0.6865471601486206 0.4602543115615845 0.05193939059972763
0.7454243898391724 0.48299381136894226 0.1857306808233261
0.7207177877426147 0.480132520198822 0.09185737371444702
0.6408627033233643 0.6040782928466797 -0.002005751710385084
0.5562167167663574 0.7088212966918945 -0.04690805450081825
0.5482958555221558 0.729505181312561 -0.03293142467737198
0.5895591378211975 0.7085228562355042 -0.023179475218057632
0.6080508828163147 0.710732102394104 0.009125906974077225
0.5730686187744141 0.726028561592102 -0.013884954154491425
0.5905621647834778 0.7237977981567383 0.014251433312892914
0.6248244047164917 0.7551662921905518 0.07111351191997528
0.5617876648902893 0.6462880969047546 -0.1359943151473999
0.5645249485969543 0.6192794442176819 -0.1456342488527298
0.7145354747772217 0.41882020235061646 0.029765702784061432
0.5883692502975464 0.5440897941589355 -0.020490575581789017
0.6048938632011414 0.6263678073883057 -0.06511151045560837
0.6038602590560913 0.6110421419143677 -0.05797821655869484
0.7086143493652344 0.5931174159049988 0.042355574667453766
0.5605420470237732 0.5853946805000305 -0.13337160646915436
0.6651750802993774 0.4008032977581024 -0.02668912336230278
0.6960846781730652 0.4038369655609131 -0.0013357190182432532
0.7198383808135986 0.3259415924549103 0.09778857231140137
0.5681440234184265 0.4326135516166687 -0.06221742555499077
0.5954800844192505 0.44649967551231384 0.0007411317783407867
0.6453840136528015 0.7202087640762329 0.07313226163387299
0.710181713104248 0.7272675037384033 0.2824741303920746
0.5879303216934204 0.6423630118370056 -0.056195661425590515
0.5685572028160095 0.6531752943992615 -0.06187095493078232
0.6290954947471619 0.7204472422599792 0.0720529556274414
0.6167936325073242 0.7236170768737793 0.06429849565029144
0.7057395577430725 0.3860827684402466 0.01029831264168024
0.6044038534164429 0.6343206167221069 -0.04983039200305939
0.6229010820388794 0.4095635414123535 -0.048045314848423004
0.6276315450668335 0.3874971568584442 -0.05672278627753258
0.6451783776283264 0.2683548033237457 -0.02231385000050068
0.7120126485824585 0.355122834444046 0.048327475786209106
0.6343952417373657 0.3245985507965088 -0.04179074615240097
0.7240689992904663 0.406782865524292 0.051361724734306335
0.729345977306366 0.3899312913417816 0.10142481327056885
0.5530446767807007 0.7219633460044861 -0.04174819216132164
0.5806045532226562 0.7193822264671326 -0.018519600853323936
0.5996695160865784 0.7173942923545837 0.010178356431424618
0.5820387005805969 0.6467750072479248 -0.05277613177895546
0.6235995292663574 0.721598744392395 0.06766945868730545
0.6103166937828064 0.7442324161529541 0.05365334078669548
0.6113799810409546 0.7247343063354492 0.06305238604545593
0.5800671577453613 0.6410340070724487 -0.09436418861150742
0.584727942943573 0.721341609954834 0.017441321164369583
0.5666714906692505 0.7249699234962463 -0.00443940469995141
0.5433043837547302 0.7295591235160828 -0.022450588643550873
0.5477962493896484 0.8372671604156494 0.015484621748328209
0.5477918982505798 0.8121201992034912 -0.006922417785972357
0.5471969246864319 0.7978432774543762 -0.010972361080348492
0.5454399585723877 0.7863374948501587 -0.006494888104498386
0.5421755909919739 0.7779721021652222 -0.0035594997461885214
0.5851309299468994 0.7567223310470581 0.0323156863451004
0.5896747708320618 0.7592687010765076 0.0293938759714365
0.5954941511154175 0.7642326951026917 0.02898562327027321
0.599434494972229 0.7713888883590698 0.0357636921107769
0.6269456744194031 0.6891955137252808 0.013592385686933994
0.7311637997627258 0.596234142780304 0.30291956663131714
0.5966533422470093 0.7454217076301575 0.0525701604783535
0.6041570901870728 0.74388587474823 0.051450587809085846
0.5601524114608765 0.6650581955909729 -0.059744127094745636
0.5962074398994446 0.6483556032180786 -0.030678914859890938
0.5644503831863403 0.6596195697784424 -0.06219427287578583
0.6124320030212402 0.5549511313438416 -0.00567823089659214
0.6526960134506226 0.5679260492324829 0.008486026898026466
0.6065243482589722 0.6198223233222961 -0.041580479592084885
0.6923160552978516 0.29136765003204346 0.03587121143937111
0.6821190714836121 0.3319033682346344 0.0017343842191621661
0.6718887686729431 0.37891924381256104 -0.024200396612286568
0.605793297290802 0.787584662437439 0.05595562234520912
0.5772559642791748 0.3985632359981537 -0.07626397162675858
0.5829060077667236 0.323864609003067 -0.06989894062280655
0.5888009071350098 0.2578006982803345 -0.061316218227148056
0.6746185421943665 0.4872506260871887 0.03820168599486351
0.7230553030967712 0.5128848552703857 0.08571352809667587
0.578758955001831 0.4876905381679535 0.008384274318814278
0.7036272883415222 0.44915372133255005 0.049567319452762604
0.5732070207595825 0.5302518606185913 -0.034261226654052734
0.5942072868347168 0.6223263740539551 -0.09379056841135025
0.7430448532104492 0.5301783084869385 0.12059181928634644
0.7117699384689331 0.529434323310852 0.0636795163154602
0.6856167316436768 0.5396319627761841 0.037623949348926544
0.6419755816459656 0.5395694971084595 0.017976926639676094
0.6085247993469238 0.5326538681983948 0.005998820997774601
0.5855264067649841 0.5237265825271606 -0.007584793493151665
0.5481776595115662 0.5008718967437744 -0.07380656152963638
0.7478506565093994 0.582129955291748 0.12074224650859833
0.7181944251060486 0.4473492503166199 0.06229196861386299
0.5508294701576233 0.6596450805664062 -0.1227475181221962
0.590539813041687 0.5707157850265503 -0.02902374602854252
0.7386658191680908 0.4792305529117584 0.26822429895401
0.5695903301239014 0.512574315071106 -0.016402332112193108
0.606731653213501 0.6189804077148438 -0.014439357444643974
0.6925337314605713 0.4625961184501648 0.058198388665914536
0.5919722318649292 0.6033543348312378 -0.08546192944049835
0.7249395847320557 0.6597905158996582 0.2985674738883972
0.5791159272193909 0.4779942035675049 0.014608093537390232
0.5768609046936035 0.5920951962471008 -0.11447393149137497
0.6794224977493286 0.7906620502471924 0.1603897511959076
0.6665735244750977 0.822857677936554 0.20279854536056519
0.7516698837280273 0.5917749404907227 0.2137112319469452
0.708489179611206 0.7549734115600586 0.1860692799091339
0.7376896739006042 0.43257686495780945 0.15035739541053772
0.5942947268486023 0.8931299448013306 0.07714149355888367
0.5445141792297363 0.6639074683189392 -0.08808805793523788
0.6110900640487671 0.5855496525764465 -0.014434345066547394
0.7349065542221069 0.4847481846809387 0.12063252925872803
0.6544406414031982 0.4775322675704956 0.026127075776457787
0.6333451271057129 0.48088473081588745 0.01743387244641781
0.6154955625534058 0.7459847331047058 0.05910738930106163
0.7459086179733276 0.6354790925979614 0.13613028824329376
0.5518451929092407 0.9333899617195129 0.07724729925394058
0.6111498475074768 0.8887008428573608 0.13665419816970825
0.6355091333389282 0.8602806329727173 0.16733625531196594
0.6129686832427979 0.48126888275146484 0.01266409084200859
0.5944796800613403 0.4796646237373352 0.01301230862736702
0.5834828019142151 0.4791775941848755 0.015590743161737919
0.7294290065765381 0.4414631128311157 0.08927936851978302
0.5991063714027405 0.4566279649734497 0.008415589109063148
0.6189126968383789 0.44630199670791626 0.0067151268012821674
0.6406144499778748 0.4421790540218353 0.010620908811688423
0.662401556968689 0.44453683495521545 0.02015075832605362
0.6750679612159729 0.4511561393737793 0.030573517084121704
0.7403887510299683 0.4183192849159241 0.21804888546466827
0.6686622500419617 0.47266823053359985 0.03559933230280876
0.6066761016845703 0.6800354719161987 -0.014696885831654072
0.5896893739700317 0.6403163075447083 -0.06783691048622131
0.5607331991195679 0.6817548274993896 -0.05053505674004555
0.6475775837898254 0.8279273509979248 0.13876061141490936
0.62049800157547 0.8596588969230652 0.11020215600728989
0.5569192171096802 0.9175175428390503 0.046705856919288635
0.6899670958518982 0.7823586463928223 0.24490733444690704
0.5855335593223572 0.4699157476425171 0.011740312911570072
0.5648442506790161 0.5418238639831543 -0.07262888550758362
0.5854033827781677 0.9141442775726318 0.1031263917684555
0.745455265045166 0.6503118276596069 0.21611283719539642
0.566202700138092 0.768865704536438 0.013241156935691833
0.5710238814353943 0.7745993733406067 0.01058146171271801
0.5746527910232544 0.7835318446159363 0.009791279211640358
0.5770857930183411 0.7961543798446655 0.015941474586725235
0.5817482471466064 0.8168135285377502 0.03591221198439598
0.6071779727935791 0.7211499214172363 0.04110036790370941
0.6152461171150208 0.7172480225563049 0.04308266565203667
0.6221214532852173 0.7126466631889343 0.04272889345884323
0.6421899199485779 0.7011671662330627 0.04527360200881958
0.7246900796890259 0.6500422358512878 0.08211673051118851
0.5600005388259888 0.5142701268196106 -0.05214153975248337
0.5642997622489929 0.4646208584308624 -0.011104929260909557
0.5766350626945496 0.46523797512054443 0.0036797872744500637
0.5996968150138855 0.7192630767822266 0.04263269528746605
0.7150881290435791 0.7144420742988586 0.1325274556875229
0.5503403544425964 0.4669352173805237 -0.04959971830248833
0.5882184505462646 0.8391864895820618 0.04947253689169884
0.5515663623809814 0.5303051471710205 -0.09592041373252869
0.5816628932952881 0.5801796913146973 -0.06579572707414627
0.5522487163543701 0.8626432418823242 0.025168651714920998
0.6368728876113892 0.768640398979187 0.08571906387805939
0.6241073608398438 0.6375239491462708 0.000186724922969006
0.6136427521705627 0.8071421384811401 0.07108179479837418
0.679550290107727 0.6317357420921326 0.019985010847449303
0.6456484198570251 0.6608110666275024 0.019308041781187057
0.6951838731765747 0.6698458194732666 0.055293258279561996
0.557786762714386 0.8929938077926636 0.03179335594177246
0.5928554534912109 0.5911563634872437 -0.04303670674562454
0.6488189697265625 0.7939297556877136 0.10950528830289841
0.6202158331871033 0.8310377597808838 0.08981242030858994
0.6600938439369202 0.7297486662864685 0.08331210911273956
0.7356219291687012 0.6817458271980286 0.15109534561634064
0.6845465302467346 0.7408984899520874 0.10681334882974625
0.7312372922897339 0.7052187919616699 0.21313945949077606
0.6619496941566467 0.6852978467941284 0.04555615037679672
0.5767896175384521 0.5562275052070618 -0.04925922304391861
0.5878868699073792 0.6360228657722473 -0.0992635115981102
0.5989364385604858 0.6365265250205994 -0.06880495697259903
0.5809234976768494 0.6205064058303833 -0.12098192423582077
0.5817846059799194 0.444854736328125 -0.01711443066596985
0.6193134784698486 0.4284665584564209 -0.017834028229117393
0.6535277962684631 0.4221447706222534 -0.010158289223909378
0.6810495853424072 0.42318201065063477 0.005281910765916109
0.6981968283653259 0.43125611543655396 0.024098610505461693
0.7041215896606445 0.4716735780239105 0.07034055143594742
0.7509099245071411 0.5368883609771729 0.20271934568881989
0.6902605891227722 0.505251407623291 0.053297534584999084
0.6666945219039917 0.5146143436431885 0.03488726168870926
0.6359747648239136 0.5166130065917969 0.020039152354002
0.6069029569625854 0.5133578181266785 0.010843510739505291
0.5858008861541748 0.5073893666267395 0.003110637189820409
0.5720556974411011 0.5010174512863159 -0.0019985390827059746
0.7338830828666687 0.5372051000595093 0.2947515547275543
0.5968414545059204 0.6404840350151062 -0.055756811052560806
0.569580614566803 0.5664011836051941 -0.0899684727191925
0.5753061771392822 0.6408579349517822 -0.12172797322273254
0.5598797798156738 0.6535453200340271 -0.11178746074438095
0.5729682445526123 0.644161581993103 -0.10876880586147308
0.590300440788269 0.6473430395126343 -0.04720170423388481
0.5572009086608887 0.6569780707359314 -0.11871442943811417
0.5514282584190369 0.6608640551567078 -0.0877906084060669
0.5719326734542847 0.4811103343963623 0.007944891229271889
0.561625599861145 0.4889654517173767 -0.010114028118550777
0.5578157305717468 0.49490463733673096 -0.029869796708226204
0.6818692684173584 0.4562820792198181 0.04007640480995178
0.6934137344360352 0.4497123062610626 0.041872501373291016
