ply
format ascii 1.0
element vertex 468
property float x
property float y
property float z
end_header
0.5205779671669006 0.7255058288574219 -0.04811987653374672
0.5414284467697144 0.6623325943946838 -0.1310829222202301
0.5274943113327026 0.6804553866386414 -0.06219268962740898
0.5138767957687378 0.5688058733940125 -0.11670655757188797
0.5430582761764526 0.6350414156913757 -0.14295907318592072
0.5399773716926575 0.596926212310791 -0.13875636458396912
0.526788055896759 0.502375602722168 -0.08954830467700958
0.32839488983154297 0.4808369278907776 -0.026623954996466637
0.5229275226593018 0.43095505237579346 -0.08348250389099121
0.5239828824996948 0.39442014694213867 -0.09486091881990433
0.5202593207359314 0.2542616128921509 -0.09858518838882446
0.5186999440193176 0.736226499080658 -0.04363441839814186
0.5161471366882324 0.7429572343826294 -0.035816680639982224
0.5134473443031311 0.7437384724617004 -0.025035258382558823
0.5142633318901062 0.7975872755050659 -0.004923700820654631
0.5148255825042725 0.809807538986206 -0.007178483996540308
0.5145161151885986 0.8236639499664307 -0.008158947341144085
0.5134103298187256 0.8379953503608704 0.0014920308021828532
0.5093086361885071 0.857391357421875 0.030824175104498863
0.5377941131591797 0.6746907234191895 -0.11652645468711853
0.5102636814117432 0.6698058247566223 -0.08602205663919449
0.20487257838249207 0.3662709593772888 0.044875651597976685
0.40785518288612366 0.5042389035224915 -0.03707810491323471
0.3820410966873169 0.5060856342315674 -0.03878706321120262
0.3558140993118286 0.5050218105316162 -0.03608071804046631
0.3155914545059204 0.48892414569854736 -0.02307097427546978
0.4287145137786865 0.4987037181854248 -0.030799776315689087
0.37040889263153076 0.43450963497161865 -0.0580875538289547
0.399222195148468 0.4368196129798889 -0.053400445729494095
0.3429170250892639 0.43910717964172363 -0.05315880477428436
0.3237239420413971 0.4490227699279785 -0.04500354081392288
0.2931186556816101 0.5059590339660645 -0.010849750600755215
0.40827837586402893 0.8817324638366699 0.053612321615219116
0.31552520394325256 0.47338438034057617 -0.02121727354824543
0.19319981336593628 0.48601436614990234 0.07921268045902252
0.25946366786956787 0.4877275228500366 0.005282196681946516
0.3849194049835205 0.6180974245071411 -0.04057241976261139
0.4833594858646393 0.7213295102119446 -0.0510510578751564
0.4810578525066376 0.7414997816085815 -0.037070225924253464
0.44182971119880676 0.7234991788864136 -0.03969116508960724
0.4124833047389984 0.7259780764579773 -0.018445471301674843
0.4511904716491699 0.7397146821022034 -0.029295720160007477
0.42679691314697266 0.7378068566322327 -0.009742068126797676
0.3740635812282562 0.7721697688102722 0.03620550036430359
0.5210224390029907 0.6616066694259644 -0.13165873289108276
0.519410252571106 0.6345210671424866 -0.1434701681137085
0.2860066890716553 0.4241417646408081 -0.052049435675144196
0.4422181248664856 0.5535487532615662 -0.04810672253370285
0.4528340697288513 0.641996443271637 -0.08305274695158005
0.44895580410957336 0.6256709098815918 -0.0780746340751648
0.2975314259529114 0.6096649169921875 -0.02455706149339676
0.517516016960144 0.5991293787956238 -0.13507848978042603
0.3568997383117676 0.39899760484695435 -0.08500753343105316
0.3169131278991699 0.40657851099967957 -0.07205330580472946
0.24225451052188873 0.321742445230484 -0.005571287591010332
0.4692801833152771 0.42455732822418213 -0.08554433286190033
0.422937273979187 0.44712620973587036 -0.041904374957084656
0.3539731800556183 0.7376803159713745 0.02753063105046749
0.2071918547153473 0.7354507446289062 0.1979118287563324
0.4695585370063782 0.6573895215988159 -0.06814205646514893
0.4892630875110626 0.6665794253349304 -0.06299862265586853
0.37336865067481995 0.7362701892852783 0.030062559992074966
0.3865085542201996 0.738224446773529 0.026391731575131416
0.3006768226623535 0.3880612552165985 -0.06745558232069016
0.4481157958507538 0.6492573022842407 -0.06723017990589142
0.4068657159805298 0.4029213488101959 -0.08997847139835358
0.40326055884361267 0.38131803274154663 -0.10027283430099487
0.36664438247680664 0.2648398280143738 -0.08935824781656265
0.27292346954345703 0.3551252484321594 -0.04115718603134155
0.38903361558914185 0.3224412202835083 -0.09632154554128647
0.2656875252723694 0.41015470027923584 -0.03730092570185661
0.23588715493679047 0.390295147895813 0.0014758037868887186
0.48180949687957764 0.7338916659355164 -0.046397387981414795
0.4471759498119354 0.7336644530296326 -0.03460218012332916
0.41979289054870605 0.73199063539505 -0.015525411814451218
0.4740641415119171 0.6611768007278442 -0.06028026342391968
0.37969276309013367 0.737011730670929 0.02803809382021427
0.3959992527961731 0.7605859041213989 0.022923722863197327
0.3905308246612549 0.7383723258972168 0.026563163846731186
0.4881378710269928 0.6568712592124939 -0.1031646654009819
0.42939579486846924 0.7349339127540588 -0.005791668780148029
0.45387640595436096 0.7384967803955078 -0.019064437597990036
0.4810601472854614 0.7418709993362427 -0.026920685544610023
0.46821826696395874 0.8542076349258423 0.027337003499269485
0.47328823804855347 0.8333485722541809 -0.0017541511915624142
0.4762037694454193 0.8189597725868225 -0.009728428907692432
0.4789058566093445 0.8052852153778076 -0.008724973537027836
0.481169193983078 0.7950785160064697 -0.0065987915731966496
0.4273598790168762 0.7730362415313721 0.011051638051867485
0.4227452278137207 0.7764069437980652 0.009377781301736832
0.41604089736938477 0.7824607491493225 0.008930486626923084
0.41032910346984863 0.7901226282119751 0.01500437781214714
0.39691361784935 0.7044407725334167 -0.017817124724388123
0.17611795663833618 0.5972539186477661 0.19858503341674805
0.5332118272781372 0.6775559782981873 -0.08243561536073685
0.41026821732521057 0.7604036331176758 0.02260187454521656
0.40324515104293823 0.7600247263908386 0.02162604033946991
0.4963047504425049 0.6778613924980164 -0.059967443346977234
0.4511476755142212 0.6622452735900879 -0.04314231127500534
0.49323177337646484 0.672526478767395 -0.06254777312278748
0.41380560398101807 0.5657556056976318 -0.04173613712191582
0.3668909966945648 0.581201434135437 -0.039224859327077866
0.44130972027778625 0.6343180537223816 -0.06262920051813126
0.2943452298641205 0.28709036111831665 -0.052027635276317596
0.32206934690475464 0.331221342086792 -0.0725889578461647
0.3474491834640503 0.3773885667324066 -0.0878203883767128
0.39761579036712646 0.8058777451515198 0.03291645273566246
0.46324098110198975 0.38930612802505493 -0.10165145993232727
0.4532744288444519 0.3222660422325134 -0.10425331443548203
0.4392475485801697 0.25514957308769226 -0.10397559404373169
0.3308142423629761 0.49956050515174866 -0.02959819883108139
0.26147645711898804 0.5238456726074219 0.0013429437531158328
0.4418736696243286 0.49287107586860657 -0.027091950178146362
0.2941124439239502 0.458121120929718 -0.029766561463475227
0.46188050508499146 0.539276123046875 -0.05664908513426781
0.4725097715854645 0.638094961643219 -0.10628742724657059
0.2272178828716278 0.540594220161438 0.026588883250951767
0.2832454442977905 0.5421656370162964 -0.014182559214532375
0.32079681754112244 0.5529928803443909 -0.029103051871061325
0.37375128269195557 0.5508811473846436 -0.03275802731513977
0.41228389739990234 0.5419978499412537 -0.033847179263830185
0.43900561332702637 0.5317813158035278 -0.03796077519655228
0.5017581582069397 0.5085911750793457 -0.0835956484079361
0.2282417118549347 0.5957524180412292 0.030194329097867012
0.27040326595306396 0.45335686206817627 -0.023700326681137085
0.5252538323402405 0.6736854910850525 -0.11746957898139954
0.447102814912796 0.5817415714263916 -0.05397661402821541
0.170599102973938 0.4754362404346466 0.15293917059898376
0.4593457281589508 0.5197798013687134 -0.041395556181669235
0.4337151050567627 0.6325762271881104 -0.037492670118808746
0.30609047412872314 0.4744839668273926 -0.01810753159224987
0.4686458110809326 0.6178410053253174 -0.09989513456821442
0.1855599582195282 0.6644890308380127 0.20357343554496765
0.43942004442214966 0.48342233896255493 -0.02387969382107258
0.4927886426448822 0.6062318682670593 -0.12271333485841751
0.2839761972427368 0.8097184896469116 0.10351338982582092
0.27962034940719604 0.8382300734519958 0.1483660787343979
0.18961229920387268 0.600574791431427 0.11355003714561462
0.24393723905086517 0.7718470096588135 0.11509784311056137
0.21242523193359375 0.4335983991622925 0.045503925532102585
0.4047446548938751 0.907459557056427 0.0700165256857872
0.5239973664283752 0.676522970199585 -0.08205761760473251
0.4210689961910248 0.5977382063865662 -0.04483421519398689
0.23136892914772034 0.49121469259262085 0.025116361677646637
0.35978981852531433 0.48949381709098816 -0.0359271839261055
0.3831307590007782 0.49117475748062134 -0.03834705799818039
0.38892263174057007 0.7623758912086487 0.02641937881708145
0.22751697897911072 0.6507261991500854 0.050749775022268295
0.449740469455719 0.9424440860748291 0.08783213794231415
0.3673405647277832 0.9014694690704346 0.1136455312371254
0.32786276936531067 0.8754134178161621 0.12915775179862976
0.5227934718132019 0.3237544596195221 -0.09927021712064743
0.5000748038291931 0.946514368057251 0.0910758376121521
0.4037911295890808 0.48967602849006653 -0.03623593598604202
0.42331990599632263 0.48606085777282715 -0.030576985329389572
0.43497395515441895 0.48462414741516113 -0.024926047772169113
0.24567490816116333 0.4451414942741394 -0.004526038654148579
0.41579145193099976 0.462929904460907 -0.03761838376522064
0.3927837312221527 0.45379263162612915 -0.04497409611940384
0.37034016847610474 0.45219141244888306 -0.047377895563840866
0.34714049100875854 0.4568324685096741 -0.04433418810367584
0.332047700881958 0.46440568566322327 -0.03783164545893669
0.18196752667427063 0.4143901467323303 0.10230229049921036
0.342196524143219 0.4855683445930481 -0.03131226822733879
0.524164080619812 0.6947054862976074 -0.05065702646970749
0.4294479787349701 0.6949619650840759 -0.03432002663612366
0.4709972143173218 0.6558600664138794 -0.07869785279035568
0.4867381453514099 0.6948939561843872 -0.05268901214003563
0.5225448608398438 0.46431964635849 -0.07772327959537506
0.32679930329322815 0.8459753394126892 0.09880334883928299
0.36447155475616455 0.8762538433074951 0.0870746523141861
0.45194211602211 0.9292011260986328 0.057585086673498154
0.24060431122779846 0.794694721698761 0.1744532436132431
0.432126522064209 0.4759705662727356 -0.02981291152536869
0.4867323637008667 0.552692711353302 -0.08620572090148926
0.5045573115348816 0.9337557554244995 0.061849500983953476
0.4069191813468933 0.9258571863174438 0.09614652395248413
0.19513842463493347 0.6616170406341553 0.12385672330856323
0.45246270298957825 0.7859789133071899 0.0002976007235702127
0.4478257894515991 0.7928946614265442 -0.001548062777146697
0.4431680142879486 0.8033196926116943 -0.0015482770977541804
0.4390254616737366 0.8165531158447266 0.005612111650407314
0.42817050218582153 0.8348384499549866 0.02735024504363537
0.40214306116104126 0.7354211211204529 0.008866888470947742
0.394773930311203 0.7320659160614014 0.008018895983695984
0.38767772912979126 0.7277605533599854 0.005629117134958506
0.3691130578517914 0.7175266742706299 0.002688867272809148
0.26815253496170044 0.6674008369445801 0.011271655559539795
0.48228275775909424 0.5226808786392212 -0.06867577135562897
0.4617544412612915 0.4661499857902527 -0.0387401320040226
0.4441836178302765 0.46827930212020874 -0.03316700831055641
0.4075286388397217 0.7328135967254639 0.011397660709917545
0.2595674991607666 0.7322050333023071 0.06356164067983627
0.487852543592453 0.46753618121147156 -0.06653255224227905
0.41660329699516296 0.8559268712997437 0.0426073893904686
0.5353299975395203 0.565319836139679 -0.12124529480934143
0.5077277421951294 0.540952742099762 -0.10244905203580856
0.5310345888137817 0.5357210636138916 -0.10475237667560577
0.46958136558532715 0.5927746891975403 -0.0817810520529747
0.5070130825042725 0.9107832908630371 0.04521962255239487
0.5080878138542175 0.8811531066894531 0.03881814703345299
0.4614691138267517 0.8774936199188232 0.038016363978385925
0.35644638538360596 0.786422073841095 0.04758497700095177
0.4070466160774231 0.6517990231513977 -0.028773071244359016
0.3830614686012268 0.8245311379432678 0.04850129038095474
0.33643049001693726 0.6485550403594971 -0.029451964423060417
0.374844491481781 0.6762848496437073 -0.018831472843885422
0.30914515256881714 0.6880110502243042 -0.0027741906233131886
0.45548996329307556 0.9060533046722412 0.042352527379989624
0.45162609219551086 0.6037077903747559 -0.063898004591465
0.3365476429462433 0.8130494952201843 0.06842415034770966
0.3714827001094818 0.8483169078826904 0.06636008620262146
0.33475151658058167 0.7482658624649048 0.03259272873401642
0.23179085552692413 0.6976145505905151 0.07159662246704102
0.2994430661201477 0.7607699632644653 0.049295537173748016
0.21110495924949646 0.7189362645149231 0.12896256148815155
0.34647077322006226 0.7022473216056824 -0.002005120972171426
0.46717965602874756 0.5672072768211365 -0.06870067864656448
0.4811789095401764 0.6522639393806458 -0.10948126018047333
0.4609283208847046 0.652307391166687 -0.0825769230723381
0.49555110931396484 0.6363075971603394 -0.12657099962234497
0.4433644115924835 0.4427276849746704 -0.05266815051436424
0.40358254313468933 0.4266189932823181 -0.06429259479045868
0.36658650636672974 0.4230068325996399 -0.06766421347856522
0.33396458625793457 0.427284836769104 -0.06176874786615372
0.30917298793792725 0.4384532570838928 -0.04966343939304352
0.28698891401290894 0.4812503457069397 -0.00943620316684246
0.18887919187545776 0.542871356010437 0.09675812721252441
0.31000882387161255 0.5171920657157898 -0.01930004172027111
0.3404226303100586 0.5260182023048401 -0.027593255043029785
0.3773137331008911 0.526631772518158 -0.03182408586144447
0.4104470908641815 0.5215480327606201 -0.032514918595552444
0.43455323576927185 0.5140406489372253 -0.03019852004945278
0.4511450529098511 0.5069646239280701 -0.03091958910226822
0.17209628224372864 0.5350406169891357 0.18284469842910767
0.4587842524051666 0.655785083770752 -0.06922096014022827
0.49144721031188965 0.5787850618362427 -0.10124673694372177
0.5020444393157959 0.6572517156600952 -0.12409725785255432
0.5111478567123413 0.6683146357536316 -0.10927258431911469
0.49895498156547546 0.6600074768066406 -0.11203213036060333
0.462098628282547 0.6615283489227295 -0.057520791888237
0.5170049667358398 0.6715883612632751 -0.1147715225815773
0.5159009695053101 0.6743466258049011 -0.08394957333803177
0.44946539402008057 0.48562514781951904 -0.024773601442575455
0.46446433663368225 0.4935149848461151 -0.03504200279712677
0.47506773471832275 0.5003795027732849 -0.049025680869817734
0.3228045701980591 0.4698430895805359 -0.030817842110991478
0.30907633900642395 0.4600251317024231 -0.0323079451918602
0.5533586144447327 0.5681864023208618 -0.10847582668066025
0.6748664379119873 0.4748486280441284 0.033967532217502594
0.5520147681236267 0.6685594320297241 -0.07976008951663971
0.7421715259552002 0.3651672303676605 0.13884882628917694
0.6043035984039307 0.5022911429405212 0.0018956511048600078
0.6279953122138977 0.5028782486915588 0.008063903078436852
0.6512284278869629 0.5008321404457092 0.01785222813487053
0.6818699836730957 0.48269975185394287 0.04148079454898834
0.5857614278793335 0.497366726398468 -0.00036627627559937537
0.6433337330818176 0.4306067228317261 -0.008680899627506733
0.6162908673286438 0.4344472885131836 -0.014660647138953209
0.6673991084098816 0.4338686466217041 0.003989205230027437
0.6819788217544556 0.4433799684047699 0.01628519967198372
0.6981051564216614 0.5000753998756409 0.058259639889001846
0.5887674689292908 0.8730254173278809 0.08281778544187546
0.6836391091346741 0.4669862389564514 0.04252799600362778
0.7466709613800049 0.47929850220680237 0.1738402396440506
0.7188137769699097 0.4809184670448303 0.0829874649643898
0.6350111365318298 0.6148208975791931 -0.00020343472715467215
0.5534769892692566 0.7195292115211487 -0.04003100469708443
0.5450240969657898 0.740213930606842 -0.02655095048248768
0.582121729850769 0.7199341654777527 -0.017108097672462463
0.5973702669143677 0.7221158742904663 0.012742629274725914
0.5659332275390625 0.7372721433639526 -0.00908710714429617
0.5801815390586853 0.7353615760803223 0.017113398760557175
0.6149097084999084 0.7669668197631836 0.07646556943655014
0.5594030022621155 0.6605098247528076 -0.12644062936306
0.5627188086509705 0.633646547794342 -0.13706174492835999
0.7141708135604858 0.41656115651130676 0.021829187870025635
0.5853276252746582 0.5520915985107422 -0.022408509626984596
0.5953053832054138 0.6395374536514282 -0.0589655302464962
0.5949056148529053 0.6237657070159912 -0.053284842520952225
0.7015070915222168 0.6034783124923706 0.04189728572964668
0.5590317249298096 0.5985580086708069 -0.12710465490818024
0.6680741310119629 0.3941009044647217 -0.03372640535235405
0.6965632438659668 0.39965689182281494 -0.007933106273412704
0.727724552154541 0.32216963171958923 0.07864437252283096
0.5710266828536987 0.4234941601753235 -0.06842034310102463
0.5936161875724792 0.44555845856666565 -0.010624467395246029
0.6330918073654175 0.7323920130729675 0.07549518346786499
0.6998273730278015 0.7192730903625488 0.2850760817527771
0.5786201357841492 0.6552181839942932 -0.05069040134549141
0.561616837978363 0.6655761003494263 -0.054073695093393326
0.6149356961250305 0.7332714200019836 0.0721343606710434
0.6025800704956055 0.7362419366836548 0.0637284368276596
0.7076516151428223 0.3813032805919647 0.0013000222388654947
0.5932146906852722 0.6473698616027832 -0.04352264478802681
0.6273887753486633 0.39998966455459595 -0.054918836802244186
0.632997453212738 0.37840384244918823 -0.06428203731775284
0.6520399451255798 0.2664647698402405 -0.04145904257893562
0.7181297540664673 0.35189881920814514 0.033907048404216766
0.6410027742385864 0.32182297110557556 -0.055235568434000015
0.7254848480224609 0.4030875563621521 0.04142758250236511
0.7346535921096802 0.38612228631973267 0.0865817591547966
0.5500708818435669 0.7322264909744263 -0.03520817682147026
0.5736839771270752 0.730484127998352 -0.013123570010066032
0.5894174575805664 0.7287872433662415 0.013414566405117512
0.572969913482666 0.65953528881073 -0.04590239375829697
0.6093064546585083 0.7346822619438171 0.06755777448415756
0.5997545123100281 0.7580974102020264 0.05657722055912018
0.5975956320762634 0.7364096641540527 0.06294868886470795
0.5739590525627136 0.6542744040489197 -0.08684385567903519
0.5740218758583069 0.7332910895347595 0.020133430138230324
0.5594568252563477 0.7368769645690918 -5.0202233978779987e-05
0.5397725701332092 0.7410891056060791 -0.01614115759730339
0.5458535552024841 0.851842999458313 0.03816809505224228
0.5483433604240417 0.8315365314483643 0.010142450220882893
0.5480011105537415 0.8171199560165405 0.0025813179090619087
0.5456938147544861 0.8036689758300781 0.0035079631488770247
0.5420529842376709 0.7935540676116943 0.004882026929408312
0.5773913264274597 0.7705442905426025 0.03710608556866646
0.5826194882392883 0.7737915515899658 0.035314977169036865
0.5888506174087524 0.7796081304550171 0.03611615672707558
0.5930286645889282 0.7867469787597656 0.043619584292173386
0.6167622804641724 0.7007656693458557 0.01730167865753174
0.7262831926345825 0.5868661999702454 0.29539957642555237
0.5861607193946838 0.7582831382751465 0.0548391193151474
0.5935876965522766 0.7576595544815063 0.054096419364213943
0.5544998645782471 0.677067220211029 -0.05093906447291374
0.5854892730712891 0.6610159277915955 -0.02427603118121624
0.5581009387969971 0.671835720539093 -0.05390409752726555
0.6083173751831055 0.563612163066864 -0.0071234507486224174
0.6483441591262817 0.5777193307876587 0.008232363499701023
0.5963431596755981 0.6324556469917297 -0.03693030774593353
0.7000417709350586 0.2883683145046234 0.016280341893434525
0.688870906829834 0.32900315523147583 -0.012506010010838509
0.6762057542800903 0.3725939989089966 -0.03364699333906174
0.5991765260696411 0.8005445003509521 0.06598858535289764
0.5810059905052185 0.3887760639190674 -0.08340898156166077
0.5876691341400146 0.3222603499889374 -0.0829891785979271
0.5942757725715637 0.25633522868156433 -0.07983149588108063
0.6709392666816711 0.4940528869628906 0.03103814087808132
0.7202962040901184 0.5174105763435364 0.0782935842871666
0.5747695565223694 0.49186235666275024 -0.00011151848593726754
0.7016270160675049 0.4511680603027344 0.040377289056777954
0.571296215057373 0.5379894971847534 -0.0362461656332016
0.5874850749969482 0.6357447504997253 -0.08699315786361694
0.7394934892654419 0.5327325463294983 0.11357709765434265
0.7086353302001953 0.5365560054779053 0.058177683502435684
0.6826433539390564 0.5483621954917908 0.03287341818213463
0.6387653946876526 0.5477769374847412 0.014484135434031487
0.6051490306854248 0.5397568941116333 0.002035013632848859
0.582874596118927 0.5302045941352844 -0.011324724182486534
0.5469132661819458 0.5081474184989929 -0.07495550066232681
0.7406789064407349 0.5869178771972656 0.11720964312553406
0.7174918055534363 0.4462135434150696 0.053035177290439606
0.5485387444496155 0.6730139255523682 -0.11317498236894608
0.5858126878738403 0.580305814743042 -0.029102887958288193
0.7415429353713989 0.4704589545726776 0.2537055015563965
0.567597508430481 0.5187684297561646 -0.02089269831776619
0.5966142416000366 0.6309611201286316 -0.011630352586507797
0.6894652843475342 0.46773064136505127 0.04894639551639557
0.5857387185096741 0.6160569787025452 -0.08026594668626785
0.7169265747070312 0.6510961055755615 0.2960238754749298
0.5752537250518799 0.4819142818450928 0.004367972258478403
0.5737667679786682 0.604874312877655 -0.10851632803678513
0.6688043475151062 0.7932535409927368 0.16848541796207428
0.6563226580619812 0.8197743892669678 0.2136509269475937
0.7459041476249695 0.5894246101379395 0.20795641839504242
0.696847677230835 0.7553846836090088 0.19168896973133087
0.741700291633606 0.4290032386779785 0.13652126491069794
0.5875718593597412 0.896856427192688 0.10132040083408356
0.5420151948928833 0.676257312297821 -0.07971616089344025
0.6050071716308594 0.5956054329872131 -0.013836771249771118
0.7339696884155273 0.48393481969833374 0.11093887686729431
0.6502231359481812 0.4852500557899475 0.01722518727183342
0.6289146542549133 0.48826277256011963 0.008735151961445808
0.6049091815948486 0.7592583298683167 0.06183740869164467
0.7352660894393921 0.639617919921875 0.1349431425333023
0.546037495136261 0.9362443685531616 0.10550745576620102
0.6027361154556274 0.8872178196907043 0.15653294324874878
0.6260902881622314 0.8580459952354431 0.18254214525222778
0.6087519526481628 0.4878450334072113 0.0036751250736415386
0.5900905728340149 0.4847947657108307 0.0035283230245113373
0.579317033290863 0.4833781123161316 0.00568242697045207
0.7304470539093018 0.43854182958602905 0.07869703322649002
0.5957880616188049 0.46044421195983887 -0.002878461731597781
0.6163380146026611 0.4504696726799011 -0.004143290687352419
0.6384373307228088 0.44736623764038086 0.0003195643366780132
0.6600819230079651 0.45083147287368774 0.01029808446764946
0.672617495059967 0.45810359716415405 0.020433444529771805
0.7471537590026855 0.4118916988372803 0.20108996331691742
0.6647020578384399 0.4804418683052063 0.026638628914952278
0.5974059700965881 0.6920901536941528 -0.007900814525783062
0.5810047388076782 0.6533253192901611 -0.06173945590853691
0.5564101338386536 0.6932453513145447 -0.04151427000761032
0.6381407380104065 0.8303196430206299 0.15172502398490906
0.6125959753990173 0.8622122406959534 0.12886065244674683
0.5520601272583008 0.9234269857406616 0.07468029856681824
0.6791322827339172 0.7768780589103699 0.2523532509803772
0.581931471824646 0.47397154569625854 0.0011920202523469925
0.5632264018058777 0.5517070889472961 -0.07239522784948349
0.5782915353775024 0.9147560596466064 0.12778858840465546
0.736981987953186 0.6479332447052002 0.2143315076828003
0.5624507069587708 0.7837731838226318 0.02006741426885128
0.5676351189613342 0.7904343008995056 0.018928837031126022
0.5720665454864502 0.8007438778877258 0.020024171099066734
0.5746525526046753 0.8137055039405823 0.028102628886699677
0.5775264501571655 0.8307795524597168 0.05200716480612755
0.5935843586921692 0.7333395481109619 0.04235674813389778
0.6018248796463013 0.7292419672012329 0.04395271837711334
0.6087528467178345 0.724540114402771 0.04382381588220596
0.6299698352813721 0.7130476236343384 0.04679849371314049
0.7131748795509338 0.6582821607589722 0.08337336033582687
0.5587932467460632 0.5218279957771301 -0.05418965220451355
0.563025176525116 0.46514686942100525 -0.020636338740587234
0.5738992094993591 0.4669390916824341 -0.006577081046998501
0.5865117907524109 0.7311948537826538 0.04389417544007301
0.7020285725593567 0.7195040583610535 0.13605420291423798
0.5495985746383667 0.4669871926307678 -0.055425241589546204
0.5830312967300415 0.8491866588592529 0.06888219714164734
0.5505029559135437 0.5402438044548035 -0.09486217051744461
0.5775343775749207 0.5911811590194702 -0.06364668905735016
0.5490351915359497 0.8737611770629883 0.050313834100961685
0.6279970407485962 0.7779834270477295 0.0929379090666771
0.6149728298187256 0.6492075324058533 0.0041640810668468475
0.6070041060447693 0.8162230849266052 0.08452749252319336
0.6715712547302246 0.6428874731063843 0.022846035659313202
0.6367799639701843 0.6721895933151245 0.023079881444573402
0.6838286519050598 0.6801794171333313 0.05746956914663315
0.5533388257026672 0.9011682271957397 0.058540455996990204
0.5864838361740112 0.602073609828949 -0.04099198058247566
0.6397902369499207 0.8004333972930908 0.1193024218082428
0.6131786108016968 0.8369606137275696 0.10575178265571594
0.6491337418556213 0.7400270700454712 0.0874861553311348
0.7232788801193237 0.6846867799758911 0.15234574675559998
0.67314612865448 0.7487285137176514 0.11143742501735687
0.720909059047699 0.7034233808517456 0.21507078409194946
0.6508210897445679 0.6969149708747864 0.04821307584643364
0.5738099217414856 0.5659016966819763 -0.04938112944364548
0.5815064907073975 0.6494479179382324 -0.09182645380496979
0.5895141363143921 0.6496908068656921 -0.06208116561174393
0.5770754218101501 0.6344529390335083 -0.1126684918999672
0.5823618173599243 0.44076961278915405 -0.02765028178691864
0.6202652454376221 0.423278272151947 -0.027149848639965057
0.6538031101226807 0.4185469150543213 -0.018679527565836906
0.6801180243492126 0.4218785762786865 -0.002679008524864912
0.6961697340011597 0.4319729208946228 0.016092896461486816
0.7016922831535339 0.4746455252170563 0.06126943230628967
0.7483327984809875 0.534063458442688 0.193844273686409
0.6871768832206726 0.5118263959884644 0.046133171766996384
0.6638890504837036 0.5216953158378601 0.02919675037264824
0.6327024698257446 0.5235155820846558 0.014810425229370594
0.6032630801200867 0.5193799734115601 0.004098224453628063
0.5825901031494141 0.5125885009765625 -0.00277353310957551
0.5693600177764893 0.5059535503387451 -0.00858867447823286
0.7326655387878418 0.5276524424552917 0.28319501876831055
0.5864481329917908 0.6537007093429565 -0.049167342483997345
0.5673787593841553 0.5776063203811646 -0.08722881227731705
0.5713695287704468 0.6549298763275146 -0.11301189661026001
0.5565159320831299 0.6666146516799927 -0.10289842635393143
0.5683249235153198 0.6575170159339905 -0.10059837996959686
0.5801439881324768 0.6601301431655884 -0.040505025535821915
0.5543752908706665 0.670283317565918 -0.10939253121614456
0.548057496547699 0.673352062702179 -0.07962080091238022
0.5684585571289062 0.48457759618759155 -0.0012158732861280441
0.559249997138977 0.49291783571243286 -0.01753578521311283
0.5561996102333069 0.49973103404045105 -0.034439291805028915
0.6794614195823669 0.46325913071632385 0.030476603657007217
0.690675675868988 0.45340657234191895 0.032229047268629074
