ply
format ascii 1.0
element vertex 468
property float x
property float y
property float z
end_header
0.5049316883087158 0.7109015583992004 -0.07409149408340454
0.5023770332336426 0.6270145177841187 -0.13785181939601898
0.5037810802459717 0.6528333425521851 -0.07466953992843628
0.4817274212837219 0.5448184013366699 -0.10123559087514877
0.5022804737091064 0.6008737087249756 -0.1460646092891693
0.5027715563774109 0.5676004886627197 -0.13513803482055664
0.5046770572662354 0.48958098888397217 -0.06243501231074333
0.326460063457489 0.48535531759262085 0.03979707881808281
0.5055009126663208 0.4302152395248413 -0.04103611037135124
0.5058081746101379 0.3974364399909973 -0.04379117488861084
0.5067250728607178 0.2834789454936981 -0.010857261717319489
0.505181074142456 0.7229941487312317 -0.07032729685306549
0.5054215788841248 0.7315022945404053 -0.06230446696281433
0.5057689547538757 0.7339988946914673 -0.05136340856552124
0.5066027641296387 0.7331762313842773 -0.056133732199668884
0.5066124796867371 0.7419019341468811 -0.06142088770866394
0.5066673159599304 0.7539481520652771 -0.06885788589715958
0.5065756440162659 0.7683427929878235 -0.069175586104393
0.5065991878509521 0.7980731129646301 -0.04973992332816124
0.5025420188903809 0.6404911875724792 -0.1248943880200386
0.4782554805278778 0.6386159658432007 -0.09009520709514618
0.24646708369255066 0.397132009267807 0.1642744541168213
0.3989986479282379 0.50419020652771 0.013324921950697899
0.3742043972015381 0.5062841773033142 0.015328536741435528
0.3501797616481781 0.5057849884033203 0.022515762597322464
0.31677693128585815 0.4940379559993744 0.04342447593808174
0.4197179079055786 0.4979998767375946 0.016547350212931633
0.36612653732299805 0.44518977403640747 0.005853408947587013
0.39216676354408264 0.44667869806289673 0.0065257009118795395
0.34124547243118286 0.44873443245887756 0.013720573857426643
0.3243201971054077 0.4573189616203308 0.024053670465946198
0.29752933979034424 0.5093832015991211 0.0558047741651535
0.4086465835571289 0.84325110912323 -0.013755159452557564
0.3172764480113983 0.48006850481033325 0.04798150807619095
0.23142120242118835 0.5014941096305847 0.169439896941185
0.27164098620414734 0.49409419298171997 0.08206136524677277
0.3745352029800415 0.6044548153877258 -0.016169514507055283
0.4704166054725647 0.7059319615364075 -0.07114379853010178
0.47446557879447937 0.7300329208374023 -0.05820662900805473
0.4350709021091461 0.7107465863227844 -0.055045079439878464
0.41210150718688965 0.7170301079750061 -0.03442946821451187
0.4483721852302551 0.729279100894928 -0.04677744582295418
0.42779189348220825 0.7291284799575806 -0.027942273765802383
0.3826344907283783 0.7514157295227051 0.001853713532909751
0.48060742020606995 0.6261019110679626 -0.13555312156677246
0.47739365696907043 0.6010762453079224 -0.14296987652778625
0.2883712351322174 0.4314306378364563 0.03187404200434685
0.4285126328468323 0.5446702241897583 -0.01657404750585556
0.4207400381565094 0.6175076961517334 -0.07200949639081955
0.4193883240222931 0.6046111583709717 -0.06384537369012833
0.2989920377731323 0.6005101203918457 0.018427513539791107
0.4792605936527252 0.5700742602348328 -0.12694327533245087
0.3468078076839447 0.4038195013999939 -0.010258393362164497
0.31237101554870605 0.41310322284698486 0.009217023849487305
0.27011263370513916 0.35324007272720337 0.11627534031867981
0.4538177251815796 0.4235129654407501 -0.03312728554010391
0.4150772988796234 0.45409685373306274 0.013845805078744888
0.3607475757598877 0.7273786067962646 0.009979411028325558
0.2505980432033539 0.7338163256645203 0.2264525443315506
0.4392611086368561 0.6314848065376282 -0.06288029998540878
0.46044278144836426 0.6404361724853516 -0.06589315086603165
0.38638949394226074 0.7257246375083923 0.009288583882153034
0.3981590270996094 0.7254496812820435 0.0022258940152823925
0.2996583580970764 0.39729687571525574 0.02206842042505741
0.4195408821105957 0.6278887987136841 -0.05830555036664009
0.3928883373737335 0.40505701303482056 -0.024926625192165375
0.38851791620254517 0.3853261172771454 -0.029407843947410583
0.36601144075393677 0.2952346205711365 0.02122906967997551
0.2852184772491455 0.3745036721229553 0.06293662637472153
0.3799615502357483 0.33864685893058777 -0.0045139724388718605
0.27451691031455994 0.42091864347457886 0.05419422686100006
0.26044923067092896 0.4102676212787628 0.1063593253493309
0.4721243977546692 0.7205842137336731 -0.06734984368085861
0.4427540898323059 0.7222754955291748 -0.05177607387304306
0.42028486728668213 0.723473310470581 -0.03331495076417923
0.4455423355102539 0.6362150311470032 -0.05762443691492081
0.392336905002594 0.7255571484565735 0.005714983679354191
0.4058837294578552 0.731051504611969 -0.012987609952688217
0.4015543460845947 0.7252886891365051 0.0013590122107416391
0.45290490984916687 0.6246971487998962 -0.09799020737409592
0.43295469880104065 0.7275376319885254 -0.0240156352519989
0.45362213253974915 0.7300516366958618 -0.03696673363447189
0.47786298394203186 0.7324216365814209 -0.04769614338874817
0.47084298729896545 0.796660304069519 -0.04702159762382507
0.4731700122356415 0.7660789489746094 -0.06570377945899963
0.47457757592201233 0.7510350942611694 -0.06562383472919464
0.4761137068271637 0.7393175959587097 -0.05736900120973587
0.47820448875427246 0.7320149540901184 -0.052314646542072296
0.43096786737442017 0.7288878560066223 -0.026831815019249916
0.4273834526538849 0.7313814163208008 -0.03205995261669159
0.4223725497722626 0.7373325824737549 -0.03654225915670395
0.41795825958251953 0.746001660823822 -0.032295841723680496
0.3902733027935028 0.6906011700630188 -0.026270266622304916
0.2290622591972351 0.6120366454124451 0.2687801420688629
0.5030401945114136 0.6458306908607483 -0.09159590303897858
0.4173153340816498 0.7280974984169006 -0.010274048894643784
0.41204315423965454 0.7283999919891357 -0.01335114799439907
0.4694843888282776 0.6518369317054749 -0.06839600205421448
0.42772945761680603 0.6428993940353394 -0.04102499037981033
0.46502143144607544 0.646432101726532 -0.06758283823728561
0.40155890583992004 0.5581263899803162 -0.008093368262052536
0.35952430963516235 0.5732389688491821 -0.0011932626366615295
0.41503599286079407 0.615081787109375 -0.04957471415400505
0.30754852294921875 0.3183456361293793 0.06535700708627701
0.3228887915611267 0.34956783056259155 0.02684721350669861
0.3383386731147766 0.3847578465938568 -0.00491444393992424
0.40604063868522644 0.7696492671966553 -0.015605371445417404
0.446250855922699 0.3911081850528717 -0.04191199690103531
0.439059853553772 0.3376050293445587 -0.02293655462563038
0.4300954341888428 0.28508660197257996 -0.004564033355563879
0.32890012860298157 0.5021041631698608 0.033427100628614426
0.27124977111816406 0.5263814330101013 0.06978563964366913
0.43258172273635864 0.4913608431816101 0.020297113806009293
0.29784804582595825 0.46456634998321533 0.04543868824839592
0.44646671414375305 0.5289291143417358 -0.025636300444602966
0.43676406145095825 0.6093650460243225 -0.09719975292682648
0.2452988624572754 0.5439879298210144 0.09709150344133377
0.286964476108551 0.5419787168502808 0.046366289258003235
0.31817692518234253 0.5502674579620361 0.022667739540338516
0.3661304712295532 0.5472232103347778 0.010867375880479813
0.4018535315990448 0.5379073619842529 0.0052319737151265144
0.42830049991607666 0.5267243385314941 -0.0012531125685200095
0.48040658235549927 0.4959426820278168 -0.052202917635440826
0.24489319324493408 0.5938642621040344 0.0889609083533287
0.278516560792923 0.46087485551834106 0.05790330097079277
0.4894329309463501 0.6391827464103699 -0.12349492311477661
0.42921018600463867 0.5683488845825195 -0.028964543715119362
0.22749590873718262 0.5019330382347107 0.25347700715065
0.4477175176143646 0.5135745406150818 -0.004623745568096638
0.4123891294002533 0.6167590022087097 -0.02389765903353691
0.30945008993148804 0.48115938901901245 0.05281567946076393
0.43576565384864807 0.5934767723083496 -0.08690525591373444
0.2354947030544281 0.6720361113548279 0.25449204444885254
0.43191710114479065 0.4824972152709961 0.02722165733575821
0.45710766315460205 0.5793294906616211 -0.1118592619895935
0.29892638325691223 0.7877323627471924 0.08945532888174057
0.303743839263916 0.8188358545303345 0.13238497078418732
0.22569090127944946 0.6042936444282532 0.17900818586349487
0.26704564690589905 0.7551119923591614 0.12295864522457123
0.2455269992351532 0.45235514640808105 0.14516237378120422
0.4044163227081299 0.8706603050231934 -0.0006141093908809125
0.4924410581588745 0.6446704864501953 -0.08988450467586517
0.4059500992298126 0.5858134031295776 -0.020320214331150055
0.2519291043281555 0.499386191368103 0.10743452608585358
0.352106511592865 0.4909422993659973 0.024743691086769104
0.37417861819267273 0.4920949935913086 0.01872647926211357
0.39978063106536865 0.7357922792434692 -0.008348610252141953
0.24646338820457458 0.6439554691314697 0.09536129981279373
0.45252132415771484 0.9062337875366211 0.0020926727447658777
0.3761313855648041 0.8734311461448669 0.05937797948718071
0.3429466187953949 0.8511707186698914 0.09202325344085693
0.5063514709472656 0.33999139070510864 -0.028669245541095734
0.5062004923820496 0.9113279581069946 -0.00611176947131753
0.3949718177318573 0.49073371291160583 0.017723770812153816
0.41418832540512085 0.4869791865348816 0.02128726989030838
0.426175057888031 0.4845017194747925 0.026762045919895172
0.2620686888694763 0.45632171630859375 0.08379577845335007
0.4109812378883362 0.4701043367385864 0.01805770769715309
0.3900347054004669 0.46591436862945557 0.013750703074038029
0.36913758516311646 0.46495598554611206 0.014812624081969261
0.3472554087638855 0.4679301381111145 0.020818352699279785
0.3327263593673706 0.4733486473560333 0.028477130457758904
0.23315346240997314 0.44370368123054504 0.21477635204792023
0.33702710270881653 0.4883824586868286 0.03273439034819603
0.5043827295303345 0.671716034412384 -0.06935013830661774
0.4147898554801941 0.6777732968330383 -0.04231329262256622
0.43877753615379333 0.6279064416885376 -0.07196759432554245
0.46695661544799805 0.6728044152259827 -0.06725039333105087
0.5052794218063354 0.45977646112442017 -0.04190700128674507
0.33494997024536133 0.8201761245727539 0.06180456280708313
0.3684980571269989 0.8457731604576111 0.03211020305752754
0.45010045170783997 0.8876848220825195 -0.028915250673890114
0.27454718947410583 0.7826123237609863 0.1818232238292694
0.425342857837677 0.4772598147392273 0.023584913462400436
0.4627957046031952 0.5351359844207764 -0.06180555373430252
0.5057598948478699 0.8921122550964355 -0.03614113852381706
0.41103264689445496 0.8925974369049072 0.025122538208961487
0.23113572597503662 0.6591674089431763 0.17266404628753662
0.45266035199165344 0.7302184700965881 -0.04062701761722565
0.44902747869491577 0.735348105430603 -0.04648744314908981
0.4458423852920532 0.744443953037262 -0.052520785480737686
0.44317495822906494 0.7579903602600098 -0.050145573914051056
0.43476179242134094 0.7853800654411316 -0.033759355545043945
0.4094438850879669 0.7272101640701294 -0.011221904307603836
0.4017114043235779 0.7249041795730591 -0.011051321402192116
0.3942185342311859 0.7210096120834351 -0.011167692020535469
0.36951422691345215 0.7068123817443848 -0.006967908702790737
0.2767116129398346 0.655125081539154 0.0436977744102478
0.46401646733283997 0.5110414028167725 -0.03690272942185402
0.45226380228996277 0.46536004543304443 0.00985269621014595
0.4366486668586731 0.4697328507900238 0.019454335793852806
0.4156002104282379 0.7249865531921387 -0.009178257547318935
0.27438557147979736 0.7164948582649231 0.07795916497707367
0.47335854172706604 0.4636831283569336 -0.024138763546943665
0.4208202362060547 0.8143656849861145 -0.02305079624056816
0.5034366250038147 0.5409910082817078 -0.10998214036226273
0.4807283878326416 0.5217657089233398 -0.07906612008810043
0.5040915012359619 0.5163655281066895 -0.08515287935733795
0.4439629018306732 0.5731658339500427 -0.06309840828180313
0.5056719779968262 0.8643417358398438 -0.050094351172447205
0.505986750125885 0.8293864727020264 -0.04989571124315262
0.4619932770729065 0.8277631998062134 -0.043415430933237076
0.36111360788345337 0.7658142447471619 0.014505059458315372
0.3910145163536072 0.6363052725791931 -0.017818978056311607
0.38870927691459656 0.7939332723617554 -0.0030959974974393845
0.3319548964500427 0.632516622543335 -0.006782059092074633
0.36601555347442627 0.6602892279624939 -0.01239079050719738
0.30915606021881104 0.6720539927482605 0.01323004812002182
0.4531520903110504 0.8609221577644348 -0.04164233058691025
0.4283137023448944 0.586675226688385 -0.044989071786403656
0.34130191802978516 0.788718044757843 0.03563614934682846
0.3749750256538391 0.8177892565727234 0.013944726437330246
0.3379800319671631 0.7338544130325317 0.019943973049521446
0.2520703077316284 0.6872628927230835 0.10202226042747498
0.30723321437835693 0.7413942813873291 0.04380969703197479
0.2428237497806549 0.7098137736320496 0.15899144113063812
0.344257652759552 0.6900123953819275 1.5676452676416375e-05
0.44645899534225464 0.5516507625579834 -0.044062938541173935
0.44488874077796936 0.6205209493637085 -0.10298050940036774
0.42837685346603394 0.6256994009017944 -0.07541628926992416
0.4557724595069885 0.604296088218689 -0.12086103111505508
0.4328320026397705 0.44456344842910767 0.002907350193709135
0.3932606875896454 0.43141740560531616 -0.0016263191355392337
0.3584843575954437 0.4289919435977936 -0.00033497472759336233
0.32917800545692444 0.4337242841720581 0.009765716269612312
0.3085516095161438 0.4450823664665222 0.025187037885189056
0.2933042049407959 0.48738640546798706 0.06319218128919601
0.22519740462303162 0.5522119998931885 0.1754472404718399
0.310589462518692 0.5190608501434326 0.042528290301561356
0.33642053604125977 0.525503396987915 0.027137719094753265
0.36955875158309937 0.5253622531890869 0.01658022217452526
0.4010866582393646 0.5199378132820129 0.011588609777390957
0.42562639713287354 0.511871337890625 0.011395054869353771
0.4420449435710907 0.5036858320236206 0.009891001507639885
0.22829779982566833 0.5565193891525269 0.26988667249679565
0.42898523807525635 0.6318427324295044 -0.06291640549898148
0.46189621090888977 0.5565448999404907 -0.08323085308074951
0.4626566171646118 0.6222321391105652 -0.12307806313037872
0.47678980231285095 0.6349726319313049 -0.11306878924369812
0.46289509534835815 0.6262404918670654 -0.11072941869497299
0.43584099411964417 0.6392884850502014 -0.054709382355213165
0.48129111528396606 0.6373156905174255 -0.11984481662511826
0.48397892713546753 0.642673909664154 -0.08993891626596451
0.4410266876220703 0.483859121799469 0.023212775588035583
0.455170214176178 0.4901166260242462 0.007399593945592642
0.4625225365161896 0.49426931142807007 -0.011124832555651665
0.3239782750606537 0.47723594307899475 0.03690966218709946
0.3113347291946411 0.4671545624732971 0.038224972784519196
0.5256552696228027 0.5452263355255127 -0.10123556107282639
0.6887973546981812 0.490028440952301 0.03958902508020401
0.5284809470176697 0.6392525434494019 -0.0900890901684761
0.7732621431350708 0.4022946059703827 0.1642070859670639
0.6152795553207397 0.5067991614341736 0.012962310574948788
0.6402556300163269 0.5093792676925659 0.01489042118191719
0.6645844578742981 0.5093400478363037 0.02204061485826969
0.6987926363945007 0.49860304594039917 0.04304075613617897
0.5944387912750244 0.5004661679267883 0.01615310274064541
0.6477662920951843 0.44946157932281494 0.005608315579593182
0.6217631101608276 0.4504462480545044 0.006622787564992905
0.6727540493011475 0.4534485340118408 0.013904341496527195
0.690069317817688 0.46236392855644226 0.023875225335359573
0.718317985534668 0.5139728784561157 0.05547598376870155
0.604180634021759 0.8455285429954529 -0.013992095366120338
0.6983133554458618 0.48516198992729187 0.04793322831392288
0.7888563275337219 0.5070784687995911 0.16916826367378235
0.7449920773506165 0.499316543340683 0.08184606581926346
0.6384114027023315 0.6068360209465027 -0.016490336507558823
0.5398685336112976 0.7066084146499634 -0.0710853710770607
0.537219226360321 0.7307380437850952 -0.05813957378268242
0.5767254829406738 0.71198970079422 -0.0552428774535656
0.601559579372406 0.7186723351478577 -0.034728605300188065
0.5645626783370972 0.7302745580673218 -0.04695363715291023
0.5861777067184448 0.7304636240005493 -0.028266586363315582
0.632803201675415 0.7539229393005371 0.0010765421902760863
0.5243349075317383 0.6264922618865967 -0.13543415069580078
0.5275794267654419 0.6015393137931824 -0.14302890002727509
0.7257165312767029 0.437314510345459 0.03184381127357483
0.5836102366447449 0.5461375117301941 -0.016766127198934555
0.5881839990615845 0.6194012761116028 -0.07198739051818848
0.590345025062561 0.6063363552093506 -0.06391246616840363
0.7159239649772644 0.60419762134552 0.017769847065210342
0.526596188545227 0.5707040429115295 -0.12718960642814636
0.6655142903327942 0.4092431664466858 -0.010354595258831978
0.7006349563598633 0.4190424084663391 0.009006490930914879
0.7480350732803345 0.3581598103046417 0.11619003117084503
0.5582414865493774 0.4255748391151428 -0.03304922953248024
0.5991623401641846 0.45738357305526733 0.013829386793076992
0.6549675464630127 0.7301745414733887 0.00913926213979721
0.7712873816490173 0.7405315637588501 0.2267625331878662
0.5695462226867676 0.6331300139427185 -0.06302405148744583
0.5478009581565857 0.6415499448776245 -0.06588079780340195
0.6297787427902222 0.7281593680381775 0.008471572771668434
0.6180077791213989 0.7275888919830322 0.0015384728321805596
0.713660478591919 0.40345096588134766 0.021868066862225533
0.5903270244598389 0.629800021648407 -0.058281444013118744
0.6193132400512695 0.40926504135131836 -0.024991557002067566
0.6237895488739014 0.3895837962627411 -0.029376249760389328
0.648883581161499 0.29821449518203735 0.021410280838608742
0.7304115295410156 0.3797445595264435 0.06270746141672134
0.6336926817893982 0.34205004572868347 -0.0048013292253017426
0.7405017614364624 0.42683419585227966 0.053957484662532806
0.7569043636322021 0.4155891537666321 0.1062592938542366
0.5389883518218994 0.72109454870224 -0.0671381801366806
0.5696830153465271 0.723250687122345 -0.05194318667054176
0.5936908721923828 0.7248689532279968 -0.03339123725891113
0.5634359121322632 0.6378562450408936 -0.057637497782707214
0.6238555908203125 0.7276569604873657 0.0048204041086137295
0.6100042462348938 0.732823371887207 -0.013596192933619022
0.6146601438522339 0.7273630499839783 0.0006173293804749846
0.5539293885231018 0.6257325410842896 -0.09802205860614777
0.5817344188690186 0.7287609577178955 -0.024257808923721313
0.5598044395446777 0.7308681607246399 -0.037174392491579056
0.5345210433006287 0.7328414916992188 -0.047763120383024216
0.5425859093666077 0.7973530888557434 -0.0472220852971077
0.5404850840568542 0.7664738893508911 -0.06574718654155731
0.5393534898757935 0.7514013051986694 -0.06575321406126022
0.5377435684204102 0.7398703098297119 -0.05724872276186943
0.5358010530471802 0.7325284481048584 -0.05203351750969887
0.5844358801841736 0.7301545143127441 -0.027250688523054123
0.587904691696167 0.7326071262359619 -0.0322105698287487
0.5928787589073181 0.7385665774345398 -0.037020325660705566
0.5973678231239319 0.7475181221961975 -0.03245844691991806
0.6226639151573181 0.6924356818199158 -0.026843901723623276
0.7935489416122437 0.6185555458068848 0.26864534616470337
0.5986664295196533 0.7297248244285583 -0.010981621220707893
0.6040081977844238 0.7300952076911926 -0.013978000730276108
0.5388641357421875 0.6525407433509827 -0.06818847358226776
0.5824904441833496 0.6446630954742432 -0.040957219898700714
0.5430712699890137 0.6473745107650757 -0.06750784814357758
0.6114112138748169 0.5600283145904541 -0.00859634019434452
0.6543601751327515 0.5757381916046143 -0.0016641938127577305
0.5953696966171265 0.6170793771743774 -0.04960615187883377
0.7087036371231079 0.3226771354675293 0.06502638757228851
0.6913991570472717 0.3543424904346466 0.026799406856298447
0.674172043800354 0.3902485966682434 -0.0046948897652328014
0.608763575553894 0.7713004946708679 -0.0162296574562788
0.566072404384613 0.39336076378822327 -0.041866201907396317
0.5741237998008728 0.339376300573349 -0.022645222023129463
0.5838159322738647 0.2866491973400116 -0.004616686142981052
0.6863282918930054 0.5062739849090576 0.032959263771772385
0.7450994253158569 0.5311478972434998 0.06938318908214569
0.5815548896789551 0.4937053322792053 0.020034266635775566
0.717278242111206 0.4699802100658417 0.0454818494617939
0.5649625062942505 0.5302553176879883 -0.02602487988770008
0.5708686113357544 0.6107482314109802 -0.0970388874411583
0.7720967531204224 0.5493073463439941 0.09695491939783096
0.7284786105155945 0.546158492565155 0.04605230316519737
0.6964424848556519 0.5535959005355835 0.022039609029889107
0.6479930281639099 0.5497395992279053 0.010380871593952179
0.6117655038833618 0.5398982763290405 0.004937328398227692
0.5846797823905945 0.5285723209381104 -0.00142686627805233
0.5295852422714233 0.4965818524360657 -0.05225071310997009
0.7721906304359436 0.5991183519363403 0.08860600739717484
0.737017035484314 0.4663125276565552 0.05768965929746628
0.516012966632843 0.6394761800765991 -0.12337769567966461
0.5821143388748169 0.5699312090873718 -0.028999678790569305
0.7949582934379578 0.5078482627868652 0.2534978985786438
0.564798891544342 0.5150743722915649 -0.004755502566695213
0.5986628532409668 0.6186813116073608 -0.023714663460850716
0.7063844203948975 0.48624467849731445 0.05265996232628822
0.5725955963134766 0.5949422121047974 -0.08684311807155609
0.7870208024978638 0.6787682771682739 0.25463035702705383
0.5825852751731873 0.4851941466331482 0.02692088671028614
0.5498675107955933 0.5802591443061829 -0.11181046068668365
0.7186387777328491 0.7930139303207397 0.08922749757766724
0.7153342962265015 0.8246892094612122 0.13258779048919678
0.7940243482589722 0.6106364130973816 0.17863576114177704
0.7517493963241577 0.7611392736434937 0.12288831174373627
0.7735967040061951 0.4577605724334717 0.14534246921539307
0.6086863875389099 0.8733348250389099 -0.0007178797968663275
0.5136968493461609 0.644767165184021 -0.08980266004800797
0.6061806082725525 0.5876401662826538 -0.02033773809671402
0.7660166025161743 0.5048719644546509 0.1072792112827301
0.6623836755752563 0.49484822154045105 0.024481507018208504
0.6401612758636475 0.49546384811401367 0.01850956305861473
0.6161684989929199 0.7376553416252136 -0.008959251455962658
0.7709221839904785 0.6496648788452148 0.09505556523799896
0.5601868033409119 0.9078999757766724 0.0022612439934164286
0.6391395330429077 0.8773199915885925 0.059403762221336365
0.6742769479751587 0.8561534285545349 0.09203992038965225
0.6195262670516968 0.4936235547065735 0.017263509333133698
0.6003149151802063 0.4895874559879303 0.020940259099006653
0.5883867740631104 0.4870898723602295 0.026430128142237663
0.7548010349273682 0.46164950728416443 0.08364331722259521
0.6035140752792358 0.47351783514022827 0.017823949456214905
0.6244482398033142 0.46982765197753906 0.013382130302488804
0.6451879739761353 0.46905362606048584 0.014550207182765007
0.6672803163528442 0.4724240303039551 0.02063831500709057
0.6821413040161133 0.47793638706207275 0.028546372428536415
0.7881384491920471 0.4494214355945587 0.21470999717712402
0.6778224110603333 0.49275147914886475 0.03248647600412369
0.5967368483543396 0.6792792081832886 -0.04257465526461601
0.5695284605026245 0.629478394985199 -0.07178765535354614
0.5422859787940979 0.6734429001808167 -0.06732742488384247
0.6812113523483276 0.824867844581604 0.06153177469968796
0.6462194323539734 0.8497450351715088 0.03198004886507988
0.5616681575775146 0.8891702890396118 -0.028838561847805977
0.7460870742797852 0.7892528176307678 0.1821112334728241
0.589109480381012 0.48007670044898987 0.023336203768849373
0.546658992767334 0.5360894799232483 -0.06187574192881584
0.6025242209434509 0.8953001499176025 0.02506738156080246
0.7888867855072021 0.6656586527824402 0.1728733479976654
0.5621156692504883 0.7310295701026917 -0.041038878262043
0.5655614137649536 0.7362087368965149 -0.04641401022672653
0.5687354803085327 0.7451857328414917 -0.05237572267651558
0.5712267756462097 0.7588056325912476 -0.050157178193330765
0.579215407371521 0.7866640090942383 -0.03408895432949066
0.6060457229614258 0.7291074991226196 -0.011871146969497204
0.6135653257369995 0.7267150282859802 -0.011833888478577137
0.6209090948104858 0.7231400609016418 -0.012143048457801342
0.6449337005615234 0.709157407283783 -0.007781711872667074
0.7393525242805481 0.6598314642906189 0.04303549975156784
0.5466862916946411 0.5120389461517334 -0.03727693110704422
0.5609898567199707 0.46734705567359924 0.009787239134311676
0.5771807432174683 0.47225961089134216 0.019530827179551125
0.600017786026001 0.7266124486923218 -0.009717326611280441
0.7425637245178223 0.7216670513153076 0.07782594114542007
0.5382722020149231 0.46478891372680664 -0.02401745691895485
0.5925686359405518 0.8162224888801575 -0.023033253848552704
0.5279970765113831 0.5223197937011719 -0.07917726039886475
0.5653831958770752 0.5743674635887146 -0.06294715404510498
0.5504671931266785 0.8286981582641602 -0.0434870570898056
0.6539843082427979 0.7688701152801514 0.014123956672847271
0.6210140585899353 0.6384567022323608 -0.017879415303468704
0.6255567073822021 0.7964652180671692 -0.003433948615565896
0.6821063756942749 0.6356554627418518 -0.007454529870301485
0.6471731662750244 0.6626559495925903 -0.013044153340160847
0.7058577537536621 0.6758378744125366 0.012547449208796024
0.5585519671440125 0.8621565103530884 -0.04164273291826248
0.5820621848106384 0.5882595181465149 -0.0451168492436409
0.6738160252571106 0.7925252914428711 0.03536662831902504
0.6392710208892822 0.8210964202880859 0.013495229184627533
0.6771650910377502 0.7372431755065918 0.01902002841234207
0.7656165957450867 0.6930011510848999 0.10176420211791992
0.7089579105377197 0.745829164981842 0.04318947345018387
0.7770333886146545 0.7164129018783569 0.15905672311782837
0.6700816750526428 0.6928516626358032 -0.0011039160890504718
0.5638655424118042 0.5528414249420166 -0.04414515197277069
0.56215900182724 0.6217933297157288 -0.10293550789356232
0.5803783535957336 0.6275008916854858 -0.07529202103614807
0.5504351854324341 0.6053175926208496 -0.12095113843679428
0.5806632041931152 0.44736212491989136 0.002682019956409931
0.6200405359268188 0.4352805018424988 -0.0015787275042384863
0.6546048521995544 0.4337291121482849 -0.0003932858526241034
0.6842712759971619 0.43882548809051514 0.00957568921148777
0.705518901348114 0.4503777027130127 0.025192460045218468
0.722854495048523 0.4925200343132019 0.06295645982027054
0.7945178747177124 0.5584344267845154 0.17553505301475525
0.7047337889671326 0.5231195688247681 0.041919536888599396
0.6783542037010193 0.5288016200065613 0.02671736665070057
0.6448525190353394 0.5281614065170288 0.0162513330578804
0.6128174662590027 0.5222194194793701 0.01117851585149765
0.5881856679916382 0.5138651132583618 0.011079703457653522
0.5713305473327637 0.5054441690444946 0.009707535617053509
0.7942664623260498 0.5627720355987549 0.2698761820793152
0.580216109752655 0.6336297988891602 -0.06282366067171097
0.5462867021560669 0.5573734045028687 -0.08335714042186737
0.5431026816368103 0.6230806112289429 -0.12312361598014832
0.5292516350746155 0.6355839371681213 -0.11310788244009018
0.5434390306472778 0.6271204948425293 -0.11064371466636658
0.5737385749816895 0.6411107182502747 -0.054705098271369934
0.5243384838104248 0.6378130912780762 -0.11976020038127899
0.5223822593688965 0.6432093381881714 -0.08995215594768524
0.5730055570602417 0.48622292280197144 0.023101238533854485
0.5579695701599121 0.4918290972709656 0.007307358551770449
0.5495811104774475 0.495624303817749 -0.011188278906047344
0.6912205815315247 0.48211002349853516 0.036891065537929535
0.7037703394889832 0.4722152650356293 0.03818417340517044
