ply
format ascii 1.0
element vertex 468
property float x
property float y
property float z
end_header
0.45905911922454834 0.7397115230560303 -0.038941673934459686
0.41280597448349 0.6789595484733582 -0.12090909481048584
0.4473627805709839 0.6968280673027039 -0.05862225592136383
0.4122646450996399 0.5756576061248779 -0.09773312509059906
0.4095725417137146 0.6499963998794556 -0.13240408897399902
0.41732895374298096 0.6088054180145264 -0.12941551208496094
0.44795724749565125 0.5041354894638062 -0.08600926399230957
0.339953750371933 0.4614548683166504 0.06404294073581696
0.45749300718307495 0.4167254567146301 -0.07852336764335632
0.4556605815887451 0.376309871673584 -0.08796489983797073
0.46382081508636475 0.23440450429916382 -0.09544916450977325
0.46300208568573 0.7508001923561096 -0.03387231007218361
0.46843817830085754 0.7576872110366821 -0.027164503931999207
0.4742588996887207 0.7581571936607361 -0.017551511526107788
0.46755439043045044 0.8247510194778442 0.007203641813248396
0.46548712253570557 0.8374297022819519 0.005676038097590208
0.46519291400909424 0.8514084815979004 0.0033944356255233288
0.4674810469150543 0.8656805753707886 0.010558138601481915
0.47607213258743286 0.879546046257019 0.03163861855864525
0.4219476282596588 0.6923139095306396 -0.10799841582775116
0.4123009145259857 0.6837111711502075 -0.07064598053693771
0.316628634929657 0.3395933508872986 0.17844483256340027
0.4007667899131775 0.4924522638320923 0.021380014717578888
0.37994062900543213 0.49248844385147095 0.03231178596615791
0.35942280292510986 0.48973560333251953 0.045918092131614685
0.33651864528656006 0.46729776263237 0.07361015677452087
0.4149211645126343 0.4880373179912567 0.0141083262860775
0.3610970377922058 0.410513699054718 0.017852356657385826
0.38526463508605957 0.41707974672317505 0.005954828578978777
0.3409169018268585 0.4126778244972229 0.03446529433131218
0.330237478017807 0.422767698764801 0.04876265302300453
0.324392706155777 0.4850415289402008 0.09201010316610336
0.416057288646698 0.8809173107147217 0.10062620043754578
0.33413922786712646 0.452609121799469 0.07370687276124954
0.31656739115715027 0.4560128450393677 0.2131354808807373
0.31686291098594666 0.46147599816322327 0.11949580907821655
0.3573341965675354 0.612688422203064 0.02135532721877098
0.4272923469543457 0.7316346764564514 -0.025663942098617554
0.44131994247436523 0.752883791923523 -0.01201334036886692
0.40390023589134216 0.7284870743751526 0.0030511245131492615
0.3959886431694031 0.7287789583206177 0.038451217114925385
0.42373061180114746 0.747552216053009 0.01121447328478098
0.41416871547698975 0.7447155714035034 0.04082384705543518
0.39153003692626953 0.7743349671363831 0.10574424266815186
0.3962674140930176 0.6757673621177673 -0.11375372856855392
0.3924914598464966 0.6473440527915955 -0.12301822751760483
0.31223979592323303 0.39505213499069214 0.061226338148117065
0.40258854627609253 0.5491945147514343 -0.007918670773506165
0.3752794563770294 0.6459022760391235 -0.04188762977719307
0.37858879566192627 0.6282125115394592 -0.03633609414100647
0.3076590895652771 0.5934130549430847 0.07666505128145218
0.4002453684806824 0.6092290878295898 -0.11399425566196442
0.33801284432411194 0.37049177289009094 -0.00215327856130898
0.3197565972805023 0.3765832185745239 0.03007974848151207
0.3183063268661499 0.29756757616996765 0.11904728412628174
0.4140397310256958 0.4048672914505005 -0.055675651878118515
0.4058985710144043 0.4309500455856323 0.004628760274499655
0.3761860132217407 0.7368959784507751 0.10881968587636948
0.3717566728591919 0.6980811357498169 0.31150171160697937
0.3910512924194336 0.6642387509346008 -0.03744587302207947
0.4082176089286804 0.6780462265014648 -0.04567211866378784
0.38960883021354675 0.7411585450172424 0.10349798947572708
0.40005582571029663 0.7459567189216614 0.09283703565597534
0.3151850402355194 0.35758036375045776 0.040863052010536194
0.38088589906692505 0.6539087891578674 -0.02787102200090885
0.36685049533843994 0.37697064876556396 -0.031628966331481934
0.36192479729652405 0.3552686870098114 -0.03936764970421791
0.3574508726596832 0.24407711625099182 -0.01277090422809124
0.3150908052921295 0.32920148968696594 0.07452322542667389
0.35990631580352783 0.3007895350456238 -0.028226112946867943
0.308117538690567 0.3806169629096985 0.08208867907524109
0.31048649549484253 0.363558292388916 0.126552015542984
0.4331517815589905 0.744300365447998 -0.0201274324208498
0.41367578506469727 0.7400209903717041 0.007526342291384935
0.40418165922164917 0.7368614673614502 0.03828917443752289
0.3975790739059448 0.6694839000701904 -0.03534351661801338
0.3941664695739746 0.7434462308883667 0.09752075374126434
0.3989506959915161 0.7710731029510498 0.08429782092571259
0.4050046503543854 0.7465129494667053 0.09164313226938248
0.3882782757282257 0.6651233434677124 -0.07148004323244095
0.4220173954963684 0.7432171702384949 0.042544640600681305
0.4328595995903015 0.7474170923233032 0.018669571727514267
0.44966375827789307 0.7537354826927185 -0.002487016376107931
0.44225889444351196 0.8705639839172363 0.04587080702185631
0.43485748767852783 0.8550364971160889 0.026490848511457443
0.4335457682609558 0.8413342833518982 0.021053975448012352
0.43634214997291565 0.8279229402542114 0.022565007209777832
0.441601037979126 0.8177285194396973 0.023235194385051727
0.41608747839927673 0.788470447063446 0.06145814433693886
0.4105094373226166 0.7912637591362 0.06044600158929825
0.4044846296310425 0.7962242960929871 0.06085485965013504
0.4012102484703064 0.8021332621574402 0.06903029978275299
0.3757972717285156 0.7062937617301941 0.041946008801460266
0.35465946793556213 0.5607926249504089 0.32440778613090515
0.4330919086933136 0.6954687833786011 -0.07727625966072083
0.4118383526802063 0.7730163335800171 0.0810086652636528
0.4040414094924927 0.7718448042869568 0.08122271299362183
0.41758793592453003 0.6908901333808899 -0.04299607127904892
0.39088910818099976 0.6686117053031921 -0.013020859099924564
0.41242289543151855 0.6851208209991455 -0.045644309371709824
0.3845922350883484 0.5590759515762329 0.011419222690165043
0.3507925570011139 0.5713359713554382 0.03335713595151901
0.3805549442768097 0.6368319392204285 -0.020903747528791428
0.32909244298934937 0.2645552456378937 0.05332126095890999
0.3302799463272095 0.30696287751197815 0.02296137623488903
0.3322814404964447 0.3488618731498718 -0.0003887485363520682
0.4021369218826294 0.8105820417404175 0.09064226597547531
0.4044731557369232 0.3683767318725586 -0.06743700057268143
0.4012506902217865 0.3042284846305847 -0.06572022289037704
0.4002740979194641 0.2354411482810974 -0.06334354728460312
0.34378689527511597 0.48068636655807495 0.061936769634485245
0.30975598096847534 0.5007819533348083 0.11518637090921402
0.42292362451553345 0.4828699231147766 0.01202306803315878
0.32208117842674255 0.43172913789749146 0.07649316638708115
0.4136691689491272 0.5363174080848694 -0.023901065811514854
0.3770996332168579 0.6438826322555542 -0.07023640722036362
0.2990628480911255 0.5139055252075195 0.15465706586837769
0.3115842640399933 0.5229543447494507 0.09412506967782974
0.32761189341545105 0.5378329157829285 0.06391642242670059
0.36385613679885864 0.5397374629974365 0.03882615268230438
0.39198169112205505 0.5330753326416016 0.019916731864213943
0.40988725423812866 0.5248233675956726 0.0026170755736529827
0.43144169449806213 0.5082030296325684 -0.06707622855901718
0.28938087821006775 0.5693049430847168 0.15872851014137268
0.31396499276161194 0.42528071999549866 0.09166565537452698
0.41129857301712036 0.6894792318344116 -0.10244494676589966
0.3969772458076477 0.5801565051078796 -0.014944321475923061
0.3392041027545929 0.44370537996292114 0.2868993580341339
0.42144468426704407 0.5146051049232483 -0.010353241115808487
0.38458794355392456 0.6340222954750061 0.0017422620439901948
0.3307517170906067 0.449978768825531 0.08179911971092224
0.3824920654296875 0.6222589612007141 -0.06418558955192566
0.36066240072250366 0.6258969306945801 0.3235068917274475
0.4230918884277344 0.4729730486869812 0.016239088028669357
0.38999420404434204 0.6132771372795105 -0.09314709901809692
0.3706737756729126 0.7859565019607544 0.1981125771999359
0.39271384477615356 0.8110771179199219 0.23712089657783508
0.3095678687095642 0.5676551461219788 0.24526169896125793
0.34981977939605713 0.7425554394721985 0.22353483736515045
0.31243330240249634 0.40636569261550903 0.17588040232658386
0.42044204473495483 0.9040161371231079 0.11794751137495041
0.42366063594818115 0.6932083368301392 -0.073123037815094
0.3824402689933777 0.5946803092956543 0.002621688647195697
0.31201139092445374 0.4629939794540405 0.14988739788532257
0.3595709204673767 0.47405919432640076 0.044149141758680344
0.37895315885543823 0.4780135750770569 0.03267716243863106
0.39522820711135864 0.7710742950439453 0.091010682284832
0.2954057455062866 0.623150110244751 0.17425067722797394
0.45421284437179565 0.9480303525924683 0.11172989755868912
0.4199758768081665 0.8894578218460083 0.17414173483848572
0.40961557626724243 0.8555388450622559 0.20358029007911682
0.457424521446228 0.30844977498054504 -0.09397479891777039
0.4937998652458191 0.9638049006462097 0.0880364403128624
0.3970542550086975 0.4777529537677765 0.02334163337945938
0.4125913679599762 0.4748575687408447 0.01976891979575157
0.42049098014831543 0.47348541021347046 0.019222451373934746
0.3101850152015686 0.4166416525840759 0.1185937151312828
0.4067392945289612 0.4555744528770447 0.014386538416147232
0.3888968825340271 0.4469057321548462 0.01701459102332592
0.3686721920967102 0.4429730176925659 0.02594352513551712
0.3501638174057007 0.4441133141517639 0.03852388635277748
0.3404339551925659 0.44835367798805237 0.05016239732503891
0.3223046064376831 0.38578373193740845 0.2378728985786438
0.34743890166282654 0.46817997097969055 0.05530647560954094
0.45340919494628906 0.7101818919181824 -0.04701618477702141
0.38617464900016785 0.6999104022979736 0.009981573559343815
0.3868469297885895 0.6621189713478088 -0.048748333007097244
0.420871376991272 0.7063530683517456 -0.031379617750644684
0.45750361680984497 0.4580943286418915 -0.07540220767259598
0.39232680201530457 0.8278329372406006 0.1776762753725052
0.40814048051834106 0.8642204403877258 0.1503515988588333
0.4446287155151367 0.936095654964447 0.08515046536922455
0.38180479407310486 0.7621635794639587 0.2772670388221741
0.4171561002731323 0.466846227645874 0.015758482739329338
0.412202388048172 0.5548627972602844 -0.06135381758213043
0.4848182201385498 0.9518216252326965 0.06255694478750229
0.4319809675216675 0.9222656488418579 0.14107197523117065
0.31686675548553467 0.6272871494293213 0.24969756603240967
0.4253271222114563 0.8049430847167969 0.04183662310242653
0.4194492697715759 0.811392068862915 0.04201580956578255
0.4148644208908081 0.8212347030639648 0.042488254606723785
0.41322189569473267 0.8331694602966309 0.04965513199567795
0.41693538427352905 0.8447919487953186 0.07035728543996811
0.40571579337120056 0.7425376176834106 0.07004338502883911
0.3975847363471985 0.7371245622634888 0.07370180636644363
0.3912311792373657 0.7311457395553589 0.07431812584400177
0.3720846474170685 0.7177066206932068 0.07836299389600754
0.3051161468029022 0.6470569968223572 0.12134204059839249
0.42275285720825195 0.5212756991386414 -0.04422924295067787
0.4295475482940674 0.4542820453643799 -0.012202169746160507
0.4228861927986145 0.455403208732605 0.004895631689578295
0.4135795831680298 0.7408806085586548 0.06988219916820526
0.32954132556915283 0.7086048126220703 0.17153626680374146
0.43588316440582275 0.45828890800476074 -0.049185801297426224
0.41843366622924805 0.858972430229187 0.08540526777505875
0.427803099155426 0.5741503834724426 -0.11407045274972916
0.42120277881622314 0.5447198152542114 -0.08624815940856934
0.43764159083366394 0.5415732860565186 -0.09965129941701889
0.39624208211898804 0.5952489972114563 -0.05073774605989456
0.480328232049942 0.9289718866348267 0.048122674226760864
0.4788687229156494 0.9011142253875732 0.040581587702035904
0.44359803199768066 0.8895028829574585 0.059927258640527725
0.38608330488204956 0.7809435129165649 0.12332982569932938
0.3723178803920746 0.6517426371574402 0.022171083837747574
0.40207043290138245 0.8217792510986328 0.10739759355783463
0.32935237884521484 0.6387976408004761 0.05130047723650932
0.3588332533836365 0.6738414764404297 0.04740234091877937
0.32665789127349854 0.6750459671020508 0.09068279713392258
0.4411346912384033 0.9149297475814819 0.07086043059825897
0.39137622714042664 0.6044911742210388 -0.026930518448352814
0.38209837675094604 0.7999553680419922 0.1492418795824051
0.40207964181900024 0.8400274515151978 0.12872639298439026
0.3660159707069397 0.7404409050941467 0.1224617138504982
0.3119618892669678 0.6695508360862732 0.18943198025226593
0.35114651918411255 0.7437653541564941 0.14673161506652832
0.3320309519767761 0.6854751110076904 0.24896517395973206
0.35517045855522156 0.6977776288986206 0.07998767495155334
0.4051252603530884 0.567497730255127 -0.03647788241505623
0.38085633516311646 0.6593786478042603 -0.07562630623579025
0.3793705105781555 0.6574227213859558 -0.047085780650377274
0.3820738196372986 0.6455031633377075 -0.09537900239229202
0.41089314222335815 0.42388683557510376 -0.013446751981973648
0.37742048501968384 0.40224218368530273 -0.005089365411549807
0.3498934805393219 0.3961668312549591 0.00993607472628355
0.33009830117225647 0.40031588077545166 0.031246112659573555
0.3212057948112488 0.4116980731487274 0.05281118303537369
0.32537004351615906 0.45628535747528076 0.0957861840724945
0.3116845190525055 0.5115605592727661 0.2337762862443924
0.32992908358573914 0.49864310026168823 0.07803356647491455
0.3468259274959564 0.5108118653297424 0.05760864168405533
0.373390793800354 0.514315664768219 0.03878973051905632
0.3984113931655884 0.5108407735824585 0.02175959199666977
0.4145912826061249 0.5047332644462585 0.010256740264594555
0.4245401620864868 0.49911588430404663 0.0014818570343777537
0.3505791127681732 0.5006453394889832 0.3141247630119324
0.38533252477645874 0.6615995168685913 -0.035446494817733765
0.4020105004310608 0.5834745764732361 -0.07446236163377762
0.3865898847579956 0.6678847670555115 -0.09805162250995636
0.40478751063346863 0.6815469264984131 -0.09181495755910873
0.391900897026062 0.6701831817626953 -0.08688934892416
0.39303451776504517 0.6689419746398926 -0.029278721660375595
0.4062529504299164 0.686223566532135 -0.09833367168903351
0.41724759340286255 0.6895238161087036 -0.07207022607326508
0.42800599336624146 0.4753652513027191 0.008215874433517456
0.43246912956237793 0.48560452461242676 -0.01013118028640747
0.4312938451766968 0.49475303292274475 -0.026491450145840645
0.3360203504562378 0.451235294342041 0.061096273362636566
0.32731789350509644 0.4340774416923523 0.06608858704566956
0.4501267671585083 0.5781269073486328 -0.11539793759584427
0.6654794216156006 0.48522329330444336 -0.06707100570201874
0.46109092235565186 0.6899558305740356 -0.0842711552977562
0.8277773261070251 0.34928321838378906 -0.02580689825117588
0.5803253650665283 0.5055034160614014 -0.06196669861674309
0.6066403388977051 0.5081332921981812 -0.06843183934688568
0.6355015635490417 0.5082517862319946 -0.07083560526371002
0.6833577156066895 0.4919765889644623 -0.06570806354284286
0.5592491030693054 0.4987235367298126 -0.050996068865060806
0.6207485795021057 0.42392146587371826 -0.08849743008613586
0.5898303389549255 0.4259811043739319 -0.0772189348936081
0.651443362236023 0.43019571900367737 -0.08840341120958328
0.6736657619476318 0.4431738257408142 -0.0841144248843193
0.7098743319511414 0.5086691975593567 -0.05726620554924011
0.5872136354446411 0.9049592018127441 0.037540242075920105
0.6813284158706665 0.47789466381073 -0.0633292868733406
0.8422993421554565 0.48133301734924316 0.007425330113619566
0.7504214644432068 0.4865396022796631 -0.04832039400935173
0.6047021746635437 0.6278283596038818 -0.06487318128347397
0.5010099411010742 0.7384557127952576 -0.04901311546564102
0.50864177942276 0.7588775157928467 -0.03420806676149368
0.5530344843864441 0.74296635389328 -0.04427996277809143
0.5908954739570618 0.7453804016113281 -0.027341818436980247
0.5459921360015869 0.7587432265281677 -0.03164709359407425
0.5777456164360046 0.7570958137512207 -0.016134250909090042
0.6377804279327393 0.7940287590026855 0.020393911749124527
0.43503695726394653 0.6796678900718689 -0.12516984343528748
0.4354630708694458 0.6504116654396057 -0.13672149181365967
0.710498571395874 0.41640210151672363 -0.09781123697757721
0.543575644493103 0.5578905344009399 -0.06302300095558167
0.528590977191925 0.6574193239212036 -0.09302973747253418
0.535023033618927 0.6383963823318481 -0.08907139301300049
0.701874852180481 0.6186873912811279 -0.06671909242868423
0.4410936236381531 0.6116364598274231 -0.1314094364643097
0.6287501454353333 0.38321614265441895 -0.1123478040099144
0.672401487827301 0.39434778690338135 -0.10856614261865616
0.7744828462600708 0.30231595039367676 -0.06523397564888
0.512542188167572 0.4084775447845459 -0.09160711616277695
0.5657092332839966 0.4377267360687256 -0.06214230880141258
0.6607515215873718 0.7578275203704834 0.006379620637744665
0.8466001749038696 0.7463256120681763 0.12237206846475601
0.5124335289001465 0.6752762794494629 -0.07674060761928558
0.4909122884273529 0.6846827864646912 -0.0654078796505928
0.6444584727287292 0.7570748925209045 0.014192327857017517
0.6305634379386902 0.7598371505737305 0.013911301270127296
0.6910322308540344 0.3747592866420746 -0.10783813148736954
0.5393195152282715 0.6641172170639038 -0.07824668288230896
0.5761895179748535 0.3850474953651428 -0.10718852281570435
0.5787790417671204 0.3622868061065674 -0.1172749400138855
0.6226479411125183 0.24442139267921448 -0.11736690253019333
0.7300316095352173 0.34043627977371216 -0.08962183445692062
0.5943310856819153 0.3047259747982025 -0.11757805943489075
0.7357911467552185 0.40082499384880066 -0.08847533911466599
0.780364990234375 0.3787274956703186 -0.058025553822517395
0.5049093961715698 0.7513790130615234 -0.04344702139496803
0.5487905740737915 0.753165066242218 -0.037658318877220154
0.5837585926055908 0.751677393913269 -0.02269844152033329
0.5092900991439819 0.6791942715644836 -0.06630910187959671
0.6375910043716431 0.7583780288696289 0.014577195979654789
0.6139734983444214 0.785434901714325 0.014278803952038288
0.6261172890663147 0.7601286768913269 0.014541194774210453
0.482917457818985 0.6768550872802734 -0.10637325793504715
0.5765388607978821 0.753040075302124 -0.01162320002913475
0.5453411340713501 0.7562456727027893 -0.02187948487699032
0.5116080045700073 0.7587385773658752 -0.025122549384832382
0.5208306312561035 0.8790281414985657 0.022518020123243332
0.5127596855163574 0.8632045388221741 0.0010540287476032972
0.5089457631111145 0.8492217063903809 -0.005092652514576912
0.5065553188323975 0.8353907465934753 -0.002889377763494849
0.5056594610214233 0.8245269060134888 -0.0007278394186869264
0.574735164642334 0.8002961874008179 0.006659210659563541
0.5791077017784119 0.803745687007904 0.005431672092527151
0.5858771204948425 0.8099600076675415 0.004894030746072531
0.5923004746437073 0.817379891872406 0.008831503801047802
0.6025437116622925 0.72304368019104 -0.03177191689610481
0.8856296539306641 0.596828043460846 0.11320766061544418
0.5985391736030579 0.785089910030365 0.013971472159028053
0.6058334708213806 0.7848089933395386 0.01377797033637762
0.4835776388645172 0.695874035358429 -0.06194767355918884
0.5402820110321045 0.6773489713668823 -0.053246185183525085
0.4867038130760193 0.6908318400382996 -0.06461477279663086
0.5743483304977417 0.570340633392334 -0.06256917119026184
0.6224809288978577 0.5873792171478271 -0.06827208399772644
0.5470125675201416 0.6467580795288086 -0.07555755227804184
0.7075172662734985 0.26645058393478394 -0.09658314287662506
0.670104444026947 0.3144177198410034 -0.10871853679418564
0.6385433077812195 0.360705703496933 -0.11751220375299454
0.6056540012359619 0.8299611210823059 0.02034626342356205
0.5164772868156433 0.3704855442047119 -0.10633088648319244
0.5267550349235535 0.3060341775417328 -0.11194837838411331
0.5445201992988586 0.2350187599658966 -0.11575429141521454
0.6648561358451843 0.5028436183929443 -0.06922950595617294
0.7477121353149414 0.526924192905426 -0.05081794783473015
0.5466270446777344 0.49219295382499695 -0.046039193868637085
0.7064037919044495 0.45555853843688965 -0.07579226046800613
0.5206826329231262 0.543212890625 -0.06788694858551025
0.4993222653865814 0.6550593972206116 -0.1115560531616211
0.7921596169471741 0.5437071919441223 -0.034027084708213806
0.7194219827651978 0.546769917011261 -0.06196899339556694
0.6748278737068176 0.557411789894104 -0.06849269568920135
0.6161315441131592 0.5543372631072998 -0.061994973570108414
0.5766082406044006 0.544346809387207 -0.05575453117489815
0.5488364696502686 0.5337049961090088 -0.054166581481695175
0.47371143102645874 0.5109017491340637 -0.08603595942258835
0.7912166118621826 0.6028797626495361 -0.02978067472577095
0.7338210344314575 0.44872230291366577 -0.07511503994464874
0.43598899245262146 0.6925995945930481 -0.1114998608827591
0.538499653339386 0.5888644456863403 -0.06782441586256027
0.8851546049118042 0.4652840495109558 0.06784463673830032
0.526608943939209 0.5213814973831177 -0.05365526303648949
0.5590732097625732 0.6437044143676758 -0.05218373239040375
0.6948771476745605 0.4755123555660248 -0.06228179484605789
0.5068978667259216 0.630948007106781 -0.10606326162815094
0.874792754650116 0.6688253879547119 0.12142816185951233
0.5505325794219971 0.4837258756160736 -0.04445520043373108
0.4724445939064026 0.6191053986549377 -0.12406331300735474
0.7349017858505249 0.8308317065238953 0.056894462555646896
0.7485836148262024 0.8594949245452881 0.09475503861904144
0.8514413237571716 0.6054941415786743 0.03986114263534546
0.7845010757446289 0.7904220819473267 0.05766434594988823
0.815382719039917 0.42522141337394714 -0.021435925737023354
0.5913094282150269 0.93070387840271 0.050630830228328705
0.4440816640853882 0.6949702501296997 -0.0786147490143776
0.5682471990585327 0.605250895023346 -0.06315053999423981
0.7869312763214111 0.4892793297767639 -0.035664066672325134
0.6284047365188599 0.49318236112594604 -0.07014451920986176
0.6030970811843872 0.49369174242019653 -0.06845996528863907
0.622828483581543 0.7864142656326294 0.015590572729706764
0.7951210141181946 0.6617236137390137 -0.00836820900440216
0.5444139242172241 0.9637707471847534 0.07371640205383301
0.6402081847190857 0.925237774848938 0.08175745606422424
0.6881436705589294 0.898527979850769 0.08763590455055237
0.5830843448638916 0.49108684062957764 -0.06252119690179825
0.5645655393600464 0.48619598150253296 -0.05385657772421837
0.5542346239089966 0.48442500829696655 -0.04654654115438461
0.7661912441253662 0.43902185559272766 -0.06166524067521095
0.5731035470962524 0.4672704041004181 -0.06176689639687538
0.5962154269218445 0.4602086842060089 -0.07165291160345078
0.6189911365509033 0.46017763018608093 -0.07810192555189133
0.6436285376548767 0.4646701216697693 -0.07943835854530334
0.6604993343353271 0.4709734320640564 -0.07622498273849487
0.8635543584823608 0.4002407193183899 0.02306251972913742
0.6486645936965942 0.49006879329681396 -0.0695827528834343
0.5647420287132263 0.7125191688537598 -0.04610234871506691
0.5076982378959656 0.6742528080940247 -0.08453374356031418
0.4953917860984802 0.7128462195396423 -0.054788317531347275
0.6838810443878174 0.8684266209602356 0.06294529139995575
0.6398314237594604 0.8996616005897522 0.059555307030677795
0.53783118724823 0.9513466358184814 0.04770065099000931
0.8008325099945068 0.8115919232368469 0.10828828811645508
0.5574225187301636 0.47816723585128784 -0.05184093117713928
0.48684290051460266 0.5596651434898376 -0.09056515991687775
0.592737078666687 0.948900580406189 0.07254469394683838
0.8471256494522095 0.6711162328720093 0.052444182336330414
0.5412439703941345 0.8153597116470337 0.0003734052006620914
0.5452010631561279 0.822640061378479 -0.0009255585027858615
0.5498590469360352 0.8333112001419067 -0.002288172487169504
0.5544193387031555 0.8460850715637207 0.002908947179093957
0.5675734281539917 0.8601469993591309 0.017790131270885468
0.6109451055526733 0.755700945854187 -0.0016182709950953722
0.6179345846176147 0.7522659301757812 -0.004081883933395147
0.6249590516090393 0.7473880052566528 -0.007333365269005299
0.6380347013473511 0.7369071245193481 -0.01499649416655302
0.7424079179763794 0.6807708740234375 -0.03628702089190483
0.49649685621261597 0.5261209607124329 -0.07539822906255722
0.5254422426223755 0.46023547649383545 -0.051104702055454254
0.5445546507835388 0.4632264971733093 -0.05023280158638954
0.605347752571106 0.7525604963302612 0.0018137646839022636
0.7589970827102661 0.749624490737915 0.013269242830574512
0.4943011999130249 0.4615056812763214 -0.07205655425786972
0.5802555084228516 0.8791791200637817 0.028879716992378235
0.46174001693725586 0.5474098920822144 -0.1018419861793518
0.507797360420227 0.6025344133377075 -0.08886118978261948
0.5284205079078674 0.9005932807922363 0.03251562640070915
0.6525946855545044 0.8081717491149902 0.02559014968574047
0.5878438353538513 0.6641526222229004 -0.04801108315587044
0.6209251284599304 0.8471041321754456 0.030249925330281258
0.6575264930725098 0.6616047620773315 -0.0618143193423748
0.6211129426956177 0.6916049718856812 -0.041661571711301804
0.6939395070075989 0.7037948966026306 -0.0392918661236763
0.5333539843559265 0.9280733466148376 0.03514182195067406
0.5335253477096558 0.6129019856452942 -0.07512789219617844
0.6719033718109131 0.8348785638809204 0.03858998790383339
0.6316720247268677 0.8711704015731812 0.04395230859518051
0.6764324903488159 0.7682410478591919 0.003832609858363867
0.7929873466491699 0.7119266390800476 0.013706917874515057
0.7135401964187622 0.7808918952941895 0.011192728765308857
0.8269923329353333 0.7329550981521606 0.0611591599881649
0.6570505499839783 0.719835638999939 -0.028480933979153633
0.512300968170166 0.5743200778961182 -0.07796652615070343
0.4892677962779999 0.6719397902488708 -0.11328388005495071
0.5192739367485046 0.6697248816490173 -0.09004063159227371
0.4666432738304138 0.6534942388534546 -0.12697556614875793
0.5431153178215027 0.43110957741737366 -0.06830483675003052
0.5834890604019165 0.4127975404262543 -0.08580700308084488
0.6220293045043945 0.4102199077606201 -0.09509360045194626
0.6576232314109802 0.417407751083374 -0.0964733213186264
0.6862704753875732 0.4323102831840515 -0.08977925032377243
0.7175841927528381 0.4814278483390808 -0.057847760617733
0.849664032459259 0.5431270599365234 0.02267695777118206
0.6889486312866211 0.5207769870758057 -0.06213096156716347
0.6536617875099182 0.5292572975158691 -0.06458654999732971
0.6130244135856628 0.5292357206344604 -0.06117933243513107
0.5788336396217346 0.5227406620979309 -0.056218523532152176
0.5545377135276794 0.5145123600959778 -0.04799433797597885
0.5371919870376587 0.507152795791626 -0.045715030282735825
0.88812255859375 0.5293893218040466 0.0954287201166153
0.5257998704910278 0.6724619269371033 -0.07780589908361435
0.4775006175041199 0.588556170463562 -0.10463649779558182
0.4600960612297058 0.6768757104873657 -0.12194839119911194
0.45535051822662354 0.6886110305786133 -0.10555194318294525
0.4676496982574463 0.6806243658065796 -0.11127248406410217
0.5249730348587036 0.6780262589454651 -0.06504277884960175
0.4466584026813507 0.6913172602653503 -0.10966196656227112
0.45412349700927734 0.6939226984977722 -0.08143623173236847
0.5391921997070312 0.4840083122253418 -0.04185565933585167
0.5230651497840881 0.4921517074108124 -0.04655260220170021
0.5094847083091736 0.5000877976417542 -0.05772280693054199
0.6717780828475952 0.4754655957221985 -0.0711897537112236
0.6900216341018677 0.4576842784881592 -0.07485019415616989
