ply
format ascii 1.0
element vertex 468
property float x
property float y
property float z
end_header
0.48567458987236023 0.7089389562606812 -0.08049439638853073
0.4716660976409912 0.6263309717178345 -0.1349080502986908
0.48282068967819214 0.6541111469268799 -0.07609646022319794
0.45908284187316895 0.5422973036766052 -0.09007665514945984
0.47064346075057983 0.5991808772087097 -0.14119963347911835
0.4734855592250824 0.5652639269828796 -0.12847007811069489
0.48548272252082825 0.48522263765335083 -0.05410744249820709
0.3378206193447113 0.47873157262802124 0.07575056701898575
0.4888334572315216 0.42365533113479614 -0.030396565794944763
0.4880104660987854 0.389930784702301 -0.031245213001966476
0.49329429864883423 0.2706020176410675 0.008156700991094112
0.4866282343864441 0.721532940864563 -0.07882634550333023
0.4885413646697998 0.7309475541114807 -0.07231271266937256
0.49090078473091125 0.7348836064338684 -0.06273779273033142
0.49021047353744507 0.7802886962890625 -0.05119439586997032
0.48944681882858276 0.7920136451721191 -0.05592036247253418
0.4894261360168457 0.8061670064926147 -0.0611015222966671
0.4902194142341614 0.8210958242416382 -0.05615493282675743
0.4934748411178589 0.8423798084259033 -0.03336978331208229
0.47472384572029114 0.6406382322311401 -0.12366970628499985
0.4596632421016693 0.6399416923522949 -0.08738656342029572
0.2788242995738983 0.39804476499557495 0.21774396300315857
0.4021994173526764 0.5022125244140625 0.03803399205207825
0.3796660602092743 0.503822922706604 0.04324677214026451
0.3582414388656616 0.5030298233032227 0.05345633253455162
0.3314831852912903 0.4892488121986389 0.07956536114215851
0.4208858013153076 0.4964555501937866 0.03620625659823418
0.37028032541275024 0.4337405562400818 0.0404997318983078
0.3954779803752899 0.4364306628704071 0.03517187759280205
0.34783095121383667 0.4381641745567322 0.05131421610713005
0.3335771858692169 0.4483136534690857 0.06263207644224167
0.3143123388290405 0.5087097883224487 0.09284095466136932
0.4087218940258026 0.8673762679100037 0.006582190748304129
0.3306352496147156 0.47242486476898193 0.08555249124765396
0.26519444584846497 0.5047242641448975 0.21517004072666168
0.29370710253715515 0.4937540292739868 0.1234838142991066
0.3765135705471039 0.6079056262969971 0.0017684517661109567
0.4551711678504944 0.7054431438446045 -0.07087923586368561
0.4630061089992523 0.7309058308601379 -0.0629625990986824
0.4272746443748474 0.7137895822525024 -0.05056709051132202
0.4126454293727875 0.7254028916358948 -0.026157572865486145
0.44376328587532043 0.7332860231399536 -0.04691386967897415
0.4302838146686554 0.7377637624740601 -0.0243770033121109
0.3907516598701477 0.7762157917022705 0.01809510588645935
0.453614741563797 0.625958263874054 -0.12979620695114136
0.4495212435722351 0.6000691056251526 -0.13471285998821259
0.3034619092941284 0.42727768421173096 0.0788930356502533
0.42455965280532837 0.5436380505561829 -0.002230600453913212
0.41242629289627075 0.6207752227783203 -0.0593470074236393
0.4124053120613098 0.6071998476982117 -0.050601594150066376
0.31236928701400757 0.6061429381370544 0.046152353286743164
0.4536576569080353 0.5685383677482605 -0.1163029596209526
0.3480740189552307 0.39811205863952637 0.02765456959605217
0.32080987095832825 0.40718144178390503 0.0523073673248291
0.29484856128692627 0.3516426682472229 0.1699335277080536
0.4415014684200287 0.41889744997024536 -0.012891112826764584
0.4171621799468994 0.4460969567298889 0.037469424307346344
0.3745730519294739 0.7460097074508667 0.02676253765821457
0.2935393154621124 0.7470107674598694 0.2471155822277069
0.43039214611053467 0.6354385018348694 -0.054535359144210815
0.44863414764404297 0.643334150314331 -0.06353426724672318
0.39658021926879883 0.7492071986198425 0.021775469183921814
0.4096677303314209 0.7489844560623169 0.013191724196076393
0.3109440505504608 0.392440527677536 0.0680365338921547
0.4144492745399475 0.6323758363723755 -0.04751523956656456
0.38670477271080017 0.4000767469406128 0.005098735447973013
0.38188594579696655 0.3802337050437927 0.0026775244623422623
0.36876678466796875 0.28807419538497925 0.06404487788677216
0.30231940746307373 0.3713904917240143 0.11228112876415253
0.3764514625072479 0.3324553072452545 0.03155208006501198
0.29312625527381897 0.41828927397727966 0.10414612293243408
0.2854398488998413 0.40964779257774353 0.15794025361537933
0.4581027030944824 0.7202052474021912 -0.06918181478977203
0.4356863498687744 0.7254234552383423 -0.049684103578329086
0.4208157956600189 0.7316879034042358 -0.027318110689520836
0.4366048276424408 0.6400061249732971 -0.05206933245062828
0.4026283025741577 0.7495548129081726 0.017038512974977493
0.4104313850402832 0.7639171481132507 0.0011843788670375943
0.414157509803772 0.7478053569793701 0.011902682483196259
0.43684232234954834 0.6268103122711182 -0.08807703852653503
0.43702006340026855 0.7363951206207275 -0.022081324830651283
0.45060738921165466 0.7344737648963928 -0.03906296193599701
0.4684704840183258 0.7344990372657776 -0.053725648671388626
0.459253191947937 0.8391085863113403 -0.026624754071235657
0.4578082859516144 0.8169479370117188 -0.04776120185852051
0.4588524401187897 0.8017892837524414 -0.05095721781253815
0.46157363057136536 0.787699282169342 -0.045412346720695496
0.4652305245399475 0.778118908405304 -0.041428714990615845
0.43239742517471313 0.7673130035400391 -0.012456045486032963
0.4272782504558563 0.7706328630447388 -0.016232255846261978
0.42043939232826233 0.7770436406135559 -0.01914188265800476
0.4151645302772522 0.7849518060684204 -0.0138692706823349
0.39366891980171204 0.6991962194442749 -0.014545965939760208
0.275179922580719 0.6193128824234009 0.3000655472278595
0.4786800742149353 0.6465033888816833 -0.09273875504732132
0.4241787791252136 0.7610039114952087 0.003072827821597457
0.4170057475566864 0.7617655396461487 0.0006765728467144072
0.455428808927536 0.6547056436538696 -0.06501206010580063
0.4232759475708008 0.6481072902679443 -0.033487625420093536
0.45213115215301514 0.6493516564369202 -0.06513690203428268
0.40144211053848267 0.5582859516143799 0.00881304033100605
0.36374425888061523 0.5751964449882507 0.01990594156086445
0.41083475947380066 0.6189364194869995 -0.037409331649541855
0.32210057973861694 0.314017653465271 0.11550132930278778
0.330598920583725 0.3445087969303131 0.07103785127401352
0.3407687544822693 0.37918999791145325 0.03561459481716156
0.4065406322479248 0.7999758124351501 0.0036267838440835476
0.4325277805328369 0.3861730098724365 -0.018267931416630745
0.4279833137989044 0.32987868785858154 0.0038356438744813204
0.42385193705558777 0.2753027081489563 0.027118569239974022
0.3408091366291046 0.4984245002269745 0.067277692258358
0.2911328673362732 0.528598964214325 0.10829547047615051
0.43288758397102356 0.48991286754608154 0.038362663239240646
0.31381386518478394 0.45981842279434204 0.08775325119495392
0.4394923746585846 0.5270234942436218 -0.012297657318413258
0.42200779914855957 0.6108184456825256 -0.08479393273591995
0.2702804207801819 0.5477461814880371 0.13792073726654053
0.30265718698501587 0.5445491671562195 0.08173876255750656
0.32883933186531067 0.552341103553772 0.05310514196753502
0.37127718329429626 0.5474786758422852 0.03466787561774254
0.40334251523017883 0.5370834469795227 0.0244910791516304
0.4265599250793457 0.525265634059906 0.014130485244095325
0.4652132987976074 0.49251270294189453 -0.040336210280656815
0.2690795958042145 0.60009765625 0.12487182021141052
0.2978779673576355 0.45809245109558105 0.10350113362073898
0.4640900492668152 0.6396198868751526 -0.11992458254098892
0.42377999424934387 0.5683766603469849 -0.016131192445755005
0.27014461159706116 0.5068621039390564 0.29765239357948303
0.44304558634757996 0.5114665627479553 0.009088766761124134
0.4111115038394928 0.620884895324707 -0.012728744186460972
0.3248784840106964 0.4752030372619629 0.09163318574428558
0.423321008682251 0.594369113445282 -0.07395817339420319
0.27958202362060547 0.6811580657958984 0.2802022695541382
0.43369752168655396 0.47999584674835205 0.046752627938985825
0.43741875886917114 0.5785583853721619 -0.09939385950565338
0.3238341212272644 0.8051081895828247 0.11066634207963943
0.33153486251831055 0.837497889995575 0.1479915827512741
0.2591637670993805 0.6112061142921448 0.21438688039779663
0.299358069896698 0.7707378268241882 0.14556503295898438
0.2751835882663727 0.4538685083389282 0.1945299506187439
0.4057038724422455 0.8947591185569763 0.017263788729906082
0.47015345096588135 0.6455789804458618 -0.08965769410133362
0.4045546054840088 0.5873386859893799 -0.006060027051717043
0.27795839309692383 0.5006238222122192 0.1514197587966919
0.35909974575042725 0.486870139837265 0.05695255845785141
0.3787256181240082 0.48923277854919434 0.04782089591026306
0.4046843647956848 0.7671632170677185 0.005803859326988459
0.2733275294303894 0.6520799994468689 0.1252710074186325
0.44864046573638916 0.9359545707702637 0.011249513365328312
0.3849167823791504 0.8950496315956116 0.07464306801557541
0.3597652018070221 0.870739221572876 0.10764709115028381
0.4898747503757477 0.32926294207572937 -0.012990615330636501
0.499763160943985 0.9445984363555908 -0.005351778585463762
0.397989958524704 0.48830050230026245 0.04338546842336655
0.4162747859954834 0.48506441712379456 0.04394254833459854
0.42817217111587524 0.482713520526886 0.04713711142539978
0.2854136526584625 0.4552108645439148 0.1320565938949585
0.4142552316188812 0.4600399136543274 0.04327668994665146
0.39480412006378174 0.451302170753479 0.042957842350006104
0.373921662569046 0.4488389492034912 0.04738190397620201
0.3536662757396698 0.4532283544540405 0.056236736476421356
0.3417234718799591 0.4612158536911011 0.06575454026460648
0.27054503560066223 0.4466937184333801 0.2645368278026581
0.34629306197166443 0.48311853408813477 0.06725122779607773
0.4846176505088806 0.6718813180923462 -0.07103864848613739
0.4118352234363556 0.6838222742080688 -0.03281603008508682
0.4284401535987854 0.6313315629959106 -0.06342874467372894
0.45271164178848267 0.6745330691337585 -0.06277232617139816
0.48933079838752747 0.45421338081359863 -0.03281417116522789
0.3513435125350952 0.838650107383728 0.08157743513584137
0.3775453269481659 0.8658958673477173 0.050896357744932175
0.44436708092689514 0.9164831638336182 -0.014333129860460758
0.31153759360313416 0.7998896837234497 0.19854682683944702
0.4275699853897095 0.4720947742462158 0.045518908649683
0.4482075870037079 0.532638669013977 -0.04956921190023422
0.495685875415802 0.9246261119842529 -0.029439788311719894
0.41254138946533203 0.9179461598396301 0.039307381957769394
0.26516976952552795 0.6684659123420715 0.20256280899047852
0.4462858736515045 0.7732166051864624 -0.027461020275950432
0.4413212537765503 0.779909074306488 -0.031232992187142372
0.436147004365921 0.7906108498573303 -0.03397044166922569
0.4325622320175171 0.8038578629493713 -0.029978221282362938
0.428169310092926 0.8225533366203308 -0.012694611214101315
0.4181289076805115 0.7421318888664246 -0.004104208666831255
0.4093332290649414 0.7396578788757324 -0.0021618762984871864
0.40182673931121826 0.7356768846511841 -0.0008249945240095258
0.38018709421157837 0.7198803424835205 0.007902449928224087
0.2983415126800537 0.6638064384460449 0.06943071633577347
0.45292067527770996 0.5080999135971069 -0.02448039874434471
0.44827282428741455 0.4618944823741913 0.025001661852002144
0.43639928102493286 0.4652124047279358 0.03890678286552429
0.4254302382469177 0.7389479875564575 -0.0026328926905989647
0.3019222617149353 0.7294881939888 0.10169855505228043
0.4626908004283905 0.45946428179740906 -0.010201718658208847
0.4184498190879822 0.8425384759902954 -0.001143710338510573
0.4776455760002136 0.5379130840301514 -0.1023494079709053
0.46145251393318176 0.5187559723854065 -0.06763217598199844
0.48145192861557007 0.5126765966415405 -0.07702955603599548
0.4324897527694702 0.5727609992027283 -0.0511743426322937
0.4939759373664856 0.8969264626502991 -0.03826834261417389
0.4937794804573059 0.8661558628082275 -0.03482314571738243
0.45326048135757446 0.8614436388015747 -0.02284778468310833
0.37176913022994995 0.7852202653884888 0.03375648334622383
0.3937763571739197 0.6420362591743469 -0.004234395455569029
0.3926389217376709 0.8170396089553833 0.017451560124754906
0.3420705199241638 0.6393115520477295 0.01523588877171278
0.3736310601234436 0.6680046319961548 0.0038698504213243723
0.3275548815727234 0.6816182136535645 0.03678268566727638
0.44607195258140564 0.890267014503479 -0.022913087159395218
0.4221575856208801 0.5877515077590942 -0.032959602773189545
0.3549198508262634 0.8067764639854431 0.05623063072562218
0.3815464377403259 0.8380144834518433 0.03381112962961197
0.35411182045936584 0.7500202655792236 0.04007655009627342
0.2818712294101715 0.6976696848869324 0.12839429080486298
0.3279043138027191 0.7571994662284851 0.06588111072778702
0.27807825803756714 0.7222840189933777 0.18482141196727753
0.35921454429626465 0.7010279297828674 0.018152806907892227
0.43669337034225464 0.5503889918327332 -0.03143439441919327
0.42893314361572266 0.6223917603492737 -0.09173779934644699
0.41906243562698364 0.629151463508606 -0.0649491399526596
0.43422943353652954 0.604265570640564 -0.11035675555467606
0.42948922514915466 0.43933776021003723 0.023659875616431236
0.3927939534187317 0.4243542551994324 0.02666478045284748
0.3611486554145813 0.42164671421051025 0.03467894345521927
0.3360246419906616 0.4265934228897095 0.049056388437747955
0.3203587532043457 0.438921719789505 0.0666317567229271
0.3120462894439697 0.4844910502433777 0.1032671257853508
0.2594800889492035 0.5571666359901428 0.21747785806655884
0.32456862926483154 0.5182211399078369 0.07721129059791565
0.3462062478065491 0.5249601006507874 0.05757881700992584
0.3755537271499634 0.5241991877555847 0.04205648973584175
0.40399888157844543 0.5184915065765381 0.03345194086432457
0.42572176456451416 0.5102035403251648 0.028238613158464432
0.4401208460330963 0.5018595457077026 0.02472289279103279
0.2738180160522461 0.5626971125602722 0.3080245852470398
0.42185503244400024 0.6360402703285217 -0.05367140844464302
0.44419044256210327 0.5548216104507446 -0.07099337875843048
0.44069352746009827 0.6228122115135193 -0.11441632360219955
0.45576661825180054 0.6357831358909607 -0.1085023283958435
0.4435758888721466 0.6275249123573303 -0.10287836939096451
0.4290660619735718 0.6438238024711609 -0.0477716289460659
0.4581478238105774 0.6380038857460022 -0.11584325134754181
0.4638155996799469 0.6438965797424316 -0.08841805160045624
0.44089236855506897 0.4817683696746826 0.039719358086586
0.451448529958725 0.4877537488937378 0.020826196298003197
0.45530974864959717 0.49135488271713257 0.0008914940990507603
0.33517682552337646 0.46733558177948 0.07469164580106735
0.32472312450408936 0.45981109142303467 0.07745325565338135
0.49875688552856445 0.5421506762504578 -0.09906333684921265
0.6756837964057922 0.4765881896018982 0.009636754170060158
0.500973641872406 0.6398283243179321 -0.0943855568766594
0.7905667424201965 0.3912113904953003 0.1167527511715889
0.6030121445655823 0.49994075298309326 -0.004855019971728325
0.6278034448623657 0.5013887882232666 -0.008025512099266052
0.6523267030715942 0.5006726980209351 -0.005648409947752953
0.687369704246521 0.4873207211494446 0.009717937558889389
0.5820541977882385 0.4944981634616852 0.0025194769259542227
0.6342594623565674 0.43027904629707336 -0.013250312767922878
0.6068351864814758 0.43284016847610474 -0.0073557207360863686
0.6604899764060974 0.4350520074367523 -0.010554589331150055
0.6789555549621582 0.4454694390296936 -0.004286592360585928
0.710241436958313 0.5065181255340576 0.017439497634768486
0.5951467156410217 0.8735066056251526 -0.024353334680199623
0.6862586140632629 0.4704049229621887 0.016484811902046204
0.8049399852752686 0.5023319721221924 0.11277340352535248
0.7423808574676514 0.49125224351882935 0.03907313570380211
0.6184698343276978 0.6072720289230347 -0.0416799858212471
0.519468367099762 0.7052193284034729 -0.08272658288478851
0.5183717012405396 0.7309466600418091 -0.07385440170764923
0.5566840767860413 0.7139924168586731 -0.07455869764089584
0.5812456011772156 0.7251108288764954 -0.05882247909903526
0.544651985168457 0.7333999872207642 -0.06819076091051102
0.5658401250839233 0.7371424436569214 -0.0526600256562233
0.6189649105072021 0.7774707674980164 -0.023048074916005135
0.4921480417251587 0.6258226633071899 -0.13562263548374176
0.4941922426223755 0.5997474789619446 -0.14161571860313416
0.7174359560012817 0.4237203299999237 -0.0006724282866343856
0.5666213035583496 0.5427004098892212 -0.030810898169875145
0.5590220093727112 0.6198030114173889 -0.08593994379043579
0.5626171231269836 0.6062012910842896 -0.07797429710626602
0.700706422328949 0.6055748462677002 -0.025570746511220932
0.4959011375904083 0.5681882500648499 -0.12516215443611145
0.6501933336257935 0.3935518264770508 -0.02754458785057068
0.6883805990219116 0.4032283425331116 -0.01694508083164692
0.7553408145904541 0.34291163086891174 0.07951636612415314
0.5405372977256775 0.41697192192077637 -0.031082341447472572
0.5841705799102783 0.4430946111679077 0.003248159307986498
0.6370259523391724 0.7462619543075562 -0.022876758128404617
0.7948414087295532 0.7550675272941589 0.15311148762702942
0.5417872667312622 0.6346967220306396 -0.0740761011838913
0.5213595628738403 0.6429228186607361 -0.07328469306230545
0.6124246120452881 0.7485206723213196 -0.021504990756511688
0.5998722910881042 0.7479748725891113 -0.025228552520275116
0.7040922045707703 0.38778722286224365 -0.005628381855785847
0.5627129673957825 0.6315569281578064 -0.07344462722539902
0.6014790534973145 0.3961993455886841 -0.03251670300960541
0.6054522395133972 0.375800758600235 -0.03606710582971573
0.6378169655799866 0.2804761230945587 0.012092831544578075
0.7285546660423279 0.364751398563385 0.031202249228954315
0.618095874786377 0.32651498913764954 -0.01316358707845211
0.7361405491828918 0.41408905386924744 0.019105959683656693
0.7626731395721436 0.40434974431991577 0.06584898382425308
0.5191768407821655 0.7202175259590149 -0.0810537040233612
0.5497773885726929 0.725601315498352 -0.07246356457471848
0.5732849836349487 0.7312843203544617 -0.0576280876994133
0.53646320104599 0.6394875049591064 -0.06812867522239685
0.6061726808547974 0.748453676700592 -0.023403747007250786
0.5934805274009705 0.7634286880493164 -0.03293083980679512
0.5967934131622314 0.7468776106834412 -0.025440728291869164
0.523892343044281 0.6262232065200806 -0.10610920190811157
0.5624098777770996 0.7354322075843811 -0.04879755526781082
0.5415167212486267 0.7341713309288025 -0.05905407294631004
0.5176367163658142 0.7341678738594055 -0.06501765549182892
0.5317280292510986 0.8405991196632385 -0.0374489389359951
0.5265864133834839 0.8177429437637329 -0.060060519725084305
0.5237129330635071 0.8025761246681213 -0.06343770027160645
0.5210449695587158 0.7884420156478882 -0.05785392224788666
0.5190199017524719 0.7786877155303955 -0.053281430155038834
0.5661173462867737 0.7670590877532959 -0.03928675130009651
0.5704889297485352 0.7706863880157471 -0.04301662743091583
0.5770111680030823 0.7773230075836182 -0.04679444804787636
0.5831936597824097 0.785514235496521 -0.04345693066716194
0.600028395652771 0.6987499594688416 -0.05157850682735443
0.8241592645645142 0.6222217679023743 0.19580085575580597
0.5806049704551697 0.7605843544006348 -0.02969040535390377
0.5867238640785217 0.7612128257751465 -0.03232557326555252
0.5139113664627075 0.6543552279472351 -0.07471537590026855
0.5572363138198853 0.6475077271461487 -0.05437798053026199
0.5172089338302612 0.6489329934120178 -0.07450029999017715
0.5943522453308105 0.5571231842041016 -0.029299799352884293
0.6370229125022888 0.573869526386261 -0.03133218362927437
0.5692607760429382 0.6180198192596436 -0.06575587391853333
0.7063822746276855 0.30478185415267944 0.04167722165584564
0.6826490163803101 0.3374320864677429 0.005798594560474157
0.6595364212989807 0.3737088143825531 -0.022837311029434204
0.5978039503097534 0.8023464679718018 -0.03086227737367153
0.546927809715271 0.38356852531433105 -0.03794793784618378
0.5565455555915833 0.32651275396347046 -0.019316427409648895
0.5693373084068298 0.2709500789642334 0.0010939933126792312
0.67438805103302 0.4962270259857178 0.0015390119515359402
0.7406027317047119 0.526628851890564 0.02492951974272728
0.5681779384613037 0.48825281858444214 0.008490641601383686
0.7085736393928528 0.4572439193725586 0.011214927770197392
0.547408401966095 0.5261745452880859 -0.035000886768102646
0.5398922562599182 0.6100160479545593 -0.10625439137220383
0.77373868227005 0.5466338396072388 0.043767184019088745
0.7195590138435364 0.5426173806190491 0.003321825759485364
0.6833934783935547 0.5503345131874084 -0.014092354103922844
0.6330446004867554 0.5458694696426392 -0.016890741884708405
0.5967098474502563 0.5356411337852478 -0.014776451513171196
0.5699573755264282 0.5241017937660217 -0.015286743640899658
0.5096849799156189 0.4919036030769348 -0.049885883927345276
0.770517110824585 0.6004303693771362 0.030968084931373596
0.7320754528045654 0.45500296354293823 0.019848933443427086
0.4868789613246918 0.6396656632423401 -0.12438187748193741
0.5620816946029663 0.567550539970398 -0.043667420744895935
0.8256381154060364 0.5045006275177002 0.18921753764152527
0.5496757626533508 0.5103220343589783 -0.013837370090186596
0.575462818145752 0.6199210286140442 -0.04141223430633545
0.6958626508712769 0.47308725118637085 0.019146619364619255
0.5435433387756348 0.5936604738235474 -0.09590499103069305
0.816313624382019 0.6868051290512085 0.18022876977920532
0.5692585706710815 0.478546142578125 0.015633542090654373
0.5196293592453003 0.5781452059745789 -0.11509885638952255
0.718867838382721 0.8136382102966309 0.04096117988228798
0.7261513471603394 0.8484463691711426 0.07673927396535873
0.8095591068267822 0.6132360100746155 0.11233807355165482
0.7554303407669067 0.7784543633460999 0.0633392408490181
0.7854554057121277 0.4496529996395111 0.09635686874389648
0.6017373204231262 0.9021991491317749 -0.016012556850910187
0.4877203106880188 0.6455188393592834 -0.09252858906984329
0.5866215229034424 0.5863030552864075 -0.03992560878396034
0.7692634463310242 0.49821937084198 0.058666445314884186
0.6487439870834351 0.4842044711112976 -0.0009225806570611894
0.6271929740905762 0.4864439368247986 -0.003399863839149475
0.6005441546440125 0.7669268250465393 -0.030742894858121872
0.768640398979187 0.6545929312705994 0.034320250153541565
0.5549577474594116 0.9409398436546326 -0.007580912206321955
0.6421068906784058 0.9055379629135132 0.028272252529859543
0.6810572147369385 0.882014274597168 0.04949825257062912
0.6068017482757568 0.48552078008651733 -0.0003201367799192667
0.5875042080879211 0.48258841037750244 0.006459027994424105
0.5750389695167542 0.48089149594306946 0.013663958758115768
0.7552052736282349 0.4517984092235565 0.04173264652490616
0.5906848907470703 0.45811063051223755 0.004900102037936449
0.6119938492774963 0.44911855459213257 -0.002014443278312683
0.6331969499588013 0.4469931125640869 -0.004945454653352499
0.655245840549469 0.45139551162719727 -0.0031502628698945045
0.6697378158569336 0.459417462348938 0.001899135299026966
0.8132392168045044 0.4419563412666321 0.158611461520195
0.6643528342247009 0.48070746660232544 0.0043101985938847065
0.5729444622993469 0.6835352182388306 -0.06097903475165367
0.5407909750938416 0.6305343508720398 -0.08203589916229248
0.5201560258865356 0.6744165420532227 -0.07463334500789642
0.6801635026931763 0.8479599356651306 0.0247852373868227
0.6427051424980164 0.8751832842826843 0.005945612210780382
0.5518404245376587 0.9210201501846313 -0.032576195895671844
0.7624994516372681 0.8095788359642029 0.1144304946064949
0.5755928754806519 0.4706246256828308 0.011139538139104843
0.5240911841392517 0.5322358012199402 -0.06487802416086197
0.6008217930793762 0.9262585639953613 0.00502922385931015
0.8034237623214722 0.6728649139404297 0.1045215055346489
0.5443134903907776 0.7736489772796631 -0.04812348261475563
0.548658549785614 0.7805217504501343 -0.0522727444767952
0.5535039901733398 0.7914525270462036 -0.05626966059207916
0.5579326152801514 0.8048872947692871 -0.0529867522418499
0.5692139863967896 0.8249015808105469 -0.03796647861599922
0.5861577391624451 0.7412341833114624 -0.03839721158146858
0.5937159061431885 0.7388758659362793 -0.03963624686002731
0.6012160181999207 0.7349473834037781 -0.04037243127822876
0.622990608215332 0.7197049856185913 -0.03822990134358406
0.7262489795684814 0.6653786301612854 -0.008060202933847904
0.5280969142913818 0.5073709487915039 -0.0404939278960228
0.5469473004341125 0.46036583185195923 0.00512077659368515
0.5637574195861816 0.4633161425590515 0.010157282464206219
0.581139326095581 0.7379053235054016 -0.03589032217860222
0.7358238697052002 0.7337989211082458 0.02399761602282524
0.522487461566925 0.458556592464447 -0.022319825366139412
0.5834915041923523 0.8468033671379089 -0.028641464188694954
0.5043744444847107 0.5184009671211243 -0.07585113495588303
0.5411426424980164 0.5721038579940796 -0.07112494856119156
0.5394096374511719 0.8640718460083008 -0.03602536767721176
0.6430932879447937 0.7887526750564575 -0.013962652534246445
0.5983609557151794 0.6413221955299377 -0.04003595560789108
0.6171994209289551 0.8215148448944092 -0.020354202017188072
0.6610832810401917 0.6392427086830139 -0.040657270699739456
0.6247479915618896 0.6679535508155823 -0.040667176246643066
0.6861357688903809 0.6828103065490723 -0.027213849127292633
0.5469606518745422 0.8935365676879883 -0.04012047499418259
0.558889627456665 0.5868372321128845 -0.058206673711538315
0.6672868728637695 0.8133300542831421 0.0023633218370378017
0.6326887011528015 0.8450663685798645 -0.007707173004746437
0.6619194746017456 0.7520034313201904 -0.017249463126063347
0.7639824748039246 0.7016825675964355 0.041432131081819534
0.6986007690429688 0.7616250514984131 -1.762665488058701e-05
0.7875413298606873 0.7285023331642151 0.0914478525519371
0.6482304930686951 0.7012777924537659 -0.034377846866846085
0.5427439212799072 0.5496974587440491 -0.05330733582377434
0.5312336087226868 0.6219429969787598 -0.11099442094564438
0.5510416626930237 0.6284075379371643 -0.08744587749242783
0.5176905393600464 0.6039102077484131 -0.12573447823524475
0.5646402835845947 0.4372584819793701 -0.003945044241845608
0.603678822517395 0.42109215259552 -0.013594414107501507
0.6394284963607788 0.41782090067863464 -0.018331436440348625
0.670703113079071 0.42311161756515503 -0.015190647915005684
0.6941108703613281 0.43578478693962097 -0.005243302788585424
0.7155883312225342 0.48227792978286743 0.02579009160399437
0.8106650114059448 0.556937575340271 0.11267616599798203
0.6943309307098389 0.5160254240036011 0.006391698494553566
0.6662670969963074 0.5226726531982422 -0.004238778259605169
0.6315761804580688 0.5221250057220459 -0.008850382640957832
0.5995875000953674 0.5166280269622803 -0.006987690459936857
0.5753068923950195 0.5087257623672485 -0.0023418262135237455
0.5580692887306213 0.5005230903625488 -0.00026708055520430207
0.826286256313324 0.5629547834396362 0.2003430724143982
0.5523031949996948 0.6352798342704773 -0.07564280927181244
0.5203295946121216 0.5545340776443481 -0.08663079887628555
0.5108088850975037 0.6226885318756104 -0.1267552673816681
0.5003139972686768 0.6357776522636414 -0.11567113548517227
0.5129401087760925 0.6273928880691528 -0.11553221195936203
0.5472641587257385 0.643333375453949 -0.06638743728399277
0.49489495158195496 0.6379435062408447 -0.12166088074445724
0.49570125341415405 0.6438959240913391 -0.0933818370103836
0.5593101382255554 0.480269193649292 0.013800117187201977
0.5443814396858215 0.4865563213825226 0.0013040219200775027
0.5343654751777649 0.4903582036495209 -0.01526728831231594
0.6785692572593689 0.46543875336647034 0.008072101511061192
0.6930415630340576 0.45745277404785156 0.006917252205312252
