ply
format ascii 1.0
element vertex 468
property float x
property float y
property float z
end_header
0.49561697244644165 0.7195051312446594 -0.044941190630197525
0.4921305775642395 0.6655616760253906 -0.12821391224861145
0.49365872144699097 0.6820414066314697 -0.061167389154434204
0.47560155391693115 0.5716039538383484 -0.11022956669330597
0.49236413836479187 0.6386011242866516 -0.13996174931526184
0.4932906925678253 0.6005234122276306 -0.13581404089927673
0.4966925084590912 0.5064361095428467 -0.08753855526447296
0.32781487703323364 0.47531259059906006 0.003205080283805728
0.4983646273612976 0.43740785121917725 -0.08148016780614853
0.49939998984336853 0.40168899297714233 -0.09313812106847763
0.5018783211708069 0.25768136978149414 -0.09683829545974731
0.49613505601882935 0.7294712066650391 -0.040575023740530014
0.4966161847114563 0.734910786151886 -0.03318117558956146
0.4969417154788971 0.7343590259552002 -0.023132402449846268
0.4996482729911804 0.7795933485031128 -0.007816658355295658
0.499362975358963 0.7891352772712708 -0.010355019010603428
0.49929484724998474 0.8007148504257202 -0.012842489406466484
0.4990350902080536 0.8136569261550903 -0.006152633111923933
0.49816709756851196 0.8355222344398499 0.01902075856924057
0.49213528633117676 0.6776772737503052 -0.11418915539979935
0.47211605310440063 0.6711426973342896 -0.0813920721411705
0.24342080950737 0.3643328547477722 0.0887245163321495
0.40114736557006836 0.5042774677276611 -0.0169433131814003
0.37664979696273804 0.504599392414093 -0.015096520073711872
0.352314829826355 0.5019940137863159 -0.009184624999761581
0.3178964853286743 0.48308461904525757 0.008620127104222775
0.420521080493927 0.5002884268760681 -0.01454127486795187
0.36516955494880676 0.43316972255706787 -0.03227238729596138
0.39227601885795593 0.43780848383903503 -0.03302399441599846
0.3399812579154968 0.43569624423980713 -0.024100754410028458
0.32305407524108887 0.4443803131580353 -0.014322547242045403
0.29837507009506226 0.5002806186676025 0.0232213344424963
0.40983086824417114 0.861271858215332 0.05665478855371475
0.3175939917564392 0.4669949412345886 0.010170506313443184
0.22912275791168213 0.48155802488327026 0.12320005893707275
0.27316945791244507 0.48256248235702515 0.042750511318445206
0.3716098666191101 0.6137720942497253 -0.02140755020081997
0.46041619777679443 0.7139129042625427 -0.04292042553424835
0.46338048577308655 0.731918215751648 -0.029165087267756462
0.42537418007850647 0.7126592397689819 -0.026186328381299973
0.4028664827346802 0.712311863899231 -0.0004764004552271217
0.4375748038291931 0.7279196381568909 -0.01622873544692993
0.4177674651145935 0.7244741320610046 0.006863652728497982
0.3789674639701843 0.7523937225341797 0.05551569163799286
0.4733172059059143 0.6637295484542847 -0.12664473056793213
0.4715948700904846 0.6368797421455383 -0.13770189881324768
0.2905086874961853 0.4185522794723511 -0.015771793201565742
0.42654871940612793 0.5534593462944031 -0.03426378220319748
0.4224945902824402 0.6400018334388733 -0.07059387117624283
0.42182543873786926 0.623810350894928 -0.06538531929254532
0.2938442826271057 0.6017125844955444 0.007758510299026966
0.4731907844543457 0.6017351150512695 -0.12863987684249878
0.34849780797958374 0.3971714377403259 -0.05914969742298126
0.31449776887893677 0.4016774296760559 -0.04029626026749611
0.2687031626701355 0.32061767578125 0.03475445881485939
0.4499000906944275 0.43037503957748413 -0.07553592324256897
0.41487443447113037 0.44953107833862305 -0.025116074830293655
0.3576354384422302 0.7194070816040039 0.05162978917360306
0.2540718913078308 0.7237256169319153 0.2343011200428009
0.4383544325828552 0.6558382511138916 -0.05873124301433563
0.4569934606552124 0.6663913726806641 -0.057769525796175
0.37517493963241577 0.7169921398162842 0.053500160574913025
0.38678044080734253 0.7207150459289551 0.04803357645869255
0.30221617221832275 0.38309866189956665 -0.033515602350234985
0.42077577114105225 0.6465001106262207 -0.05539437010884285
0.3928786516189575 0.4053075909614563 -0.07160884886980057
0.38925302028656006 0.3834730386734009 -0.08170778304338455
0.36431533098220825 0.2666776776313782 -0.06512868404388428
0.2863110303878784 0.3522457778453827 -0.00450410321354866
0.37986406683921814 0.3237603008747101 -0.07551687210798264
0.27611684799194336 0.4049557149410248 0.0009913730900734663
0.25984907150268555 0.3868241310119629 0.04192252829670906
0.46138423681259155 0.7253719568252563 -0.03796689584851265
0.4322913885116577 0.7223057746887207 -0.021070601418614388
0.41041091084480286 0.7184260487556458 0.0019886689260601997
0.4433673620223999 0.6597785949707031 -0.052767347544431686
0.3806147575378418 0.7181808352470398 0.05040879175066948
0.396006315946579 0.7407165169715881 0.040908049792051315
0.3910733461380005 0.7221139073371887 0.047639399766922
0.45006680488586426 0.6568942666053772 -0.09385110437870026
0.42165884375572205 0.722074568271637 0.010222594253718853
0.44199222326278687 0.7266144752502441 -0.006741359364241362
0.46623024344444275 0.7318031191825867 -0.019153710454702377
0.46067580580711365 0.8319677114486694 0.02208762802183628
0.46327638626098633 0.8083428144454956 -0.0023979442194104195
0.4643133878707886 0.7949190139770508 -0.007894156500697136
0.46610286831855774 0.7840501070022583 -0.005249513778835535
0.46878087520599365 0.7760351896286011 -0.0030915068928152323
0.42234352231025696 0.7543211579322815 0.0238068625330925
0.41828295588493347 0.7563687562942505 0.021762041375041008
0.4133116602897644 0.760945200920105 0.021180883049964905
0.40934669971466064 0.768021821975708 0.027695270255208015
0.38529717922210693 0.6945234537124634 0.001328800804913044
0.22845938801765442 0.5910951495170593 0.24073852598667145
0.4924856722354889 0.6804895997047424 -0.08071863651275635
0.4085228741168976 0.7426186800003052 0.0400117002427578
0.4018661379814148 0.7409210801124573 0.039196908473968506
0.46451660990715027 0.6776280999183655 -0.05501193553209305
0.4261561930179596 0.6591668725013733 -0.034083425998687744
0.46091029047966003 0.6724815964698792 -0.05756130442023277
0.40076005458831787 0.5639513731002808 -0.023990295827388763
0.3569605350494385 0.5767467617988586 -0.01580115593969822
0.4168871343135834 0.6316404938697815 -0.049804605543613434
0.30663225054740906 0.287349671125412 -0.01809833012521267
0.32423853874206543 0.32963046431541443 -0.043038442730903625
0.34089672565460205 0.3752346634864807 -0.06057029962539673
0.3994838297367096 0.7852498888969421 0.04615630954504013
0.44331926107406616 0.3954177498817444 -0.09124141186475754
0.4362336993217468 0.3254215717315674 -0.09301509708166122
0.42697495222091675 0.2578188180923462 -0.09089615195989609
0.3303185701370239 0.49483609199523926 0.0002454939531162381
0.271302193403244 0.5177410244941711 0.03885059431195259
0.4323779344558716 0.4953211545944214 -0.012750743888318539
0.2993186116218567 0.4526037275791168 0.004637411329895258
0.443547785282135 0.5402686595916748 -0.04506198316812515
0.43639057874679565 0.6377127766609192 -0.09539218991994858
0.24452346563339233 0.5339297652244568 0.06837894022464752
0.2869803011417389 0.5356504321098328 0.021190743893384933
0.31843826174736023 0.5472254753112793 0.0017967646708711982
0.3664513826370239 0.5474355220794678 -0.008670970797538757
0.40227705240249634 0.540708065032959 -0.015131114982068539
0.42678290605545044 0.531976580619812 -0.0237871240824461
0.4750169813632965 0.5118915438652039 -0.07756348699331284
0.24109703302383423 0.587296187877655 0.07148097455501556
0.28068482875823975 0.44845134019851685 0.01341672521084547
0.480868935585022 0.6758095622062683 -0.11319320648908615
0.4277583956718445 0.581123948097229 -0.04074361175298691
0.2226300835609436 0.4725204110145569 0.19831041991710663
0.44435080885887146 0.521303653717041 -0.029930168762803078
0.413078248500824 0.6296982169151306 -0.025133758783340454
0.3103269338607788 0.46829232573509216 0.014849367551505566
0.43622708320617676 0.6177611351013184 -0.08890251815319061
0.23639214038848877 0.6560048460960388 0.24291934072971344
0.4312700629234314 0.4859711527824402 -0.008896127343177795
0.4543314576148987 0.607674241065979 -0.11369039118289948
0.30729910731315613 0.7905819416046143 0.12856413424015045
0.3133286237716675 0.8189882040023804 0.17262516915798187
0.22225317358970642 0.592767596244812 0.15648546814918518
0.27124685049057007 0.7560927867889404 0.14648307859897614
0.24327829480171204 0.43036431074142456 0.08793086558580399
0.40949559211730957 0.8846127986907959 0.0726432353258133
0.48358291387557983 0.6790269613265991 -0.07928735017776489
0.40474629402160645 0.5954017639160156 -0.029438648372888565
0.2522241175174713 0.4861750602722168 0.06587733328342438
0.3548659682273865 0.4866896867752075 -0.009379264898598194
0.37675392627716064 0.4899713397026062 -0.01463830005377531
0.39052557945251465 0.7422003746032715 0.04533679410815239
0.2414504587650299 0.6407212018966675 0.08960481733083725
0.4509192407131195 0.9190448522567749 0.08235980570316315
0.3851604461669922 0.8786567449569702 0.12360063195228577
0.3542504906654358 0.853651225566864 0.14612218737602234
0.500766396522522 0.328025758266449 -0.09762086719274521
0.4956853985786438 0.9266117811203003 0.07643862813711166
0.39716988801956177 0.48989439010620117 -0.015562671236693859
0.41612234711647034 0.4876759648323059 -0.012477749958634377
0.42714449763298035 0.4869345426559448 -0.008739274926483631
0.2629892826080322 0.4408232569694519 0.03535497188568115
0.4100874364376068 0.4624616205692291 -0.019112223759293556
0.38884493708610535 0.4510524868965149 -0.023085733875632286
0.3669999837875366 0.4472762644290924 -0.022306477651000023
0.3448811173439026 0.4504166841506958 -0.016485068947076797
0.3311808109283447 0.45759010314941406 -0.008212263695895672
0.22824379801750183 0.41232985258102417 0.14768704771995544
0.3391481637954712 0.48135992884635925 -0.0025771816726773977
0.49467459321022034 0.6937997937202454 -0.049423836171627045
0.4109906852245331 0.6881046295166016 -0.02050844021141529
0.4379308521747589 0.6546947360038757 -0.06934936344623566
0.46011584997177124 0.6916810274124146 -0.04625549167394638
0.4975985586643219 0.4691978693008423 -0.07600328326225281
0.34619396924972534 0.8249936699867249 0.11666818708181381
0.37803375720977783 0.8538177013397217 0.09717857092618942
0.44917720556259155 0.9073272943496704 0.052109453827142715
0.2809167504310608 0.7790493965148926 0.20596100389957428
0.4246053993701935 0.47732001543045044 -0.013280369341373444
0.4589816629886627 0.5544161796569824 -0.0774211436510086
0.4966737627983093 0.9141446352005005 0.047770995646715164
0.41594427824020386 0.9018231630325317 0.09853065758943558
0.22776630520820618 0.6518401503562927 0.16376100480556488
0.44347482919692993 0.7667312622070312 0.008689857088029385
0.43931490182876587 0.7719471454620361 0.006901878863573074
0.43598222732543945 0.7803065180778503 0.0064896875992417336
0.43351954221725464 0.7924603223800659 0.012848541140556335
0.42588481307029724 0.812974214553833 0.0332760326564312
0.3983403444290161 0.7203685641288757 0.02871856465935707
0.39108845591545105 0.716134250164032 0.02930532582104206
0.3847057819366455 0.7115198969841003 0.027595601975917816
0.36475035548210144 0.7034967541694641 0.026209872215986252
0.2708792984485626 0.6573351621627808 0.04508182033896446
0.4597795009613037 0.5249104499816895 -0.059599462896585464
0.4484230577945709 0.469842791557312 -0.028434662148356438
0.4343124032020569 0.4713093638420105 -0.01892169751226902
0.4042089581489563 0.7189170122146606 0.03079412505030632
0.27375704050064087 0.7183781266212463 0.09522850066423416
0.4676954448223114 0.4717859625816345 -0.05964198336005211
0.4169662594795227 0.8355923295021057 0.04619013890624046
0.4944923222064972 0.5690296292304993 -0.11834065616130829
0.47518837451934814 0.5437403321266174 -0.09655418246984482
0.49558398127555847 0.5395849943161011 -0.10223422944545746
0.4420802891254425 0.5931277871131897 -0.07141494005918503
0.49743086099624634 0.891689658164978 0.031296126544475555
0.4979664981365204 0.8613900542259216 0.025448765605688095
0.4552386701107025 0.8570713996887207 0.03128434717655182
0.3645269274711609 0.7676034569740295 0.06736984848976135
0.3914198875427246 0.6469611525535583 -0.013202780857682228
0.38904404640197754 0.8046665787696838 0.06022468954324722
0.327264666557312 0.6409651637077332 -0.00528503954410553
0.36461907625198364 0.668527364730835 0.001368610537610948
0.3060685992240906 0.6772106289863586 0.025056641548871994
0.44994062185287476 0.8862066864967346 0.036889299750328064
0.42866337299346924 0.6026735901832581 -0.05185801163315773
0.3492487072944641 0.7932580709457397 0.0882093757390976
0.38076287508010864 0.8275201916694641 0.07694628089666367
0.34071093797683716 0.7312158346176147 0.05833488702774048
0.24938321113586426 0.6858779788017273 0.10779240727424622
0.31031185388565063 0.7437031269073486 0.07660137116909027
0.24309095740318298 0.7067235112190247 0.16606000065803528
0.34266066551208496 0.69039386510849 0.02283100225031376
0.4439102113246918 0.567832350730896 -0.057559192180633545
0.4429935812950134 0.6520806550979614 -0.09949201345443726
0.4289760887622833 0.6505100131034851 -0.07178687304258347
0.4527958631515503 0.6373943090438843 -0.11752761155366898
0.4308048486709595 0.4465903639793396 -0.03890125826001167
0.3930424451828003 0.42805540561676025 -0.04482250288128853
0.35867825150489807 0.4216728210449219 -0.04252614080905914
0.3297761380672455 0.42365190386772156 -0.032181479036808014
0.3097080588340759 0.4332329034805298 -0.01714295707643032
0.2950819432735443 0.4756271243095398 0.025361962616443634
0.2230352759361267 0.5367387533187866 0.14137405157089233
0.3119421601295471 0.511716902256012 0.013230442069470882
0.3385292887687683 0.5217926502227783 0.0008217617287300527
0.3718980550765991 0.5242376923561096 -0.008036657236516476
0.4026927649974823 0.5210800170898438 -0.013570406474173069
0.4248972237110138 0.5150957107543945 -0.01583060435950756
0.4395045340061188 0.5088760256767273 -0.018766924738883972
0.22525560855865479 0.5306205749511719 0.2273973971605301
0.4292028546333313 0.6534885764122009 -0.05883964151144028
0.45785844326019287 0.5805025100708008 -0.09226284921169281
0.45837560296058655 0.6580593585968018 -0.11669314652681351
0.47038307785987854 0.669565737247467 -0.10413361340761185
0.45832788944244385 0.6605856418609619 -0.10472006350755692
0.4339573085308075 0.6593241691589355 -0.04892570897936821
0.4741949439048767 0.6732195019721985 -0.10988324880599976
0.47691836953163147 0.6760437488555908 -0.08022096753120422
0.43930044770240784 0.48875993490219116 -0.012350935488939285
0.4510575532913208 0.4964224100112915 -0.02520011179149151
0.4578343629837036 0.5031065344810486 -0.04057541862130165
0.3233935236930847 0.46295830607414246 -0.0002028580056503415
0.3116076588630676 0.4542379677295685 -0.00025567301781848073
0.5139538049697876 0.5725511908531189 -0.1095385029911995
0.6715278625488281 0.4829104542732239 0.0072996728122234344
0.5134677886962891 0.6726389527320862 -0.08077113330364227
0.7657241821289062 0.37170279026031494 0.09468305855989456
0.5971211194992065 0.5091936588287354 -0.01477277372032404
0.6218424439430237 0.5100866556167603 -0.012371852993965149
0.6463125944137573 0.508142352104187 -0.006090237759053707
0.6816093325614929 0.49055856466293335 0.012813213281333447
0.5774598121643066 0.5044109225273132 -0.012911658734083176
0.634625256061554 0.4394127428531647 -0.028908321633934975
0.6073611974716187 0.4429185390472412 -0.0303502194583416
0.6597867608070374 0.44288337230682373 -0.020007947459816933
0.6764998435974121 0.4522169232368469 -0.010054955258965492
0.7014162540435791 0.507344126701355 0.02720772661268711
0.5874358415603638 0.8658335208892822 0.05845675244927406
0.6821197271347046 0.4750271439552307 0.014458619989454746
0.7774809002876282 0.4884607791900635 0.12966056168079376
0.7286990880966187 0.4900586009025574 0.04790233448147774
0.6238062381744385 0.6179149150848389 -0.019495230168104172
0.5327298641204834 0.714933454990387 -0.04276372864842415
0.5319392681121826 0.7325853705406189 -0.029391203075647354
0.5710698366165161 0.7152911424636841 -0.025772700086236
0.5971110463142395 0.7154554724693298 0.00018844254373107105
0.5599545240402222 0.7296578288078308 -0.016407951712608337
0.5825388431549072 0.7263940572738647 0.0066496157087385654
0.625052809715271 0.7565369606018066 0.05604354664683342
0.5112615823745728 0.6647287011146545 -0.12608513236045837
0.5140112638473511 0.6379305124282837 -0.13713215291500092
0.7111871838569641 0.4275016188621521 -0.010716437362134457
0.568561851978302 0.556514322757721 -0.033169087022542953
0.5666250586509705 0.6443231105804443 -0.0686538890004158
0.5685991048812866 0.6281048059463501 -0.06345362216234207
0.7039225101470947 0.6070753931999207 0.010645649395883083
0.5137174129486084 0.6028980016708374 -0.1281227320432663
0.6523804664611816 0.4040111303329468 -0.05516375973820686
0.6866967678070068 0.4102018475532532 -0.03552694618701935
0.7403348088264465 0.32800641655921936 0.04028419032692909
0.5484750866889954 0.4322982430458069 -0.07420975714921951
0.5847377777099609 0.45374709367752075 -0.02278895303606987
0.6466192007064819 0.7238773107528687 0.05316029116511345
0.7496026754379272 0.7320062518119812 0.2408600002527237
0.5497866272926331 0.6596258282661438 -0.05781204625964165
0.5303480625152588 0.6686277985572815 -0.05727512389421463
0.6303970217704773 0.7201539874076843 0.05381295457482338
0.6184254288673401 0.723388671875 0.04800017550587654
0.7002747654914856 0.39184948801994324 -0.028706248849630356
0.5688118934631348 0.6507768630981445 -0.05359749495983124
0.6073316931724548 0.4099564552307129 -0.0688292384147644
0.6119658350944519 0.3881126344203949 -0.07861138880252838
0.6414914131164551 0.2712337076663971 -0.06145324930548668
0.7198325991630554 0.3600177466869354 0.0004842348280362785
0.6238541007041931 0.32839539647102356 -0.07217596471309662
0.7271135449409485 0.41405951976776123 0.006439022719860077
0.7465526461601257 0.39496704936027527 0.04753632843494415
0.5329545736312866 0.72645103931427 -0.037841249257326126
0.5650779008865356 0.7244753837585449 -0.021017713472247124
0.5900191068649292 0.7210144400596619 0.002045953879132867
0.5448228716850281 0.6630597114562988 -0.05153955519199371
0.6248282790184021 0.7211322784423828 0.050727393478155136
0.6094657778739929 0.743604838848114 0.04089667275547981
0.6136228442192078 0.7247204780578613 0.04738698899745941
0.5364840626716614 0.6600652933120728 -0.09241744130849838
0.5785737633705139 0.7233936786651611 0.009989690966904163
0.5557963252067566 0.7277736067771912 -0.007251196540892124
0.5297039151191711 0.7321639060974121 -0.01956658996641636
0.5370022058486938 0.8330568671226501 0.021467259153723717
0.5364564657211304 0.8093852996826172 -0.0031208202708512545
0.5359524488449097 0.7960360050201416 -0.008662206120789051
0.5344386100769043 0.7851401567459106 -0.005959198344498873
0.5319246053695679 0.7770843505859375 -0.0038075323682278395
0.5820072889328003 0.7562129497528076 0.023297209292650223
0.5860782265663147 0.7584972977638245 0.02100205235183239
0.5911976099014282 0.7634623646736145 0.020705141127109528
0.5948678255081177 0.7706695795059204 0.027347758412361145
0.612583339214325 0.6978959441184998 0.0025364519096910954
0.777489185333252 0.5981494784355164 0.2472078502178192
0.5966553688049316 0.7449493408203125 0.03990332782268524
0.6035523414611816 0.7433815598487854 0.03885343670845032
0.5231925845146179 0.6792818307876587 -0.0543646477162838
0.5638360381126404 0.6625053286552429 -0.03288307040929794
0.5264418721199036 0.6743912696838379 -0.057061951607465744
0.59488844871521 0.5676025152206421 -0.022517265751957893
0.6397026777267456 0.5811681747436523 -0.013926410116255283
0.5739917755126953 0.6358148455619812 -0.04800447076559067
0.700777530670166 0.29371118545532227 -0.013642747886478901
0.6806197166442871 0.33632344007492065 -0.03849635273218155
0.6609567403793335 0.38237929344177246 -0.05652594938874245
0.6032541990280151 0.78836590051651 0.04633864760398865
0.5571330785751343 0.3972727656364441 -0.0893048644065857
0.566479504108429 0.3276804983615875 -0.09080619364976883
0.5777544379234314 0.2604990601539612 -0.08898013830184937
0.6685900688171387 0.5017423629760742 0.0038624724838882685
0.7292629480361938 0.524633526802063 0.04353288561105728
0.5654956102371216 0.4990510642528534 -0.01112272497266531
0.7014605402946472 0.46077919006347656 0.009512228891253471
0.5515564680099487 0.542610764503479 -0.04408387839794159
0.5514534711837769 0.6413894891738892 -0.09388923645019531
0.7571859359741211 0.5409953594207764 0.07380666583776474
0.7119013667106628 0.5421114563941956 0.025524461641907692
0.6796820163726807 0.552756667137146 0.004932230804115534
0.6308407783508301 0.5520924925804138 -0.006385077256709337
0.5943863391876221 0.5446856021881104 -0.013429616577923298
0.5696984529495239 0.5352359414100647 -0.022409016266465187
0.519240140914917 0.512884795665741 -0.07714235782623291
0.7586995363235474 0.5941259264945984 0.07705619931221008
0.721419632434845 0.4566577076911926 0.018779173493385315
0.5037221312522888 0.6765238642692566 -0.11271487176418304
0.5658270120620728 0.5843060612678528 -0.039452794939279556
0.785478949546814 0.47896915674209595 0.20464451611042023
0.551681399345398 0.5238369107246399 -0.028756599873304367
0.5785781145095825 0.6334629654884338 -0.023166250437498093
0.6895430088043213 0.4764705002307892 0.019466929137706757
0.5529500842094421 0.6210644245147705 -0.08728747814893723
0.7683525085449219 0.6639927625656128 0.2494112104177475
0.5670888423919678 0.4896722435951233 -0.007099987007677555
0.5339599251747131 0.6099510788917542 -0.11244749277830124
0.6943181157112122 0.7991418242454529 0.13368794322013855
0.68779456615448 0.828121542930603 0.1777750551700592
0.7811346650123596 0.6002188324928284 0.16269256174564362
0.731010377407074 0.7645403146743774 0.15252624452114105
0.7632110714912415 0.4374605417251587 0.0944879874587059
0.5864501595497131 0.8902595043182373 0.07540539652109146
0.5012150406837463 0.6794404983520508 -0.07916189730167389
0.5893290638923645 0.5989973545074463 -0.027615271508693695
0.7512117028236389 0.49348774552345276 0.07168490439653397
0.6438255310058594 0.49342551827430725 -0.005827238317579031
0.621737539768219 0.495881587266922 -0.011540108360350132
0.6150392293930054 0.7453938126564026 0.04520252346992493
0.7583861351013184 0.6476762294769287 0.09484227001667023
0.541183352470398 0.9223240613937378 0.08358556032180786
0.6111211180686951 0.8862031698226929 0.12722189724445343
0.644668459892273 0.8623672127723694 0.15059176087379456
0.6013948321342468 0.49504685401916504 -0.013245203532278538
0.5824793577194214 0.4921976923942566 -0.010832803323864937
0.5713069438934326 0.49096232652664185 -0.0070041934959590435
0.7406227588653564 0.44878026843070984 0.04116444289684296
0.5896098613739014 0.4670950472354889 -0.01699643023312092
0.610962450504303 0.45655184984207153 -0.020577674731612206
0.6326994299888611 0.453637957572937 -0.01949051022529602
0.6546585559844971 0.45742499828338623 -0.012673198245465755
0.6683779358863831 0.4650232195854187 -0.00459372578188777
0.780247688293457 0.4189886748790741 0.15402640402317047
0.6598423719406128 0.48869097232818604 0.0013833643170073628
0.5828597545623779 0.6911117434501648 -0.019557364284992218
0.5498916506767273 0.6585909128189087 -0.06804648041725159
0.5306117534637451 0.6932388544082642 -0.04602464661002159
0.6536881923675537 0.8331101536750793 0.12063690274953842
0.6204869151115417 0.8612728118896484 0.10027004778385162
0.5448787808418274 0.9104026556015015 0.05300407111644745
0.7214494943618774 0.78765869140625 0.21167311072349548
0.5741682052612305 0.4814387559890747 -0.011509215459227562
0.533762514591217 0.5562995672225952 -0.07650597393512726
0.5780877470970154 0.9074282646179199 0.10135859251022339
0.7747811079025269 0.6593635082244873 0.1703181266784668
0.5591225028038025 0.7684369087219238 0.007917780429124832
0.5632662773132324 0.7736876010894775 0.005946426186710596
0.5664033889770508 0.7823386192321777 0.005573800764977932
0.568535327911377 0.7944241762161255 0.012186612002551556
0.5745956897735596 0.8153716921806335 0.03256656974554062
0.6049781441688538 0.7227684855461121 0.02855241484940052
0.612192690372467 0.7192087173461914 0.02911585196852684
0.6187130212783813 0.7150006294250488 0.02821299247443676
0.636892557144165 0.7070887088775635 0.02777412347495556
0.7283490300178528 0.6633765697479248 0.048054423183202744
0.5349196791648865 0.5266920328140259 -0.05910637974739075
0.5493332147598267 0.4722682237625122 -0.027022061869502068
0.5640864968299866 0.4746248424053192 -0.01678316295146942
0.5988276600837708 0.7207331657409668 0.03063315339386463
0.7271586060523987 0.7255120277404785 0.09949684888124466
0.5284059643745422 0.47307753562927246 -0.058754581958055496
0.5824536085128784 0.8390818238258362 0.04686414822936058
0.5167140364646912 0.5448302030563354 -0.0959484651684761
0.5490873456001282 0.595737099647522 -0.07006492465734482
0.5419012904167175 0.8588910102844238 0.03137093037366867
0.6375938653945923 0.7732695937156677 0.06873687356710434
0.6022379398345947 0.6509379148483276 -0.011730237863957882
0.61189866065979 0.8095797896385193 0.06123584881424904
0.6702025532722473 0.6457271575927734 -0.0030971162486821413
0.6325804591178894 0.6728236079216003 0.003127242438495159
0.6928988099098206 0.6827252507209778 0.027522556483745575
0.5455281734466553 0.8884928226470947 0.03788404166698456
0.563266396522522 0.6060305237770081 -0.05028086155653
0.651286244392395 0.8001198172569275 0.09086267650127411
0.6192845106124878 0.8336788415908813 0.07943353056907654
0.6618167161941528 0.7367143034934998 0.05999479815363884
0.7513467669487 0.693335235118866 0.11293487250804901
0.6911373138427734 0.7506551742553711 0.07959773391485214
0.7595710754394531 0.7145987749099731 0.1721912920475006
0.6578243374824524 0.6946718096733093 0.024069946259260178
0.5491875410079956 0.5703728795051575 -0.05644078552722931
0.5438196063041687 0.655494749546051 -0.09792918711900711
0.559531569480896 0.6547903418540955 -0.07008599489927292
0.5336387157440186 0.6399280428886414 -0.11682573705911636
0.5680655837059021 0.4499468207359314 -0.037307847291231155
0.6065523624420166 0.4332064688205719 -0.041984036564826965
0.6412310600280762 0.4281468987464905 -0.03894226998090744
0.670379102230072 0.4313158094882965 -0.027781283482909203
0.6907002925872803 0.44171538949012756 -0.012310333549976349
0.7057810425758362 0.48343199491500854 0.02995976246893406
0.7819023132324219 0.5442065596580505 0.14801141619682312
0.6869736313819885 0.5183690190315247 0.016866067424416542
0.6599975824356079 0.5276910662651062 0.0038872442673891783
0.6261387467384338 0.5293817520141602 -0.005681062117218971
0.5948957204818726 0.5254209041595459 -0.011502979323267937
0.5724744200706482 0.5186977386474609 -0.014093448407948017
0.5576001405715942 0.5117459297180176 -0.01734066568315029
0.7819886803627014 0.5372263193130493 0.23349861800670624
0.5596409440040588 0.6575824022293091 -0.05739212408661842
0.5324334502220154 0.5823303461074829 -0.09121336787939072
0.5271484851837158 0.6602684259414673 -0.11556526273488998
0.5148234963417053 0.670954167842865 -0.10351923108100891
0.5273860692977905 0.663027822971344 -0.10346698760986328
0.5550496578216553 0.6628217101097107 -0.04759257659316063
0.5109402537345886 0.6743446588516235 -0.10947350412607193
0.5084477663040161 0.6771107912063599 -0.07977350056171417
0.5587551593780518 0.49201837182044983 -0.010457661934196949
0.5460427403450012 0.49883654713630676 -0.023829152807593346
0.5384686589241028 0.5049071311950684 -0.03934420645236969
0.6764106154441833 0.4707520306110382 0.0039068786427378654
0.6883542537689209 0.4624147415161133 0.004258942324668169
