ply
format ascii 1.0
element vertex 468
property float x
property float y
property float z
end_header
0.5014010071754456 0.6891980171203613 -0.09781014919281006
0.4950740337371826 0.6133081316947937 -0.15169686079025269
0.4992244839668274 0.6422509551048279 -0.09603150933980942
0.4768616855144501 0.5395772457122803 -0.09817277640104294
0.49516430497169495 0.5883677005767822 -0.15549524128437042
0.49654272198677063 0.558998703956604 -0.13879139721393585
0.5011295080184937 0.49072158336639404 -0.0477297343313694
0.3307541608810425 0.4923558235168457 0.061645153909921646
0.5037159323692322 0.431321382522583 -0.012295428663492203
0.5045637488365173 0.39882123470306396 -0.006380797829478979
0.510670006275177 0.30632197856903076 0.048586778342723846
0.5015628933906555 0.700435221195221 -0.09644654393196106
0.5020320415496826 0.7082090973854065 -0.09144799411296844
0.5022943019866943 0.7100510001182556 -0.08317708969116211
0.5022293329238892 0.8042796850204468 -0.054722052067518234
0.5019931197166443 0.8146994113922119 -0.06171766296029091
0.5015590190887451 0.8262276649475098 -0.06981454789638519
0.501004159450531 0.8392004370689392 -0.06755388528108597
0.4998820722103119 0.8563281297683716 -0.054360341280698776
0.49592506885528564 0.6280925273895264 -0.141376331448555
0.47229117155075073 0.6282519102096558 -0.10746831446886063
0.25669828057289124 0.42344409227371216 0.20796898007392883
0.40137434005737305 0.5101300477981567 0.03087034821510315
0.37740978598594666 0.5115967392921448 0.033340126276016235
0.35356152057647705 0.5110225677490234 0.040870387107133865
0.31981927156448364 0.5004450678825378 0.0636400431394577
0.4210658073425293 0.5049909353256226 0.033475860953330994
0.36756911873817444 0.44397127628326416 0.03432228043675423
0.39407113194465637 0.44685131311416626 0.03508289158344269
0.34185516834259033 0.44828498363494873 0.04192891716957092
0.32484155893325806 0.4591987133026123 0.05139733478426933
0.30093979835510254 0.5159974694252014 0.07338213175535202
0.3923425078392029 0.863621711730957 -0.022317353636026382
0.3213574290275574 0.4881204068660736 0.0713048130273819
0.23710781335830688 0.5190445184707642 0.18958280980587006
0.2767476439476013 0.5031545758247375 0.10353866219520569
0.3665195107460022 0.5986254215240479 -0.021350301802158356
0.4552153944969177 0.6852152943611145 -0.09258606284856796
0.46009549498558044 0.707435131072998 -0.08474033325910568
0.4102468192577362 0.692161500453949 -0.07278286665678024
0.38418158888816833 0.7015438675880432 -0.04181121662259102
0.4273046553134918 0.7094733119010925 -0.06705354899168015
0.4038291573524475 0.7133694887161255 -0.03920995071530342
0.35609161853790283 0.7626026272773743 0.007840861566364765
0.47357773780822754 0.6127912998199463 -0.14850394427776337
0.47077810764312744 0.5888597369194031 -0.1515493392944336
0.29381516575813293 0.43498092889785767 0.06678290665149689
0.4255334734916687 0.5443218350410461 -0.010474490001797676
0.41120201349258423 0.6075098514556885 -0.08412910997867584
0.41010481119155884 0.5959706902503967 -0.0736423209309578
0.2929868698120117 0.5939184427261353 0.016659697517752647
0.4735065996646881 0.561569094657898 -0.129932701587677
0.34761664271354675 0.4019343852996826 0.029377708211541176
0.3160743713378906 0.41330820322036743 0.04793993756175041
0.28014811873435974 0.3789573013782501 0.1700197011232376
0.4506267309188843 0.42237257957458496 -0.0016911058919504285
0.4167420566082001 0.4569689929485321 0.03981061279773712
0.33706751465797424 0.7239934802055359 0.014246861450374126
0.25423213839530945 0.7492029070854187 0.19325678050518036
0.4304177463054657 0.6215328574180603 -0.07824485749006271
0.4523385167121887 0.631027102470398 -0.08461298793554306
0.3524976968765259 0.72866290807724 0.014831713400781155
0.3672011196613312 0.7310731410980225 0.008183182217180729
0.3044736981391907 0.40024808049201965 0.06448976695537567
0.4086703062057495 0.6181650161743164 -0.07302646338939667
0.3908078670501709 0.4023154377937317 0.01204442884773016
0.3869878053665161 0.3843804597854614 0.011839671060442924
0.3730999231338501 0.31833770871162415 0.08438807725906372
0.2921152412891388 0.3899908661842346 0.11240075528621674
0.38225626945495605 0.3506282567977905 0.049094635993242264
0.2813076376914978 0.4277058243751526 0.09147007763385773
0.2690516710281372 0.4278244376182556 0.14885161817073822
0.45668479800224304 0.6985071301460266 -0.09049402922391891
0.41902631521224976 0.7025977969169617 -0.07006161659955978
0.39342761039733887 0.7072339653968811 -0.042241424322128296
0.4361126124858856 0.6266518831253052 -0.07395461946725845
0.35917919874191284 0.7299078106880188 0.011486119590699673
0.3742993474006653 0.7595553994178772 -0.0018090823432430625
0.37336403131484985 0.7316993474960327 0.007543844170868397
0.4461546838283539 0.6139327883720398 -0.11026625335216522
0.4099738299846649 0.7113970518112183 -0.03716570883989334
0.4336821734905243 0.7087691426277161 -0.05920793488621712
0.4640592634677887 0.709001898765564 -0.07617849856615067
0.45080968737602234 0.8508236408233643 -0.0489666648209095
0.4522433280944824 0.8329973220825195 -0.061334751546382904
0.45500990748405457 0.8205131888389587 -0.06137286126613617
0.4586324989795685 0.8089940547943115 -0.053145766258239746
0.46278807520866394 0.8002157211303711 -0.047675468027591705
0.4080440402030945 0.7760273814201355 -0.016519717872142792
0.40174105763435364 0.7785821557044983 -0.02062080428004265
0.39280858635902405 0.7831255197525024 -0.024945925921201706
0.3860316872596741 0.7885954976081848 -0.02083626575767994
0.37014517188072205 0.6804538369178772 -0.032342344522476196
0.236351877450943 0.6308361887931824 0.25831055641174316
0.49734383821487427 0.63506680727005 -0.11123822629451752
0.392755389213562 0.7612002491950989 0.0003664433606900275
0.3826189637184143 0.7597277760505676 -0.0022199845407158136
0.46046215295791626 0.641940176486969 -0.08822600543498993
0.4147987961769104 0.6331685185432434 -0.05841178819537163
0.45649421215057373 0.63676518201828 -0.08703024685382843
0.3977328836917877 0.5557900071144104 -0.005035181995481253
0.35455065965652466 0.5680487155914307 -8.372015145141631e-06
0.4044354259967804 0.6068721413612366 -0.06147422641515732
0.3163723945617676 0.34258511662483215 0.1260291039943695
0.3273329436779022 0.3629303276538849 0.07945962995290756
0.33968329429626465 0.38550233840942383 0.0392601303756237
0.3780958652496338 0.7961667776107788 -0.009033250622451305
0.44390052556991577 0.3910362720489502 -0.0021031973883509636
0.44036227464675903 0.3505355417728424 0.030014101415872574
0.43564099073410034 0.3081168830394745 0.057310424745082855
0.3321857452392578 0.5074139833450317 0.052468907088041306
0.27414560317993164 0.5319005250930786 0.08435503393411636
0.43327170610427856 0.49892035126686096 0.03756425529718399
0.302032470703125 0.47085773944854736 0.0736565887928009
0.4442480206489563 0.5300531983375549 -0.01721350848674774
0.4289192855358124 0.5984665155410767 -0.10714050382375717
0.24792945384979248 0.5509044528007507 0.10836534202098846
0.2887275516986847 0.5425608158111572 0.05726680904626846
0.31785067915916443 0.5475800037384033 0.031786754727363586
0.3649390935897827 0.5457834005355835 0.019182827323675156
0.4010235667228699 0.5388702154159546 0.014519734308123589
0.42766430974006653 0.5291895270347595 0.009461467154324055
0.47771400213241577 0.49730390310287476 -0.03714217618107796
0.24246296286582947 0.5949668288230896 0.08989217132329941
0.2845190167427063 0.468092679977417 0.08768586069345474
0.4828595221042633 0.6269830465316772 -0.13939425349235535
0.42303550243377686 0.5647578835487366 -0.030090127140283585
0.23558193445205688 0.5258864164352417 0.26878222823143005
0.44669535756111145 0.5169210433959961 0.007976816035807133
0.40160179138183594 0.6090166568756104 -0.035327114164829254
0.3121175169944763 0.4878460764884949 0.07624893635511398
0.4284708499908447 0.5843160152435303 -0.09421270340681076
0.23994988203048706 0.6873100399971008 0.2318955957889557
0.4325351417064667 0.49178123474121094 0.04688171297311783
0.45121338963508606 0.5707098841667175 -0.1164056658744812
0.2952777147293091 0.7956956028938293 0.07217878848314285
0.30087217688560486 0.8327116370201111 0.09816602617502213
0.22530776262283325 0.6152555346488953 0.17529930174350739
0.266012042760849 0.7646853923797607 0.10035792738199234
0.2533278465270996 0.47099822759628296 0.17746908962726593
0.3901141285896301 0.890073835849762 -0.01829366758465767
0.48680174350738525 0.6342136263847351 -0.10923805832862854
0.39848780632019043 0.5806469321250916 -0.024694183841347694
0.2570478618144989 0.5107221007347107 0.12836524844169617
0.3566606640815735 0.4970371723175049 0.04529068246483803
0.3780146837234497 0.4982794225215912 0.038686785846948624
0.36684325337409973 0.7598482370376587 0.0012916361447423697
0.2405436635017395 0.6444870233535767 0.08654219657182693
0.43767333030700684 0.9334134459495544 -0.027843616902828217
0.36284005641937256 0.8899571895599365 0.032087601721286774
0.33403581380844116 0.8648554086685181 0.06330524384975433
0.5074383616447449 0.353039026260376 0.02108650654554367
0.4953312575817108 0.9423326849937439 -0.038276102393865585
0.39776724576950073 0.4976544976234436 0.03745805844664574
0.4160350561141968 0.4952753484249115 0.04077943041920662
0.427242636680603 0.49342238903045654 0.04644310101866722
0.26909956336021423 0.46630772948265076 0.11443731188774109
0.4124220013618469 0.48144567012786865 0.04196092113852501
0.3923015594482422 0.47785675525665283 0.03900528326630592
0.3728885054588318 0.47663527727127075 0.04049823805689812
0.35222622752189636 0.47872763872146606 0.046512752771377563
0.33755165338516235 0.4829261898994446 0.05356106907129288
0.24228951334953308 0.46957531571388245 0.2453990876674652
0.34179478883743286 0.49498069286346436 0.05370431765913963
0.5000885128974915 0.6587674617767334 -0.0913829505443573
0.39641135931015015 0.6667207479476929 -0.05634800344705582
0.4305546283721924 0.6177844405174255 -0.08552508056163788
0.45534348487854004 0.6602892875671387 -0.08626388013362885
0.5027754902839661 0.4629983901977539 -0.02093866467475891
0.3269452750682831 0.8299068212509155 0.04735260456800461
0.35739871859550476 0.8586535453796387 0.016346678137779236
0.4359351694583893 0.9140698313713074 -0.04790627211332321
0.2758580446243286 0.7984818816184998 0.1434687376022339
0.42609307169914246 0.48763400316238403 0.045491427183151245
0.45896220207214355 0.5332498550415039 -0.054982732981443405
0.4951307475566864 0.9233183860778809 -0.05745013430714607
0.3952280879020691 0.9141737222671509 -0.002040304010733962
0.22807615995407104 0.6692631244659424 0.15802982449531555
0.43210721015930176 0.7902587652206421 -0.033488769084215164
0.425567626953125 0.7959320545196533 -0.03750655800104141
0.41911450028419495 0.804611086845398 -0.04237062484025955
0.41416168212890625 0.8152239322662354 -0.04005809500813484
0.40714120864868164 0.8276842832565308 -0.029706301167607307
0.38163769245147705 0.7190980911254883 -0.013244998641312122
0.3719976544380188 0.7156214714050293 -0.010842160321772099
0.36410385370254517 0.711444616317749 -0.010308110155165195
0.34854477643966675 0.6984273195266724 -0.004811810329556465
0.26969099044799805 0.6508979797363281 0.03550063818693161
0.4618034362792969 0.5126277208328247 -0.02516378089785576
0.451518714427948 0.4708496332168579 0.03152666613459587
0.43734315037727356 0.47587090730667114 0.042528703808784485
0.3899005949497223 0.7165497541427612 -0.012372609227895737
0.2687526345252991 0.718587338924408 0.06481458991765976
0.4711754322052002 0.4672098755836487 -0.0029866707045584917
0.40008145570755005 0.8410786986351013 -0.02538263611495495
0.49806028604507446 0.5359613299369812 -0.10723601281642914
0.47703346610069275 0.519899308681488 -0.06893758475780487
0.4996323585510254 0.5146931409835815 -0.07526940107345581
0.4378480613231659 0.5673927068710327 -0.06513708084821701
0.4959911108016968 0.8980510234832764 -0.06119293347001076
0.49805116653442383 0.8728893995285034 -0.056478966027498245
0.4452984929084778 0.8661545515060425 -0.047594279050827026
0.3440300226211548 0.7706716060638428 0.017416328191757202
0.38085442781448364 0.6291235089302063 -0.027431227266788483
0.36828845739364624 0.8085756301879883 -0.002166278660297394
0.3242499828338623 0.6265798807144165 -0.012173492461442947
0.35599154233932495 0.6535384058952332 -0.018078641965985298
0.3028005361557007 0.6663908362388611 0.008357163518667221
0.4383489787578583 0.8899291753768921 -0.051208723336458206
0.42072606086730957 0.5804634094238281 -0.05062436684966087
0.3299410343170166 0.7949454188346863 0.030699951574206352
0.360567569732666 0.8295129537582397 0.00686710374429822
0.32416069507598877 0.7305100560188293 0.020732102915644646
0.24633777141571045 0.6897366642951965 0.08727649599313736
0.29794204235076904 0.742583155632019 0.03844020888209343
0.2411957085132599 0.7203909754753113 0.1370212584733963
0.33365148305892944 0.6815360188484192 -0.0015767363365739584
0.4418567419052124 0.5493037700653076 -0.04133214056491852
0.43757981061935425 0.6092621088027954 -0.11412641406059265
0.41928115487098694 0.6153238415718079 -0.08934822678565979
0.44902363419532776 0.5927667021751404 -0.12975993752479553
0.43250465393066406 0.4461612105369568 0.030942002311348915
0.39364463090896606 0.42957016825675964 0.03132506087422371
0.35947731137275696 0.42682981491088867 0.03392892703413963
0.3310753107070923 0.43372976779937744 0.04345417395234108
0.3116074204444885 0.4480689465999603 0.057729315012693405
0.29783785343170166 0.4955730736255646 0.08596249669790268
0.2288888394832611 0.5663830637931824 0.18410059809684753
0.313312292098999 0.5231579542160034 0.058013614267110825
0.3386135697364807 0.5280787944793701 0.041646119207143784
0.37114569544792175 0.5282372236251831 0.03015519492328167
0.40235191583633423 0.5241084098815918 0.02528543956577778
0.4261114001274109 0.5169392824172974 0.025222836062312126
0.4419059753417969 0.5093507766723633 0.023953942582011223
0.2360857129096985 0.5782907605171204 0.2727312445640564
0.4189656376838684 0.6217374205589294 -0.07824596762657166
0.45697009563446045 0.5512292981147766 -0.08244799077510834
0.4559873640537262 0.610090434551239 -0.13491874933242798
0.4707317650318146 0.6239351034164429 -0.1282433122396469
0.4564470052719116 0.6150848865509033 -0.1233537346124649
0.42426568269729614 0.6295747756958008 -0.0716824159026146
0.4750916659832001 0.6258575916290283 -0.13572204113006592
0.4781733453273773 0.6322788596153259 -0.10823739320039749
0.4416795074939728 0.49119749665260315 0.041292719542980194
0.4543265700340271 0.4959453344345093 0.023818407207727432
0.46111467480659485 0.49843692779541016 0.0038289178628474474
0.3282434344291687 0.48601487278938293 0.061129625886678696
0.31338536739349365 0.4720243215560913 0.06424069404602051
0.5196967720985413 0.5403873324394226 -0.10078278928995132
0.6815482378005981 0.5026469230651855 0.04364008828997612
0.5235213041305542 0.6290063858032227 -0.10906873643398285
0.7773316502571106 0.43244338035583496 0.1806163191795349
0.6081270575523376 0.5159797668457031 0.01897375099360943
0.6326050758361816 0.5180900692939758 0.019239358603954315
0.6574393510818481 0.5184282660484314 0.024539852514863014
0.6939072012901306 0.5105761289596558 0.0446748286485672
0.5884400606155396 0.5101627707481384 0.02435414120554924
0.644644021987915 0.4534331262111664 0.019499631598591805
0.6181691288948059 0.454478919506073 0.023707758635282516
0.6701902151107788 0.45910874009132385 0.025110365822911263
0.6876435875892639 0.47062891721725464 0.0330827459692955
0.7139631509780884 0.5249806642532349 0.05259840190410614
0.6040605902671814 0.8681115508079529 -0.03205960988998413
0.6921734809875488 0.49972862005233765 0.05260193720459938
0.7913815975189209 0.5297216176986694 0.16192588210105896
0.7422166466712952 0.5136644840240479 0.08079531788825989
0.6389975547790527 0.6017492413520813 -0.034237947314977646
0.5483332276344299 0.6850168108940125 -0.09586305171251297
0.545064389705658 0.7074387073516846 -0.08807196468114853
0.5958635807037354 0.6912923455238342 -0.07939290255308151
0.6251896619796753 0.7000651359558105 -0.051251836121082306
0.5800037384033203 0.7088322043418884 -0.07323161512613297
0.6059870719909668 0.7120133638381958 -0.0477445051074028
0.6540036201477051 0.7633225321769714 -0.00518789142370224
0.517037034034729 0.6134564280509949 -0.15009914338588715
0.5199278593063354 0.5896134972572327 -0.15338480472564697
0.7227762937545776 0.4480440318584442 0.045354895293712616
0.5802689790725708 0.5471030473709106 -0.01824023388326168
0.5878397822380066 0.6090242862701416 -0.0908469706773758
0.5902116894721985 0.5974279046058655 -0.08046187460422516
0.7162127494812012 0.59978848695755 -0.00459162425249815
0.5199878215789795 0.562304675579071 -0.1325233429670334
0.664652943611145 0.41352277994155884 0.013772724196314812
0.6981165409088135 0.42608070373535156 0.02864675037562847
0.7514171004295349 0.3870934844017029 0.14558778703212738
0.5582408905029297 0.4268915057182312 -0.006807972677052021
0.5953023433685303 0.46301189064979553 0.030607519671320915
0.6743361949920654 0.7243632078170776 -0.002044285647571087
0.7686858177185059 0.7602277398109436 0.16762925684452057
0.5690963268280029 0.6225942373275757 -0.08313239365816116
0.5468984842300415 0.6315698623657227 -0.08708706498146057
0.6616635322570801 0.7270696759223938 0.000846164533868432
0.6467909812927246 0.7294236421585083 -0.004045792855322361
0.712231457233429 0.4134933352470398 0.04404929652810097
0.5922884345054626 0.6192771196365356 -0.07959698885679245
0.6197022795677185 0.41079533100128174 0.0013653984060510993
0.6247023344039917 0.3927997946739197 0.001115636550821364
0.651894211769104 0.3229089081287384 0.07047290354967117
0.7318170070648193 0.4001062512397766 0.09036240726709366
0.6357187628746033 0.35689687728881836 0.036952197551727295
0.7385310530662537 0.44052088260650635 0.06857903301715851
0.7578812837600708 0.43845611810684204 0.12408328056335449
0.5476414561271667 0.6985012292861938 -0.09381929039955139
0.5874710083007812 0.7017353773117065 -0.07647848129272461
0.6159393191337585 0.7059608697891235 -0.05128070339560509
0.5639247894287109 0.6273562908172607 -0.07804689556360245
0.6549703478813171 0.7281533479690552 -0.0015234623569995165
0.6380770206451416 0.7588499188423157 -0.012291427701711655
0.6407400965690613 0.7303869724273682 -0.004213361069560051
0.5492539405822754 0.6152270436286926 -0.11504178494215012
0.600529670715332 0.710074782371521 -0.0453527569770813
0.5741303563117981 0.7081407308578491 -0.06536796689033508
0.5418368577957153 0.7088794708251953 -0.07964589446783066
0.5491903424263 0.8519386053085327 -0.052759841084480286
0.5503402352333069 0.8338624238967896 -0.06491327285766602
0.5488830208778381 0.8212113976478577 -0.06502582877874374
0.546200156211853 0.8094391822814941 -0.05669325217604637
0.5426540970802307 0.8005365133285522 -0.05102632939815521
0.6018280386924744 0.7755506634712219 -0.024210136383771896
0.6078916788101196 0.7782494425773621 -0.02842058055102825
0.6166607737541199 0.7833231687545776 -0.03297499567270279
0.6227907538414001 0.7893707752227783 -0.02969111129641533
0.636164128780365 0.6809094548225403 -0.04292728006839752
0.7953565716743469 0.6423320174217224 0.23008055984973907
0.6191213726997375 0.7602970600128174 -0.009614898823201656
0.6294518709182739 0.7588266134262085 -0.012151847593486309
0.5387696027755737 0.6421533226966858 -0.09084069728851318
0.5872803330421448 0.6336953043937683 -0.06384795904159546
0.5423964858055115 0.6372115612030029 -0.08948898315429688
0.608918309211731 0.5589800477027893 -0.015907011926174164
0.6526250243186951 0.5721778273582458 -0.015435848385095596
0.5972402691841125 0.6081641316413879 -0.06884375959634781
0.712207555770874 0.3492897152900696 0.10604111850261688
0.6938433647155762 0.37213024497032166 0.061762403696775436
0.6745091080665588 0.3970262408256531 0.023095473647117615
0.6281517148017883 0.7980972528457642 -0.019734906032681465
0.5661358833312988 0.3958424925804138 -0.007782307919114828
0.5757977962493896 0.3536774814128876 0.02377352863550186
0.5871514081954956 0.310467392206192 0.05022948607802391
0.6802221536636353 0.516165018081665 0.0343724749982357
0.7418645024299622 0.5406830310821533 0.06150023639202118
0.5762885808944702 0.5037567615509033 0.029318515211343765
0.713638186454773 0.48282307386398315 0.0531209260225296
0.5607045292854309 0.5323987603187561 -0.023674892261624336
0.566542387008667 0.6001877784729004 -0.11251285672187805
0.7706289291381836 0.5606274008750916 0.08237138390541077
0.7242361307144165 0.5500112175941467 0.03579633682966232
0.6923010349273682 0.5534101724624634 0.01291173417121172
0.6438063383102417 0.5504299998283386 0.004634701181203127
0.6070512533187866 0.5427498817443848 0.0034662620164453983
0.5798569917678833 0.5325068831443787 0.0012876829132437706
0.52520352602005 0.49861615896224976 -0.03997759893536568
0.7728093862533569 0.6036949753761292 0.06379300355911255
0.7341447472572327 0.4797244668006897 0.06538307666778564
0.5093196630477905 0.6275215744972229 -0.14042343199253082
0.5808364748954773 0.5668579936027527 -0.03746325895190239
0.8004224300384521 0.5364153981208801 0.23934988677501678
0.5602707862854004 0.5197396874427795 0.0017243307083845139
0.6022254824638367 0.6102453470230103 -0.04268752038478851
0.7023565173149109 0.49942922592163086 0.05643322318792343
0.5689455270767212 0.5860515236854553 -0.09984190762042999
0.7880171537399292 0.6990599632263184 0.20469039678573608
0.5781252384185791 0.4971961975097656 0.03840304911136627
0.5437409281730652 0.5721993446350098 -0.1204342469573021
0.7135366201400757 0.8041493892669678 0.051663439720869064
0.7091186046600342 0.8421945571899414 0.07803022861480713
0.7976946830749512 0.6262723803520203 0.14768174290657043
0.7472533583641052 0.7742098569869995 0.07704710215330124
0.7752977609634399 0.4812973737716675 0.15093834698200226
0.6044675707817078 0.8955271244049072 -0.02834470197558403
0.5082008838653564 0.6344048380851746 -0.10992515087127686
0.6066210269927979 0.5829035639762878 -0.03401368483901024
0.7648999691009521 0.5214809775352478 0.10345510393381119
0.6539428234100342 0.5051913261413574 0.029531866312026978
0.6317307949066162 0.5055351853370667 0.024637371301651
0.6454195976257324 0.7593302726745605 -0.01019416656345129
0.7740676403045654 0.6533615589141846 0.06088161841034889
0.5535979866981506 0.9366564750671387 -0.03354363888502121
0.6357435584068298 0.8972772359848022 0.019036656245589256
0.6697236895561218 0.8734089136123657 0.046547580510377884
0.6120532751083374 0.5041530728340149 0.025113793089985847
0.5940508246421814 0.5008129477500916 0.030300786718726158
0.5832082629203796 0.49887293577194214 0.037131331861019135
0.7531907558441162 0.47774168848991394 0.09040265530347824
0.5990439653396606 0.4886051416397095 0.031093109399080276
0.6196948289871216 0.48653823137283325 0.026311026886105537
0.6387936472892761 0.4864146113395691 0.02606201358139515
0.6596704721450806 0.4895530939102173 0.030149223282933235
0.6747957468032837 0.49422258138656616 0.03604554384946823
0.7933508157730103 0.4792829155921936 0.21610242128372192
0.6695763468742371 0.5041472911834717 0.03654297813773155
0.6071555614471436 0.6668927073478699 -0.06426063925027847
0.5677568316459656 0.6189526319503784 -0.09003742784261703
0.5457053780555725 0.66020268201828 -0.08944001793861389
0.6769125461578369 0.8375217914581299 0.030590074136853218
0.6420873999595642 0.8652490973472595 0.002718475414440036
0.5547987222671509 0.9172002077102661 -0.053832124918699265
0.7404206395149231 0.8087682127952576 0.1204209253191948
0.5848138332366943 0.4935501217842102 0.0358675941824913
0.5418728590011597 0.5348803400993347 -0.05899538844823837
0.5989047288894653 0.9196035265922546 -0.012114595621824265
0.7930018901824951 0.6802294850349426 0.1314554065465927
0.5750974416732788 0.7902800440788269 -0.03912130370736122
0.5812285542488098 0.7963249087333679 -0.043321963399648666
0.5870037078857422 0.805321455001831 -0.04867875203490257
0.5910094380378723 0.8163526058197021 -0.046702612191438675
0.5955391526222229 0.8297846913337708 -0.03769281879067421
0.631278395652771 0.7175663113594055 -0.023888764902949333
0.6406128406524658 0.7139108180999756 -0.022707900032401085
0.6483703851699829 0.7097065448760986 -0.022669706493616104
0.6610276103019714 0.6986425518989563 -0.01895102672278881
0.7408093214035034 0.6578535437583923 0.012198599055409431
0.5422252416610718 0.5145432949066162 -0.029834555462002754
0.5586833953857422 0.47490453720092773 0.026659097522497177
0.573479950428009 0.4807090163230896 0.03492483124136925
0.6234607696533203 0.714907169342041 -0.02303178235888481
0.7428479790687561 0.7264707088470459 0.041763272136449814
0.5363756418228149 0.46964550018310547 -0.006006364710628986
0.599408745765686 0.8443228006362915 -0.03414198011159897
0.5226541757583618 0.5208632349967957 -0.07125230133533478
0.5620186924934387 0.569088876247406 -0.07034070044755936
0.551243007183075 0.8680537939071655 -0.05185583606362343
0.6627700328826904 0.7741259932518005 0.0021701077930629253
0.6242483258247375 0.6308539509773254 -0.03737005963921547
0.6351513862609863 0.8121528625488281 -0.014243848621845245
0.6824612617492676 0.6311084628105164 -0.02979903481900692
0.6502906680107117 0.6560927629470825 -0.03145035356283188
0.7055425047874451 0.6717395186424255 -0.011619108729064465
0.55427086353302 0.8924354314804077 -0.056883033365011215
0.5813654661178589 0.5821847319602966 -0.057007838040590286
0.6750543117523193 0.8007058501243591 0.013958416879177094
0.6406829357147217 0.8349104523658752 -0.006186254322528839
0.6845843195915222 0.7337071299552917 0.0022988226264715195
0.7677062749862671 0.698532223701477 0.06236902251839638
0.7108203768730164 0.7486841678619385 0.018184449523687363
0.7766457796096802 0.7309924960136414 0.11123392730951309
0.6748262047767639 0.6839262843132019 -0.018476061522960663
0.5604969263076782 0.5512512922286987 -0.04699573293328285
0.5576704740524292 0.6108938455581665 -0.11895822733640671
0.5793624520301819 0.6166741251945496 -0.09487160295248032
0.5438571572303772 0.5942582488059998 -0.13399343192577362
0.5785287022590637 0.4516843259334564 0.024070311337709427
0.6180273294448853 0.43760424852371216 0.020423902198672295
0.6524972319602966 0.43688130378723145 0.019004926085472107
0.6816769242286682 0.4449981451034546 0.025847408920526505
0.7023532390594482 0.46034812927246094 0.038237202912569046
0.7187497615814209 0.5064885020256042 0.06504742056131363
0.7964541912078857 0.5774386525154114 0.15598253905773163
0.699613094329834 0.5312288999557495 0.038528572767972946
0.6727038621902466 0.5345410704612732 0.02458033338189125
0.6388369798660278 0.533789873123169 0.016003228724002838
0.6068181991577148 0.5289050340652466 0.014103829860687256
0.5828047394752502 0.5212021470069885 0.01689886674284935
0.5668505430221558 0.5129700303077698 0.017346126958727837
0.7983192205429077 0.5894129276275635 0.24344030022621155
0.5811046957969666 0.6227471232414246 -0.08376176655292511
0.5409424304962158 0.5528599619865417 -0.08649428933858871
0.5364035964012146 0.6115139126777649 -0.13811717927455902
0.5231496095657349 0.6248714327812195 -0.13016676902770996
0.5374820828437805 0.6163731217384338 -0.12661497294902802
0.576418399810791 0.6301988363265991 -0.07641804218292236
0.5177846550941467 0.6265712976455688 -0.1370207816362381
0.5171245336532593 0.6328179240226746 -0.10942290723323822
0.5682761669158936 0.4958606958389282 0.03432706743478775
0.5545592308044434 0.49928560853004456 0.018883630633354187
0.546201765537262 0.5009765625 -0.0006564825889654458
0.6845691204071045 0.4977067708969116 0.04298246279358864
0.700395941734314 0.4838767647743225 0.04512505233287811
