ply
format ascii 1.0
element vertex 468
property float x
property float y
property float z
end_header
0.527713418006897 0.7343180775642395 -0.036158256232738495
0.5542108416557312 0.6566844582557678 -0.12641464173793793
0.5323391556739807 0.6753647327423096 -0.05173240974545479
0.5222554206848145 0.5675889849662781 -0.12631714344024658
0.5570390224456787 0.6317875385284424 -0.1411736160516739
0.5519531965255737 0.595424473285675 -0.14048132300376892
0.5320374965667725 0.5021582245826721 -0.10375159978866577
0.3152327537536621 0.4791010022163391 -0.0719311386346817
0.5284880995750427 0.44538614153862 -0.10901138931512833
0.5314786434173584 0.4121420979499817 -0.12696461379528046
0.5236498117446899 0.2543553411960602 -0.14175254106521606
0.5256351828575134 0.7455636262893677 -0.02998519316315651
0.5219359993934631 0.751542866230011 -0.019560953602194786
0.517281711101532 0.7514865398406982 -0.00667915353551507
0.5190104842185974 0.7554032802581787 0.0011586849577724934
0.5203152298927307 0.765295684337616 0.00024068834318313748
0.5203151702880859 0.7777068614959717 -0.0009733046754263341
0.5181939005851746 0.791589617729187 0.00792006030678749
0.5099377632141113 0.8174577951431274 0.04091354459524155
0.54783034324646 0.6674903631210327 -0.11011155694723129
0.5156288146972656 0.6630293726921082 -0.08149987459182739
0.15259118378162384 0.3548653721809387 -0.027523627504706383
0.40011143684387207 0.5027108192443848 -0.06753235310316086
0.37235692143440247 0.505583643913269 -0.07428087294101715
0.343304306268692 0.5045973062515259 -0.07622075080871582
0.30072224140167236 0.4874582290649414 -0.06907050311565399
0.4223659336566925 0.4962538182735443 -0.05816657096147537
0.3605149984359741 0.4437667727470398 -0.10416465997695923
0.3896559774875641 0.4448106288909912 -0.09375467151403427
0.33294498920440674 0.44686657190322876 -0.10273630917072296
0.3128228187561035 0.4537656903266907 -0.09600978344678879
0.27256089448928833 0.5042008757591248 -0.05753140524029732
0.402750164270401 0.869739294052124 0.05186249315738678
0.30139753222465515 0.47162240743637085 -0.06882564723491669
0.1446583867073059 0.47860991954803467 0.021887481212615967
0.23079992830753326 0.485453337430954 -0.048305608332157135
0.38229677081108093 0.61767578125 -0.0557829886674881
0.4952796697616577 0.7311911582946777 -0.044874854385852814
0.4923412501811981 0.7514412999153137 -0.0257805734872818
0.45646923780441284 0.7350460886955261 -0.03948858007788658
0.42664918303489685 0.7392332553863525 -0.026184899732470512
0.4637176990509033 0.7504163980484009 -0.025067342445254326
0.43848085403442383 0.7486306428909302 -0.012010294944047928
0.37941569089889526 0.7717320322990417 0.020517829805612564
0.5322456955909729 0.6562944054603577 -0.13024894893169403
0.5315799117088318 0.6321355104446411 -0.14532530307769775
0.2661287486553192 0.4303748607635498 -0.11567943543195724
0.4375861883163452 0.5496016144752502 -0.0661144033074379
0.45103687047958374 0.6387971639633179 -0.08944176137447357
0.44640985131263733 0.6226335763931274 -0.08600736409425735
0.28671401739120483 0.6123254895210266 -0.05552303045988083
0.5279289484024048 0.5978573560714722 -0.14121000468730927
0.3508441150188446 0.4126724600791931 -0.14295825362205505
0.3042643070220947 0.4166853427886963 -0.13589978218078613
0.20182718336582184 0.3122498095035553 -0.08236479759216309
0.47451287508010864 0.44118934869766235 -0.1213747039437294
0.41454997658729553 0.4515247941017151 -0.07616598904132843
0.35710370540618896 0.7482799887657166 0.00981922447681427
0.13893616199493408 0.7309992909431458 0.18324650824069977
0.4685669243335724 0.6527740359306335 -0.06883636862039566
0.49099016189575195 0.6618865132331848 -0.0586254857480526
0.3870111107826233 0.7442479729652405 0.013478078879415989
0.3974243402481079 0.7434252500534058 0.01178115513175726
0.28372952342033386 0.3961399793624878 -0.13446207344532013
0.4449494183063507 0.6464045643806458 -0.07139930129051208
0.40801966190338135 0.4204181432723999 -0.138685405254364
0.404433012008667 0.3969992697238922 -0.15203312039375305
0.3546828627586365 0.26149898767471313 -0.1575123369693756
0.24542123079299927 0.3532083034515381 -0.11387690901756287
0.38477596640586853 0.3267667889595032 -0.15755777060985565
0.23973871767520905 0.41445136070251465 -0.10384739190340042
0.19783426821231842 0.3863237202167511 -0.06882208585739136
0.49413564801216125 0.7447087168693542 -0.038453519344329834
0.46184131503105164 0.745442271232605 -0.032991647720336914
0.4339485764503479 0.7446998357772827 -0.020726190879940987
0.4740443527698517 0.6568604707717896 -0.05961034819483757
0.3929632306098938 0.743770956993103 0.012890161015093327
0.40991610288619995 0.7510671615600586 0.007005798164755106
0.3987359404563904 0.7426495552062988 0.01169714704155922
0.4920457899570465 0.6507459282875061 -0.10637280344963074
0.4388813078403473 0.7450162172317505 -0.006133906543254852
0.4640052020549774 0.7484601140022278 -0.01235193107277155
0.4902360141277313 0.7511146068572998 -0.013774086721241474
0.47531458735466003 0.8180563449859619 0.032618291676044464
0.4862109422683716 0.7908238172531128 -0.0015437313122674823
0.48958083987236023 0.7764151692390442 -0.009695357643067837
0.49110937118530273 0.7642406225204468 -0.008327174000442028
0.4916108250617981 0.7557624578475952 -0.00623800465837121
0.43742990493774414 0.750463604927063 -5.897254231967963e-05
0.4350273013114929 0.7535314559936523 -0.002307829214259982
0.430749773979187 0.7598099112510681 -0.002763889031484723
0.42569616436958313 0.7683788537979126 0.00269118370488286
0.40417319536209106 0.7119414806365967 -0.029562031850218773
0.10617879033088684 0.5898988842964172 0.165373757481575
0.540336012840271 0.6703997850418091 -0.07355477660894394
0.41898688673973083 0.7475200891494751 0.007334706839174032
0.41543641686439514 0.7485449314117432 0.006177543196827173
0.4998769760131836 0.6743712425231934 -0.05428612232208252
0.4498559534549713 0.6604577302932739 -0.042003028094768524
0.49562984704971313 0.6684449315071106 -0.05739103630185127
0.40836355090141296 0.563226044178009 -0.061647046357393265
0.3620701730251312 0.5817750692367554 -0.06384296715259552
0.43773049116134644 0.6311937570571899 -0.06909715384244919
0.2677708864212036 0.28009164333343506 -0.12759928405284882
0.3061559796333313 0.3317767083644867 -0.14162187278270721
0.3397993743419647 0.38853973150253296 -0.1491812914609909
0.4061046838760376 0.7920244932174683 0.02097993716597557
0.4695204198360443 0.4069354236125946 -0.14362916350364685
0.45553505420684814 0.3275682032108307 -0.1553400754928589
0.43659353256225586 0.2537575960159302 -0.16034258902072906
0.3165432810783386 0.4986545145511627 -0.07369954884052277
0.23603449761867523 0.5226593613624573 -0.046257417649030685
0.4364375174045563 0.4907447397708893 -0.05347094684839249
0.27537810802459717 0.45913344621658325 -0.08545985817909241
0.4592615067958832 0.5353823900222778 -0.07441416382789612
0.47529152035713196 0.634323239326477 -0.11253640800714493
0.19304735958576202 0.5386439561843872 -0.023019175976514816
0.26409074664115906 0.5432115793228149 -0.057714056223630905
0.30833306908607483 0.5548011660575867 -0.06559015810489655
0.3660096228122711 0.5506024360656738 -0.062300942838191986
0.405478298664093 0.5390781164169312 -0.05782967433333397
0.4333436191082001 0.5278100371360779 -0.05947863310575485
0.5050506591796875 0.5079815983772278 -0.1017570048570633
0.19760346412658691 0.5969247817993164 -0.012055044993758202
0.24475176632404327 0.45433029532432556 -0.08433130383491516
0.5347598195075989 0.6669642329216003 -0.11345307528972626
0.4437258243560791 0.5779581665992737 -0.06611517816781998
0.10622432827949524 0.4645121097564697 0.10052231699228287
0.4559146463871002 0.5165115594863892 -0.06203584372997284
0.4292810261249542 0.6296249032020569 -0.04213181510567665
0.29058966040611267 0.4732539653778076 -0.06728581339120865
0.46971917152404785 0.614712655544281 -0.10761699825525284
0.11488926410675049 0.6589558720588684 0.1795438975095749
0.43297719955444336 0.4817352890968323 -0.05217117443680763
0.49939408898353577 0.6043359637260437 -0.13019302487373352
0.246609166264534 0.8091453909873962 0.08934034407138824
0.23070813715457916 0.8358434438705444 0.14335030317306519
0.1402062177658081 0.5973020792007446 0.07313668727874756
0.19876886904239655 0.7698644399642944 0.09820783138275146
0.1680579036474228 0.4266955852508545 -0.018908079713582993
0.391859769821167 0.8990616798400879 0.07222341746091843
0.5307053923606873 0.6694194078445435 -0.07491666078567505
0.41711699962615967 0.5952412486076355 -0.057059720158576965
0.19575071334838867 0.48768293857574463 -0.030711377039551735
0.34909725189208984 0.4894997179508209 -0.07622018456459045
0.37435585260391235 0.49138492345809937 -0.0754389539361
0.4029505252838135 0.7553470134735107 0.010130194015800953
0.19563616812229156 0.6520076990127563 0.0180562362074852
0.43834659457206726 0.930842399597168 0.10489210486412048
0.33946582674980164 0.8985252380371094 0.11607258766889572
0.2902674674987793 0.8737750053405762 0.1272629350423813
0.529022753238678 0.3293769061565399 -0.13703952729701996
0.49345651268959045 0.930128812789917 0.11699973791837692
0.3964158594608307 0.48878493905067444 -0.06968391686677933
0.4166668951511383 0.48414552211761475 -0.06151352822780609
0.4285517930984497 0.4825442433357239 -0.054382480680942535
0.21346838772296906 0.4447612166404724 -0.06694251298904419
0.4078136682510376 0.4617857336997986 -0.07199281454086304
0.38266879320144653 0.4536878168582916 -0.08368048071861267
0.3589650094509125 0.45300281047821045 -0.09004935622215271
0.3349200487136841 0.4573817253112793 -0.08977274596691132
0.3195861577987671 0.4639844596385956 -0.08455459028482437
0.12291830778121948 0.40232914686203003 0.03871801495552063
0.32997870445251465 0.48478055000305176 -0.0745430737733841
0.5293008685112 0.6941046714782715 -0.039993274956941605
0.43504613637924194 0.6985740065574646 -0.03916331008076668
0.4709407687187195 0.6508401036262512 -0.0805574283003807
0.4938722252845764 0.6959710717201233 -0.048454102128744125
0.5259870290756226 0.47011977434158325 -0.09652867913246155
0.2962936758995056 0.8449318408966064 0.08875379711389542
0.3421570062637329 0.8735492825508118 0.08302155137062073
0.44625696539878845 0.9141205549240112 0.06751848757266998
0.1807272583246231 0.7905336618423462 0.16612179577350616
0.42555418610572815 0.4740135371685028 -0.06128237396478653
0.489615797996521 0.5501304864883423 -0.09988247603178024
0.5026178359985352 0.9139773845672607 0.08044171333312988
0.38909104466438293 0.9190540909767151 0.10401052981615067
0.14504241943359375 0.6587285399436951 0.09309883415699005
0.46379947662353516 0.7537630200386047 -0.005298190750181675
0.4612151086330414 0.7597167491912842 -0.008473383262753487
0.45866820216178894 0.7691221237182617 -0.009155564941465855
0.4548662006855011 0.7826946973800659 -0.002330485265702009
0.4381521940231323 0.8078781962394714 0.0217713862657547
0.41358286142349243 0.7453341484069824 -0.0011559949489310384
0.40815719962120056 0.743754506111145 -0.00483368756249547
0.40104997158050537 0.7402293086051941 -0.008405092172324657
0.3753814399242401 0.7283392548561096 -0.014949588105082512
0.24941469728946686 0.6698228120803833 -0.016001533716917038
0.4825894832611084 0.520397424697876 -0.08648902922868729
0.4591846466064453 0.4684431552886963 -0.06476243585348129
0.43857043981552124 0.4687715768814087 -0.06342072039842606
0.4163329005241394 0.7421549558639526 0.0034450236707925797
0.23001937568187714 0.7329838871955872 0.0419573038816452
0.48885253071784973 0.4725239872932434 -0.08976434171199799
0.4184970259666443 0.838274359703064 0.039544783532619476
0.5450729727745056 0.5639582872390747 -0.12665477395057678
0.5135018229484558 0.5393444895744324 -0.11608267575502396
0.5387784242630005 0.5341300964355469 -0.11480730772018433
0.4700125455856323 0.5895858407020569 -0.09112183749675751
0.5077108144760132 0.8860868215560913 0.05755756422877312
0.5088954567909241 0.8493428230285645 0.04925820231437683
0.4651297926902771 0.8505211472511292 0.04162827879190445
0.3482297956943512 0.7887181043624878 0.031518422067165375
0.4033012390136719 0.6510523557662964 -0.03773488849401474
0.38012635707855225 0.8175266981124878 0.03804418072104454
0.3317892253398895 0.6499542593955994 -0.04895739257335663
0.3729103207588196 0.6787190437316895 -0.03374247997999191
0.29698023200035095 0.6918893456459045 -0.023501886054873466
0.45517483353614807 0.886063814163208 0.04683699086308479
0.4482960104942322 0.5999948382377625 -0.0725005641579628
0.31637629866600037 0.8134700059890747 0.05420837178826332
0.3587982952594757 0.8442775011062622 0.05920129641890526
0.325428307056427 0.7567068338394165 0.013419905677437782
0.19661284983158112 0.698386013507843 0.04583142697811127
0.27800363302230835 0.763949453830719 0.029705291613936424
0.1601712852716446 0.7158433198928833 0.10593844950199127
0.34284132719039917 0.711147665977478 -0.020530367270112038
0.4663199186325073 0.5634459257125854 -0.08186564594507217
0.48497074842453003 0.6469811797142029 -0.11415397375822067
0.45984888076782227 0.6483244299888611 -0.08620034903287888
0.5031169652938843 0.6328297257423401 -0.13214163482189178
0.4412536919116974 0.45181038975715637 -0.08714793622493744
0.39885810017585754 0.4392090141773224 -0.108904168009758
0.3603212833404541 0.4348054528236389 -0.11912652105093002
0.32482099533081055 0.43597671389579773 -0.1179061010479927
0.2955421209335327 0.44358205795288086 -0.10799480974674225
0.26516905426979065 0.47967350482940674 -0.06114999204874039
0.13929864764213562 0.537446141242981 0.04703914746642113
0.2934754490852356 0.5166646838188171 -0.06212802976369858
0.3270009160041809 0.5257521867752075 -0.0663624107837677
0.367242693901062 0.5256872177124023 -0.06480464339256287
0.4025816023349762 0.5190443396568298 -0.058895938098430634
0.4284871220588684 0.5107673406600952 -0.05431964620947838
0.4465148150920868 0.5040130019187927 -0.05258360132575035
0.10419636964797974 0.5262057185173035 0.13964855670928955
0.4568151831626892 0.6522902846336365 -0.07133378833532333
0.4964202046394348 0.576779305934906 -0.11151862889528275
0.5102600455284119 0.6516757607460022 -0.125788152217865
0.5186749696731567 0.6617934703826904 -0.1067061647772789
0.5055075883865356 0.6538715958595276 -0.11290068924427032
0.4614790678024292 0.6586446762084961 -0.05663440749049187
0.5255880951881409 0.6649457216262817 -0.11123795807361603
0.5218176245689392 0.6675190925598145 -0.07810018956661224
0.444342702627182 0.48446977138519287 -0.05021517351269722
0.4612586796283722 0.4920305013656616 -0.05667946860194206
0.4735354483127594 0.4989752769470215 -0.06948991119861603
0.3100540041923523 0.46854233741760254 -0.07805518060922623
0.29530027508735657 0.4612252712249756 -0.08334130793809891
0.5626519918441772 0.5663066506385803 -0.10803251713514328
0.666694164276123 0.46792230010032654 0.0625164657831192
0.558724045753479 0.6600380539894104 -0.06752654910087585
0.7204122543334961 0.3566098213195801 0.17854900658130646
0.5964274406433105 0.4964175224304199 0.018804458901286125
0.620791494846344 0.4975299537181854 0.02976098470389843
0.6437534093856812 0.49519112706184387 0.04381677880883217
0.6701174974441528 0.47572052478790283 0.07326524704694748
0.5786160230636597 0.49142131209373474 0.009659809060394764
0.6405432224273682 0.4391188323497772 0.005352742969989777
0.6137382388114929 0.44227802753448486 -0.0076563493348658085
0.6621391177177429 0.4401986598968506 0.023288782685995102
0.6739018559455872 0.4453601837158203 0.04019611328840256
0.6852928400039673 0.4926915764808655 0.09538357704877853
0.5838930606842041 0.8501734733581543 0.11291290819644928
0.6737234592437744 0.4603233337402344 0.07175886631011963
0.7178996205329895 0.46800321340560913 0.23133224248886108
0.7035844922065735 0.4734089970588684 0.12346318364143372
0.6272554993629456 0.6089097261428833 0.030630506575107574
0.554582953453064 0.7270750999450684 -0.022957412526011467
0.543993353843689 0.7478600740432739 -0.005709498655050993
0.5763000249862671 0.7259676456451416 0.005668180994689465
0.5874651670455933 0.7282902598381042 0.0357881635427475
0.5598783493041992 0.7433273792266846 0.014301883056759834
0.5715624094009399 0.740258514881134 0.04031435400247574
0.602358341217041 0.7563514709472656 0.10049848258495331
0.5716004371643066 0.6538736820220947 -0.11848203837871552
0.5768461227416992 0.6301645636558533 -0.13145366311073303
0.7099738121032715 0.42072996497154236 0.046439576894044876
0.5816820859909058 0.5455254316329956 -0.009514081291854382
0.6006785035133362 0.6318467259407043 -0.03699052333831787
0.5978552103042603 0.6166250109672546 -0.03151557594537735
0.6875404715538025 0.5978031754493713 0.08773761987686157
0.5708527565002441 0.5962426662445068 -0.1234808936715126
0.6726440787315369 0.4090542793273926 -0.030857475474476814
0.6980608701705933 0.4098590612411499 0.004623624496161938
0.7155491709709167 0.31676048040390015 0.10274645686149597
0.5752294063568115 0.44074660539627075 -0.08423393964767456
0.5900056958198547 0.4497678279876709 -0.006309790071099997
0.6218240857124329 0.7322958707809448 0.10646802186965942
0.6673493981361389 0.6984073519706726 0.37331464886665344
0.583137035369873 0.6465457081794739 -0.02993660233914852
0.5655323266983032 0.6583064198493958 -0.03899278864264488
0.5982674360275269 0.7328459024429321 0.09716859459877014
0.5878600478172302 0.733574628829956 0.08530622720718384
0.7086483240127563 0.38965940475463867 0.015699148178100586
0.5955350399017334 0.6399335861206055 -0.01983434520661831
0.6327541470527649 0.41860663890838623 -0.06147798150777817
0.6406716108322144 0.3958543837070465 -0.07275059074163437
0.6549760103225708 0.2673759162425995 -0.0514586977660656
0.7127323150634766 0.3520660698413849 0.05217668041586876
0.6476332545280457 0.3286682069301605 -0.06591161340475082
0.7188297510147095 0.4060586392879486 0.06942178308963776
0.7208234667778015 0.3828158378601074 0.1191270723938942
0.5503900051116943 0.7404857277870178 -0.01666000671684742
0.5678143501281738 0.7373743057250977 0.00946732982993126
0.5801669955253601 0.734827995300293 0.03607453778386116
0.5763266086578369 0.6514396667480469 -0.027664758265018463
0.5932192802429199 0.7331597805023193 0.09014885127544403
0.5854300260543823 0.740919828414917 0.0723298043012619
0.5839921236038208 0.7330819368362427 0.08338335156440735
0.5823509693145752 0.6443056464195251 -0.07048005610704422
0.5643581748008728 0.7381900548934937 0.04368852823972702
0.5520644187927246 0.7428935766220093 0.024568596854805946
0.5366992950439453 0.748146653175354 0.0066959792748093605
0.538808286190033 0.8123626708984375 0.052115026861429214
0.5443858504295349 0.785965621471405 0.02010549046099186
0.5449769496917725 0.7719094753265381 0.012651228345930576
0.5433416366577148 0.7602827548980713 0.013678002171218395
0.5399875640869141 0.7523433566093445 0.014776636846363544
0.5682510137557983 0.7425680160522461 0.049738042056560516
0.5720865726470947 0.7449613213539124 0.04765496030449867
0.5764886736869812 0.7501044869422913 0.04882623255252838
0.5797765254974365 0.7577928304672241 0.05784190073609352
0.6094805002212524 0.7010487914085388 0.04231572151184082
0.6866625547409058 0.5703524351119995 0.3780754804611206
0.5752840042114258 0.739051342010498 0.06991362571716309
0.5803005695343018 0.7391446232795715 0.06912688165903091
0.5577864646911621 0.6713723540306091 -0.03491424396634102
0.5846314430236816 0.6548585295677185 -0.0016564070247113705
0.5616896152496338 0.6653926372528076 -0.03858758509159088
0.6012536287307739 0.5572586059570312 0.014069909229874611
0.6386070251464844 0.5728942155838013 0.0385192409157753
0.5968608260154724 0.6250511407852173 -0.012969457544386387
0.6964621543884277 0.28629082441329956 0.02308996208012104
0.6902757883071899 0.3324994444847107 -0.008210224099457264
0.6816373467445374 0.3851657211780548 -0.0303154569119215
0.5860812664031982 0.7775139808654785 0.08628036826848984
0.5888477563858032 0.40780511498451233 -0.10332523286342621
0.5957216620445251 0.32914412021636963 -0.10748498886823654
0.5995263457298279 0.2576543092727661 -0.10691225528717041
0.6613014936447144 0.4878060519695282 0.060513585805892944
0.7047501802444458 0.5096660256385803 0.1233435794711113
0.5687022805213928 0.4865080714225769 0.007138068787753582
0.6920994520187378 0.4482625424861908 0.07061802595853806
0.5700842142105103 0.532582700252533 -0.029172267764806747
0.5960225462913513 0.6283392310142517 -0.06976211071014404
0.719650149345398 0.5235680341720581 0.1690455973148346
0.6955979466438293 0.530633807182312 0.10193438082933426
0.6714867353439331 0.5440683960914612 0.06977172940969467
0.6295838356018066 0.5425653457641602 0.041199665516614914
0.5978397130966187 0.5332825183868408 0.02055005170404911
0.5774384140968323 0.5238820910453796 -0.0006675515323877335
0.5513964295387268 0.5070993900299072 -0.08254492282867432
0.7202358245849609 0.5782157182693481 0.17876000702381134
0.7070832252502441 0.4434491693973541 0.08677928894758224
0.5585005879402161 0.6654608845710754 -0.10415998101234436
0.583346426486969 0.573743462562561 -0.011385305784642696
0.7027064561843872 0.45758262276649475 0.32078349590301514
0.5638577938079834 0.5138073563575745 -0.016061576083302498
0.5926632881164551 0.623615026473999 0.013523373752832413
0.6776045560836792 0.4616889953613281 0.0803534984588623
0.5917463302612305 0.6097261309623718 -0.06413035839796066
0.6799142360687256 0.6324942111968994 0.3828751742839813
0.5687942504882812 0.4770275354385376 0.011244463734328747
0.5833077430725098 0.6010843515396118 -0.09847580641508102
0.6559284329414368 0.7742847204208374 0.23050862550735474
0.6377847194671631 0.7979726195335388 0.28655755519866943
0.7145563364028931 0.5762777924537659 0.28130820393562317
0.677767276763916 0.7357186079025269 0.26431432366371155
0.7194867134094238 0.42100852727890015 0.18171854317188263
0.5838209986686707 0.8764989376068115 0.1386328786611557
0.5490853786468506 0.6684474945068359 -0.0689377710223198
0.5986984372138977 0.5892767906188965 0.010179717093706131
0.7143880128860474 0.4751872420310974 0.15865665674209595
0.6444551944732666 0.4799145758152008 0.041524358093738556
0.6228348016738892 0.4835076928138733 0.028958754613995552
0.5895183086395264 0.7440839409828186 0.08040544390678406
0.713408350944519 0.6287800073623657 0.20142762362957
0.5406672358512878 0.9181807041168213 0.14162074029445648
0.5930434465408325 0.8684495687484741 0.20858719944953918
0.6130201816558838 0.8382319211959839 0.24333156645298004
0.6017433404922485 0.482317715883255 0.019025424495339394
0.583331286907196 0.4787573218345642 0.014896342530846596
0.5727607011795044 0.4777175784111023 0.0142214959487319
0.7162025570869446 0.43502336740493774 0.11706987023353577
0.5894178152084351 0.4571705758571625 0.0065329656936228275
0.6103161573410034 0.44857653975486755 0.007398355286568403
0.6336321830749512 0.4456612467765808 0.016149822622537613
0.6547673940658569 0.44828492403030396 0.030688760802149773
0.6657227277755737 0.453842431306839 0.044799163937568665
0.7159827947616577 0.4009227752685547 0.2549145221710205
0.6581181287765503 0.47407111525535583 0.05359000340104103
0.5934410095214844 0.690545916557312 0.015441653318703175
0.5870370268821716 0.6440637707710266 -0.043343476951122284
0.5583232641220093 0.692294180393219 -0.025724081322550774
0.6296446919441223 0.8115419149398804 0.20263919234275818
0.6066406965255737 0.8437090516090393 0.17270325124263763
0.5507055521011353 0.9016833305358887 0.10345336049795151
0.6534677743911743 0.7543184161186218 0.3358868360519409
0.5759135484695435 0.46900850534439087 0.008753407746553421
0.5675389170646667 0.5478372573852539 -0.0691710039973259
0.571412205696106 0.896312952041626 0.17210817337036133
0.7063689231872559 0.6322059631347656 0.2923409044742584
0.556530773639679 0.7474436163902283 0.031931083649396896
0.5603834390640259 0.7527717351913452 0.029984615743160248
0.5635182857513428 0.7614141702651978 0.03125301003456116
0.5651134252548218 0.7739663124084473 0.03964566811919212
0.5656372904777527 0.7970736026763916 0.068854920566082
0.5813418626785278 0.7362874150276184 0.06418752670288086
0.5887475609779358 0.733481764793396 0.06682469695806503
0.5955227613449097 0.7291343808174133 0.06769052892923355
0.6206048130989075 0.7147642970085144 0.07451684027910233
0.6968780755996704 0.6491770148277283 0.1387365460395813
0.5603886842727661 0.5185143947601318 -0.054444506764411926
0.559238851070404 0.4665577709674835 -0.023693600669503212
0.5690538883209229 0.46605730056762695 -0.00474491948261857
0.5744702816009521 0.734098494052887 0.06629302352666855
0.6857215762138367 0.7052668929100037 0.19801735877990723
0.5502530932426453 0.47174739837646484 -0.06552121788263321
0.5743818879127502 0.8225705623626709 0.09187721461057663
0.5577366352081299 0.5380542278289795 -0.09972698241472244
0.5803289413452148 0.5858449935913086 -0.050815481692552567
0.5446714162826538 0.8420953154563904 0.06718070805072784
0.6207373738288879 0.7671833634376526 0.12439344078302383
0.6097418665885925 0.6427617073059082 0.032122429460287094
0.5977411866188049 0.7975107431411743 0.11105896532535553
0.6622827053070068 0.6360330581665039 0.06195811927318573
0.6307300329208374 0.6670814752578735 0.05402898043394089
0.6744576692581177 0.672793447971344 0.10307376086711884
0.551986575126648 0.8753669261932373 0.08070407062768936
0.5859264731407166 0.5954338908195496 -0.022269131615757942
0.633173942565918 0.7851715087890625 0.16138429939746857
0.6066516637802124 0.818665623664856 0.14130784571170807
0.6422133445739746 0.7354721426963806 0.12594614923000336
0.7022259831428528 0.6712278127670288 0.2208516001701355
0.6629524230957031 0.7366359233856201 0.1606563776731491
0.6945334672927856 0.6845734119415283 0.294515460729599
0.6443697810173035 0.6956659555435181 0.08293288201093674
0.5748675465583801 0.5601630806922913 -0.03851599991321564
0.5902063846588135 0.6401720643043518 -0.07536698132753372
0.595525860786438 0.6413153409957886 -0.041796889156103134
0.5885324478149414 0.6283726692199707 -0.10117629170417786
0.5803686380386353 0.4491455554962158 -0.03029470704495907
0.6205261945724487 0.4353383183479309 -0.026011986657977104
0.6538635492324829 0.4300089478492737 -0.010975190438330173
0.6782333850860596 0.4297720491886139 0.013026329688727856
0.6907910108566284 0.43504759669303894 0.038767259567976
0.6889745593070984 0.467770516872406 0.0962318703532219
0.7184054851531982 0.5216732025146484 0.26076698303222656
0.6755602955818176 0.5056039094924927 0.08178508281707764
0.6545952558517456 0.5162763595581055 0.05893455445766449
0.6243333220481873 0.5178900361061096 0.03795994818210602
0.5952816009521484 0.5130645036697388 0.021844876930117607
0.5755597949028015 0.5064094662666321 0.006736445240676403
0.5633141398429871 0.500679612159729 -0.0029040793888270855
0.691577136516571 0.5130663514137268 0.3584373891353607
0.5902001857757568 0.6458759307861328 -0.027776457369327545
0.5740548372268677 0.5742257833480835 -0.07999569177627563
0.5826288461685181 0.6464660167694092 -0.10128482431173325
0.5648537874221802 0.6580983996391296 -0.09241295605897903
0.5775285959243774 0.6481024026870728 -0.08748914301395416
0.581820011138916 0.6533950567245483 -0.020297616720199585
0.5637239813804626 0.6622315049171448 -0.09954765439033508
0.55494225025177 0.6652624607086182 -0.0682663843035698
0.5629458427429199 0.48072588443756104 0.002861752174794674
0.5543066263198853 0.489871621131897 -0.017408814281225204
0.553884744644165 0.4974713623523712 -0.03674202784895897
0.6708782911300659 0.4577385485172272 0.05711391195654869
0.6806624531745911 0.4507940411567688 0.06073465198278427
