ply
format ascii 1.0
element vertex 468
property float x
property float y
property float z
end_header
0.49345946311950684 0.670024037361145 -0.04593770205974579
0.4882635474205017 0.6012950539588928 -0.1241706907749176
0.49179574847221375 0.6206986904144287 -0.05674535036087036
0.47061246633529663 0.5311364531517029 -0.10799646377563477
0.48769399523735046 0.5799787044525146 -0.13674086332321167
0.48856285214424133 0.5515630841255188 -0.1339050680398941
0.49291831254959106 0.48124855756759644 -0.09037710726261139
0.33185410499572754 0.4750160872936249 0.012925457209348679
0.4942408800125122 0.42705172300338745 -0.0899510309100151
0.49420496821403503 0.39567795395851135 -0.10349689424037933
0.49681469798088074 0.273306280374527 -0.10983989387750626
0.4939202666282654 0.6802709102630615 -0.040866073220968246
0.494928240776062 0.6870352029800415 -0.031423408538103104
0.4960852265357971 0.6887625455856323 -0.019515346735715866
0.4972127079963684 0.7121186852455139 -0.005122391041368246
0.49704399704933167 0.7223441004753113 -0.006418497767299414
0.4971398413181305 0.7344602942466736 -0.0071933688595891
0.49768897891044617 0.7473907470703125 0.0023129864130169153
0.49961742758750916 0.7649134993553162 0.032958984375
0.48926475644111633 0.611541748046875 -0.10998546332120895
0.47190141677856445 0.6084486246109009 -0.07556209713220596
0.24658840894699097 0.37798506021499634 0.10695888847112656
0.4004259705543518 0.4940236806869507 -0.011927084997296333
0.3771580159664154 0.49570947885513306 -0.007667839992791414
0.35425472259521484 0.4934745728969574 0.0006003538146615028
0.3231167197227478 0.4810357391834259 0.020705437287688255
0.41888314485549927 0.4879823327064514 -0.011802103370428085
0.36560535430908203 0.44148051738739014 -0.03136181831359863
0.3901296854019165 0.4432142376899719 -0.03389726206660271
0.34287169575691223 0.4437079429626465 -0.019651399925351143
0.3279382586479187 0.45006826519966125 -0.0070138839073479176
0.3051133155822754 0.4921302795410156 0.037073131650686264
0.41822388768196106 0.7856686115264893 0.07454200834035873
0.3233954906463623 0.47058767080307007 0.02053617313504219
0.24549224972724915 0.475327730178833 0.14576435089111328
0.2802855670452118 0.47581395506858826 0.05884062498807907
0.3789355754852295 0.5784429907798767 -0.006243663839995861
0.46350154280662537 0.6656061410903931 -0.04102393984794617
0.4685564637184143 0.685185432434082 -0.025923607870936394
0.4348858594894409 0.6684480309486389 -0.022239213809370995
0.4175250828266144 0.6733136177062988 0.0012324107810854912
0.44789019227027893 0.6840420961380005 -0.013171766884624958
0.43265753984451294 0.6836649179458618 0.007865052670240402
0.3949127495288849 0.7069286108016968 0.05724272131919861
0.4698389768600464 0.6000933647155762 -0.12134121358394623
0.46645116806030273 0.5799247622489929 -0.13288439810276031
0.2870079278945923 0.42091697454452515 -0.004208509344607592
0.4261696934700012 0.5268252491950989 -0.027884015813469887
0.4220428764820099 0.5900275707244873 -0.06060850992798805
0.4209633767604828 0.5787377953529358 -0.055504005402326584
0.31026607751846313 0.5740228891372681 0.028474856168031693
0.46813690662384033 0.5534848570823669 -0.12491104006767273
0.33938831090927124 0.4004465937614441 -0.05602939799427986
0.3078705072402954 0.4063299596309662 -0.032565098255872726
0.26379716396331787 0.3389515280723572 0.046682313084602356
0.44320929050445557 0.42260921001434326 -0.08143167197704315
0.41173213720321655 0.4494818150997162 -0.02703033946454525
0.376631498336792 0.683070719242096 0.05627433955669403
0.2930259108543396 0.6720812320709229 0.27125778794288635
0.43975216150283813 0.6016366481781006 -0.05046004801988602
0.45857661962509155 0.6099110245704651 -0.05093241482973099
0.39893293380737305 0.6828353404998779 0.05266213417053223
0.410563588142395 0.6833872199058533 0.045051734894514084
0.29348212480545044 0.38883376121520996 -0.0247714314609766
0.42286261916160583 0.5978826880455017 -0.04503550007939339
0.38366997241973877 0.40442654490470886 -0.07316793501377106
0.378179669380188 0.3839679956436157 -0.08288729935884476
0.35381370782852173 0.28565746545791626 -0.0666244700551033
0.2785426378250122 0.3629513382911682 0.0054006390273571014
0.36803004145622253 0.33271685242652893 -0.07649438828229904
0.2730187475681305 0.40870577096939087 0.01342562586069107
0.2593647539615631 0.3944385051727295 0.05635158717632294
0.46537771821022034 0.6774172782897949 -0.03590572252869606
0.4417573809623718 0.6780832409858704 -0.018311839550733566
0.42488497495651245 0.6787505149841309 0.002721713623031974
0.44579511880874634 0.6055890321731567 -0.04442684352397919
0.4046097695827484 0.6831260919570923 0.048422519117593765
0.4144798815250397 0.6944612860679626 0.03735705092549324
0.41385260224342346 0.6829348802566528 0.04431966692209244
0.44906488060951233 0.5964564085006714 -0.08577036112546921
0.43783605098724365 0.6820308566093445 0.011604491621255875
0.45350557565689087 0.6841782927513123 -0.003117961809039116
0.47264108061790466 0.6869869232177734 -0.014577895402908325
0.46680545806884766 0.7615885734558105 0.03577633202075958
0.46616053581237793 0.7429027557373047 0.005661108065396547
0.4671325981616974 0.7300341129302979 -0.002273798454552889
0.4692973792552948 0.7178362011909485 -0.001366286538541317
0.47209876775741577 0.7095139026641846 0.00010152501636184752
0.4360189437866211 0.6980563998222351 0.0229200292378664
0.43170830607414246 0.7006692290306091 0.02086060121655464
0.42591094970703125 0.7060889601707458 0.02073526754975319
0.42150306701660156 0.713104248046875 0.027381064370274544
0.39804303646087646 0.6513896584510803 0.005346372257918119
0.2619238793849945 0.5679890513420105 0.2761160433292389
0.49055853486061096 0.6150580644607544 -0.07636810839176178
0.4262104034423828 0.6926900148391724 0.03680824860930443
0.42047742009162903 0.6927924752235413 0.03564096987247467
0.46517619490623474 0.6197583079338074 -0.04827713221311569
0.43099290132522583 0.6103060841560364 -0.02433069981634617
0.46218740940093994 0.6150453686714172 -0.050592660903930664
0.4022476077079773 0.5379294753074646 -0.013754965737462044
0.3633531332015991 0.55103999376297 -0.0003764849971048534
0.418260782957077 0.5871347784996033 -0.03924575448036194
0.2974625825881958 0.30729812383651733 -0.013613239862024784
0.312719464302063 0.3409639000892639 -0.03817436471581459
0.3296318054199219 0.37982773780822754 -0.056737642735242844
0.41272521018981934 0.727653443813324 0.049878038465976715
0.43436115980148315 0.3911542296409607 -0.09760019183158875
0.4265906810760498 0.3319673538208008 -0.09947167336940765
0.4181894063949585 0.27536842226982117 -0.09842173755168915
0.33430516719818115 0.48893287777900696 0.011727752164006233
0.28179919719696045 0.5053480863571167 0.05609329044818878
0.43000173568725586 0.4822598099708557 -0.011577015742659569
0.3016371428966522 0.452515184879303 0.016521941870450974
0.44178351759910583 0.513980507850647 -0.041105035692453384
0.4338719844818115 0.5837652683258057 -0.08690784871578217
0.2614770531654358 0.5185507535934448 0.0900249183177948
0.2962374985218048 0.5208317637443542 0.038398925215005875
0.3247159719467163 0.529865562915802 0.016504818573594093
0.36911725997924805 0.5285389423370361 0.002405475592240691
0.4024111032485962 0.520759642124176 -0.0077258870005607605
0.4262576401233673 0.5113710165023804 -0.018838224932551384
0.47063177824020386 0.48682457208633423 -0.07831085473299026
0.2654796242713928 0.5635362863540649 0.09663768857717514
0.2825523018836975 0.44666650891304016 0.027416452765464783
0.478723406791687 0.6104121804237366 -0.10789628326892853
0.4279162883758545 0.5473795533180237 -0.03247725963592529
0.24454614520072937 0.47043079137802124 0.22679023444652557
0.4430459439754486 0.5003271102905273 -0.027674445882439613
0.4169937074184418 0.5877370238304138 -0.014197751879692078
0.3155639171600342 0.4695591628551483 0.026502760127186775
0.4333822727203369 0.5701481699943542 -0.08088697493076324
0.2741836905479431 0.6190227270126343 0.2802661061286926
0.42932605743408203 0.4752058982849121 -0.008800075389444828
0.4498728811740875 0.5599321722984314 -0.1075860857963562
0.3323485255241394 0.7261305451393127 0.15442273020744324
0.34159669280052185 0.7470697164535522 0.20438413321971893
0.2537645995616913 0.5673819184303284 0.1863095611333847
0.304379403591156 0.6974130272865295 0.17756932973861694
0.2515794634819031 0.4319499731063843 0.1070982962846756
0.4180184304714203 0.8048057556152344 0.09548211097717285
0.4823564887046814 0.6139558553695679 -0.07440600544214249
0.40786436200141907 0.561617374420166 -0.01817183382809162
0.26274412870407104 0.47815120220184326 0.08504654467105865
0.3558885455131531 0.48177188634872437 -0.0017884327098727226
0.3767022490501404 0.48398730158805847 -0.008899785578250885
0.4087538719177246 0.6973176598548889 0.04248092696070671
0.2722737491130829 0.6064828634262085 0.11736808717250824
0.45916157960891724 0.8349180221557617 0.10794741660356522
0.3994201421737671 0.7982819080352783 0.14958487451076508
0.37375298142433167 0.7762742042541504 0.17331582307815552
0.4953191578388214 0.3330811858177185 -0.10908947885036469
0.5037755370140076 0.8419644832611084 0.09913428872823715
0.3961191773414612 0.4826391935348511 -0.012041023001074791
0.4136674404144287 0.47879916429519653 -0.010927090421319008
0.4243036210536957 0.47651922702789307 -0.007913993671536446
0.2667734920978546 0.43963050842285156 0.0509035550057888
0.4102971851825714 0.46637144684791565 -0.019964473322033882
0.39084291458129883 0.4640387296676636 -0.024000849574804306
0.37121307849884033 0.4635142385959625 -0.021008780226111412
0.3510679602622986 0.46520736813545227 -0.012176992371678352
0.3377472162246704 0.4679136276245117 -0.002268583048135042
0.24081295728683472 0.41924849152565 0.1710037887096405
0.34181123971939087 0.4784190356731415 0.00639770645648241
0.49275487661361694 0.6372548341751099 -0.04676065221428871
0.41884392499923706 0.6406337022781372 -0.013995408080518246
0.4384153187274933 0.5989084243774414 -0.06105560436844826
0.46145159006118774 0.6377045512199402 -0.04133080691099167
0.49446868896484375 0.45323193073272705 -0.08145737648010254
0.36261141300201416 0.7549997568130493 0.1381475329399109
0.39024239778518677 0.7788271903991699 0.11875420808792114
0.45446455478668213 0.8241324424743652 0.07415995001792908
0.3160863518714905 0.7152889370918274 0.2414289116859436
0.42324140667915344 0.4711643159389496 -0.013527246192097664
0.4550337493419647 0.5208473205566406 -0.07440943270921707
0.5016834139823914 0.8312036991119385 0.06666649878025055
0.42623141407966614 0.8190332651138306 0.12470119446516037
0.26468658447265625 0.6145856380462646 0.19624954462051392
0.45176202058792114 0.7042207717895508 0.010583553463220596
0.4475020468235016 0.7100495100021362 0.00852871686220169
0.44333386421203613 0.7190328240394592 0.008591174148023129
0.4404803514480591 0.7306541204452515 0.015845879912376404
0.4358426034450531 0.7468276023864746 0.040923796594142914
0.41927939653396606 0.6826323866844177 0.027303537353873253
0.4116303324699402 0.6800899505615234 0.027657141909003258
0.40492886304855347 0.6764973402023315 0.026981161907315254
0.3824549913406372 0.6650809049606323 0.029538031667470932
0.29724812507629395 0.6194599270820618 0.0689476728439331
0.45653077960014343 0.4990772604942322 -0.058457352221012115
0.4451298117637634 0.4585038423538208 -0.03143170475959778
0.43236956000328064 0.4629882276058197 -0.02028482034802437
0.42499738931655884 0.6803321838378906 0.029675249010324478
0.3038606643676758 0.6691727638244629 0.12129796296358109
0.4639807939529419 0.4571380615234375 -0.0632471963763237
0.42633023858070374 0.7651431560516357 0.05941804498434067
0.49022427201271057 0.5281628966331482 -0.11841471493244171
0.4702923595905304 0.5102781653404236 -0.09612086415290833
0.49146345257759094 0.5059279799461365 -0.1038612574338913
0.4397205710411072 0.5527865886688232 -0.06484281271696091
0.5002692937850952 0.8124130964279175 0.04752669855952263
0.49973392486572266 0.7872366905212402 0.04020026698708534
0.4606495797634125 0.7823593020439148 0.04686035215854645
0.37741830945014954 0.7164018154144287 0.07467246055603027
0.39799341559410095 0.6047961115837097 -0.001146285212598741
0.4003351330757141 0.7428240180015564 0.06965672224760056
0.3418731093406677 0.6029936075210571 0.013816742226481438
0.3751963675022125 0.6260884404182434 0.012974988669157028
0.32652348279953003 0.6358914375305176 0.044105835258960724
0.45461973547935486 0.8061339855194092 0.0552966482937336
0.4282066226005554 0.5631043314933777 -0.04326554760336876
0.36310356855392456 0.7327239513397217 0.10341978073120117
0.391460657119751 0.7595729827880859 0.09343010932207108
0.35711416602134705 0.6881898641586304 0.0693601667881012
0.28273531794548035 0.642510175704956 0.1364395171403885
0.3323720097541809 0.6924428939819336 0.09508145600557327
0.28005221486091614 0.657744288444519 0.19942520558834076
0.3587661385536194 0.6510821580886841 0.0334351472556591
0.4419170320034027 0.5338332056999207 -0.05201711878180504
0.44140052795410156 0.5931515693664551 -0.09115071594715118
0.42888957262039185 0.5969962477684021 -0.0624304935336113
0.4490157961845398 0.5806599855422974 -0.11039002239704132
0.42607781291007996 0.4404667019844055 -0.041957829147577286
0.38809502124786377 0.428550660610199 -0.04523104801774025
0.35524851083755493 0.42550358176231384 -0.040200214833021164
0.3281573951244354 0.4279898405075073 -0.02597622014582157
0.3098497986793518 0.43655890226364136 -0.007043096236884594
0.3000801205635071 0.4722168445587158 0.03826121985912323
0.24694544076919556 0.5213334560394287 0.16799165308475494
0.3175778388977051 0.5021378397941589 0.026689665392041206
0.341339111328125 0.5090090036392212 0.0122994938865304
0.37267643213272095 0.510515034198761 0.001042354153469205
0.40212953090667725 0.5063629746437073 -0.007469772361218929
0.42407330870628357 0.4991125166416168 -0.01208844967186451
0.43831712007522583 0.4918425977230072 -0.01714450493454933
0.2536405026912689 0.5189242362976074 0.25909337401390076
0.43089529871940613 0.6016727089881897 -0.0494510717689991
0.453779399394989 0.5400955677032471 -0.08764370530843735
0.45566076040267944 0.5956423282623291 -0.10977586358785629
0.46949970722198486 0.6059450507164001 -0.09833379834890366
0.4569081664085388 0.5983606576919556 -0.09751549363136292
0.43757346272468567 0.6078179478645325 -0.03986174240708351
0.4724755883216858 0.608406662940979 -0.10440037399530411
0.4761948585510254 0.6122128367424011 -0.0748366042971611
0.4371338486671448 0.47566476464271545 -0.012599335983395576
0.44928497076034546 0.48011595010757446 -0.026070794090628624
0.4555497169494629 0.4838256239891052 -0.04079725965857506
0.3295135200023651 0.4696927070617676 0.007748364936560392
0.3159562051296234 0.45718491077423096 0.009638594463467598
0.510883629322052 0.5316423177719116 -0.11139222979545593
0.6738828420639038 0.47805505990982056 -0.010896807536482811
0.5106063485145569 0.6091339588165283 -0.07789688557386398
0.7834476232528687 0.38052964210510254 0.07003113627433777
0.6012352108955383 0.4953850507736206 -0.027189217507839203
0.6259498000144958 0.49761274456977844 -0.025933904573321342
0.6504140496253967 0.496012806892395 -0.02081010863184929
0.684550940990448 0.48427680134773254 -0.004769675433635712
0.5812448859214783 0.4888996183872223 -0.024119718000292778
0.6366114020347595 0.44367244839668274 -0.05090067908167839
0.6110730171203613 0.4443832039833069 -0.04897671565413475
0.660595715045929 0.4466395974159241 -0.04233194515109062
0.6767826080322266 0.45350155234336853 -0.031385015696287155
0.705297589302063 0.49566587805747986 0.00980285368859768
0.5871734619140625 0.7906909584999084 0.06392360478639603
0.6834642887115479 0.47385159134864807 -0.004514581523835659
0.7847362756729126 0.4793705344200134 0.1084013506770134
0.7349445819854736 0.4796464443206787 0.028116626664996147
0.6191295385360718 0.5812482237815857 -0.021424848586320877
0.5245769023895264 0.6666252613067627 -0.045168373733758926
0.522835910320282 0.6862385272979736 -0.029558373615145683
0.5573429465293884 0.6711828112602234 -0.03060024231672287
0.5793546438217163 0.6766843199729919 -0.010214496403932571
0.5462269186973572 0.6861445903778076 -0.020626146346330643
0.5653555989265442 0.6863439679145813 -0.0019631837494671345
0.6104921102523804 0.7116631865501404 0.04294906556606293
0.5074060559272766 0.6005500555038452 -0.12334907054901123
0.5101065039634705 0.5804440379142761 -0.1353568732738495
0.7208430767059326 0.4250492453575134 -0.03326081857085228
0.5699021220207214 0.5280243754386902 -0.03801377862691879
0.5655986666679382 0.5921211838722229 -0.07000606507062912
0.5682432651519775 0.5808979868888855 -0.06522547453641891
0.6962853670120239 0.5780174136161804 0.0029530005995184183
0.510269045829773 0.553924024105072 -0.1278368979692459
0.658752977848053 0.4028904438018799 -0.07552149146795273
0.6947405934333801 0.41006040573120117 -0.05740559101104736
0.7574424147605896 0.34063830971717834 0.013699773699045181
0.5477389097213745 0.423142671585083 -0.08792603015899658
0.5886712074279785 0.45031964778900146 -0.039486419409513474
0.6287734508514404 0.6879490613937378 0.03909042477607727
0.7471585869789124 0.6801080703735352 0.23734459280967712
0.5478622913360596 0.6035803556442261 -0.05721917375922203
0.5278480052947998 0.6110837459564209 -0.054201386868953705
0.6054638624191284 0.6870361566543579 0.0374104306101799
0.5942622423171997 0.6869776844978333 0.03151484951376915
0.7116924524307251 0.39244046807289124 -0.05123616009950638
0.5672287344932556 0.6002610325813293 -0.05410369485616684
0.6104243397712708 0.4059760570526123 -0.08654890209436417
0.6154802441596985 0.3852989673614502 -0.09680153429508209
0.6477987766265869 0.28611046075820923 -0.08521665632724762
0.7341087460517883 0.3657165765762329 -0.024318812415003777
0.6286876201629639 0.3335800766944885 -0.09262645244598389
0.7390284538269043 0.4127022922039032 -0.01750333234667778
0.7614688873291016 0.3977307081222534 0.022632328793406487
0.5239672064781189 0.6786081194877625 -0.04001925513148308
0.5510278940200806 0.6804350018501282 -0.02641019970178604
0.5722251534461975 0.6817263960838318 -0.007830028422176838
0.5420947074890137 0.6072930097579956 -0.049817878752946854
0.5998486280441284 0.6870672702789307 0.03427891433238983
0.588509738445282 0.698132336139679 0.025384295731782913
0.5915626287460327 0.6865089535713196 0.031312260776758194
0.5340743660926819 0.597913920879364 -0.09205399453639984
0.5615091323852539 0.6843558549880981 0.00221542501822114
0.5424016118049622 0.6860222816467285 -0.010121752507984638
0.5209017395973206 0.6877522468566895 -0.018321607261896133
0.5330784916877747 0.7631466388702393 0.0324825793504715
0.5299985408782959 0.744495689868927 0.0015244855312630534
0.5280774831771851 0.7315012812614441 -0.00649886392056942
0.5256516933441162 0.7191871404647827 -0.0056298174895346165
0.5232104659080505 0.7107712626457214 -0.004049086477607489
0.5648149251937866 0.7007619142532349 0.01362574938684702
0.5688410997390747 0.7036293148994446 0.01158235128968954
0.5745955109596252 0.7094728946685791 0.010965399444103241
0.579592227935791 0.7165387868881226 0.0173555389046669
0.598920464515686 0.6547743678092957 -0.007714943494647741
0.7811371088027954 0.5738627910614014 0.23826292157173157
0.577028751373291 0.6956745386123657 0.025089280679821968
0.5823786854743958 0.6962770819664001 0.02389833703637123
0.5207577347755432 0.6206948161125183 -0.05151359364390373
0.5603354573249817 0.6125164031982422 -0.031478945165872574
0.5239341259002686 0.6161554455757141 -0.05385192856192589
0.5960774421691895 0.5396530032157898 -0.027277814224362373
0.6374667882919312 0.5537397265434265 -0.018415303900837898
0.573122501373291 0.5894556641578674 -0.04933210834860802
0.7137355208396912 0.30809491872787476 -0.0406879261136055
0.6915308237075806 0.342708021402359 -0.061874184757471085
0.669209897518158 0.3822348117828369 -0.07753913849592209
0.590943455696106 0.7317929863929749 0.03802332282066345
0.5555809140205383 0.391665518283844 -0.1045789048075676
0.5656411647796631 0.33237436413764954 -0.10753868520259857
0.5779821276664734 0.27552247047424316 -0.10790152102708817
0.6720070838928223 0.49191904067993164 -0.012128137983381748
0.7318466901779175 0.5091874599456787 0.025683574378490448
0.5689327716827393 0.48295673727989197 -0.022393792867660522
0.7071335315704346 0.45646771788597107 -0.011347864754498005
0.5522608160972595 0.514809787273407 -0.04931475594639778
0.5499892830848694 0.5855842232704163 -0.09441444277763367
0.7581226825714111 0.523082971572876 0.05571887642145157
0.7135985493659973 0.5244355797767639 0.009946013800799847
0.6809781193733215 0.5329508781433105 -0.007845964282751083
0.6331658363342285 0.5306743383407593 -0.016183944419026375
0.5975819230079651 0.5223140716552734 -0.021992621943354607
0.5718237161636353 0.5124106407165527 -0.029416484758257866
0.5172263383865356 0.4870660603046417 -0.08163776993751526
0.7528265714645386 0.568662703037262 0.06268001347780228
0.7296678423881531 0.45061826705932617 -0.0031228726729750633
0.5004308223724365 0.6107497811317444 -0.10938012599945068
0.5661215782165527 0.5487914681434631 -0.04231802001595497
0.796647310256958 0.47412317991256714 0.18741247057914734
0.5529075860977173 0.5009511709213257 -0.03597141429781914
0.5769917964935303 0.5898599624633789 -0.024094508960843086
0.6926487684249878 0.47291770577430725 0.00023518773377873003
0.5523898005485535 0.5717533826828003 -0.08864801377058029
0.7684706449508667 0.626178503036499 0.24420419335365295
0.5702242255210876 0.4761423170566559 -0.01998971775174141
0.531846284866333 0.5610246658325195 -0.11311016976833344
0.6887314319610596 0.7345010638237 0.12951317429542542
0.6867929100990295 0.7560844421386719 0.17867468297481537
0.7769014835357666 0.5734198093414307 0.1491188406944275
0.7220058441162109 0.7055278420448303 0.14810188114643097
0.7744776010513306 0.4352758526802063 0.07118049263954163
0.5904482007026672 0.8103141188621521 0.08368665724992752
0.49897199869155884 0.6141537427902222 -0.07535737007856369
0.5883705615997314 0.5637141466140747 -0.03015044704079628
0.7574588060379028 0.48213741183280945 0.05119450390338898
0.6474791765213013 0.4842734932899475 -0.022550947964191437
0.6256400942802429 0.48591238260269165 -0.027074594050645828
0.5946595072746277 0.7011933922767639 0.02965458482503891
0.7474765777587891 0.6125977039337158 0.08460204303264618
0.5497264862060547 0.8379723429679871 0.10140719264745712
0.6178372502326965 0.8055387735366821 0.1330292522907257
0.6486976742744446 0.7848765254020691 0.15265792608261108
0.6053764224052429 0.48393386602401733 -0.027784503996372223
0.586752712726593 0.4796469509601593 -0.02453569881618023
0.575596034526825 0.47739988565444946 -0.02008945494890213
0.7502743005752563 0.4434911906719208 0.0181474257260561
0.5914148092269897 0.4676535725593567 -0.03379456698894501
0.6126432418823242 0.4656983017921448 -0.040333665907382965
0.6326269507408142 0.4661899209022522 -0.03984064981341362
0.6533184051513672 0.4686198830604553 -0.033837269991636276
0.6672507524490356 0.47141963243484497 -0.02550463005900383
0.7951717376708984 0.42237699031829834 0.13232706487178802
0.6628187894821167 0.48115596175193787 -0.016275912523269653
0.5739974975585938 0.6434335112571716 -0.023785298690199852
0.5479139685630798 0.6007061004638672 -0.06763745844364166
0.5257908701896667 0.6388468146324158 -0.04540399834513664
0.654359757900238 0.7630525827407837 0.11776338517665863
0.6229360103607178 0.7863132357597351 0.10293988883495331
0.5499594807624817 0.8271841406822205 0.0679471343755722
0.7189000844955444 0.7239673137664795 0.2109430730342865
0.5768139958381653 0.4722760021686554 -0.026018813252449036
0.5327451825141907 0.5215119123458862 -0.07989625632762909
0.5858936905860901 0.8245532512664795 0.11238657683134079
0.7665498852729797 0.6215633749961853 0.1608266532421112
0.5458095669746399 0.7063824534416199 0.0031490023247897625
0.550059974193573 0.7121630311012268 0.0012925831833854318
0.5542418956756592 0.7215628027915955 0.0008646536152809858
0.557679295539856 0.7333056926727295 0.007860317826271057
0.565732479095459 0.7499845027923584 0.0323270745575428
0.5827536582946777 0.6858786940574646 0.015434253960847855
0.5898111462593079 0.6837547421455383 0.014836705289781094
0.596705436706543 0.6804250478744507 0.013325398787856102
0.6189751029014587 0.6691830158233643 0.013521699234843254
0.7146393060684204 0.6248425841331482 0.04176797717809677
0.5345762968063354 0.4996752440929413 -0.06421837210655212
0.551081120967865 0.4590156674385071 -0.03887619078159332
0.5663717985153198 0.4636249542236328 -0.031009165570139885
0.5778637528419495 0.6832972168922424 0.018026314675807953
0.7142958641052246 0.6758327484130859 0.09373649209737778
0.52768474817276 0.45749685168266296 -0.06756182760000229
0.5772693753242493 0.7693347334861755 0.05029002204537392
0.5143355131149292 0.5107019543647766 -0.09894447773694992
0.5489411950111389 0.55403733253479 -0.0721714124083519
0.5399467945098877 0.7846418619155884 0.04258967563509941
0.6303806900978088 0.7220905423164368 0.05806351080536842
0.5983509421348572 0.6075611114501953 -0.013575739227235317
0.6059659719467163 0.748164176940918 0.05675583332777023
0.6600797176361084 0.6069639325141907 -0.0054721590131521225
0.6238886713981628 0.6296169757843018 -0.002388589782640338
0.6802390813827515 0.6409406065940857 0.021812804043293
0.5469725728034973 0.8086965084075928 0.04967840388417244
0.5637890100479126 0.5648360252380371 -0.05231466516852379
0.648846447467804 0.7397235631942749 0.08432662487030029
0.6178090572357178 0.7659567594528198 0.07897487282752991
0.6505962610244751 0.693678617477417 0.04948152229189873
0.7391184568405151 0.6493183970451355 0.10553363710641861
0.6806573271751404 0.6991750001907349 0.07192225754261017
0.750538170337677 0.6653566360473633 0.16570669412612915
0.6445704698562622 0.65545254945755 0.015248670242726803
0.5492869019508362 0.5350551605224609 -0.059824295341968536
0.5416008830070496 0.594768226146698 -0.09801594167947769
0.5578363537788391 0.59913170337677 -0.07049615681171417
0.5308699607849121 0.5819961428642273 -0.11588824540376663
0.5705872178077698 0.44150859117507935 -0.051892612129449844
0.609900951385498 0.4301980137825012 -0.05966929346323013
0.64430171251297 0.4279923439025879 -0.05932196229696274
0.6738650798797607 0.43138813972473145 -0.049055781215429306
0.6954514980316162 0.44043827056884766 -0.03305056691169739
0.7111059427261353 0.47576668858528137 0.010039770044386387
0.7837698459625244 0.5263336896896362 0.1296216994524002
0.6905446648597717 0.505371630191803 0.0008762838551774621
0.6642202138900757 0.5117408037185669 -0.010072113946080208
0.630496084690094 0.5126485228538513 -0.01752377301454544
0.5990065932273865 0.5077254176139832 -0.021980728954076767
0.5755017995834351 0.4998914301395416 -0.022914022207260132
0.5597202181816101 0.49249589443206787 -0.0261028241366148
0.7893764972686768 0.5235146284103394 0.22013697028160095
0.5575822591781616 0.6038399338722229 -0.057178594172000885
0.5308570861816406 0.540923535823822 -0.09330301731824875
0.5238761305809021 0.5966704487800598 -0.11410242319107056
0.511590301990509 0.6066410541534424 -0.10086531192064285
0.5242953300476074 0.5994415283203125 -0.1021449938416481
0.5519120693206787 0.6100215315818787 -0.04644928127527237
0.5074675679206848 0.6089989542961121 -0.10631342232227325
0.5059505701065063 0.6127389669418335 -0.07650478929281235
0.561298131942749 0.47639110684394836 -0.022055532783269882
0.5473985075950623 0.48052650690078735 -0.03312530741095543
0.5387395024299622 0.48425328731536865 -0.04671315848827362
0.6762497425079346 0.4730090796947479 -0.016335662454366684
0.6907382607460022 0.46076542139053345 -0.01608515903353691
