ply
format ascii 1.0
element vertex 468
property float x
property float y
property float z
end_header
0.46844083070755005 0.658393919467926 -0.11286775022745132
0.45363664627075195 0.5654330849647522 -0.14041370153427124
0.468032568693161 0.6074876189231873 -0.09540069848299026
0.4512660503387451 0.5080835819244385 -0.0719299390912056
0.4542735815048218 0.5411405563354492 -0.13988438248634338
0.46164900064468384 0.5182656049728394 -0.11896712332963943
0.4842261075973511 0.4702373147010803 -0.02064431644976139
0.342193067073822 0.5031534433364868 0.11834397166967392
0.49311017990112305 0.4248054027557373 0.020928004756569862
0.494454562664032 0.3949187099933624 0.032456252723932266
0.5069859623908997 0.30328428745269775 0.10798698663711548
0.4695119261741638 0.6708182096481323 -0.1137683317065239
0.4720931947231293 0.68221515417099 -0.11038101464509964
0.47543787956237793 0.6879611015319824 -0.10300756990909576
0.4775763750076294 0.7722555994987488 -0.0873490571975708
0.47568419575691223 0.7824231386184692 -0.09488477557897568
0.4750462770462036 0.7948339581489563 -0.10260728001594543
0.475058376789093 0.8102126121520996 -0.10115113854408264
0.47626736760139465 0.8349337577819824 -0.08795035630464554
0.4572402834892273 0.5831568837165833 -0.13276918232440948
0.4465799927711487 0.5912118554115295 -0.09875200688838959
0.2977142632007599 0.45927324891090393 0.2943252921104431
0.40106433629989624 0.5150449275970459 0.07360900938510895
0.3793065845966339 0.5182112455368042 0.07987154275178909
0.35924312472343445 0.519020676612854 0.09155639261007309
0.3341113328933716 0.5136264562606812 0.1204129233956337
0.4197092652320862 0.5077077150344849 0.07181479036808014
0.37589821219444275 0.45246461033821106 0.08978356420993805
0.39903485774993896 0.45351845026016235 0.08451426029205322
0.35394853353500366 0.4578658938407898 0.10062636435031891
0.3394445776939392 0.46972835063934326 0.11192062497138977
0.3171188235282898 0.531067967414856 0.12965050339698792
0.3818102180957794 0.86012202501297 -0.0537487268447876
0.3362443447113037 0.5003113150596619 0.13013429939746857
0.2773290276527405 0.5524459481239319 0.25697267055511475
0.3004327416419983 0.5236924290657043 0.16632187366485596
0.36514073610305786 0.5934650897979736 0.005878777243196964
0.43269994854927063 0.6571412086486816 -0.0995476022362709
0.44059616327285767 0.6841102242469788 -0.09759990870952606
0.3997719883918762 0.6707940697669983 -0.07650686055421829
0.38228729367256165 0.6884499788284302 -0.04699472710490227
0.41706496477127075 0.6904767751693726 -0.07656411081552505
0.4010452926158905 0.6998686790466309 -0.04918595403432846
0.3635028302669525 0.7612841725349426 -0.008744672872126102
0.4365699887275696 0.5673168897628784 -0.13397063314914703
0.4346301257610321 0.5449876189231873 -0.132111057639122
0.314117968082428 0.45308423042297363 0.13866885006427765
0.4186753034591675 0.5360592603683472 0.018570508807897568
0.3972482979297638 0.5831964015960693 -0.06174089014530182
0.39834368228912354 0.5746934413909912 -0.049728501588106155
0.30194127559661865 0.6042611598968506 0.0569302923977375
0.44201576709747314 0.5233975648880005 -0.10578887164592743
0.3606082797050476 0.41416484117507935 0.09280452877283096
0.3326452970504761 0.428348183631897 0.11719553172588348
0.3153555393218994 0.40862882137298584 0.26015445590019226
0.44827792048454285 0.42437589168548584 0.041285738348960876
0.41938722133636475 0.46144944429397583 0.08374906331300735
0.3488081693649292 0.7266643047332764 0.005807670298963785
0.29316645860671997 0.7863215804100037 0.20694515109062195
0.4164188504219055 0.5958966016769409 -0.06264560669660568
0.43517541885375977 0.6027002930641174 -0.07704789191484451
0.3656476140022278 0.7272368669509888 0.0026148920878767967
0.3793719410896301 0.7271162271499634 -0.005889112129807472
0.32483193278312683 0.41851454973220825 0.13852578401565552
0.3990894556045532 0.5978817939758301 -0.0537840761244297
0.39813244342803955 0.41162732243537903 0.06665077805519104
0.39541327953338623 0.39424946904182434 0.07120300084352493
0.3901827931404114 0.3316144347190857 0.1671975702047348
0.31958985328674316 0.41254979372024536 0.1931738704442978
0.39388445019721985 0.3592481017112732 0.119998499751091
0.3058689832687378 0.45078980922698975 0.16798320412635803
0.3012253940105438 0.4559552073478699 0.2296886295080185
0.43501895666122437 0.6720625758171082 -0.10037937760353088
0.40808194875717163 0.6817343235015869 -0.07703346759080887
0.3905636966228485 0.6937946677207947 -0.0504239946603775
0.42277881503105164 0.6014569401741028 -0.06176581606268883
0.37158095836639404 0.7272316217422485 -0.002078558783978224
0.38135236501693726 0.7485266327857971 -0.02007167600095272
0.38512474298477173 0.7270577549934387 -0.007232694420963526
0.4227602481842041 0.5785658955574036 -0.09088903665542603
0.4085450768470764 0.6992735266685486 -0.04853709042072296
0.4250451624393463 0.6923483610153198 -0.07097397744655609
0.4468269348144531 0.6891990900039673 -0.09006505459547043
0.4351006746292114 0.8312065601348877 -0.07740060240030289
0.4354950189590454 0.8058170676231384 -0.08780913800001144
0.4373299479484558 0.7910365462303162 -0.0869622528553009
0.441472589969635 0.7784377336502075 -0.07846496999263763
0.44639262557029724 0.7698462605476379 -0.07265454530715942
0.4078111946582794 0.7564027309417725 -0.03522973880171776
0.40161848068237305 0.7590987086296082 -0.039938103407621384
0.3932516276836395 0.7646801471710205 -0.044634293764829636
0.38700878620147705 0.7726051807403564 -0.04040374606847763
0.37121808528900146 0.6695942282676697 -0.029686326161026955
0.28444692492485046 0.6741194128990173 0.30023959279060364
0.4624979496002197 0.5947493314743042 -0.10759658366441727
0.39773064851760864 0.7477003931999207 -0.016464218497276306
0.3886391520500183 0.7468137741088867 -0.02017080783843994
0.44066321849823 0.612369954586029 -0.08312556147575378
0.40808045864105225 0.6145801544189453 -0.04604532942175865
0.4381239712238312 0.607647180557251 -0.0805618166923523
0.39325645565986633 0.5516756772994995 0.0261364933103323
0.3550378680229187 0.5693057179450989 0.03499869629740715
0.3961297273635864 0.5889980792999268 -0.04018516093492508
0.3443582057952881 0.36486074328422546 0.21404880285263062
0.3491932153701782 0.3792039453983307 0.15665943920612335
0.3554573059082031 0.39972802996635437 0.10842051357030869
0.3791366219520569 0.788744330406189 -0.028908083215355873
0.44269877672195435 0.3947273790836334 0.046917907893657684
0.4417942762374878 0.3510308861732483 0.091305673122406
0.44168204069137573 0.31317391991615295 0.12977717816829681
0.34246519207954407 0.518225908279419 0.10648307204246521
0.2944434881210327 0.5504717230796814 0.14195629954338074
0.432047575712204 0.500158965587616 0.07443421334028244
0.3202362060546875 0.4858356714248657 0.13806983828544617
0.4356461465358734 0.5184406638145447 0.011827441863715649
0.40792524814605713 0.5668488144874573 -0.08414791524410248
0.27373045682907104 0.5748313665390015 0.16674450039863586
0.30233436822891235 0.5578932166099548 0.11017481237649918
0.32462069392204285 0.5575153231620789 0.0784304141998291
0.3656492233276367 0.5494548082351685 0.05842919275164604
0.3982444405555725 0.5382356643676758 0.048867117613554
0.42322275042533875 0.5251959562301636 0.04050334915518761
0.46393969655036926 0.4797912836074829 -0.007144076284021139
0.26485922932624817 0.6181600689888 0.13916248083114624
0.3069895803928375 0.48812800645828247 0.15660062432289124
0.4479585587978363 0.5833820104598999 -0.12831029295921326
0.41423535346984863 0.5516030788421631 -0.0035598240792751312
0.28638115525245667 0.5698304176330566 0.33619287610054016
0.4410244822502136 0.5098483562469482 0.038725145161151886
0.3967248201370239 0.5954281091690063 -0.015736714005470276
0.3287699818611145 0.5021628737449646 0.1362277865409851
0.4105570912361145 0.5570138096809387 -0.06962823122739792
0.28461021184921265 0.7289863228797913 0.26024019718170166
0.4341227412223816 0.4932434856891632 0.08584649115800858
0.4259475767612457 0.5373802185058594 -0.09102912992238998
0.310729444026947 0.8122571706771851 0.0649249479174614
0.3205050826072693 0.8546075820922852 0.08650277554988861
0.2614874839782715 0.6477209329605103 0.2222318947315216
0.289925754070282 0.7868900299072266 0.10684715956449509
0.2900758981704712 0.502269983291626 0.25292250514030457
0.3788970708847046 0.8900800943374634 -0.05365300178527832
0.45518678426742554 0.5944072008132935 -0.10390403121709824
0.3935774564743042 0.5719727873802185 0.0015166639350354671
0.2866804897785187 0.5356886386871338 0.19442960619926453
0.36160051822662354 0.5053524971008301 0.09745511412620544
0.37993669509887695 0.5054746866226196 0.08756393194198608
0.37481212615966797 0.7512285113334656 -0.016362221911549568
0.2640050947666168 0.6668329834938049 0.12226685136556625
0.42049485445022583 0.9348173141479492 -0.07594072818756104
0.36127084493637085 0.8992544412612915 0.0017528426833450794
0.3418448567390442 0.8796564340591431 0.040566522628068924
0.49965086579322815 0.3464357852935791 0.07055709511041641
0.4743703305721283 0.9433071613311768 -0.09669087082147598
0.3978990912437439 0.5036859512329102 0.08207745105028152
0.4152984619140625 0.49960553646087646 0.08221828937530518
0.42733678221702576 0.49632203578948975 0.08624929934740067
0.29698628187179565 0.4916995167732239 0.18707624077796936
0.4163382649421692 0.48437535762786865 0.08670211583375931
0.39802730083465576 0.4824541509151459 0.08804532885551453
0.3803372383117676 0.48219799995422363 0.09371288120746613
0.36218947172164917 0.4857402443885803 0.102484330534935
0.3499801754951477 0.4913943409919739 0.11130542308092117
0.28879621624946594 0.5101258754730225 0.3241581916809082
0.35010987520217896 0.5043630599975586 0.10873071104288101
0.46976834535598755 0.6260190010070801 -0.0952945277094841
0.39178919792175293 0.6494240760803223 -0.050133224576711655
0.41406476497650146 0.589658796787262 -0.06822267919778824
0.43493565917015076 0.6318268179893494 -0.08468684554100037
0.49119096994400024 0.4509281516075134 0.009292489849030972
0.3328778147697449 0.8407782316207886 0.02706996537744999
0.3552415370941162 0.8640390038490295 -0.01230127178132534
0.41644471883773804 0.9099665880203247 -0.09207086265087128
0.3058686852455139 0.8283461928367615 0.1450694054365158
0.4285399317741394 0.4891098141670227 0.08668360114097595
0.4426140785217285 0.5116742253303528 -0.02714632824063301
0.47089868783950806 0.9185126423835754 -0.11148528754711151
0.38539958000183105 0.9182605743408203 -0.04035749286413193
0.26301074028015137 0.7002981305122375 0.1918824166059494
0.4242929220199585 0.7640427350997925 -0.05380648002028465
0.4176434576511383 0.7699347734451294 -0.058794405311346054
0.4110034108161926 0.7797058820724487 -0.06348024308681488
0.40627333521842957 0.7927957773208618 -0.06167275831103325
0.40077832341194153 0.8133456707000732 -0.05272820219397545
0.3874242603778839 0.7113996148109436 -0.024914585053920746
0.3781803250312805 0.7085534334182739 -0.021157503128051758
0.3706488311290741 0.7051687240600586 -0.018684381619095802
0.35581374168395996 0.694785475730896 -0.006151176057755947
0.28477975726127625 0.664976954460144 0.06435143202543259
0.4508947730064392 0.4977676272392273 0.004082602448761463
0.4499552249908447 0.4693618714809418 0.0674014538526535
0.43790268898010254 0.4768190085887909 0.08227544277906418
0.39594566822052 0.7084901332855225 -0.024854501709342003
0.2885781228542328 0.7355363368988037 0.07813285291194916
0.4644996225833893 0.46024399995803833 0.03171520307660103
0.391687273979187 0.8335851430892944 -0.05189231410622597
0.46967607736587524 0.5020877718925476 -0.08489342033863068
0.4569627642631531 0.4947792887687683 -0.04088829085230827
0.4768020510673523 0.48712968826293945 -0.050477348268032074
0.4222588837146759 0.5452526211738586 -0.03997858613729477
0.47089141607284546 0.8885775208473206 -0.11058739572763443
0.47369664907455444 0.8577813506126404 -0.09898484498262405
0.42735469341278076 0.8527702689170837 -0.08351875841617584
0.3495604693889618 0.7745263576507568 0.0018103615147992969
0.37967389822006226 0.6196328997612 -0.009320028126239777
0.36807143688201904 0.8074671030044556 -0.024083832278847694
0.32871997356414795 0.6269261240959167 0.014215455390512943
0.35787802934646606 0.6478016376495361 -0.003649367718026042
0.31211620569229126 0.6723975539207458 0.027761846780776978
0.41857433319091797 0.8814634084701538 -0.09110096096992493
0.4103811979293823 0.5629978775978088 -0.026618653908371925
0.3355921506881714 0.8023428916931152 0.014334730803966522
0.35879647731781006 0.831787645816803 -0.018711864948272705
0.33401381969451904 0.7372928261756897 0.016655486077070236
0.2708579897880554 0.7116666436195374 0.1117052510380745
0.31136494874954224 0.754000186920166 0.03904351219534874
0.2724415063858032 0.748621940612793 0.1581367552280426
0.3410072922706604 0.683059811592102 0.0070606195367872715
0.4294447898864746 0.5317167043685913 -0.014065257273614407
0.4144654870033264 0.5745048522949219 -0.09290000051259995
0.4038988947868347 0.5889555811882019 -0.07025794684886932
0.42014551162719727 0.5537024140357971 -0.10828772187232971
0.43401995301246643 0.44910305738449097 0.07360314577817917
0.39982783794403076 0.4369616210460663 0.08193488419055939
0.36998918652534485 0.4362790286540985 0.09111732244491577
0.3447781801223755 0.4445870816707611 0.10534007102251053
0.3279757499694824 0.460796058177948 0.12231186777353287
0.3171064257621765 0.5121897459030151 0.14684699475765228
0.2668365240097046 0.5994293689727783 0.24285322427749634
0.3248435854911804 0.5356462001800537 0.11141224950551987
0.34458696842193604 0.5366448163986206 0.09016723930835724
0.3724629878997803 0.5335360765457153 0.07276401668787003
0.4010644555091858 0.5268287658691406 0.06351181864738464
0.42365196347236633 0.5168774127960205 0.05921608954668045
0.4387074410915375 0.506901741027832 0.056431811302900314
0.2869555652141571 0.6227559447288513 0.3287249505519867
0.4070032238960266 0.5985724925994873 -0.06117662787437439
0.43552494049072266 0.5238715410232544 -0.05558304861187935
0.4257325232028961 0.5681844353675842 -0.11658722162246704
0.4422018826007843 0.5838702917098999 -0.11614345759153366
0.42956727743148804 0.5760063529014587 -0.10667764395475388
0.4142024517059326 0.607429027557373 -0.05873503163456917
0.443306565284729 0.5835433006286621 -0.12408410757780075
0.4497302174568176 0.5941372513771057 -0.10141067206859589
0.4410370886325836 0.4909343123435974 0.07734299451112747
0.45102208852767944 0.4918335974216461 0.056021079421043396
0.45465803146362305 0.49009180068969727 0.034011729061603546
0.3420271575450897 0.495979368686676 0.11944016814231873
0.3297373950481415 0.4845716953277588 0.12501627206802368
0.49085232615470886 0.5063364505767822 -0.08446890860795975
0.6796536445617676 0.48334306478500366 0.03074073977768421
0.4843611717224121 0.589874267578125 -0.10789694637060165
0.8033224940299988 0.4278923273086548 0.16246211528778076
0.6064392328262329 0.5023564100265503 0.016923414543271065
0.6312201619148254 0.5034019947052002 0.01221835520118475
0.656300961971283 0.50229811668396 0.01340168435126543
0.693713903427124 0.4932439923286438 0.02816886641085148
0.5861945748329163 0.4972429573535919 0.026934178546071053
0.6346334218978882 0.4346681237220764 0.01947157271206379
0.6085439324378967 0.43867599964141846 0.028997717425227165
0.6620866060256958 0.4382322132587433 0.019525740295648575
0.6825154423713684 0.4484636187553406 0.023873643949627876
0.7165750861167908 0.5100007057189941 0.030347703024744987
0.5884593725204468 0.8620116710662842 -0.09656840562820435
0.6897878050804138 0.47985392808914185 0.03873346000909805
0.8143258094787598 0.5264867544174194 0.12191261351108551
0.7489269971847534 0.500508189201355 0.05515386536717415
0.6184272766113281 0.5834656953811646 -0.05321132764220238
0.5106281042098999 0.6553186774253845 -0.11692091077566147
0.5106498599052429 0.6833439469337463 -0.1137874498963356
0.5575466156005859 0.6689334511756897 -0.1112273633480072
0.5901443362236023 0.685224711894989 -0.09475159645080566
0.5444732904434204 0.6895589828491211 -0.10789059102535248
0.5729830265045166 0.6979731321334839 -0.09122896194458008
0.6316417455673218 0.7575056552886963 -0.06865721195936203
0.47403377294540405 0.5655642747879028 -0.14170467853546143
0.47847384214401245 0.5431647896766663 -0.14171448349952698
0.7240755558013916 0.42958855628967285 0.03500215336680412
0.5652456879615784 0.5292803049087524 -0.01893271505832672
0.5510674715042114 0.5784660577774048 -0.09825156629085541
0.5565083622932434 0.5697970986366272 -0.08713017404079437
0.7063724994659424 0.5872520208358765 -0.040136318653821945
0.4843043088912964 0.5216505527496338 -0.11828658729791641
0.6536874175071716 0.39509472250938416 0.020138930529356003
0.6933555006980896 0.40656182169914246 0.02679065614938736
0.765936017036438 0.37675535678863525 0.14227665960788727
0.5440971255302429 0.41744646430015564 0.01756036840379238
0.5871966481208801 0.44898808002471924 0.03852207958698273
0.6516845226287842 0.7203271389007568 -0.06533441692590714
0.8006775379180908 0.7785456776618958 0.0811089426279068
0.5319191813468933 0.5924976468086243 -0.08897391706705093
0.5095592141151428 0.6006520390510559 -0.08994103968143463
0.6327025294303894 0.7225726842880249 -0.06022412329912186
0.6196269392967224 0.7234296202659607 -0.06237005442380905
0.7105920910835266 0.39486050605773926 0.04230524227023125
0.5565697550773621 0.5937358140945435 -0.08959238231182098
0.6045134663581848 0.3971315622329712 0.017175808548927307
0.6092252731323242 0.3784244954586029 0.020552823320031166
0.6470271944999695 0.30917733907699585 0.10004983097314835
0.7365661859512329 0.3846505284309387 0.08756940066814423
0.6248151063919067 0.3403833210468292 0.06176510080695152
0.7441275715827942 0.4251220226287842 0.05716785043478012
0.7723987102508545 0.427654504776001 0.10956189781427383
0.5108674168586731 0.6708984971046448 -0.11767686158418655
0.5503608584403992 0.6803993582725525 -0.11070515960454941
0.58131343126297 0.6911243796348572 -0.09501095861196518
0.5268607139587402 0.5985389947891235 -0.08380831032991409
0.6265778541564941 0.7229514718055725 -0.06103988364338875
0.6094822883605957 0.7445623874664307 -0.07086275517940521
0.615188479423523 0.7236453890800476 -0.062448564916849136
0.5097448229789734 0.5751244425773621 -0.11540672928094864
0.5702133178710938 0.6976176500320435 -0.08838687837123871
0.5416005849838257 0.6913614273071289 -0.10003872215747833
0.510286271572113 0.6881684064865112 -0.10677088797092438
0.5236483216285706 0.8308593034744263 -0.09394343197345734
0.5213508009910583 0.8050263524055481 -0.10673663020133972
0.5190930962562561 0.7900545597076416 -0.10667987167835236
0.5166995525360107 0.7775463461875916 -0.09818165749311447
0.5144914388656616 0.7692042589187622 -0.09143821150064468
0.5749395489692688 0.7541568279266357 -0.07544641941785812
0.5799055099487305 0.7563992738723755 -0.08042388409376144
0.5875476002693176 0.7620437145233154 -0.08644929528236389
0.5939522981643677 0.7694982886314392 -0.08499756455421448
0.6050798892974854 0.6643072962760925 -0.08302067220211029
0.8352725505828857 0.65607088804245 0.16113285720348358
0.5940248966217041 0.7449877262115479 -0.06517655402421951
0.6019791960716248 0.7438488602638245 -0.06915842741727829
0.502658486366272 0.6112048625946045 -0.09620683640241623
0.5524957180023193 0.6116659641265869 -0.07542504370212555
0.5056098103523254 0.6060304045677185 -0.09309675544500351
0.5945833921432495 0.5426754355430603 -0.02471601776778698
0.639218807220459 0.5561792254447937 -0.03364304453134537
0.5646504759788513 0.5840107798576355 -0.07907417416572571
0.7154286503791809 0.33565959334373474 0.11835552752017975
0.6897116303443909 0.3541924059391022 0.07174387574195862
0.6643884181976318 0.37875860929489136 0.03148647025227547
0.6051332950592041 0.7862826585769653 -0.0796864852309227
0.5515648722648621 0.3860212564468384 0.021391185000538826
0.5644710659980774 0.3404234051704407 0.06107594817876816
0.5800306797027588 0.30050429701805115 0.09613359719514847
0.679638147354126 0.499240517616272 0.01974080316722393
0.7466632723808289 0.5280837416648865 0.031425733119249344
0.5728339552879333 0.49083858728408813 0.03473726287484169
0.7150511145591736 0.4636489748954773 0.03816954046487808
0.5455979704856873 0.5129523277282715 -0.01821608655154705
0.5284576416015625 0.5622779130935669 -0.11314649879932404
0.7801557779312134 0.5517297983169556 0.04168953374028206
0.7251869440078735 0.5369058847427368 0.006009706761687994
0.6879311203956604 0.53948974609375 -0.011371342465281487
0.6360864639282227 0.5357929468154907 -0.01041554007679224
0.5982305407524109 0.5281790494918823 -0.0033788152504712343
0.5701380372047424 0.5173133611679077 0.0018649811390787363
0.5082833170890808 0.4772680997848511 -0.019413543865084648
0.7785638570785522 0.5975241661071777 0.013559039682149887
0.7385461330413818 0.46415072679519653 0.047084156423807144
0.4685630798339844 0.5823894143104553 -0.13431452214717865
0.5595524311065674 0.5458621382713318 -0.04084991663694382
0.839596152305603 0.5444824695587158 0.1926175355911255
0.5496482253074646 0.5036887526512146 0.008024081587791443
0.572600245475769 0.590600848197937 -0.05596498027443886
0.7025593519210815 0.4807446599006653 0.04041726514697075
0.5345655083656311 0.552761971950531 -0.09895814210176468
0.8249140977859497 0.7153699994087219 0.12710082530975342
0.5742142796516418 0.4842352271080017 0.04454665631055832
0.5087423920631409 0.5344168543815613 -0.11231913417577744
0.7199497222900391 0.811018705368042 -0.02871532365679741
0.7251802086830139 0.85723477602005 -0.008237645961344242
0.8185856342315674 0.627836287021637 0.0868552178144455
0.7594814300537109 0.7814565896987915 -0.003515247255563736
0.7949349284172058 0.47481727600097656 0.12361576408147812
0.5908845663070679 0.8943691849708557 -0.09940425306558609
0.4708549976348877 0.5937822461128235 -0.10789534449577332
0.5850394368171692 0.5646011829376221 -0.04436463490128517
0.7762448191642761 0.5111907124519348 0.07196169346570969
0.6524994373321533 0.4879838228225708 0.020764661952853203
0.6305758357048035 0.4899117350578308 0.019376253709197044
0.6170802712440491 0.7471404671669006 -0.07037416845560074
0.7780981063842773 0.6501494646072388 0.0004173711931798607
0.5359135270118713 0.9384165406227112 -0.10195717215538025
0.6341874599456787 0.9055877923965454 -0.060709960758686066
0.6767480373382568 0.8853657245635986 -0.03674550727009773
0.6106268167495728 0.4899669587612152 0.024477729573845863
0.5927194356918335 0.488031268119812 0.032649926841259
0.580775797367096 0.48658931255340576 0.041744302958250046
0.7624642252922058 0.46613526344299316 0.06854850053787231
0.5924171209335327 0.4722610414028168 0.036401864141225815
0.6111494302749634 0.46782100200653076 0.029044315218925476
0.6294739246368408 0.46547892689704895 0.024855375289916992
0.6511972546577454 0.4672600030899048 0.024388477206230164
0.6682005524635315 0.47180289030075073 0.02763143554329872
0.8267315030097961 0.4809800088405609 0.1842784583568573
0.6680414080619812 0.4855578541755676 0.02530849166214466
0.5721513032913208 0.6460660099983215 -0.09106042981147766
0.529843807220459 0.5856882929801941 -0.09356758743524551
0.5106220245361328 0.6304399967193604 -0.10138368606567383
0.6778643131256104 0.842660665512085 -0.04911668971180916
0.6370480060577393 0.8682785034179688 -0.07327015697956085
0.5338622331619263 0.9126443862915039 -0.11729738116264343
0.7650500535964966 0.82635897397995 0.032617613673210144
0.5793756246566772 0.47943204641342163 0.041511040180921555
0.519639253616333 0.5079344511032104 -0.04720612242817879
0.588029682636261 0.9241655468940735 -0.0870572179555893
0.8125386834144592 0.6847308278083801 0.06152331084012985
0.5470519065856934 0.762751042842865 -0.08559369295835495
0.5517998933792114 0.7682350277900696 -0.09118426591157913
0.5569528341293335 0.7778590321540833 -0.09760888665914536
0.5613803267478943 0.7906668186187744 -0.09692385047674179
0.5703878402709961 0.8120549917221069 -0.09089907258749008
0.6011345386505127 0.7085154056549072 -0.0752083957195282
0.6090589165687561 0.7050007581710815 -0.07597537338733673
0.6168435215950012 0.7011159062385559 -0.076051265001297
0.6337740421295166 0.6882393956184387 -0.07236292958259583
0.7339423894882202 0.6503794193267822 -0.0405111238360405
0.5263211131095886 0.4937293529510498 -0.016653811559081078
0.5511468052864075 0.46264225244522095 0.041486773639917374
0.5674164891242981 0.46776729822158813 0.0442599281668663
0.5957415699958801 0.7061635255813599 -0.0735587403178215
0.7428442239761353 0.725874125957489 -0.027445558458566666
0.5248327851295471 0.4563472867012024 0.015874141827225685
0.5813003182411194 0.8340746760368347 -0.09171919524669647
0.4994312524795532 0.49270111322402954 -0.05168033391237259
0.5349755883216858 0.5409507751464844 -0.06698829680681229
0.5287479758262634 0.8534823060035706 -0.10182320326566696
0.649415910243988 0.7707314491271973 -0.06607867032289505
0.5965697169303894 0.6132712364196777 -0.05941395089030266
0.6200622320175171 0.8066595792770386 -0.07869908958673477
0.6640480756759644 0.6146779656410217 -0.062428079545497894
0.626491904258728 0.6394304037094116 -0.0660228580236435
0.6910690069198608 0.6607828140258789 -0.060122840106487274
0.5322606563568115 0.882570207118988 -0.11471804231405258
0.554822564125061 0.5582796931266785 -0.06070595234632492
0.6691368818283081 0.8006952404975891 -0.060130033642053604
0.6307632327079773 0.8328917026519775 -0.07647273689508438
0.6702504754066467 0.7303842306137085 -0.06379440426826477
0.772696316242218 0.6986494660377502 -0.006039761006832123
0.7044180035591125 0.7473838925361633 -0.05152875557541847
0.7944902777671814 0.737576961517334 0.03296468034386635
0.6548083424568176 0.6741942763328552 -0.06710775941610336
0.5390268564224243 0.5270824432373047 -0.04318307340145111
0.5177030563354492 0.5704975128173828 -0.11906103044748306
0.5416259765625 0.5845640897750854 -0.10088705271482468
0.5030437111854553 0.5504213571548462 -0.1283174604177475
0.5686701536178589 0.439468115568161 0.038243215531110764
0.6067862510681152 0.4222772419452667 0.02948678284883499
0.6422404646873474 0.4176483750343323 0.021739060059189796
0.6747773289680481 0.42404910922050476 0.02113751694560051
0.7000837326049805 0.4389681816101074 0.028093518689274788
0.7222259044647217 0.49018388986587524 0.04516007378697395
0.8191699385643005 0.5758665800094604 0.10361132770776749
0.7004644870758057 0.5156182050704956 0.017668981105089188
0.6707626581192017 0.519450306892395 0.007737378589808941
0.6353331804275513 0.5194034576416016 0.004990199580788612
0.6021618843078613 0.5153157114982605 0.009429150260984898
0.5777594447135925 0.5077064037322998 0.018626973032951355
0.5606427192687988 0.4992178976535797 0.023194357752799988
0.8392370939254761 0.6010110378265381 0.18480893969535828
0.5441179275512695 0.5947146415710449 -0.0914137214422226
0.5127862095832825 0.5207682847976685 -0.07665394991636276
0.4934134781360626 0.565517783164978 -0.1332140415906906
0.48249924182891846 0.582251250743866 -0.1254030466079712
0.49607351422309875 0.5732213258743286 -0.12351001799106598
0.5402328968048096 0.6048595905303955 -0.0842846930027008
0.4766428768634796 0.5821074843406677 -0.13178308308124542
0.47866255044937134 0.5931910276412964 -0.10786575824022293
0.5634024143218994 0.4826774299144745 0.04291588068008423
0.54761803150177 0.4857277274131775 0.03035292960703373
0.5356403589248657 0.48523855209350586 0.012794459238648415
0.6793555617332458 0.4758610129356384 0.03170529380440712
0.6989484429359436 0.4630924165248871 0.03193502873182297
