ply
format ascii 1.0
element vertex 468
property float x
property float y
property float z
end_header
0.4997333288192749 0.7113214135169983 -0.07081977277994156
0.49790021777153015 0.6249845623970032 -0.1275349259376526
0.4992326498031616 0.6502589583396912 -0.06627234816551208
0.47794705629348755 0.5447807312011719 -0.09565883129835129
0.49775856733322144 0.6003903150558472 -0.13605839014053345
0.49802106618881226 0.5680360794067383 -0.12636245787143707
0.49939578771591187 0.4880155920982361 -0.06137208640575409
0.3257940411567688 0.47265541553497314 0.03271186724305153
0.5009421110153198 0.41912752389907837 -0.04595598578453064
0.5015970468521118 0.3836979269981384 -0.051345497369766235
0.5038006901741028 0.2639314532279968 -0.025633521378040314
0.49964529275894165 0.7236464619636536 -0.0678013265132904
0.4996674656867981 0.7330131530761719 -0.059008531272411346
0.49957579374313354 0.7373943328857422 -0.04781920462846756
0.4998748302459717 0.7547897100448608 -0.04054811969399452
0.4997784197330475 0.7661877870559692 -0.04372861236333847
0.499788373708725 0.7797110080718994 -0.04720771685242653
0.4996410310268402 0.7924624681472778 -0.0411432720720768
0.49935001134872437 0.8061164021492004 -0.014920647256076336
0.49829649925231934 0.637073814868927 -0.1151234358549118
0.4792780578136444 0.635625958442688 -0.08221274614334106
0.23492062091827393 0.37073493003845215 0.15023520588874817
0.39509373903274536 0.500255286693573 0.0067924922332167625
0.37030914425849915 0.5014877319335938 0.008982127532362938
0.3469732403755188 0.49886542558670044 0.01589643768966198
0.31734228134155273 0.48142367601394653 0.036946527659893036
0.41627851128578186 0.49392569065093994 0.009799925610423088
0.3644651174545288 0.42802923917770386 -0.0020134320948272943
0.3910430669784546 0.43124085664749146 -0.002481089672073722
0.3398997187614441 0.43113476037979126 0.00653181504458189
0.32346031069755554 0.44009238481521606 0.016523409634828568
0.29588058590888977 0.49855875968933105 0.04970834031701088
0.4131898880004883 0.8285571336746216 0.011617942713201046
0.3178149163722992 0.46487075090408325 0.04098482057452202
0.22312095761299133 0.47898393869400024 0.15948645770549774
0.26850712299346924 0.47761034965515137 0.07464998215436935
0.38035526871681213 0.6052197813987732 -0.014795632101595402
0.4732173681259155 0.7085047960281372 -0.0667545348405838
0.4782651662826538 0.7334694862365723 -0.055457036942243576
0.4469394087791443 0.7186163067817688 -0.05306519940495491
0.4307934641838074 0.7306694984436035 -0.03673112019896507
0.46015214920043945 0.7371394038200378 -0.046811290085315704
0.44595903158187866 0.7412468791007996 -0.03151048347353935
0.3992096185684204 0.7670103907585144 0.001959283836185932
0.4791596531867981 0.6240977644920349 -0.1254032403230667
0.47525426745414734 0.6009498238563538 -0.1329701840877533
0.28431791067123413 0.4100269675254822 0.02650754153728485
0.42699217796325684 0.5419248342514038 -0.018981577828526497
0.4278225898742676 0.6197114586830139 -0.06579705327749252
0.4254647493362427 0.6066485643386841 -0.05887698009610176
0.30705344676971436 0.6019625663757324 0.01635398529469967
0.47646284103393555 0.5705575346946716 -0.11841964721679688
0.34022435545921326 0.38270169496536255 -0.015328699722886086
0.3074469268321991 0.3910791277885437 0.004445318132638931
0.25824350118637085 0.3268354535102844 0.10108689218759537
0.4471793472766876 0.4096373915672302 -0.03771070018410683
0.4140510559082031 0.4417644739151001 0.004269658587872982
0.38339659571647644 0.7451434135437012 0.007140450179576874
0.25540876388549805 0.7068796157836914 0.22659529745578766
0.44610363245010376 0.6331164836883545 -0.0567716509103775
0.46521130204200745 0.6404495239257812 -0.058908455073833466
0.41291508078575134 0.7501239776611328 0.001667554839514196
0.4243544638156891 0.7480868101119995 -0.005850135814398527
0.2929421365261078 0.37341704964637756 0.015473940409719944
0.4285324811935425 0.6314923167228699 -0.05251043662428856
0.38533884286880493 0.38678398728370667 -0.030527926981449127
0.3807549774646759 0.36596906185150146 -0.03563309833407402
0.35863715410232544 0.27243757247924805 0.00579892098903656
0.2752593755722046 0.35019412636756897 0.05128924176096916
0.3718630373477936 0.3191852867603302 -0.017440157011151314
0.26882123947143555 0.39812377095222473 0.04770340397953987
0.25145259499549866 0.3860100507736206 0.09473942220211029
0.47523415088653564 0.7229810953140259 -0.06419798731803894
0.45415785908699036 0.7298740148544312 -0.051387615501880646
0.43820491433143616 0.7364580631256104 -0.03649282827973366
0.45245376229286194 0.6378411650657654 -0.0514250323176384
0.41894713044166565 0.750015139579773 -0.0022485731169581413
0.42577868700027466 0.7544492483139038 -0.016142386943101883
0.4266487956047058 0.7454186081886292 -0.006557519547641277
0.4564587473869324 0.6232496500015259 -0.09000926464796066
0.45116686820983887 0.73983234167099 -0.02777997963130474
0.4651084244251251 0.7382819652557373 -0.037407416850328445
0.48142704367637634 0.7374352216720581 -0.04516100510954857
0.4689338207244873 0.805426836013794 -0.014589397236704826
0.47098857164382935 0.7900444269180298 -0.04028792306780815
0.47295495867729187 0.7766796350479126 -0.044997259974479675
0.4755169749259949 0.7634081244468689 -0.0414261631667614
0.4780537188053131 0.7540177702903748 -0.037850722670555115
0.44546592235565186 0.7508033514022827 -0.02322874218225479
0.44141799211502075 0.7541425228118896 -0.026844730600714684
0.43526381254196167 0.7604413032531738 -0.030013060197234154
0.4295884370803833 0.7676639556884766 -0.02557152509689331
0.40800079703330994 0.6992326974868774 -0.02839481830596924
0.2270089089870453 0.5842680931091309 0.2627056837081909
0.49883121252059937 0.6416923403739929 -0.08335116505622864
0.43661192059516907 0.7493098378181458 -0.014016792178153992
0.43169718980789185 0.751456081867218 -0.0161141250282526
0.4722921550273895 0.6515091061592102 -0.059700027108192444
0.4372386932373047 0.6472203731536865 -0.03473589941859245
0.4689652621746063 0.6462176442146301 -0.05980446934700012
0.40184900164604187 0.5565503835678101 -0.010148323141038418
0.3622572124004364 0.5734788775444031 -0.0022086421959102154
0.4226272702217102 0.6181219220161438 -0.0449315570294857
0.297153502702713 0.2932121455669403 0.04964297637343407
0.3128970265388489 0.3262769281864166 0.014654500409960747
0.3307152986526489 0.3619752824306488 -0.011911598034203053
0.4164704978466034 0.7807223796844482 -0.007024912163615227
0.43951526284217834 0.3752919137477875 -0.047691844403743744
0.4331554174423218 0.32184872031211853 -0.036068908870220184
0.42550498247146606 0.26426461338996887 -0.019860362634062767
0.32780683040618896 0.49244511127471924 0.02673901990056038
0.268417090177536 0.51675945520401 0.06301704794168472
0.4300887882709503 0.48728159070014954 0.012745682150125504
0.2965005040168762 0.4464433193206787 0.038674697279930115
0.44374924898147583 0.5256787538528442 -0.027590718120336533
0.44033175706863403 0.609376072883606 -0.08953852951526642
0.24254214763641357 0.5318435430526733 0.09059438109397888
0.2851167619228363 0.5375252962112427 0.04028993472456932
0.31748688220977783 0.5490512847900391 0.01749906688928604
0.3652406334877014 0.5453170537948608 0.007203815970569849
0.39953845739364624 0.5347853899002075 0.0014863967662677169
0.4252621531486511 0.522946298122406 -0.005603322293609381
0.47636568546295166 0.49354287981987 -0.052074261009693146
0.2487073540687561 0.5868919491767883 0.08377238363027573
0.2752717137336731 0.4410662055015564 0.050588253885507584
0.4873238801956177 0.6361214518547058 -0.1137729212641716
0.4304846525192261 0.5669848918914795 -0.029344428330659866
0.21835342049598694 0.4744327962398529 0.24315360188484192
0.44449925422668457 0.5095721483230591 -0.009162136353552341
0.42080438137054443 0.6198263168334961 -0.020977303385734558
0.30991971492767334 0.4654536545276642 0.04610199108719826
0.4388071298599243 0.593770444393158 -0.0806180089712143
0.23572811484336853 0.6438826322555542 0.251499205827713
0.43091902136802673 0.47711360454559326 0.018669897690415382
0.4565797746181488 0.5792915225028992 -0.10392984002828598
0.3108920454978943 0.7727110981941223 0.09574585407972336
0.31077733635902405 0.7937095761299133 0.14092178642749786
0.2252654731273651 0.5858795642852783 0.17271201312541962
0.2797500193119049 0.7389204502105713 0.1258855164051056
0.2367221713066101 0.42907917499542236 0.13410985469818115
0.40812093019485474 0.8472585678100586 0.02708330564200878
0.49045613408088684 0.6409053206443787 -0.08165243268013
0.40957877039909363 0.5857224464416504 -0.020000945776700974
0.24652785062789917 0.4809427261352539 0.09935936331748962
0.34895825386047363 0.48395487666130066 0.017968662083148956
0.3699663281440735 0.48774826526641846 0.011673099361360073
0.41936999559402466 0.7583688497543335 -0.011989884078502655
0.25694745779037476 0.6360658407211304 0.09148374199867249
0.4494936168193817 0.8776649236679077 0.03559431433677673
0.3793123662471771 0.8442559838294983 0.08031772077083588
0.34790465235710144 0.8238708972930908 0.10613835602998734
0.5025211572647095 0.32518622279167175 -0.04132026061415672
0.4983285963535309 0.8838748931884766 0.028363322839140892
0.3910220265388489 0.4869276285171509 0.010666193440556526
0.41108056902885437 0.4830164313316345 0.01381006371229887
0.4242638945579529 0.4800759553909302 0.01867879368364811
0.2567571997642517 0.43481969833374023 0.07599781453609467
0.41011685132980347 0.45768487453460693 0.008996384218335152
0.38856786489486694 0.4493406414985657 0.005468660034239292
0.36666345596313477 0.44702011346817017 0.007026499602943659
0.3451802730560303 0.45028722286224365 0.013402392156422138
0.33183449506759644 0.4563136696815491 0.0215486790984869
0.22227448225021362 0.4170852303504944 0.20245642960071564
0.33515751361846924 0.4784083962440491 0.025896484032273293
0.499366819858551 0.6695804595947266 -0.061346255242824554
0.42700058221817017 0.683617353439331 -0.039029233157634735
0.44514521956443787 0.6286545395851135 -0.06561091542243958
0.4692176580429077 0.6735192537307739 -0.059202563017606735
0.5003108978271484 0.45313960313796997 -0.044518209993839264
0.3432835340499878 0.8025840520858765 0.07359535247087479
0.3747634291648865 0.8242846727371216 0.05171972140669823
0.44840294122695923 0.8657915592193604 0.00540124112740159
0.2813291549682617 0.7577027082443237 0.18579816818237305
0.4246861934661865 0.4694419801235199 0.014636242762207985
0.4599938988685608 0.5331916213035583 -0.060324497520923615
0.49856922030448914 0.8706287145614624 -0.0008067890885286033
0.41211870312690735 0.8631042242050171 0.05328299477696419
0.23533782362937927 0.6406734585762024 0.16877177357673645
0.4598507881164551 0.7522555589675903 -0.03139874339103699
0.4558047950267792 0.7586711645126343 -0.03517185524106026
0.45106592774391174 0.7686020731925964 -0.03861109912395477
0.44719940423965454 0.7802815437316895 -0.03452062979340553
0.4392983317375183 0.7945467233657837 -0.014426225796341896
0.43367767333984375 0.7448439598083496 -0.018220204859972
0.425871342420578 0.7433887124061584 -0.018306352198123932
0.41872575879096985 0.7399675250053406 -0.018247468397021294
0.3927418291568756 0.7210223078727722 -0.011905076913535595
0.292009562253952 0.6531566977500916 0.0420057512819767
0.4603588283061981 0.507753849029541 -0.03812483325600624
0.44884246587753296 0.4576342701911926 0.0006757368100807071
0.4347982108592987 0.46185702085494995 0.01010117307305336
0.43903571367263794 0.7411305904388428 -0.015766002237796783
0.29200488328933716 0.7093701958656311 0.07882416993379593
0.4690364599227905 0.456173300743103 -0.02877187915146351
0.4250246584415436 0.8107010126113892 0.0007494096062146127
0.4984738826751709 0.5411792993545532 -0.1038443073630333
0.4765346348285675 0.5208743810653687 -0.07630268484354019
0.498874306678772 0.5158593654632568 -0.08200398832559586
0.44418448209762573 0.5721684098243713 -0.05994863063097
0.4987461268901825 0.8506271839141846 -0.013851485215127468
0.4990628957748413 0.8263861536979675 -0.013313593342900276
0.4606304466724396 0.8245733380317688 -0.009117064997553825
0.37282025814056396 0.770790696144104 0.018860243260860443
0.4008808434009552 0.6397944092750549 -0.015375921502709389
0.3962598443031311 0.7932751774787903 0.010189270600676537
0.3444663882255554 0.63480144739151 -0.004629740957170725
0.3798801302909851 0.664819598197937 -0.012495930306613445
0.3273027837276459 0.6741765737533569 0.014037064276635647
0.4522882103919983 0.8471580147743225 -0.0073688337579369545
0.4316840171813965 0.586585521697998 -0.042640261352062225
0.35138386487960815 0.7822593450546265 0.0437387116253376
0.3818972110748291 0.8060781955718994 0.030731521546840668
0.35522496700286865 0.7427260279655457 0.020557858049869537
0.2663779854774475 0.6773052215576172 0.10037389397621155
0.32358312606811523 0.7399635910987854 0.04573167860507965
0.25114738941192627 0.6915098428726196 0.15825873613357544
0.36456355452537537 0.6993537545204163 -0.0011452502803876996
0.44544321298599243 0.5495143532752991 -0.0436907522380352
0.44879329204559326 0.6195598244667053 -0.09482474625110626
0.4354001581668854 0.6272886395454407 -0.06853260099887848
0.4566795825958252 0.6034674048423767 -0.11209945380687714
0.42907559871673584 0.4327069818973541 -0.007354664616286755
0.38940465450286865 0.41598713397979736 -0.01019027829170227
0.35521093010902405 0.4122721552848816 -0.0070723057724535465
0.32679301500320435 0.4159037172794342 0.0033046314492821693
0.30725908279418945 0.42657560110092163 0.018454745411872864
0.29189443588256836 0.47157299518585205 0.056633397936820984
0.22037473320960999 0.5320382118225098 0.16749949753284454
0.30908846855163574 0.5109499096870422 0.03651871532201767
0.3338119387626648 0.5202255249023438 0.021676676347851753
0.3666408956050873 0.5212371945381165 0.011515229940414429
0.3978276252746582 0.5158447623252869 0.006282820366322994
0.4221401512622833 0.5074824690818787 0.00554699869826436
0.4389178454875946 0.49920350313186646 0.003606690326705575
0.2225974202156067 0.5287933349609375 0.2613077759742737
0.4369710683822632 0.634507954120636 -0.05651088058948517
0.4597693681716919 0.5556691884994507 -0.07886853069067001
0.46395331621170044 0.6202841401100159 -0.11363950371742249
0.477254718542099 0.6318949460983276 -0.10404114425182343
0.4649568200111389 0.6239529252052307 -0.10191108286380768
0.4442273676395416 0.6424036026000977 -0.048220548778772354
0.48076486587524414 0.6342738270759583 -0.11029089987277985
0.4837699830532074 0.6392996311187744 -0.08171620219945908
0.43934130668640137 0.4788544774055481 0.01498139277100563
0.4521835446357727 0.4851011633872986 0.0005907046725042164
0.459196537733078 0.48950812220573425 -0.015557589940726757
0.3240815997123718 0.46086597442626953 0.03019876405596733
0.31133484840393066 0.44978469610214233 0.031023478135466576
0.5187700390815735 0.5454144477844238 -0.09594884514808655
0.672336757183075 0.48005348443984985 0.02990289404988289
0.5183297395706177 0.6354173421859741 -0.08218207210302353
0.7704776525497437 0.3813229501247406 0.14709614217281342
0.6030886173248291 0.504279375076294 0.004655832890421152
0.6278921365737915 0.5061611533164978 0.006456927862018347
0.6513784527778625 0.5042743682861328 0.013317585922777653
0.6809967160224915 0.4890176057815552 0.033904220908880234
0.58209228515625 0.4973546266555786 0.007865112274885178
0.6358954906463623 0.4359128177165985 -0.004329771734774113
0.6094921231269836 0.43743956089019775 -0.004351183772087097
0.6597033143043518 0.4403361678123474 0.004039260093122721
0.6756035089492798 0.44962650537490845 0.013718772679567337
0.7028353214263916 0.5061265230178833 0.04608471319079399
0.5844677686691284 0.8311478495597839 0.01000659354031086
0.6804342865943909 0.4733439087867737 0.038180772215127945
0.779502272605896 0.4899689853191376 0.15568143129348755
0.7314044237136841 0.4868219792842865 0.07096318900585175
0.6171894669532776 0.607620894908905 -0.017331982031464577
0.526034951210022 0.7076795101165771 -0.06726939231157303
0.5208845734596252 0.7328296899795532 -0.05593990162014961
0.5526197552680969 0.7169172167778015 -0.05381649732589722
0.5691217184066772 0.7284961938858032 -0.03806256502866745
0.5394566655158997 0.7357490062713623 -0.04777848348021507
0.554068922996521 0.7394502758979797 -0.032967355102300644
0.6010848879814148 0.7667557001113892 3.2625801395624876e-05
0.5167568325996399 0.624224066734314 -0.12553788721561432
0.5201466679573059 0.6012023091316223 -0.13321051001548767
0.7159770727157593 0.4225310981273651 0.023176737129688263
0.5711106657981873 0.543900728225708 -0.020304717123508453
0.5689609050750732 0.6200273633003235 -0.06640806794166565
0.5711801648139954 0.6073066592216492 -0.05939117446541786
0.6905580163002014 0.6065764427185059 0.011815452016890049
0.5196337699890137 0.5710546970367432 -0.11879396438598633
0.6611765623092651 0.3946366310119629 -0.01852409355342388
0.6933437585830688 0.40401118993759155 0.000476738263387233
0.7471805214881897 0.33659428358078003 0.09819100052118301
0.5547439455986023 0.4142988920211792 -0.03910653665661812
0.5863462686538696 0.44637787342071533 0.0028989079874008894
0.6167933344841003 0.7445239424705505 0.004632459953427315
0.7464134693145752 0.7162874341011047 0.22351233661174774
0.5514597296714783 0.6326743364334106 -0.05690412223339081
0.5327229499816895 0.6400834918022156 -0.05890744924545288
0.5884856581687927 0.7479929327964783 -0.0003729560994543135
0.5772915482521057 0.7458013892173767 -0.0076086814515292645
0.7081547379493713 0.3872382640838623 0.0122490543872118
0.5687564611434937 0.6315307021141052 -0.053011029958724976
0.6166267395019531 0.3958023190498352 -0.03234826773405075
0.6219208836555481 0.3750966489315033 -0.037184394896030426
0.6486985683441162 0.2780805230140686 0.0038557713851332664
0.7278950214385986 0.3613365888595581 0.04825785756111145
0.6329089403152466 0.32613345980644226 -0.018968837335705757
0.7323789596557617 0.4108830690383911 0.04458940401673317
0.7519060373306274 0.3973727524280548 0.09170681238174438
0.5240200757980347 0.7221298217773438 -0.06467751413583755
0.5453669428825378 0.728322446346283 -0.05227385088801384
0.5618151426315308 0.7342792749404907 -0.0378570556640625
0.5452852249145508 0.6373716592788696 -0.05171981826424599
0.5825049877166748 0.7476260662078857 -0.004385488107800484
0.5755123496055603 0.7529343366622925 -0.01743580400943756
0.5748047232627869 0.7434751391410828 -0.008405786007642746
0.5407688021659851 0.6229725480079651 -0.09030003100633621
0.5490325093269348 0.7380552887916565 -0.029028845950961113
0.5343230962753296 0.7370830178260803 -0.038426779210567474
0.5176594257354736 0.7367295026779175 -0.04567776620388031
0.529525637626648 0.8059999346733093 -0.015348441898822784
0.5282176733016968 0.7904708385467529 -0.04079712554812431
0.5267064571380615 0.7768179774284363 -0.0455184206366539
0.5241221785545349 0.7634363770484924 -0.04181540012359619
0.5216582417488098 0.7538706660270691 -0.038377031683921814
0.5554181933403015 0.7496540546417236 -0.024454183876514435
0.559424102306366 0.753257155418396 -0.027885032817721367
0.5655970573425293 0.7597712874412537 -0.031081076711416245
0.5711857080459595 0.767326831817627 -0.02679792419075966
0.5906250476837158 0.6986922025680542 -0.029630666598677635
0.7771398425102234 0.5951021909713745 0.2591097354888916
0.5645818114280701 0.7479332685470581 -0.015219999477267265
0.5695255994796753 0.7500056624412537 -0.01757913827896118
0.5260024666786194 0.6511377692222595 -0.059789400547742844
0.5605173110961914 0.6468286514282227 -0.03545115143060684
0.5290048718452454 0.6458088159561157 -0.05991695448756218
0.5962057709693909 0.5589540004730225 -0.012425441294908524
0.6355302929878235 0.5767008066177368 -0.005655142944306135
0.5742799043655396 0.6186200976371765 -0.04586787894368172
0.7091450095176697 0.30126941204071045 0.04713483154773712
0.6907882690429688 0.33633682131767273 0.012269720435142517
0.6712157726287842 0.3739941418170929 -0.014714275486767292
0.5833613872528076 0.7813062071800232 -0.008932611905038357
0.5636522173881531 0.3808557987213135 -0.04888672009110451
0.572137713432312 0.32520973682403564 -0.03665660321712494
0.5825299620628357 0.2671215832233429 -0.02080431580543518
0.6704541444778442 0.4989047646522522 0.024184193462133408
0.7304356694221497 0.5246351361274719 0.05942721664905548
0.5685538053512573 0.49017393589019775 0.011262551881372929
0.7028933763504028 0.4568771719932556 0.03531373292207718
0.5545127391815186 0.5274081230163574 -0.02863689698278904
0.5561273694038391 0.6098659038543701 -0.08991549164056778
0.7567983865737915 0.5406640768051147 0.08653637021780014
0.7128156423568726 0.5439711809158325 0.03672496974468231
0.6804525852203369 0.5539315938949585 0.013920146971940994
0.6329620480537415 0.5489658713340759 0.0041246190667152405
0.5985717177391052 0.5376961827278137 -0.0009574514115229249
0.5731583833694458 0.5253820419311523 -0.007116347085684538
0.5224903225898743 0.49456560611724854 -0.05264557898044586
0.7499342560768127 0.5946407318115234 0.07947015017271042
0.7252371907234192 0.45174288749694824 0.047663718461990356
0.5093353390693665 0.636197030544281 -0.11375618726015091
0.5671412944793701 0.5684499144554138 -0.030300531536340714
0.7870364189147949 0.4856782555580139 0.23901483416557312
0.5542932748794556 0.5114631652832031 -0.010465584695339203
0.5767120122909546 0.6203960180282593 -0.022204570472240448
0.6886172294616699 0.47441327571868896 0.04293493553996086
0.5576823949813843 0.5945553183555603 -0.08107831329107285
0.767253041267395 0.6543404459953308 0.2484305500984192
0.5681636929512024 0.4802073836326599 0.01729615032672882
0.5394789576530457 0.5800649523735046 -0.10441742092370987
0.6872474551200867 0.7783864736557007 0.09285859018564224
0.687836229801178 0.8009108304977417 0.13832467794418335
0.7758172750473022 0.5961230397224426 0.1691025048494339
0.7191662192344666 0.7461949586868286 0.12268763035535812
0.766721248626709 0.4399382472038269 0.13088801503181458
0.589458703994751 0.8504538536071777 0.025473203510046005
0.5073002576828003 0.6408287286758423 -0.08175315707921982
0.5880593061447144 0.5873106718063354 -0.021624449640512466
0.75403892993927 0.4908556342124939 0.09576383233070374
0.649052083492279 0.4896366596221924 0.015337223187088966
0.6280110478401184 0.49261748790740967 0.00943900365382433
0.5819492340087891 0.7570114135742188 -0.013516933657228947
0.7416192293167114 0.6432746648788452 0.08724147826433182
0.5470040440559387 0.8797346353530884 0.03452664241194725
0.6180136203765869 0.8490245342254639 0.07854194194078445
0.6498005986213684 0.8295385837554932 0.10375255346298218
0.6070927381515503 0.49122560024261475 0.008363466709852219
0.5873578190803528 0.48652181029319763 0.011722218245267868
0.5746327638626099 0.4833986759185791 0.016935722902417183
0.7448878288269043 0.44584089517593384 0.07275839149951935
0.5892883539199829 0.46226537227630615 0.007468085736036301
0.6106690764427185 0.4553946852684021 0.003531772643327713
0.632279098033905 0.454294890165329 0.004863015376031399
0.6533769369125366 0.45848894119262695 0.01090313121676445
0.6664263606071472 0.4647689461708069 0.01872977428138256
0.7831782102584839 0.4280758500099182 0.19872155785560608
0.6629225015640259 0.4848945140838623 0.02325988933444023
0.5710663795471191 0.683133065700531 -0.03999653831124306
0.5523905158042908 0.6283396482467651 -0.06586363911628723
0.5292234420776367 0.6731109619140625 -0.05960336700081825
0.6543264985084534 0.8072489500045776 0.07110744714736938
0.6230122447013855 0.8285362124443054 0.04984687268733978
0.5480594038963318 0.8675895929336548 0.004168306943029165
0.7186484336853027 0.7660217881202698 0.18316014111042023
0.5745773315429688 0.47301071882247925 0.013111378997564316
0.537601888179779 0.5344029068946838 -0.06087382137775421
0.5849433541297913 0.866685688495636 0.05198431387543678
0.7655212879180908 0.650111973285675 0.16563421487808228
0.5404199361801147 0.7517167329788208 -0.032176222652196884
0.5444335341453552 0.7583898901939392 -0.03595249727368355
0.5490301847457886 0.7686747312545776 -0.03960015997290611
0.5528420209884644 0.7806357145309448 -0.03578810393810272
0.5598679780960083 0.7955595254898071 -0.01593126729130745
0.5672531723976135 0.7426512241363525 -0.01965739019215107
0.5748257637023926 0.7412076592445374 -0.019954850897192955
0.5819839239120483 0.7376439571380615 -0.019855793565511703
0.6067396998405457 0.7203633189201355 -0.013958676718175411
0.7058409452438354 0.6581995487213135 0.03763962164521217
0.5382868051528931 0.5092041492462158 -0.03887166827917099
0.551456093788147 0.4606432616710663 0.00044931730371899903
0.5649029016494751 0.4650278091430664 0.00905601866543293
0.5620800852775574 0.7391369342803955 -0.017364585772156715
0.7061926126480103 0.7148778438568115 0.07519564032554626
0.5314610600471497 0.4581761360168457 -0.02924693003296852
0.5732831954956055 0.8124585747718811 -0.0008481171680614352
0.5209938883781433 0.5216460227966309 -0.07659787684679031
0.5525351166725159 0.5733623504638672 -0.060368649661540985
0.5368784070014954 0.8256590366363525 -0.010007711127400398
0.6258320808410645 0.7724546790122986 0.01608378067612648
0.5968399047851562 0.6406395435333252 -0.01706012338399887
0.6025395393371582 0.7951135039329529 0.007951407693326473
0.6531109809875488 0.6379154920578003 -0.008291015401482582
0.6179524660110474 0.6662620306015015 -0.014595679938793182
0.6707256436347961 0.6776125431060791 0.010098426602780819
0.5445259213447571 0.8485332131385803 -0.008409375324845314
0.5655913352966309 0.5876401662826538 -0.04336947947740555
0.6465426683425903 0.7855795621871948 0.0409972108900547
0.6164975166320801 0.8092598915100098 0.028830844908952713
0.6435561180114746 0.7441404461860657 0.017489399760961533
0.7322328090667725 0.6841132640838623 0.09644342958927155
0.6745461225509644 0.7436687350273132 0.042231958359479904
0.7489515542984009 0.7000874876976013 0.15510492026805878
0.6338567137718201 0.7005613446235657 -0.004008247051388025
0.5521018505096436 0.5508691668510437 -0.044382162392139435
0.548134446144104 0.6197270154953003 -0.09504449367523193
0.5617455840110779 0.6273091435432434 -0.06894364207983017
0.5394233465194702 0.6039429306983948 -0.11207608133554459
0.5718400478363037 0.4374254047870636 -0.007766814436763525
0.6118994355201721 0.4232620596885681 -0.011903978884220123
0.645807683467865 0.42142051458358765 -0.01010550931096077
0.6735378503799438 0.4262349009513855 0.00010455470328452066
0.6926026940345764 0.43747708201408386 0.015305956825613976
0.7074214220046997 0.4805639386177063 0.0528540275990963
0.7813200950622559 0.5426356792449951 0.16344839334487915
0.6893002390861511 0.5175164341926575 0.033231187611818314
0.6646772027015686 0.5254105925559998 0.01858379691839218
0.6317853927612305 0.5254905819892883 0.00858025811612606
0.6005211472511292 0.519308865070343 0.004041749052703381
0.5765820741653442 0.5103088021278381 0.003814568044617772
0.5601279735565186 0.5015046000480652 0.002210932085290551
0.7822697162628174 0.5399506092071533 0.257156103849411
0.5603402853012085 0.6344133019447327 -0.05688302591443062
0.5370705723762512 0.5567469000816345 -0.0793040469288826
0.5325226783752441 0.6204953789710999 -0.1138608306646347
0.5198758244514465 0.6317748427391052 -0.10406443476676941
0.5322210192680359 0.6239606738090515 -0.10209496319293976
0.5534684658050537 0.6421905159950256 -0.048673417419195175
0.5162184834480286 0.634226381778717 -0.11040004342794418
0.5140436291694641 0.6392067670822144 -0.08193174749612808
0.5597875118255615 0.4816480576992035 0.013800405897200108
0.5472286343574524 0.48728683590888977 -0.00044991177855990827
0.5403595566749573 0.49131518602371216 -0.016464103013277054
0.6741793155670166 0.469327449798584 0.027238788083195686
0.6873679161071777 0.45954078435897827 0.028179321438074112
