ply
format ascii 1.0
element vertex 468
property float x
property float y
property float z
end_header
0.528170108795166 0.6964399814605713 -0.07556682080030441
0.5417956709861755 0.6273428797721863 -0.1415768414735794
0.5305420160293579 0.6517718434333801 -0.08110199868679047
0.5094190239906311 0.5426782965660095 -0.10680738091468811
0.5417692065238953 0.6000229716300964 -0.14862556755542755
0.5369580984115601 0.5657070279121399 -0.1365397572517395
0.5207741260528564 0.48571866750717163 -0.06163771077990532
0.32474571466445923 0.48253241181373596 0.0048935627564787865
0.5146906971931458 0.4255349636077881 -0.037040337920188904
0.5139085054397583 0.3915666341781616 -0.03826787695288658
0.5021558403968811 0.2706741988658905 -0.0035906548146158457
0.5272419452667236 0.7078239321708679 -0.0721692144870758
0.5254967212677002 0.7148154973983765 -0.06595676392316818
0.5232532024383545 0.7153059244155884 -0.05652749910950661
0.5244781970977783 0.7432065606117249 -0.050451766699552536
0.5258654356002808 0.7509249448776245 -0.05653006210923195
0.5266090035438538 0.7612956166267395 -0.06550958752632141
0.526741087436676 0.7744966745376587 -0.06703987717628479
0.5250574946403503 0.8030576705932617 -0.053895384073257446
0.5389840602874756 0.6419698596000671 -0.12939570844173431
0.5071664452552795 0.6407560706138611 -0.09970947355031967
0.2037627398967743 0.3942321836948395 0.10999736934900284
0.40089547634124756 0.503165602684021 -0.008644322864711285
0.3756011724472046 0.5043700337409973 -0.011544977314770222
0.35005050897598267 0.5034021139144897 -0.009313658811151981
0.3114185929298401 0.4913042187690735 0.005770879797637463
0.42171433568000793 0.4980008006095886 -0.000671693473123014
0.3667512834072113 0.44022732973098755 -0.019657563418149948
0.39341533184051514 0.44229716062545776 -0.012340852990746498
0.34005045890808105 0.44417044520378113 -0.016454461961984634
0.32095953822135925 0.4534726142883301 -0.009644349105656147
0.2887912094593048 0.5074965953826904 0.014673354104161263
0.42231568694114685 0.8499578237533569 -0.03563210368156433
0.31324249505996704 0.47762638330459595 0.01175693515688181
0.1933441162109375 0.504656970500946 0.1118709146976471
0.256296843290329 0.4944273829460144 0.036343954503536224
0.3783183693885803 0.6007587909698486 -0.04564223811030388
0.4849720597267151 0.6923041939735413 -0.0796123594045639
0.48388487100601196 0.7135810256004333 -0.06737291812896729
0.4369252324104309 0.6968793869018555 -0.06882388144731522
0.40329158306121826 0.7018831968307495 -0.047626882791519165
0.44778677821159363 0.7129261493682861 -0.05880161374807358
0.41861191391944885 0.7125639319419861 -0.039233867079019547
0.37131521105766296 0.745751142501831 -0.011049550026655197
0.5192690491676331 0.6275150179862976 -0.14235548675060272
0.5163736343383789 0.6004904508590698 -0.14924022555351257
0.28156816959381104 0.42940130829811096 -0.008509187027812004
0.4365227222442627 0.5420843362808228 -0.03347321227192879
0.43989211320877075 0.6169623136520386 -0.09226369857788086
0.43601223826408386 0.6026408076286316 -0.08393030613660812
0.2913844585418701 0.5955645442008972 -0.02574101835489273
0.513300359249115 0.5686777234077454 -0.13364818692207336
0.3514649569988251 0.3998817205429077 -0.035732369869947433
0.3121853768825531 0.4097074270248413 -0.024885544553399086
0.2382555603981018 0.34704363346099854 0.0705665722489357
0.4626423120498657 0.42004066705703735 -0.03907962143421173
0.416035920381546 0.4507983922958374 -0.001199611579068005
0.34508585929870605 0.7159112095832825 -0.009957264177501202
0.20601585507392883 0.7519959807395935 0.16103023290634155
0.4579508304595947 0.6320984363555908 -0.07977934181690216
0.48149535059928894 0.6401281356811523 -0.07808537781238556
0.36230260133743286 0.7117054462432861 -0.003108531003817916
0.37448224425315857 0.7122840881347656 -0.005942848976701498
0.2952865958213806 0.39347973465919495 -0.014079930260777473
0.43335801362991333 0.6257724165916443 -0.07885375618934631
0.40092742443084717 0.4013823866844177 -0.04083200916647911
0.39633870124816895 0.3804256021976471 -0.04529448226094246
0.3561191260814667 0.28361356258392334 0.0004823937779292464
0.2681126296520233 0.3698062002658844 0.023336075246334076
0.38008731603622437 0.32977667450904846 -0.022151833400130272
0.2615300416946411 0.41910672187805176 0.010291139595210552
0.2334023416042328 0.40846025943756104 0.0589364729821682
0.4840771555900574 0.7056611776351929 -0.07553250342607498
0.4435088336467743 0.7072157263755798 -0.06397757679224014
0.4114845097064972 0.7076150178909302 -0.04491089656949043
0.4629676342010498 0.6360424757003784 -0.07292689383029938
0.3680940568447113 0.7115049362182617 -0.004185585770756006
0.38893136382102966 0.7268211841583252 -0.017537921667099
0.3785035014152527 0.7135438323020935 -0.006412307731807232
0.48125746846199036 0.6281228065490723 -0.11271952837705612
0.4211823344230652 0.7096114158630371 -0.035118285566568375
0.4506022036075592 0.7116639018058777 -0.04916422814130783
0.48427703976631165 0.7138937711715698 -0.057975735515356064
0.48260387778282166 0.8032077550888062 -0.056079644709825516
0.48567959666252136 0.7729924917221069 -0.06908601522445679
0.4864422380924225 0.758798360824585 -0.06769745796918869
0.4866670072078705 0.7488614916801453 -0.05795268714427948
0.48745641112327576 0.7421599626541138 -0.05217944458127022
0.4226193428039551 0.7320520281791687 -0.030077626928687096
0.4191913604736328 0.7338639497756958 -0.035194940865039825
0.41440916061401367 0.7394412755966187 -0.040131792426109314
0.4107101857662201 0.7479016780853271 -0.03720269352197647
0.38712063431739807 0.6817808747291565 -0.04331494867801666
0.17540600895881653 0.6236147880554199 0.20047785341739655
0.5350468158721924 0.6471084952354431 -0.09769362211227417
0.4019726514816284 0.7261679172515869 -0.014539266936480999
0.39550647139549255 0.7249608039855957 -0.01772284507751465
0.4911884665489197 0.6506137251853943 -0.08018430322408676
0.4379400610923767 0.6392272114753723 -0.05913817510008812
0.4867245852947235 0.6457555294036865 -0.07956286519765854
0.40673375129699707 0.5544978380203247 -0.031833715736866
0.3613891899585724 0.5679527521133423 -0.03381798788905144
0.4271642863750458 0.6124411225318909 -0.0708753913640976
0.28734004497528076 0.3090560734272003 0.03174225986003876
0.3151870667934418 0.34230002760887146 -0.0026252390816807747
0.34121981263160706 0.3799181878566742 -0.03146225959062576
0.40177109837532043 0.7702448964118958 -0.026220543310046196
0.45529884099960327 0.38601672649383545 -0.046690382063388824
0.4418104290962219 0.3277081251144409 -0.028231753036379814
0.4250289499759674 0.27242034673690796 -0.011160571128129959
0.32619693875312805 0.4992656111717224 -0.002330836607143283
0.25808191299438477 0.5251644849777222 0.023179274052381516
0.43501827120780945 0.49202877283096313 0.004858654923737049
0.2902539372444153 0.463331937789917 0.006285799201577902
0.4570659399032593 0.5267186760902405 -0.03854240104556084
0.4638322591781616 0.6101107001304626 -0.11330107599496841
0.2241593897342682 0.5450828075408936 0.043442245572805405
0.2796086370944977 0.5382634401321411 0.0017549347830936313
0.31632572412490845 0.544665515422821 -0.015429758466780186
0.36805325746536255 0.5426477193832397 -0.018684133887290955
0.4058621823787689 0.5349722504615784 -0.016725091263651848
0.43370741605758667 0.5245636701583862 -0.01749991625547409
0.4960835576057434 0.4929240345954895 -0.05671803280711174
0.22300539910793304 0.5943055152893066 0.033211976289749146
0.2666972875595093 0.46051546931266785 0.014352314174175262
0.5250864624977112 0.6411753296852112 -0.1304585039615631
0.43940412998199463 0.5657182335853577 -0.04700383543968201
0.17218434810638428 0.5060823559761047 0.1887260526418686
0.45438817143440247 0.5114214420318604 -0.01666109450161457
0.4195273518562317 0.6130717992782593 -0.04505852237343788
0.3028349280357361 0.47900718450546265 0.014713780954480171
0.45917558670043945 0.5925043225288391 -0.10268191993236542
0.18479222059249878 0.6870582699775696 0.18675261735916138
0.4328814148902893 0.48366761207580566 0.011558734811842442
0.4871455729007721 0.5783045291900635 -0.12313513457775116
0.28522324562072754 0.7991992235183716 0.04566267505288124
0.2851333022117615 0.8364987373352051 0.08225837349891663
0.1877341866493225 0.6125032901763916 0.11611518263816833
0.24081461131572723 0.7691181898117065 0.068996362388134
0.21190044283866882 0.4528988301753998 0.09203249961137772
0.4210283160209656 0.8778598308563232 -0.02724829688668251
0.5239561796188354 0.6462170481681824 -0.0975002869963646
0.4122070372104645 0.5820494890213013 -0.04334142804145813
0.2293856292963028 0.5012108087539673 0.056227006018161774
0.35384199023246765 0.4884306490421295 -0.005631794687360525
0.37648311257362366 0.4902908205986023 -0.00792757235467434
0.3828020989894867 0.7311111688613892 -0.01488701906055212
0.22035296261310577 0.6477200984954834 0.03872276842594147
0.4724500775337219 0.908986508846283 -0.021112199872732162
0.3827138841152191 0.8846656084060669 0.02398053929209709
0.33900928497314453 0.86582350730896 0.05087292194366455
0.5085754990577698 0.32944294810295105 -0.02167437970638275
0.5247254967689514 0.9094293117523193 -0.019518330693244934
0.39693504571914673 0.48970896005630493 -0.004650183022022247
0.41588449478149414 0.4870882034301758 0.0023671018425375223
0.4275420606136322 0.4854429364204407 0.009827565401792526
0.24291299283504486 0.45628201961517334 0.03589872270822525
0.4112500250339508 0.4688017964363098 0.00018757559882942587
0.389758825302124 0.4628555178642273 -0.007227828726172447
0.36922088265419006 0.461331307888031 -0.010579029098153114
0.3469727039337158 0.4643346071243286 -0.008849579840898514
0.331432044506073 0.47001704573631287 -0.00350409303791821
0.18316590785980225 0.44407919049263 0.15433651208877563
0.3373653292655945 0.48569050431251526 -0.0005626367637887597
0.5288223624229431 0.6665369272232056 -0.07422158867120743
0.42010295391082764 0.6707643270492554 -0.05976346507668495
0.4604155719280243 0.6296060681343079 -0.08787192404270172
0.485209584236145 0.6671398878097534 -0.07846742868423462
0.515674889087677 0.45564666390419006 -0.040119823068380356
0.33358800411224365 0.8305101990699768 0.02681046351790428
0.3761447072029114 0.8548673391342163 0.0014488041633740067
0.4728529155254364 0.8916850090026855 -0.048794060945510864
0.24157509207725525 0.8020699620246887 0.12175748497247696
0.4263826310634613 0.47782182693481445 0.007040662225335836
0.4817623496055603 0.5328425765037537 -0.07021760940551758
0.5282336473464966 0.8911038637161255 -0.04604426398873329
0.4263549745082855 0.8999329805374146 -0.004617027007043362
0.19239306449890137 0.6707839965820312 0.10971160233020782
0.4533854126930237 0.7377636432647705 -0.043447185307741165
0.45028945803642273 0.7425470948219299 -0.049025677144527435
0.4480729401111603 0.750907301902771 -0.05580782890319824
0.4465620517730713 0.7636013627052307 -0.054358355700969696
0.4381256103515625 0.7904437184333801 -0.04393361881375313
0.3901131749153137 0.7112679481506348 -0.021425383165478706
0.382960706949234 0.7089639902114868 -0.021975096315145493
0.37584590911865234 0.7054488658905029 -0.023531632497906685
0.35802921652793884 0.6954928040504456 -0.02488977089524269
0.259254515171051 0.6553674340248108 -0.00524001382291317
0.47730574011802673 0.5084422826766968 -0.04552191495895386
0.45521318912506104 0.4635145664215088 0.0012471916852518916
0.43796098232269287 0.4686180353164673 0.006527099292725325
0.39571186900138855 0.7085350155830383 -0.019114991649985313
0.25237733125686646 0.7228507399559021 0.029078161343932152
0.48128870129585266 0.46047526597976685 -0.028699874877929688
0.4287729859352112 0.8197579383850098 -0.039201073348522186
0.5312691330909729 0.5383742451667786 -0.11025405675172806
0.5026934742927551 0.51926589012146 -0.08297735452651978
0.5260643362998962 0.513332188129425 -0.08444184809923172
0.46270713210105896 0.5712287425994873 -0.07651854306459427
0.528856635093689 0.864943265914917 -0.057374875992536545
0.5268478989601135 0.8318538665771484 -0.05616234242916107
0.4778274893760681 0.8335469961166382 -0.055811915546655655
0.3573096990585327 0.7639409899711609 -0.005898130126297474
0.3954789936542511 0.6322804689407349 -0.042453985661268234
0.3906911611557007 0.7962470054626465 -0.020629607141017914
0.3293263912200928 0.6294409036636353 -0.04344385117292404
0.3657601475715637 0.6558688879013062 -0.038505204021930695
0.2997920513153076 0.6700594425201416 -0.025620462372899055
0.47402721643447876 0.8664063215255737 -0.05821829289197922
0.44151782989501953 0.5842326879501343 -0.06292904913425446
0.3403680920600891 0.7928269505500793 0.006882720161229372
0.3810773491859436 0.8230854272842407 -0.01097162626683712
0.32943397760391235 0.7286188006401062 -0.008194421418011189
0.22421395778656006 0.6945567727088928 0.04680726304650307
0.2953602075576782 0.7438700795173645 0.007004414219409227
0.207599475979805 0.7241734266281128 0.09772918373346329
0.33640581369400024 0.6821492910385132 -0.028134815394878387
0.46125462651252747 0.5494442582130432 -0.0573858767747879
0.4734458327293396 0.6232836842536926 -0.11812219023704529
0.4487922489643097 0.6264464855194092 -0.0933406725525856
0.4898516833782196 0.6052246689796448 -0.1330021619796753
0.43648871779441833 0.4419960379600525 -0.007980860769748688
0.39746227860450745 0.42794984579086304 -0.018620673567056656
0.361817330121994 0.4251551926136017 -0.02452051267027855
0.3298397660255432 0.4300731420516968 -0.021145900711417198
0.30509519577026367 0.44235143065452576 -0.010441460646688938
0.2833237648010254 0.4866149425506592 0.022146612405776978
0.18788877129554749 0.5581480860710144 0.11436906456947327
0.3057974576950073 0.5160134434700012 0.003545937594026327
0.3353862464427948 0.5219681262969971 -0.006575062405318022
0.37087196111679077 0.5224481821060181 -0.011047745123505592
0.4036252498626709 0.5181540250778198 -0.009563115425407887
0.4285598695278168 0.5108592510223389 -0.004607078153640032
0.44568756222724915 0.5027512907981873 -0.0029782368801534176
0.17239323258399963 0.5642373561859131 0.20235446095466614
0.44553810358047485 0.6311146020889282 -0.08130267262458801
0.4863473176956177 0.5547071099281311 -0.09331086277961731
0.4974759817123413 0.6250500679016113 -0.13364525139331818
0.5087876319885254 0.6377191543579102 -0.12163687497377396
0.4942305088043213 0.6297133564949036 -0.12198318541049957
0.4497193694114685 0.6374648809432983 -0.07155639678239822
0.5156285166740417 0.6396511197090149 -0.12762513756752014
0.51419997215271 0.6445432901382446 -0.09848488867282867
0.44317248463630676 0.48442548513412476 0.010144527070224285
0.4587706923484802 0.4888196587562561 -0.0020596450194716454
0.46961498260498047 0.49189525842666626 -0.019318928942084312
0.32145756483078003 0.4743780493736267 0.0025616814382374287
0.30601659417152405 0.464410662651062 0.0018398562679067254
0.5506475567817688 0.5420852303504944 -0.09689722955226898
0.6699928641319275 0.4776929020881653 0.07617935538291931
0.557948112487793 0.6399168372154236 -0.09205842763185501
0.7224273085594177 0.3934537172317505 0.21888956427574158
0.6044573783874512 0.5010485649108887 0.03755537420511246
0.6278606653213501 0.5013627409934998 0.04382959380745888
0.650090217590332 0.49957746267318726 0.05458074063062668
0.6781859397888184 0.4864349365234375 0.08142812550067902
0.5851013660430908 0.4964905381202698 0.035516172647476196
0.6347780823707581 0.43783894181251526 0.038355935364961624
0.6095996499061584 0.4408189058303833 0.03370483219623566
0.6583452224731445 0.4410386085510254 0.05061596259474754
0.6733588576316833 0.44979602098464966 0.06270348280668259
0.6960194110870361 0.502777636051178 0.09607567638158798
0.6155073046684265 0.841219425201416 -0.0010897938627749681
0.6773061752319336 0.47258123755455017 0.08647589385509491
0.7409207224845886 0.49931278824806213 0.22228938341140747
0.7148895859718323 0.48934054374694824 0.127261683344841
0.6449180245399475 0.5976182222366333 0.0023069153539836407
0.5666675567626953 0.6913413405418396 -0.06631981581449509
0.5614867806434631 0.7127624750137329 -0.05495315417647362
0.6043905019760132 0.694635272026062 -0.04208557680249214
0.6266015768051147 0.6994221806526184 -0.011153941042721272
0.5894736051559448 0.7112854719161987 -0.03514648973941803
0.6097738742828369 0.7109307646751404 -0.007673278916627169
0.6458886861801147 0.7411457300186157 0.0357510931789875
0.5618763566017151 0.6266197562217712 -0.13620248436927795
0.5638282299041748 0.5996677875518799 -0.1418837606906891
0.703018307685852 0.42450666427612305 0.07720298320055008
0.5863361358642578 0.5404118299484253 -0.002536100335419178
0.6104085445404053 0.6146895289421082 -0.06323602050542831
0.6089184880256653 0.6005926728248596 -0.05408276617527008
0.7124506235122681 0.5902063250541687 0.05230584740638733
0.5578990578651428 0.5680715441703796 -0.12396794557571411
0.6548899412155151 0.3974473476409912 0.02414187416434288
0.6839163303375244 0.4057677984237671 0.0498168021440506
0.7054077386856079 0.34820905327796936 0.16832458972930908
0.5610625743865967 0.41968852281570435 -0.019086027517914772
0.5881434679031372 0.44996213912963867 0.036131344735622406
0.6670488119125366 0.7114992141723633 0.04645846411585808
0.723899245262146 0.7371015548706055 0.2627040147781372
0.59307861328125 0.6303775310516357 -0.058380577713251114
0.5730844736099243 0.6392773389816284 -0.06717682629823685
0.6513252258300781 0.7096000909805298 0.04586359113454819
0.6389138102531433 0.7107318043708801 0.037650249898433685
0.6931718587875366 0.38997912406921387 0.06544617563486099
0.611588180065155 0.6237614750862122 -0.05059796944260597
0.6151808500289917 0.4001426100730896 0.00032855282188393176
0.6192343235015869 0.37963685393333435 -0.0031216407660394907
0.62831050157547 0.2863611578941345 0.05613751709461212
0.6995661854743958 0.3686462342739105 0.1106933057308197
0.6221526265144348 0.3307361900806427 0.025833290070295334
0.7125329971313477 0.41456371545791626 0.1018887460231781
0.7182806730270386 0.4058521091938019 0.15809768438339233
0.5650819540023804 0.7046617269515991 -0.06228524446487427
0.5964462161064148 0.7051953077316284 -0.03865346312522888
0.6184573769569397 0.7053587436676025 -0.011220308020710945
0.587472140789032 0.6345552802085876 -0.05539438873529434
0.6458246111869812 0.709705114364624 0.041296664625406265
0.6314217448234558 0.7246091961860657 0.021307548508048058
0.6333976984024048 0.7119435667991638 0.036168262362480164
0.5823361873626709 0.6260239481925964 -0.09315788745880127
0.6035560369491577 0.708478569984436 -0.00507956650108099
0.58277827501297 0.7105509638786316 -0.026601536199450493
0.5566229820251465 0.713464617729187 -0.04533915966749191
0.5634464621543884 0.8011372089385986 -0.04344838485121727
0.5632479190826416 0.771472692489624 -0.055493343621492386
0.5624566078186035 0.7574305534362793 -0.05343015491962433
0.5602796673774719 0.7476208806037903 -0.04408102482557297
0.5569218397140503 0.7411286234855652 -0.03884889930486679
0.6048176884651184 0.730170726776123 2.9657192499144003e-05
0.60919588804245 0.7319207787513733 -0.005056014750152826
0.6148076057434082 0.7370675802230835 -0.008980294689536095
0.6187871694564819 0.7450166940689087 -0.0035807474050670862
0.6422927975654602 0.6786292791366577 -0.001820437959395349
0.7342345714569092 0.6140117645263672 0.3134073317050934
0.6176947355270386 0.7243295907974243 0.022646920755505562
0.6251963376998901 0.7231583595275879 0.01998300664126873
0.5652467012405396 0.6498541831970215 -0.06958761066198349
0.6041974425315857 0.637705385684967 -0.03643673285841942
0.5691741108894348 0.6449336409568787 -0.06910968571901321
0.6126499772071838 0.5522427558898926 0.009550998918712139
0.6540786027908325 0.5647639036178589 0.022398170083761215
0.6130782961845398 0.610216498374939 -0.039968669414520264
0.6761615872383118 0.31169089674949646 0.11114101856946945
0.6692361235618591 0.3424244225025177 0.06748563051223755
0.6613390445709229 0.3778420686721802 0.03176707401871681
0.6248627305030823 0.7653233408927917 0.012388833798468113
0.5685372948646545 0.38618507981300354 -0.025384966284036636
0.5706720948219299 0.32855623960494995 -0.0031213394831866026
0.5725853443145752 0.2742569148540497 0.01673615165054798
0.6685092449188232 0.49466586112976074 0.06897107511758804
0.7201005816459656 0.51999831199646 0.11341539770364761
0.5731356143951416 0.4907047748565674 0.037289299070835114
0.6940494179725647 0.4583423137664795 0.08884388208389282
0.5694847702980042 0.5254186391830444 -0.014001174829900265
0.5968115925788879 0.6081809997558594 -0.090004563331604
0.7417100071907043 0.5387352108955383 0.14551551640033722
0.7100844383239746 0.5332937836647034 0.08670133352279663
0.6851173043251038 0.5405999422073364 0.05733921751379967
0.6415932178497314 0.539622962474823 0.03723025321960449
0.607332170009613 0.5327398777008057 0.0257154181599617
0.582260251045227 0.5230073928833008 0.014254456385970116
0.5418518781661987 0.49251651763916016 -0.046274054795503616
0.7508042454719543 0.5867728590965271 0.13496018946170807
0.7091711759567261 0.4555584192276001 0.10449710488319397
0.5512354373931885 0.6406166553497314 -0.12555235624313354
0.5911217927932739 0.5640884637832642 -0.017176879569888115
0.7333766222000122 0.5013042092323303 0.3058418333530426
0.5647668838500977 0.510454535484314 0.00801575742661953
0.6133319139480591 0.6109720468521118 -0.014036282896995544
0.6838076114654541 0.47409218549728394 0.09306011348962784
0.5943115949630737 0.5907281041145325 -0.07907860726118088
0.7323949337005615 0.674513041973114 0.29477083683013916
0.5724374651908875 0.48204439878463745 0.04537849500775337
0.5761594176292419 0.5769428610801697 -0.10591325163841248
0.7006099224090576 0.7838937640190125 0.12213893234729767
0.6871153116226196 0.8188242316246033 0.15944604575634003
0.7547882199287415 0.6030220985412598 0.22689427435398102
0.7279064655303955 0.7543027400970459 0.15877965092658997
0.7292448878288269 0.44936996698379517 0.1980925053358078
0.6156603097915649 0.8670312166213989 0.009356003254652023
0.5452754497528076 0.6459815502166748 -0.09444651752710342
0.6138957738876343 0.5799150466918945 -0.006354518234729767
0.7298094034194946 0.4956117272377014 0.15643469989299774
0.6479602456092834 0.48468825221061707 0.0571734718978405
0.6277371048927307 0.48742473125457764 0.04767673462629318
0.6366584897041321 0.7284154891967773 0.026578687131404877
0.7538707256317139 0.6384528875350952 0.1377989649772644
0.5719891786575317 0.9023562669754028 -0.0005898238741792738
0.6314749717712402 0.8700580596923828 0.0744583010673523
0.6561957597732544 0.8487381935119629 0.11405029892921448
0.6077826619148254 0.4875560998916626 0.04286462068557739
0.5891811847686768 0.48548275232315063 0.0429210364818573
0.5777809619903564 0.48379385471343994 0.046171918511390686
0.7207931876182556 0.45152682065963745 0.13319900631904602
0.5912123918533325 0.4668895900249481 0.041793178766965866
0.6104965209960938 0.46046513319015503 0.04136977344751358
0.6304354667663574 0.45801833271980286 0.04623745009303093
0.6512048840522766 0.4601013660430908 0.05566054582595825
0.6642844676971436 0.4654296040534973 0.06534437835216522
0.7311251163482666 0.4416133761405945 0.26909077167510986
0.6610785722732544 0.4812944233417511 0.06753480434417725
0.618905782699585 0.6682923436164856 -0.02831018716096878
0.5939354300498962 0.6276710033416748 -0.06732530146837234
0.5678129196166992 0.6660153269767761 -0.06538357585668564
0.6690150499343872 0.8154484629631042 0.08887495845556259
0.6422741413116455 0.8410298228263855 0.05065803602337837
0.5779659152030945 0.8857879638671875 -0.028515683487057686
0.7084982395172119 0.7856113314628601 0.2130189836025238
0.5784561038017273 0.47591862082481384 0.04407165199518204
0.5612292289733887 0.5318729281425476 -0.05388527363538742
0.6057569980621338 0.8885350227355957 0.03221892938017845
0.7535781860351562 0.6590561270713806 0.21585236489772797
0.5835551023483276 0.7361347079277039 -0.020464487373828888
0.5881764888763428 0.7406275272369385 -0.02540482208132744
0.5917830467224121 0.7488206624984741 -0.03074195794761181
0.5941126942634583 0.7610901594161987 -0.028259145095944405
0.5987832546234131 0.7865902781486511 -0.015340507961809635
0.6285352110862732 0.709741473197937 0.017577428370714188
0.6366903185844421 0.7070009112358093 0.020282184705138206
0.6435972452163696 0.7032479643821716 0.020864201709628105
0.6616404056549072 0.6919862627983093 0.026747118681669235
0.7349355220794678 0.6474224328994751 0.07966776192188263
0.5546824336051941 0.5077666640281677 -0.02820351906120777
0.5573517680168152 0.4628552198410034 0.023000838235020638
0.5691812038421631 0.4676443636417389 0.03764061629772186
0.6203246712684631 0.707348108291626 0.01854613795876503
0.7316910028457642 0.7116210460662842 0.11455085128545761
0.5428932309150696 0.4603148400783539 -0.01588258147239685
0.6069977283477783 0.8132525682449341 -0.00839629303663969
0.5466006398200989 0.5187130570411682 -0.0740896686911583
0.5816646814346313 0.5696439743041992 -0.05483898147940636
0.57027268409729 0.8299993872642517 -0.04103966802358627
0.656941294670105 0.7560044527053833 0.047500111162662506
0.632637619972229 0.6294076442718506 -0.0030261902138590813
0.6331438422203064 0.7882821559906006 0.021757224574685097
0.6872050762176514 0.6244648098945618 0.01840074360370636
0.6570016145706177 0.6519102454185486 0.011012392118573189
0.7080968022346497 0.663053035736084 0.04499812051653862
0.5777194499969482 0.8614529967308044 -0.03900114819407463
0.5954763889312744 0.5825158357620239 -0.03538018465042114
0.6690182685852051 0.7810326814651489 0.06663892418146133
0.6410678625106812 0.8121300339698792 0.035143136978149414
0.6800817847251892 0.7212063670158386 0.05607164278626442
0.7484188675880432 0.6834934949874878 0.1416352242231369
0.7036502361297607 0.7330682873725891 0.07981201261281967
0.7453093528747559 0.7107097506523132 0.1990443468093872
0.6784157752990723 0.6772542595863342 0.0314762182533741
0.5748803615570068 0.5481431484222412 -0.03390709310770035
0.5902989506721497 0.6211977601051331 -0.0969349816441536
0.6041648387908936 0.6241812705993652 -0.06900908052921295
0.5817307233810425 0.6035745739936829 -0.11615271866321564
0.5749998688697815 0.4408504366874695 0.02175920084118843
0.6112880706787109 0.42606067657470703 0.02492855302989483
0.6434615254402161 0.42278891801834106 0.03281102702021599
0.6696975827217102 0.4269499182701111 0.04823844134807587
0.6868680715560913 0.4381565749645233 0.0668901652097702
0.6968234777450562 0.4815330505371094 0.10561536997556686
0.7501678466796875 0.550790548324585 0.22771155834197998
0.6860322952270508 0.5113953948020935 0.0803249329328537
0.6640398502349854 0.518032431602478 0.06033315509557724
0.6340397596359253 0.5195823311805725 0.04426151141524315
0.6043856739997864 0.5160921812057495 0.034025222063064575
0.5815800428390503 0.5093480348587036 0.0282942783087492
0.5667547583580017 0.5015556812286377 0.023704875260591507
0.7323746681213379 0.5572897791862488 0.3190728724002838
0.6029478311538696 0.6290974617004395 -0.057227566838264465
0.5669321417808533 0.5535847544670105 -0.07641593366861343
0.5765690207481384 0.6234810948371887 -0.12036856263875961
0.5610856413841248 0.6364633440971375 -0.11397452652454376
0.5743675827980042 0.6279317736625671 -0.10826726257801056
0.5971494317054749 0.6358879208564758 -0.05128265172243118
0.5581312775611877 0.6388977766036987 -0.12133275717496872
0.5529329180717468 0.643966555595398 -0.09310300648212433
0.5652876496315002 0.48322945833206177 0.03812037408351898
0.5552191734313965 0.48817431926727295 0.018826445564627647
0.5516051650047302 0.4914933145046234 -0.0019435277208685875
0.6718374490737915 0.46949195861816406 0.0747503712773323
0.6834599375724792 0.45982271432876587 0.07827827334403992
