ply
format ascii 1.0
element vertex 468
property float x
property float y
property float z
end_header
0.48782670497894287 0.7288888096809387 -0.06134476512670517
0.43985432386398315 0.6480076313018799 -0.10692621022462845
0.479067325592041 0.6718798875808716 -0.05952732264995575
0.43803250789642334 0.5730661153793335 -0.06341736018657684
0.4342336058616638 0.6239638924598694 -0.11246955394744873
0.44059091806411743 0.5928312540054321 -0.10321134328842163
0.46758538484573364 0.5150762796401978 -0.047816917300224304
0.3954564034938812 0.5277412533760071 0.13078676164150238
0.46929168701171875 0.46217697858810425 -0.03135160729289055
0.4619564712047577 0.43256670236587524 -0.032602451741695404
0.4605417251586914 0.3161366581916809 -0.004053575452417135
0.49234455823898315 0.7410513758659363 -0.059369221329689026
0.49960243701934814 0.7503315210342407 -0.053906578570604324
0.5078122615814209 0.7542324662208557 -0.045559801161289215
0.5149891972541809 0.7825347185134888 -0.03520384058356285
0.51360684633255 0.7938286662101746 -0.03869371488690376
0.5148817896842957 0.807452917098999 -0.04221126064658165
0.519949197769165 0.8218252658843994 -0.03884916752576828
0.5354140400886536 0.840581476688385 -0.020677708089351654
0.45209258794784546 0.6607245802879333 -0.09787487983703613
0.4496750831604004 0.6612812280654907 -0.06109890341758728
0.38877150416374207 0.46038490533828735 0.27950331568717957
0.4406970143318176 0.536992073059082 0.07509928196668625
0.42518240213394165 0.5427625179290771 0.08883395045995712
0.41064465045928955 0.5456883907318115 0.10536184906959534
0.3973131775856018 0.5369998216629028 0.1382083147764206
0.45118409395217896 0.5283207893371582 0.06258559226989746
0.40128079056739807 0.4866980314254761 0.08546637743711472
0.4198974668979645 0.4841352105140686 0.069056436419487
0.387988418340683 0.49389779567718506 0.10391230136156082
0.38299858570098877 0.5038591623306274 0.1194213330745697
0.39229556918144226 0.5565322041511536 0.15430331230163574
0.49612826108932495 0.8691885471343994 0.0466606430709362
0.3922082483768463 0.5238168835639954 0.141485333442688
0.40350836515426636 0.5526869297027588 0.2844761610031128
0.38775894045829773 0.5453979969024658 0.1885971873998642
0.4184430241584778 0.640586256980896 0.05112197995185852
0.4669091999530792 0.7289260625839233 -0.04165210947394371
0.4844357967376709 0.7530357837677002 -0.0349578820168972
0.455260694026947 0.7377889156341553 -0.011806054972112179
0.4564942419528961 0.7488917112350464 0.017026308923959732
0.4762524962425232 0.7555147409439087 -0.011355391703546047
0.4740546941757202 0.759602427482605 0.013897711411118507
0.46770763397216797 0.7913674712181091 0.06359077244997025
0.4274100065231323 0.6497488021850586 -0.09606640040874481
0.4199259877204895 0.6275373697280884 -0.09942662715911865
0.3661847412586212 0.4949031472206116 0.14339925348758698
0.444490909576416 0.5744724273681641 0.027726484462618828
0.4185444712638855 0.6473885774612427 -0.016888873651623726
0.4216790199279785 0.6347472071647644 -0.008854839950799942
0.3893232047557831 0.645787239074707 0.11737073212862015
0.4273391664028168 0.5981364250183105 -0.08373338729143143
0.37703457474708557 0.4648641347885132 0.07372650504112244
0.3654792606830597 0.47672343254089355 0.10923948884010315
0.37512528896331787 0.4196400046348572 0.22818143665790558
0.43844640254974365 0.46569308638572693 0.0017671879613772035
0.4380701184272766 0.4871565103530884 0.06289694458246231
0.4528052806854248 0.768078625202179 0.07947065681219101
0.4888179898262024 0.7585338354110718 0.3077141046524048
0.4354780912399292 0.6582885384559631 -0.019891932606697083
0.4503612518310547 0.6651297211647034 -0.03892529383301735
0.46714985370635986 0.7692275047302246 0.06806258857250214
0.47676217555999756 0.7674663066864014 0.055334512144327164
0.36173704266548157 0.46564799547195435 0.12725359201431274
0.42797479033470154 0.6572089791297913 -0.007416834589093924
0.4001081585884094 0.4596211910247803 0.037125054746866226
0.39247918128967285 0.44329336285591125 0.03644907474517822
0.3860775828361511 0.3541935086250305 0.09891606122255325
0.3668079972267151 0.4421462416648865 0.17173552513122559
0.38739681243896484 0.3965804874897003 0.06640877574682236
0.3656071126461029 0.4877457320690155 0.16986626386642456
0.3755156397819519 0.47563493251800537 0.2217022031545639
0.47419655323028564 0.7429471015930176 -0.0398157574236393
0.46524953842163086 0.7483466863632202 -0.012129359878599644
0.46398085355758667 0.7544909119606018 0.01344003714621067
0.4424998164176941 0.6622395515441895 -0.02263522706925869
0.47146570682525635 0.7689083218574524 0.06054367870092392
0.47403085231781006 0.7779250741004944 0.04100774973630905
0.4809657335281372 0.7656251192092896 0.05291462689638138
0.42784976959228516 0.6503135561943054 -0.04943447932600975
0.4829123318195343 0.7575631141662598 0.01454927958548069
0.48629799485206604 0.7561206817626953 -0.006211837753653526
0.49420714378356934 0.755693793296814 -0.02677774615585804
0.5121009349822998 0.8401814699172974 -0.00396697735413909
0.4975006580352783 0.8202005624771118 -0.01975577510893345
0.4943333864212036 0.8059530854225159 -0.02186972089111805
0.4953521192073822 0.7921304702758789 -0.01763586327433586
0.4991479516029358 0.7824872136116028 -0.015471937134861946
0.4859328269958496 0.7769453525543213 0.022343136370182037
0.48161548376083374 0.7806623578071594 0.019279325380921364
0.47668319940567017 0.7873716354370117 0.018130941316485405
0.4746890664100647 0.7949981689453125 0.024783099070191383
0.4398081302642822 0.7245630621910095 0.031068939715623856
0.4659119248390198 0.6471776962280273 0.3589317798614502
0.46518826484680176 0.6656209230422974 -0.0732252448797226
0.48474323749542236 0.7732523679733276 0.04069572687149048
0.47861093282699585 0.7750089168548584 0.03923793509602547
0.45851629972457886 0.6753160357475281 -0.03997865319252014
0.4418298602104187 0.6707592606544495 -0.0018052582163363695
0.454456627368927 0.6706043481826782 -0.04051545262336731
0.43347233533859253 0.5908786058425903 0.04773910716176033
0.41173896193504333 0.6119409799575806 0.07193262130022049
0.4273431897163391 0.6454026103019714 0.00279056653380394
0.3729552626609802 0.38388127088546753 0.16471777856349945
0.37090203166007996 0.4149651527404785 0.12060751765966415
0.37111324071884155 0.44945552945137024 0.08417350053787231
0.47880035638809204 0.8097203969955444 0.04452226683497429
0.4241279363632202 0.439009428024292 -0.0007563221734017134
0.4157578945159912 0.3841077983379364 0.020459307357668877
0.4137862026691437 0.33305037021636963 0.04071430116891861
0.40127918124198914 0.5440539121627808 0.12392307817935944
0.3858729600906372 0.576023519039154 0.17717625200748444
0.4568246304988861 0.5203122496604919 0.0600656159222126
0.38095903396606445 0.516498863697052 0.150080144405365
0.4498465359210968 0.5575966238975525 0.012586739845573902
0.4157034754753113 0.6379738450050354 -0.04331737384200096
0.38537144660949707 0.5942443013191223 0.21413879096508026
0.38517555594444275 0.5906062126159668 0.15133371949195862
0.3943259119987488 0.5950984954833984 0.1154325008392334
0.41864967346191406 0.5848532319068909 0.08272839337587357
0.4381982982158661 0.5699069499969482 0.06088220700621605
0.4503485858440399 0.5558332204818726 0.041116081178188324
0.4554567337036133 0.5239961743354797 -0.026012873277068138
0.38587331771850586 0.6416206955909729 0.2061133235692978
0.3772472143173218 0.517717719078064 0.1699846237897873
0.44379734992980957 0.6611670255661011 -0.08973013609647751
0.4399406909942627 0.5980460047721863 0.017433416098356247
0.4363781213760376 0.5498494505882263 0.3563780188560486
0.4574131965637207 0.5415453314781189 0.02920910157263279
0.43567976355552673 0.6466859579086304 0.023165876045823097
0.3912610709667206 0.5260096192359924 0.15000736713409424
0.4206429719924927 0.6227510571479797 -0.034720972180366516
0.4757651686668396 0.7012075185775757 0.33947378396987915
0.4571492075920105 0.5119410753250122 0.06786370277404785
0.4219909608364105 0.6081811785697937 -0.062121547758579254
0.4668310284614563 0.8146981000900269 0.17313306033611298
0.4966133236885071 0.8398472666740417 0.20471179485321045
0.41615137457847595 0.6475691795349121 0.28785160183906555
0.45728519558906555 0.7842627763748169 0.21493776142597198
0.38982826471328735 0.5108956098556519 0.2604234516620636
0.5020387172698975 0.8945192098617554 0.05851660296320915
0.45810502767562866 0.6658228635787964 -0.06730852276086807
0.4331040382385254 0.6176289916038513 0.033448826521635056
0.3892435133457184 0.5516878366470337 0.22129790484905243
0.4072187542915344 0.5316300988197327 0.10680802166461945
0.42130622267723083 0.5300208926200867 0.09218531101942062
0.47107142210006714 0.7817099690437317 0.04780671373009682
0.4004994034767151 0.6865730285644531 0.2045682817697525
0.5374253392219543 0.931166410446167 0.03863464668393135
0.5088703036308289 0.8943945169448853 0.11836980283260345
0.5026964545249939 0.8711498379707336 0.1578228920698166
0.4578816592693329 0.37288153171539307 -0.019238684326410294
0.5746603012084961 0.9364722371101379 0.00520470691844821
0.43524858355522156 0.5253101587295532 0.07954607903957367
0.4468778669834137 0.5184277296066284 0.07287900894880295
0.4540008306503296 0.5143555402755737 0.07072438299655914
0.37884312868118286 0.5158639550209045 0.20026278495788574
0.44232088327407837 0.5017917156219482 0.072908915579319
0.42776650190353394 0.500159502029419 0.07875178009271622
0.4115777015686035 0.5019663572311401 0.09062546491622925
0.3984224498271942 0.5081886649131775 0.10576005280017853
0.39336130023002625 0.5151344537734985 0.11833761632442474
0.4087967276573181 0.500613808631897 0.3249402344226837
0.39972326159477234 0.5301957130432129 0.12050243467092514
0.48444151878356934 0.6901223063468933 -0.0552290640771389
0.44153979420661926 0.7078759670257568 0.006380223669111729
0.42979520559310913 0.6549908518791199 -0.028919769451022148
0.46113455295562744 0.6965250372886658 -0.035692665725946426
0.4751279354095459 0.48683106899261475 -0.03173046186566353
0.479319304227829 0.8443719744682312 0.13492794334888458
0.4916688799858093 0.868567705154419 0.0975678488612175
0.5215457677841187 0.9130585789680481 0.016967691481113434
0.49515607953071594 0.8053422570228577 0.25889378786087036
0.4514468014240265 0.5074596405029297 0.0700690969824791
0.4425532817840576 0.5640314221382141 -0.02481986954808235
0.5573989748954773 0.9176733493804932 -0.01505823154002428
0.5178844928741455 0.9156664609909058 0.07790844142436981
0.4304429590702057 0.6968585848808289 0.27511733770370483
0.48981255292892456 0.7802661061286926 0.004319819156080484
0.48580843210220337 0.7873344421386719 0.0020186600740998983
0.48254770040512085 0.7975401282310486 0.0009616134921088815
0.48269540071487427 0.8103823661804199 0.00516135897487402
0.49226921796798706 0.8273324966430664 0.022002212703227997
0.47504299879074097 0.7627385258674622 0.03698638454079628
0.4669142961502075 0.7614631056785583 0.04180239140987396
0.4605340361595154 0.7582799196243286 0.045399073511362076
0.443096399307251 0.7450867891311646 0.05933107063174248
0.4009958505630493 0.6966800093650818 0.1447751224040985
0.45318835973739624 0.5394373536109924 -0.005656224209815264
0.4599969983100891 0.49542659521102905 0.03746075555682182
0.4549422860145569 0.4985922574996948 0.058138396590948105
0.48219752311706543 0.7589726448059082 0.0366070456802845
0.4305570721626282 0.7518265843391418 0.17362485826015472
0.4613027572631836 0.4942052960395813 -0.000442259362898767
0.49658605456352234 0.8454858064651489 0.034493736922740936
0.4501885771751404 0.5667263865470886 -0.08367915451526642
0.44593197107315063 0.5498846769332886 -0.04847274720668793
0.4586794972419739 0.5420167446136475 -0.06476621329784393
0.4340144991874695 0.6020278930664062 -0.01869596727192402
0.5467236638069153 0.891345739364624 -0.02359442226588726
0.5410915613174438 0.8626326322555542 -0.021650878712534904
0.515388548374176 0.8605867624282837 0.002106270520016551
0.46257349848747253 0.8002264499664307 0.08362077176570892
0.43108078837394714 0.6688198447227478 0.03804467245936394
0.47991085052490234 0.825039803981781 0.06033250689506531
0.40508270263671875 0.6729061603546143 0.07660136371850967
0.4259605407714844 0.6960386633872986 0.054259784519672394
0.41176334023475647 0.7116672992706299 0.103826142847538
0.5149716734886169 0.8879650831222534 0.007795154117047787
0.43473929166793823 0.6158567667007446 0.0022152671590447426
0.4638333022594452 0.8183848261833191 0.11029362678527832
0.4823848009109497 0.844010055065155 0.07952237874269485
0.44453924894332886 0.7716272473335266 0.09975672513246536
0.41900527477264404 0.7248643636703491 0.20460772514343262
0.4404755234718323 0.7765418291091919 0.1310286819934845
0.44537484645843506 0.742477536201477 0.2570149600505829
0.4297443628311157 0.7286466956138611 0.07549116015434265
0.4420967102050781 0.5806089043617249 -0.0022668479941785336
0.4204694628715515 0.6474160552024841 -0.05084031820297241
0.4229591488838196 0.6541995406150818 -0.02577369473874569
0.4154554605484009 0.6317341923713684 -0.07071118801832199
0.44221770763397217 0.4800984859466553 0.04437027871608734
0.41282084584236145 0.47498661279678345 0.059279780834913254
0.3902493715286255 0.47873038053512573 0.07893664389848709
0.37631818652153015 0.48721736669540405 0.10352393239736557
0.3735542595386505 0.5000001192092896 0.12717843055725098
0.39017587900161743 0.5357761383056641 0.1644456684589386
0.40799421072006226 0.5997376441955566 0.2910935580730438
0.3948640525341034 0.5641568303108215 0.1375272572040558
0.40492910146713257 0.5676079988479614 0.11189236491918564
0.423092782497406 0.5623001456260681 0.08778311312198639
0.44138646125793457 0.5518503785133362 0.06916069239377975
0.453518807888031 0.5408546924591064 0.05309887230396271
0.46036624908447266 0.5316001772880554 0.043765850365161896
0.45584630966186523 0.597513735294342 0.3663676381111145
0.43092435598373413 0.6600693464279175 -0.017053116112947464
0.43363040685653687 0.585669219493866 -0.04029048979282379
0.4212362766265869 0.6475472450256348 -0.07689204066991806
0.44079023599624634 0.6581851243972778 -0.07798891514539719
0.4291355013847351 0.6511582136154175 -0.0672079399228096
0.4408804178237915 0.6664397120475769 -0.016217101365327835
0.44062578678131104 0.6603426337242126 -0.08511894196271896
0.4531400203704834 0.6648314595222473 -0.06447801738977432
0.46065306663513184 0.5119744539260864 0.05646110326051712
0.4651920795440674 0.5175819993019104 0.03373660147190094
0.46226561069488525 0.5220729112625122 0.014252142049372196
0.3917528986930847 0.5201584696769714 0.12908947467803955
0.3843322694301605 0.5141836404800415 0.1365475058555603
0.4696289300918579 0.5671478509902954 -0.09075304865837097
0.6577445268630981 0.4745766520500183 -0.06880934536457062
0.487557053565979 0.6566176414489746 -0.08192308247089386
0.8064959049224854 0.3599291443824768 -0.02638651244342327
0.5922031998634338 0.5060523152351379 -0.05312998965382576
0.6137189269065857 0.5041532516479492 -0.06536578387022018
0.6378486752510071 0.49993324279785156 -0.07270552217960358
0.6754323244094849 0.4809095561504364 -0.07306487113237381
0.5742394328117371 0.5031388401985168 -0.03820427134633064
0.6062772870063782 0.43799126148223877 -0.07516074180603027
0.5829306840896606 0.44373026490211487 -0.05762217938899994
0.6328675746917725 0.43742454051971436 -0.0824446827173233
0.6546323299407959 0.44298893213272095 -0.08215542882680893
0.7028427124023438 0.4944884181022644 -0.07219114899635315
0.6419512629508972 0.8604602813720703 -0.0466390959918499
0.6697188019752502 0.4667661786079407 -0.06722471117973328
0.831454873085022 0.4668614864349365 -0.02810823731124401
0.7397023439407349 0.47404539585113525 -0.06624165177345276
0.6106905937194824 0.6069294214248657 -0.07844806462526321
0.5178625583648682 0.7214299440383911 -0.07543980330228806
0.5268570184707642 0.7473913431167603 -0.0661940723657608
0.5589392185211182 0.7249956130981445 -0.08131430298089981
0.5904025435447693 0.7315878868103027 -0.0784551352262497
0.556450366973877 0.7459948658943176 -0.0722029060125351
0.582268476486206 0.7457835674285889 -0.06741154938936234
0.6504455208778381 0.7697328329086304 -0.05890939012169838
0.4590228199958801 0.6449053287506104 -0.11388513445854187
0.4564059376716614 0.621235728263855 -0.12046346068382263
0.6906137466430664 0.4214480519294739 -0.09578578919172287
0.5584506392478943 0.5528219938278198 -0.05618828162550926
0.54521244764328 0.6273184418678284 -0.095965676009655
0.5501683354377747 0.6136466264724731 -0.09049956500530243
0.6937766671180725 0.5925157070159912 -0.09757596999406815
0.4618562161922455 0.5920755863189697 -0.11058758944272995
0.6055867075920105 0.4077444076538086 -0.0920754075050354
0.6502823829650879 0.40937912464141846 -0.09874602407217026
0.7460787296295166 0.32402411103248596 -0.04612736403942108
0.5083224177360535 0.44700437784194946 -0.052301257848739624
0.5662388205528259 0.4548705816268921 -0.03961577266454697
0.6625686287879944 0.7404414415359497 -0.06761270761489868
0.8937588334083557 0.7115789651870728 0.021906357258558273
0.5339797139167786 0.6439738273620605 -0.07887393236160278
0.5158343315124512 0.6557515859603882 -0.0680333599448204
0.6380323767662048 0.7465773224830627 -0.059568747878074646
0.6280156970024109 0.7477837800979614 -0.057417936623096466
0.6665328741073608 0.3922300636768341 -0.09473785012960434
0.556963324546814 0.6373939514160156 -0.08496156334877014
0.5573132038116455 0.4189159572124481 -0.07644233852624893
0.5563619136810303 0.3997192084789276 -0.08074603974819183
0.5934689044952393 0.2942379117012024 -0.058285485953092575
0.7020959854125977 0.35812604427337646 -0.07398003339767456
0.5687734484672546 0.3456513583660126 -0.06951554864645004
0.7143989205360413 0.40799057483673096 -0.08639895170927048
0.7579144835472107 0.38584351539611816 -0.056720368564128876
0.5215893983840942 0.7367528080940247 -0.07339735329151154
0.5559021234512329 0.7375231385231018 -0.07785892486572266
0.5848841667175293 0.7391111254692078 -0.0743938758969307
0.5316492319107056 0.6496473550796509 -0.07067377865314484
0.6323079466819763 0.7475285530090332 -0.05799097567796707
0.6191079616546631 0.7591990232467651 -0.05928773432970047
0.626895010471344 0.7469789981842041 -0.0566088892519474
0.5037066340446472 0.6397672891616821 -0.10300358384847641
0.5833284258842468 0.7444444894790649 -0.06278710812330246
0.5585007667541504 0.7470888495445251 -0.06310893595218658
0.5326471924781799 0.7502930760383606 -0.058715447783470154
0.5689435601234436 0.8345041275024414 -0.03577752038836479
0.5520920157432556 0.814517617225647 -0.05490309000015259
0.5451534986495972 0.8003799915313721 -0.05824371799826622
0.5414809584617615 0.7869693040847778 -0.05380700156092644
0.5408076047897339 0.778066098690033 -0.04952886328101158
0.5920864939689636 0.7635373473167419 -0.05569275841116905
0.5946810245513916 0.7664698362350464 -0.05889943614602089
0.6006051898002625 0.7720602750778198 -0.06273071467876434
0.608182430267334 0.778857409954071 -0.06235543638467789
0.6061426997184753 0.7002453207969666 -0.0787864476442337
0.9055510759353638 0.5754132270812988 0.039288461208343506
0.6096585988998413 0.7573740482330322 -0.05562068149447441
0.6129351258277893 0.7578237652778625 -0.05791154131293297
0.5101995468139648 0.6684051752090454 -0.06849373877048492
0.5585746169090271 0.6536672115325928 -0.0638476014137268
0.5125696659088135 0.6624602675437927 -0.06844872981309891
0.5859915018081665 0.5621243715286255 -0.06456989049911499
0.6246592402458191 0.5724306702613831 -0.08070087432861328
0.5629163980484009 0.6234453916549683 -0.08150512725114822
0.6752296686172485 0.3007320761680603 -0.05880594626069069
0.6402726769447327 0.343483030796051 -0.07687623798847198
0.6124233603477478 0.38795188069343567 -0.09180667996406555
0.6297335624694824 0.7933923602104187 -0.05732704699039459
0.5051840543746948 0.4158194065093994 -0.06019768491387367
0.5114551186561584 0.35671553015708923 -0.049943506717681885
0.525273859500885 0.29999518394470215 -0.038539472967386246
0.6614257097244263 0.4919572174549103 -0.07453607022762299
0.7376473546028137 0.5077533721923828 -0.0747068002820015
0.5616059899330139 0.49898502230644226 -0.029960522428154945
0.6919574737548828 0.450045645236969 -0.08115292340517044
0.5363520979881287 0.5409870743751526 -0.05427699163556099
0.5162227749824524 0.6221106648445129 -0.10715500265359879
0.7824728488922119 0.5195809006690979 -0.07151050865650177
0.7117137312889099 0.5276864767074585 -0.08566799759864807
0.6712201833724976 0.5419278144836426 -0.08568340539932251
0.6216592192649841 0.5454615354537964 -0.07090891897678375
0.5887751579284668 0.540730357170105 -0.055580608546733856
0.563453733921051 0.5339137315750122 -0.04592570289969444
0.4902825355529785 0.5168051719665527 -0.05461142212152481
0.7838361859321594 0.5730767846107483 -0.07920366525650024
0.7185923457145691 0.4445314407348633 -0.08252765238285065
0.4630967378616333 0.6583224534988403 -0.10358280688524246
0.5535670518875122 0.5773733854293823 -0.06407114118337631
0.8835231065750122 0.45977774262428284 0.026619629934430122
0.5420593619346619 0.5249016284942627 -0.0384972058236599
0.5748575925827026 0.6239669919013977 -0.06153792515397072
0.6835466623306274 0.4654046595096588 -0.06923368573188782
0.5229521989822388 0.6054583191871643 -0.0993475690484047
0.9078059196472168 0.6400194764137268 0.034168876707553864
0.5639463663101196 0.4906061589717865 -0.026361899450421333
0.4900268018245697 0.5963659882545471 -0.10943231731653214
0.7823597192764282 0.7875561118125916 -0.0384407714009285
0.813984751701355 0.8180132508277893 -0.01076740026473999
0.8540153503417969 0.5745076537132263 -0.024186281487345695
0.8223274350166321 0.7460518479347229 -0.03499046340584755
0.7977204918861389 0.42127323150634766 -0.03786715492606163
0.6585502028465271 0.888056755065918 -0.04148426279425621
0.4737781882286072 0.663372814655304 -0.07592091709375381
0.5808191895484924 0.5913041234016418 -0.06726095080375671
0.7748161554336548 0.47445449233055115 -0.06002392619848251
0.6291183829307556 0.486233115196228 -0.0680939182639122
0.6088361144065857 0.491023987531662 -0.06283479928970337
0.6272189021110535 0.7615514397621155 -0.06021228805184364
0.7949711084365845 0.6255651712417603 -0.0704679936170578
0.6243584156036377 0.9292234182357788 -0.017295436933636665
0.7177602052688599 0.8865318298339844 -0.020356502383947372
0.7622217535972595 0.8583364486694336 -0.017165422439575195
0.5922218561172485 0.4924282729625702 -0.05197851359844208
0.5776198506355286 0.4915742576122284 -0.04042360186576843
0.5683389902114868 0.4913005232810974 -0.0309193916618824
0.749171793460846 0.43599674105644226 -0.07215697318315506
0.5772822499275208 0.47207432985305786 -0.04305028170347214
0.5930336713790894 0.46285778284072876 -0.05589266121387482
0.6103652715682983 0.45887988805770874 -0.06627846509218216
0.631751537322998 0.458819180727005 -0.07279405742883682
0.6478049755096436 0.4619627892971039 -0.07292618602514267
0.8501752018928528 0.40204137563705444 0.0030518530402332544
0.6448264122009277 0.48050761222839355 -0.06977900117635727
0.5760444402694702 0.6889094710350037 -0.07696127146482468
0.5282739996910095 0.6403839588165283 -0.08449219167232513
0.5174920558929443 0.6885931491851807 -0.07029225677251816
0.7425094842910767 0.8265249133110046 -0.036206550896167755
0.7034212946891785 0.8582895994186401 -0.03727859631180763
0.6076236367225647 0.9099187850952148 -0.03792952001094818
0.8589296340942383 0.7722591161727905 0.003720217617228627
0.5672553181648254 0.4838408827781677 -0.03365163505077362
0.5034686326980591 0.5522603392601013 -0.07018769532442093
0.6711434721946716 0.9114253520965576 -0.024946408346295357
0.8601351976394653 0.633609414100647 -0.023632653057575226
0.566938042640686 0.7711664438247681 -0.05515972897410393
0.5698275566101074 0.7771368622779846 -0.059327736496925354
0.5748974680900574 0.7869865894317627 -0.06353005021810532
0.5819105505943298 0.7988695502281189 -0.062342479825019836
0.6028831601142883 0.8162022829055786 -0.0528099350631237
0.6090518832206726 0.7453862428665161 -0.06361798197031021
0.6133685111999512 0.7421923875808716 -0.06803324818611145
0.6191820502281189 0.737259030342102 -0.0710299089550972
0.6365373134613037 0.7175820469856262 -0.07658795267343521
0.739048957824707 0.6449241638183594 -0.0880279466509819
0.5126289129257202 0.5275494456291199 -0.052548542618751526
0.5350529551506042 0.47839027643203735 -0.022366244345903397
0.5535892248153687 0.4764758348464966 -0.028058676049113274
0.6068652868270874 0.7429514527320862 -0.05970444157719612
0.7759632468223572 0.7081252336502075 -0.06190310791134834
0.5062615871429443 0.4836341142654419 -0.03578117862343788
0.6244229674339294 0.8360563516616821 -0.0473187156021595
0.47993192076683044 0.5433661341667175 -0.07233382761478424
0.5242525339126587 0.5858755707740784 -0.07837048918008804
0.5813668966293335 0.8561758399009705 -0.037229280918836594
0.6797659993171692 0.7769542336463928 -0.05784399062395096
0.6000843644142151 0.6416067481040955 -0.0683239996433258
0.6574833989143372 0.8096117377281189 -0.051670245826244354
0.6552349925041199 0.6316156983375549 -0.08998683840036392
0.6268640160560608 0.6646388173103333 -0.07775453478097916
0.6943928003311157 0.6695802211761475 -0.08669450134038925
0.5935309529304504 0.8835533857345581 -0.043782319873571396
0.5498151779174805 0.5958205461502075 -0.07289982587099075
0.7138036489486694 0.7960339784622192 -0.05146641284227371
0.6808462738990784 0.8303632736206055 -0.04484785348176956
0.6906952261924744 0.7408580780029297 -0.07102128118276596
0.8045647144317627 0.6717035174369812 -0.05952707678079605
0.7359380125999451 0.7427275776863098 -0.06649113446474075
0.8537300825119019 0.6906808018684387 -0.026465177536010742
0.6589712500572205 0.6945973038673401 -0.08079230040311813
0.5286424160003662 0.5646562576293945 -0.0665411427617073
0.5084787607192993 0.6344791054725647 -0.10880158096551895
0.5375957489013672 0.6369203925132751 -0.0925595834851265
0.48516845703125 0.6206334233283997 -0.11716143786907196
0.5425757765769958 0.45561131834983826 -0.038626573979854584
0.5721214413642883 0.4361094832420349 -0.06232549995183945
0.6038020253181458 0.42698052525520325 -0.08036874979734421
0.637301504611969 0.42603468894958496 -0.09035664051771164
0.6677826642990112 0.43345406651496887 -0.09016817808151245
0.7074182033538818 0.4705551266670227 -0.06949985772371292
0.8450912237167358 0.5193197727203369 -0.028755027800798416
0.6846513748168945 0.5065808892250061 -0.0755569189786911
0.6545672416687012 0.5178192853927612 -0.07389034330844879
0.6204723715782166 0.5227437019348145 -0.06521258503198624
0.5913929343223572 0.5218863487243652 -0.05118713527917862
0.5696290731430054 0.5178784728050232 -0.037602748721838
0.5529081225395203 0.5132878422737122 -0.029865065589547157
0.8976878523826599 0.5169137120246887 0.038011886179447174
0.5451657176017761 0.6429589986801147 -0.08262127637863159
0.4952576756477356 0.5743709206581116 -0.0869796946644783
0.4808182716369629 0.6391488909721375 -0.11371570080518723
0.480069637298584 0.653436541557312 -0.09911897778511047
0.4891822338104248 0.6432930827140808 -0.10504716634750366
0.5450942516326904 0.6514607071876526 -0.07107635587453842
0.4720553755760193 0.6560685038566589 -0.10253200680017471
0.4819963574409485 0.6612306833267212 -0.07908272743225098
0.5528885126113892 0.4930901527404785 -0.021720631048083305
0.5380732417106628 0.5025347471237183 -0.023435810580849648
0.5242899060249329 0.50924152135849 -0.03376425802707672
0.6587868928909302 0.4646680951118469 -0.07148800045251846
0.6744357347488403 0.45175081491470337 -0.07748204469680786
