ply
format ascii 1.0
element vertex 468
property float x
property float y
property float z
end_header
0.5455037951469421 0.6993981599807739 -0.06309273093938828
0.5811150670051575 0.6322234272956848 -0.13723787665367126
0.5551080703735352 0.6546884179115295 -0.07209033519029617
0.542880117893219 0.5510594844818115 -0.1173931136727333
0.5827107429504395 0.6065987944602966 -0.14662589132785797
0.5746950507164001 0.5737671852111816 -0.13794925808906555
0.5464904308319092 0.49451330304145813 -0.07678322494029999
0.3322010934352875 0.48772192001342773 -0.04656555503606796
0.5386066436767578 0.43876251578330994 -0.06233229860663414
0.5399309992790222 0.4066402316093445 -0.06888485699892044
0.5262902975082397 0.2765553295612335 -0.05032501742243767
0.5427090525627136 0.7102270126342773 -0.05968259647488594
0.5381879806518555 0.717186689376831 -0.05263741314411163
0.5326878428459167 0.7183113098144531 -0.0421968437731266
0.5336850881576538 0.7571498155593872 -0.02769269421696663
0.5355283617973328 0.7667382955551147 -0.03191014379262924
0.5360026359558105 0.7785057425498962 -0.03681134432554245
0.5347276926040649 0.7922239303588867 -0.03224435821175575
0.5285252332687378 0.8141654133796692 -0.00930116232484579
0.5745012760162354 0.6453136801719666 -0.12410589307546616
0.5393037796020508 0.6443694233894348 -0.09761785715818405
0.17662601172924042 0.39228355884552 0.02367825247347355
0.413011759519577 0.5072273015975952 -0.04497057944536209
0.3866378366947174 0.508935809135437 -0.05262773483991623
0.35935693979263306 0.5082548260688782 -0.05538550391793251
0.31665176153182983 0.49668747186660767 -0.04676591232419014
0.43490070104599 0.5020663738250732 -0.033461250364780426
0.3796190023422241 0.44582462310791016 -0.06813077628612518
0.408407986164093 0.4470885694026947 -0.055595505982637405
0.3507949709892273 0.45038536190986633 -0.06881493330001831
0.3294791579246521 0.4596529006958008 -0.06397218257188797
0.2909334897994995 0.5126147866249084 -0.03921357914805412
0.4218248426914215 0.8543035984039307 -0.009602336212992668
0.319027304649353 0.48262864351272583 -0.04175715148448944
0.1684742569923401 0.5050599575042725 0.04065193608403206
0.25199970602989197 0.4993400573730469 -0.025276392698287964
0.3975563943386078 0.6068387031555176 -0.06681253761053085
0.505914568901062 0.6965023279190063 -0.07312589138746262
0.4997485280036926 0.7173975706100464 -0.060440778732299805
0.4576820433139801 0.7017481327056885 -0.06964229792356491
0.4206238090991974 0.7076424360275269 -0.053945936262607574
0.46427398920059204 0.7178088426589966 -0.05843857675790787
0.4333067536354065 0.7180807590484619 -0.043360427021980286
0.3759075403213501 0.7532643675804138 -0.01406614389270544
0.5592013001441956 0.6325668692588806 -0.14133092761039734
0.5574520230293274 0.6071950793266296 -0.15087087452411652
0.2876531481742859 0.44132107496261597 -0.0742713212966919
0.45490801334381104 0.5468584895133972 -0.05665178224444389
0.47107353806495667 0.6217968463897705 -0.10268127918243408
0.4653797745704651 0.6075985431671143 -0.09622702747583389
0.3025147318840027 0.6038249135017395 -0.0654720589518547
0.5512280464172363 0.576610803604126 -0.13987500965595245
0.3710007071495056 0.41446974873542786 -0.09240549057722092
0.3254377841949463 0.42323416471481323 -0.08830621093511581
0.22463156282901764 0.34594953060150146 -0.01606697216629982
0.48799777030944824 0.4342487156391144 -0.0735214501619339
0.43156373500823975 0.45518237352371216 -0.039296966046094894
0.35233673453330994 0.7232826352119446 -0.022337008267641068
0.16446802020072937 0.7500136494636536 0.12727956473827362
0.48805099725723267 0.6362291574478149 -0.08485634624958038
0.5109441876411438 0.6439169645309448 -0.07705818861722946
0.37075063586235046 0.720224142074585 -0.014133965596556664
0.38265079259872437 0.7206467390060425 -0.014372747391462326
0.30582523345947266 0.40691834688186646 -0.08225434273481369
0.46240949630737305 0.6300883293151855 -0.08765280991792679
0.4255790114402771 0.4169471561908722 -0.08790262788534164
0.4220566749572754 0.39600634574890137 -0.09569200128316879
0.37009483575820923 0.2858353555202484 -0.07193538546562195
0.2683062255382538 0.37554728984832764 -0.053400129079818726
0.40137144923210144 0.33812013268470764 -0.08453071862459183
0.2627602219581604 0.42999669909477234 -0.059768181294202805
0.2217104136943817 0.4126023054122925 -0.019197940826416016
0.5028400421142578 0.7095085978507996 -0.06920327246189117
0.4622252583503723 0.7118175625801086 -0.06453035026788712
0.42774468660354614 0.7131958603858948 -0.05010455101728439
0.49232006072998047 0.639998197555542 -0.07624537497758865
0.37658748030662537 0.7202393412590027 -0.013884843327105045
0.39769724011421204 0.7371021509170532 -0.01950976438820362
0.38593170046806335 0.7211998105049133 -0.014195604249835014
0.5158767700195312 0.632568359375 -0.11841612309217453
0.4339137673377991 0.7153041958808899 -0.03821602463722229
0.46445441246032715 0.7167677283287048 -0.04766448959708214
0.49695974588394165 0.7180622220039368 -0.05053795501589775
0.4870385527610779 0.8146406412124634 -0.01879177801311016
0.4939158856868744 0.7905023097991943 -0.04252864047884941
0.4967203438282013 0.7767696976661682 -0.04629990831017494
0.497917115688324 0.7650598287582397 -0.04090437665581703
0.49843287467956543 0.7567174434661865 -0.03630174323916435
0.4327594041824341 0.7439523339271545 -0.026314835995435715
0.4294149577617645 0.7464273571968079 -0.02998429164290428
0.4239251911640167 0.7522889971733093 -0.03300202265381813
0.4189428687095642 0.7602906823158264 -0.029574159532785416
0.4066319763660431 0.6871578693389893 -0.05344020202755928
0.12998470664024353 0.6207308769226074 0.14338625967502594
0.5656816959381104 0.6500416398048401 -0.09113539010286331
0.4105590581893921 0.7359317541122437 -0.017131036147475243
0.40446704626083374 0.7355718016624451 -0.019370805472135544
0.5191859006881714 0.6544544696807861 -0.07565297186374664
0.464433878660202 0.6433350443840027 -0.06227758899331093
0.5156758427619934 0.6494897603988647 -0.07710425555706024
0.4242604374885559 0.5594128966331482 -0.0580705963075161
0.37774839997291565 0.5745224952697754 -0.06561648100614548
0.4545239210128784 0.6168233752250671 -0.08250203728675842
0.2879141569137573 0.30941250920295715 -0.04951256141066551
0.32658395171165466 0.34964966773986816 -0.07378444075584412
0.3602989614009857 0.394107848405838 -0.09275197237730026
0.40645384788513184 0.7792100310325623 -0.017972879111766815
0.48300841450691223 0.4014228582382202 -0.0865764319896698
0.4673597514629364 0.3361680209636688 -0.07979930937290192
0.4464038908481598 0.27599790692329407 -0.07084295153617859
0.3329775333404541 0.5045823454856873 -0.05247277021408081
0.25620025396347046 0.5303217768669128 -0.033225130289793015
0.4492917060852051 0.49651604890823364 -0.02706919237971306
0.29402583837509155 0.47058433294296265 -0.05316389352083206
0.4768526256084442 0.5322186350822449 -0.06054909527301788
0.49858400225639343 0.6154962182044983 -0.12210199981927872
0.21508075296878815 0.5491135716438293 -0.01655781827867031
0.28299573063850403 0.5446101427078247 -0.04952574148774147
0.325900137424469 0.5512414574623108 -0.059010718017816544
0.3816795349121094 0.5480681657791138 -0.0544562004506588
0.42055773735046387 0.539284348487854 -0.04650427773594856
0.4491415321826935 0.5289628505706787 -0.04422580450773239
0.5211668610572815 0.5009185075759888 -0.07667427510023117
0.21715843677520752 0.5999739766120911 -0.020726550370454788
0.26638954877853394 0.46815043687820435 -0.050493791699409485
0.5610781908035278 0.6449875831604004 -0.12749485671520233
0.4614255428314209 0.570575475692749 -0.06546258926391602
0.12949249148368835 0.5031626224517822 0.11400029063224792
0.4713432490825653 0.5165318250656128 -0.04190906509757042
0.4437449276447296 0.6171321272850037 -0.05604320019483566
0.3065583109855652 0.48436683416366577 -0.04047372564673424
0.49150365591049194 0.5980244278907776 -0.11349160969257355
0.13943597674369812 0.6842632293701172 0.14037050306797028
0.4464744031429291 0.48817360401153564 -0.02247447893023491
0.5225476622581482 0.5852614045143127 -0.1319785863161087
0.2700520157814026 0.8035528659820557 0.03481629490852356
0.25808972120285034 0.8376108407974243 0.07496514916419983
0.16258680820465088 0.6140553951263428 0.05870799720287323
0.22162039577960968 0.7721911668777466 0.04593735933303833
0.19195695221424103 0.4544714689254761 0.016081493347883224
0.4164246916770935 0.8814502954483032 0.001011794083751738
0.555636465549469 0.6493486166000366 -0.09242460131645203
0.43293026089668274 0.586918294429779 -0.062366802245378494
0.21843990683555603 0.5050455927848816 -0.009467839263379574
0.3645451068878174 0.4939540922641754 -0.051765404641628265
0.388429194688797 0.4953615367412567 -0.050636060535907745
0.39058518409729004 0.7405695915222168 -0.01798759400844574
0.21361640095710754 0.6529775857925415 -0.0064336881041526794
0.4643983244895935 0.9107867479324341 0.02132539264857769
0.36664214730262756 0.8867467641830444 0.041713058948516846
0.31778836250305176 0.8673639297485352 0.05649994686245918
0.5345558524131775 0.3386877179145813 -0.06109287217259407
0.5163947343826294 0.9091662168502808 0.03429315611720085
0.40952733159065247 0.4940432906150818 -0.043719518929719925
0.4291010797023773 0.4910156726837158 -0.034135300666093826
0.4411833882331848 0.4897060692310333 -0.02540692687034607
0.23640604317188263 0.4630071818828583 -0.033081989735364914
0.42348793148994446 0.47043806314468384 -0.03896528109908104
0.4006069302558899 0.463003933429718 -0.05045122280716896
0.37899869680404663 0.46204689145088196 -0.057351548224687576
0.3554455637931824 0.46647459268569946 -0.05887658894062042
0.33925744891166687 0.47331416606903076 -0.054878681898117065
0.14697647094726562 0.44147467613220215 0.0722140371799469
0.34654831886291504 0.49097755551338196 -0.04990988224744797
0.5498393774032593 0.6694904565811157 -0.06266331672668457
0.44351738691329956 0.6751412749290466 -0.06393825262784958
0.4920337200164795 0.6338351368904114 -0.09381362050771713
0.509148895740509 0.671110987663269 -0.07251101732254028
0.5378940105438232 0.4653013348579407 -0.06007644906640053
0.32106512784957886 0.8342928886413574 0.02949122153222561
0.36668694019317627 0.8590056896209717 0.01739448867738247
0.47105953097343445 0.8942298889160156 -0.007487568538635969
0.20735293626785278 0.8016210198402405 0.10081912577152252
0.43979689478874207 0.4814249277114868 -0.029656875878572464
0.5087257623672485 0.5399233102798462 -0.08696363121271133
0.5251852869987488 0.892789900302887 0.006443931255489588
0.41575348377227783 0.9022448062896729 0.0250946544110775
0.16669759154319763 0.6721473932266235 0.06246397644281387
0.4645598530769348 0.7516904473304749 -0.03399597853422165
0.4614027142524719 0.7575089335441589 -0.03834845498204231
0.45826804637908936 0.7665584087371826 -0.042292702943086624
0.45492732524871826 0.7791528701782227 -0.03808233514428139
0.44289302825927734 0.8009721636772156 -0.023156194016337395
0.40150296688079834 0.7180231809616089 -0.02919771708548069
0.39527517557144165 0.715580940246582 -0.03188520297408104
0.38860175013542175 0.7119904160499573 -0.03448892757296562
0.37239518761634827 0.702299952507019 -0.039731163531541824
0.26438239216804504 0.6624612212181091 -0.04163934290409088
0.4996071457862854 0.5151761770248413 -0.0666114091873169
0.4725099205970764 0.4702543616294861 -0.029565483331680298
0.4529096782207489 0.4733094274997711 -0.028636585921049118
0.40567508339881897 0.7151666879653931 -0.025605233386158943
0.2468303143978119 0.7281100153923035 0.0017623316962271929
0.5023318529129028 0.4691757261753082 -0.05438430979847908
0.4303867518901825 0.8261861801147461 -0.01386821735650301
0.5649195909500122 0.5470603704452515 -0.11624307930469513
0.5322085618972778 0.5276183485984802 -0.097935251891613
0.555890679359436 0.5220868587493896 -0.09554818272590637
0.4900873005390167 0.5769950747489929 -0.09018724411725998
0.5290448665618896 0.8683865070343018 -0.0068935309536755085
0.5287395715713501 0.8385292291641235 -0.008016299456357956
0.48086971044540405 0.8401163816452026 -0.016334466636180878
0.35748735070228577 0.7698295712471008 -0.008812685497105122
0.41671115159988403 0.6367653012275696 -0.0556158572435379
0.39039191603660583 0.8020222783088684 -0.009068600833415985
0.346346914768219 0.6370116472244263 -0.0676889419555664
0.3837446868419647 0.6615022420883179 -0.05436639487743378
0.31129515171051025 0.6774915456771851 -0.05026080831885338
0.47579506039619446 0.8698997497558594 -0.018576817587018013
0.466625452041626 0.588828444480896 -0.07699401676654816
0.33489933609962463 0.7982827425003052 0.0050447615794837475
0.37694358825683594 0.8283096551895142 0.002698552096262574
0.33318501710891724 0.7353667616844177 -0.02304478920996189
0.21442551910877228 0.6988826394081116 0.009904718026518822
0.2935430407524109 0.7506930828094482 -0.010762928985059261
0.18298637866973877 0.7256608605384827 0.06077088415622711
0.34934088587760925 0.6889923214912415 -0.04691129922866821
0.48542189598083496 0.5552217364311218 -0.07501231878995895
0.5088073015213013 0.6281133890151978 -0.1250791698694229
0.48050475120544434 0.6309360265731812 -0.10085457563400269
0.5285646319389343 0.6112428903579712 -0.1399039775133133
0.45601239800453186 0.4512695074081421 -0.04528060555458069
0.4166082739830017 0.43833741545677185 -0.06426278501749039
0.3786451816558838 0.43563640117645264 -0.07599454373121262
0.3432103097438812 0.44018298387527466 -0.07754674553871155
0.3138214945793152 0.45163291692733765 -0.07011744379997253
0.28369665145874023 0.49209892749786377 -0.03552357479929924
0.16278421878814697 0.559181809425354 0.04919273406267166
0.31080162525177 0.5214183926582336 -0.046409208327531815
0.34405866265296936 0.5270975828170776 -0.051262784749269485
0.3824436664581299 0.5269340872764587 -0.04958972707390785
0.4165315330028534 0.5220871567726135 -0.04190848767757416
0.442202091217041 0.5147460103034973 -0.03405736759305
0.4602147340774536 0.5072336196899414 -0.030093073844909668
0.12730595469474792 0.5615339279174805 0.1353958547115326
0.47525888681411743 0.6353943943977356 -0.0877402275800705
0.5173531770706177 0.5618661046028137 -0.10616455972194672
0.5361633896827698 0.6302480697631836 -0.13650910556316376
0.5435389280319214 0.6418666839599609 -0.12049884349107742
0.5303525328636169 0.6343974471092224 -0.12468045949935913
0.47803401947021484 0.6414631605148315 -0.07485472410917282
0.5514329075813293 0.6437641382217407 -0.12538310885429382
0.5461954474449158 0.6480767726898193 -0.0949569121003151
0.4581035077571869 0.48927199840545654 -0.02089526131749153
0.47462737560272217 0.49416881799697876 -0.02901485003530979
0.48802757263183594 0.4980042278766632 -0.043894194066524506
0.32875460386276245 0.47844982147216797 -0.04962046071887016
0.31179603934288025 0.47040414810180664 -0.05337836965918541
0.5813559293746948 0.5503513813018799 -0.09818054735660553
0.6660898923873901 0.4796307384967804 0.09470519423484802
0.5838650465011597 0.6419947743415833 -0.08284398913383484
0.697210431098938 0.39697057008743286 0.24062636494636536
0.605678379535675 0.5040833950042725 0.045951131731271744
0.6281232833862305 0.5043058395385742 0.05645984411239624
0.6484222412109375 0.502396821975708 0.07100043445825577
0.6704221963882446 0.4884680211544037 0.10307610780000687
0.5876405835151672 0.49972081184387207 0.037522826343774796
0.6403402090072632 0.4437284469604492 0.046566274017095566
0.6150763630867004 0.4466630816459656 0.034358203411102295
0.6614862680435181 0.44685226678848267 0.06334062665700912
0.6732128858566284 0.4547426104545593 0.07880326360464096
0.6852831840515137 0.5054791569709778 0.12175024300813675
0.6011533737182617 0.837221622467041 0.0578630194067955
0.6712629795074463 0.4742377698421478 0.10583192110061646
0.7028723955154419 0.49819427728652954 0.2603861689567566
0.6969015598297119 0.4921363592147827 0.1548035889863968
0.644921600818634 0.6013725399971008 0.026793615892529488
0.5766139030456543 0.6936036944389343 -0.047686949372291565
0.5649789571762085 0.7146204113960266 -0.03600550815463066
0.6017863750457764 0.695160984992981 -0.017843957990407944
0.6130120158195496 0.6999738216400146 0.01677890308201313
0.5834845304489136 0.7123960256576538 -0.012024988420307636
0.5949295163154602 0.7122538685798645 0.018233895301818848
0.6213907599449158 0.74234539270401 0.07687854021787643
0.5980024337768555 0.6307320594787598 -0.12896332144737244
0.6009365320205688 0.6060819029808044 -0.13632209599018097
0.6989928483963013 0.4366348385810852 0.09537389129400253
0.5959454774856567 0.5446692705154419 0.0034209720324724913
0.6242883205413818 0.6174958944320679 -0.04647444188594818
0.6208236217498779 0.6040375232696533 -0.03808586299419403
0.700860857963562 0.5944135189056396 0.08859320729970932
0.5924413800239563 0.5758089423179626 -0.12088263779878616
0.6651768088340759 0.41427475214004517 0.025095725432038307
0.6879093647003174 0.42055994272232056 0.059148430824279785
0.6920530796051025 0.3542971909046173 0.17852383852005005
0.5802329778671265 0.4349796175956726 -0.03511424735188484
0.5932972431182861 0.4550427198410034 0.03334195911884308
0.6385819911956787 0.712396502494812 0.08663348108530045
0.6624419093132019 0.7196996808052063 0.329093873500824
0.607491135597229 0.6320827007293701 -0.04268451780080795
0.589985728263855 0.6415920853614807 -0.05586637929081917
0.622016191482544 0.7126810550689697 0.08059529960155487
0.6101424694061279 0.7143846750259399 0.06996909528970718
0.6942800283432007 0.40567973256111145 0.07521599531173706
0.6201640367507935 0.6262168288230896 -0.03241465240716934
0.6307612657546997 0.41774624586105347 -0.0072903078980743885
0.636267900466919 0.39773720502853394 -0.012976088561117649
0.6411105394363403 0.2949460744857788 0.03868132829666138
0.6937093138694763 0.3790991008281708 0.1202704906463623
0.638271152973175 0.34366604685783386 0.010619992390275002
0.7043403387069702 0.4268338680267334 0.12175672501325607
0.7019939422607422 0.41337451338768005 0.17762812972068787
0.5720250010490417 0.706369161605835 -0.0436626598238945
0.5924331545829773 0.7057180404663086 -0.015115450136363506
0.6047300696372986 0.706116259098053 0.01556278858333826
0.6010276079177856 0.6363527178764343 -0.04214570298790932
0.6170192956924438 0.7133252024650574 0.07441703230142593
0.6090936660766602 0.7301345467567444 0.05573686584830284
0.6045597195625305 0.7149693369865417 0.0679418295621872
0.6073841452598572 0.6278644800186157 -0.08039242774248123
0.586950421333313 0.7107613682746887 0.020319044589996338
0.5749270915985107 0.7126805186271667 -0.0037074314896017313
0.5573322772979736 0.7159425020217896 -0.02598980814218521
0.5619034767150879 0.8095871806144714 0.005442895460873842
0.566238522529602 0.7865621447563171 -0.015438289381563663
0.5663332939147949 0.7726343274116516 -0.018515322357416153
0.563787579536438 0.7611921429634094 -0.013342272490262985
0.559373676776886 0.7532017230987549 -0.010028437711298466
0.5897611379623413 0.7376518845558167 0.03253050148487091
0.5948870182037354 0.7400147914886475 0.028822895139455795
0.6007106304168701 0.7452296018600464 0.02799815870821476
0.6042661070823669 0.7522374987602234 0.03549652546644211
0.6310476064682007 0.6797329187393188 0.026828262954950333
0.674985408782959 0.6030415892601013 0.36774253845214844
0.5960532426834106 0.7298276424407959 0.05500248074531555
0.6034883260726929 0.7290931940078735 0.05343066528439522
0.5824061632156372 0.6522833108901978 -0.0548974983394146
0.6095355749130249 0.6398410201072693 -0.018320318311452866
0.5863385200500488 0.6474037170410156 -0.056854069232940674
0.6173068284988403 0.556175708770752 0.023038599640130997
0.6536133885383606 0.5695534944534302 0.044403549283742905
0.6203757524490356 0.6132437586784363 -0.022338030859827995
0.6757690906524658 0.3197231888771057 0.10829297453165054
0.6739293336868286 0.3550426661968231 0.06543347239494324
0.6709929704666138 0.39498573541641235 0.03181818500161171
0.6075286865234375 0.7680472135543823 0.05730532482266426
0.5911120772361755 0.40355581045150757 -0.04484497010707855
0.5934972763061523 0.3394433259963989 -0.03033909574151039
0.5932618379592896 0.28163784742355347 -0.015450720675289631
0.6635761857032776 0.4971356987953186 0.08886513859033585
0.7032910585403442 0.5226196646690369 0.14538078010082245
0.57672518491745 0.49434521794319153 0.0361456535756588
0.6871039867401123 0.46359676122665405 0.10989410430192947
0.5828632712364197 0.5305843353271484 -0.012701192870736122
0.6197209358215332 0.6117194890975952 -0.07678121328353882
0.7164198160171509 0.5390548706054688 0.1854102611541748
0.6988323926925659 0.5373402833938599 0.11857490986585617
0.6796415448188782 0.545527994632721 0.08460196852684021
0.641413688659668 0.5438199639320374 0.05543312057852745
0.6109368801116943 0.5361915826797485 0.03669804707169533
0.5895392298698425 0.5267637968063354 0.018098121508955956
0.564028263092041 0.5006458759307861 -0.05633877217769623
0.7247690558433533 0.5865544080734253 0.18098366260528564
0.6977669596672058 0.46217429637908936 0.1282559335231781
0.5845942497253418 0.643814206123352 -0.11776325851678848
0.601439893245697 0.5683383345603943 -0.007096108514815569
0.6837249994277954 0.4977186322212219 0.3464656472206116
0.5751539468765259 0.5152634978294373 0.00618453323841095
0.6162317395210266 0.6137097477912903 0.0040880790911614895
0.6757650375366211 0.4762987792491913 0.11439262330532074
0.614094614982605 0.5951777100563049 -0.0674486756324768
0.671623706817627 0.6596113443374634 0.3554406464099884
0.5748735666275024 0.4853563904762268 0.04397100210189819
0.6042908430099487 0.583257794380188 -0.09844993054866791
0.6582849025726318 0.7726709842681885 0.18513968586921692
0.6382017731666565 0.8024188280105591 0.22727704048156738
0.7113363742828369 0.5967637896537781 0.2784039378166199
0.6792719960212708 0.741567850112915 0.2228153944015503
0.7023961544036865 0.4525051414966583 0.22677163779735565
0.5988006591796875 0.8611196279525757 0.07290113717317581
0.5744542479515076 0.6487153172492981 -0.0862882062792778
0.6183022856712341 0.5835327506065369 0.00983506627380848
0.7046232223510742 0.49725499749183655 0.18915316462516785
0.6481200456619263 0.4877876043319702 0.07208959013223648
0.6291423439979553 0.490952730178833 0.05905427411198616
0.6133406758308411 0.7326135039329529 0.06230573356151581
0.721150279045105 0.6343103647232056 0.18906958401203156
0.559541642665863 0.8986586928367615 0.061712030321359634
0.6033520698547363 0.8588453531265259 0.14097213745117188
0.6184058785438538 0.8345519304275513 0.18053776025772095
0.6094983220100403 0.4910080134868622 0.0496143139898777
0.5910211801528931 0.4886881113052368 0.04584585875272751
0.579841136932373 0.4872022271156311 0.046278007328510284
0.7033530473709106 0.4583609998226166 0.15971985459327698
0.5931565761566162 0.4674798250198364 0.04321420192718506
0.6119397878646851 0.4595608115196228 0.04540953412652016
0.6330198049545288 0.4566915035247803 0.054161835461854935
0.6526116728782654 0.4595760107040405 0.06813401728868484
0.6629745960235596 0.46576446294784546 0.08101712912321091
0.6940248608589172 0.4420238733291626 0.3002787232398987
0.6592244505882263 0.48380374908447266 0.08480051159858704
0.6171011924743652 0.6696926951408386 -0.0029988838359713554
0.6111346483230591 0.6293483376502991 -0.05414285510778427
0.5814015865325928 0.6683279275894165 -0.04704304039478302
0.6350171566009521 0.8049413561820984 0.1514284759759903
0.6161302328109741 0.832314133644104 0.11384254693984985
0.5696477293968201 0.883100152015686 0.03244929388165474
0.6513872742652893 0.7677379846572876 0.2814568281173706
0.5809589624404907 0.4782103896141052 0.04341518506407738
0.5830912590026855 0.5388035178184509 -0.054906778037548065
0.5863702297210693 0.8811156749725342 0.09828060865402222
0.7059817314147949 0.6489576697349548 0.2731442153453827
0.5778961181640625 0.7462486028671265 0.010800461284816265
0.5830682516098022 0.7516498565673828 0.00795413926243782
0.587352454662323 0.7604777812957764 0.006727802567183971
0.5895249843597412 0.7724635601043701 0.01252575684338808
0.5893846154212952 0.7918721437454224 0.032787591218948364
0.604637622833252 0.7116673588752747 0.046642985194921494
0.613379180431366 0.7084094285964966 0.05021579563617706
0.6203194856643677 0.7041459083557129 0.0517306812107563
0.6400718688964844 0.693218469619751 0.06012660264968872
0.7098122239112854 0.6463530659675598 0.12568427622318268
0.5726671814918518 0.5143476724624634 -0.03277900442481041
0.5664349794387817 0.4695632755756378 0.012966006994247437
0.5746291279792786 0.4719697833061218 0.03209473565220833
0.595923662185669 0.7099215984344482 0.04738495126366615
0.6936396360397339 0.7047571539878845 0.1697932779788971
0.5594813823699951 0.4690210521221161 -0.029510188847780228
0.5943584442138672 0.8126167058944702 0.045939505100250244
0.5732312202453613 0.5269114971160889 -0.0807780846953392
0.5997056365013123 0.5747630000114441 -0.047742705792188644
0.5664220452308655 0.832689642906189 0.012679447419941425
0.6321684122085571 0.7535669207572937 0.09504085034132004
0.6301564574241638 0.6316695809364319 0.021099016070365906
0.6135437488555908 0.7859892845153809 0.07326401770114899
0.6777088642120361 0.6275542974472046 0.053158391267061234
0.6474477052688599 0.6537546515464783 0.04168739169836044
0.6874309778213501 0.6634287238121033 0.08799382299184799
0.572348415851593 0.8603675365447998 0.018808677792549133
0.606535792350769 0.586301326751709 -0.023413076996803284
0.6407886743545532 0.7749356627464294 0.12214423716068268
0.6185118556022644 0.8066556453704834 0.09288715571165085
0.6527162790298462 0.719934344291687 0.10232417285442352
0.7090615630149841 0.6758723258972168 0.19722886383533478
0.6707940697669983 0.7285346388816833 0.1319543570280075
0.6948331594467163 0.6979559063911438 0.26143020391464233
0.6580502986907959 0.6788376569747925 0.06838823109865189
0.5910097360610962 0.5534460544586182 -0.029200024902820587
0.614934504032135 0.6235243082046509 -0.08381108194589615
0.6196396350860596 0.6262893676757812 -0.05326824635267258
0.6124130487442017 0.6081568598747253 -0.10670866072177887
0.5848713517189026 0.4501994848251343 0.013274973258376122
0.6211708188056946 0.43706244230270386 0.021418055519461632
0.6520200967788696 0.4340397119522095 0.03678155690431595
0.674493670463562 0.4373904764652252 0.05935920774936676
0.6861628293991089 0.4466512203216553 0.08303140848875046
0.6849957704544067 0.4842936396598816 0.12959134578704834
0.7093343734741211 0.5469411611557007 0.2737126648426056
0.6785449981689453 0.5144973993301392 0.1052607074379921
0.6605700254440308 0.5215586423873901 0.08087596297264099
0.6333907842636108 0.5227662920951843 0.05903571844100952
0.6062660813331604 0.519034743309021 0.043522343039512634
0.5860424637794495 0.5126590132713318 0.0301045048981905
0.5733069181442261 0.5056198239326477 0.021812064573168755
0.676422119140625 0.5502772331237793 0.3669240474700928
0.6146562099456787 0.6311352252960205 -0.04101121053099632
0.5923775434494019 0.5604700446128845 -0.07303029298782349
0.6080362796783447 0.6263249516487122 -0.11034160107374191
0.5903439521789551 0.6386696696281433 -0.1054503470659256
0.6028978824615479 0.6299341917037964 -0.0978533998131752
0.6067629456520081 0.6379343271255493 -0.03576202690601349
0.589514970779419 0.641543984413147 -0.11312562227249146
0.5802029967308044 0.6462295055389404 -0.08458176255226135
0.5697081685066223 0.48734021186828613 0.03378577157855034
0.5635496377944946 0.49330979585647583 0.0117238350212574
0.564450740814209 0.49753445386886597 -0.01000508014112711
0.6681616306304932 0.4704608917236328 0.09239844232797623
0.6786875128746033 0.4636412262916565 0.09746655821800232
