ply
format ascii 1.0
element vertex 468
property float x
property float y
property float z
end_header
0.5722260475158691 0.7029985785484314 -0.06461068987846375
0.6032260656356812 0.6220436096191406 -0.10631276667118073
0.5677642822265625 0.6515307426452637 -0.06079816818237305
0.5626525282859802 0.5431836247444153 -0.08923699706792831
0.6054794788360596 0.5957633852958679 -0.11077709496021271
0.5942267179489136 0.5646037459373474 -0.100523442029953
0.5555577278137207 0.4892364740371704 -0.04285426065325737
0.35675403475761414 0.4754083752632141 -0.07497915625572205
0.5461419820785522 0.4255097210407257 -0.02423274517059326
0.5499259829521179 0.390784353017807 -0.024614177644252777
0.5339264869689941 0.2684039771556854 0.005259145982563496
0.5706248879432678 0.715431809425354 -0.06359338015317917
0.5651940703392029 0.7253959774971008 -0.05872918665409088
0.5577824115753174 0.729844331741333 -0.05078360065817833
0.557709813117981 0.7640764713287354 -0.03861621022224426
0.5612511038780212 0.7751642465591431 -0.04216412082314491
0.5624077916145325 0.7884848713874817 -0.04608151689171791
0.5593386888504028 0.8029690980911255 -0.04221529886126518
0.5444228649139404 0.8214582204818726 -0.024962766095995903
0.5930208563804626 0.6369295120239258 -0.09761235117912292
0.5605598092079163 0.6389010548591614 -0.08387814462184906
0.18676476180553436 0.3712964951992035 -0.0327395536005497
0.42822185158729553 0.5024617910385132 -0.057978540658950806
0.4059270918369293 0.503351092338562 -0.07051542401313782
0.38141241669654846 0.5012830495834351 -0.0782802626490593
0.33970314264297485 0.48392415046691895 -0.07915225625038147
0.4468555450439453 0.49699413776397705 -0.04046963155269623
0.4062519669532776 0.4230334162712097 -0.0784570574760437
0.43101966381073 0.42759281396865845 -0.05963621661067009
0.37842991948127747 0.4256349503993988 -0.08575500547885895
0.35619300603866577 0.435522198677063 -0.08657904714345932
0.3148914873600006 0.502509355545044 -0.07871202379465103
0.4472958445549011 0.8576496243476868 -0.05880269780755043
0.3437950611114502 0.46726906299591064 -0.07299163192510605
0.17914626002311707 0.49057289958000183 -0.038181792944669724
0.2754296064376831 0.48386669158935547 -0.07325665652751923
0.43045151233673096 0.6067471504211426 -0.08509232103824615
0.5444477200508118 0.7005060315132141 -0.07926464080810547
0.5398039221763611 0.7264121174812317 -0.0714314877986908
0.5071128606796265 0.710869312286377 -0.08678674697875977
0.4782527983188629 0.7221319079399109 -0.08431445062160492
0.5121819376945496 0.7302146553993225 -0.07806428521871567
0.4880460798740387 0.734123170375824 -0.07350532710552216
0.4275023639202118 0.7714074850082397 -0.06635341793298721
0.5855749845504761 0.6219958662986755 -0.11419558525085449
0.5851245522499084 0.5963539481163025 -0.11992639303207397
0.316265732049942 0.41031599044799805 -0.09802361577749252
0.47257933020591736 0.5437568426132202 -0.0582285113632679
0.5026345252990723 0.6194301247596741 -0.10063861310482025
0.4945060610771179 0.6054214835166931 -0.09543344378471375
0.3410247266292572 0.6044274568557739 -0.10625187307596207
0.5746753215789795 0.5672255158424377 -0.10937757045030594
0.4007038474082947 0.3805095851421356 -0.08989206701517105
0.3560602366924286 0.38901299238204956 -0.09790387749671936
0.244455486536026 0.3221535384654999 -0.049520064145326614
0.5036048889160156 0.41416746377944946 -0.0475580170750618
0.449332594871521 0.43958473205566406 -0.04150032252073288
0.41120946407318115 0.7439470291137695 -0.0773908942937851
0.15798905491828918 0.7515816688537598 0.004534128587692976
0.516109824180603 0.6348852515220642 -0.08359683305025101
0.5346207022666931 0.6430650353431702 -0.06995931267738342
0.4356876611709595 0.7437069416046143 -0.06758648157119751
0.4449431598186493 0.7433624267578125 -0.06398779153823853
0.3359919786453247 0.3713809847831726 -0.09485992044210434
0.4923931360244751 0.631290078163147 -0.09001635760068893
0.4500831663608551 0.3877395987510681 -0.07330136001110077
0.44867953658103943 0.36603984236717224 -0.077565036714077
0.396525114774704 0.2659701108932495 -0.057021886110305786
0.2941073179244995 0.34756341576576233 -0.07619336992502213
0.4286617934703827 0.31452396512031555 -0.06789237260818481
0.28970015048980713 0.39958107471466064 -0.08959890902042389
0.24091461300849915 0.3876402676105499 -0.06205281242728233
0.5433595180511475 0.7154579758644104 -0.07794887572526932
0.5121963620185852 0.7221043109893799 -0.08348864316940308
0.484891414642334 0.7282691597938538 -0.08025433123111725
0.5190191268920898 0.6400150060653687 -0.07411477714776993
0.4410429298877716 0.7437412142753601 -0.06488535553216934
0.4561753273010254 0.7547329664230347 -0.06476053595542908
0.44641026854515076 0.7426518201828003 -0.06256195157766342
0.5435609817504883 0.6258224844932556 -0.10617341101169586
0.48587268590927124 0.7327234148979187 -0.06877883523702621
0.5093094706535339 0.7311563491821289 -0.06937845796346664
0.5340296626091003 0.7300907373428345 -0.06443186104297638
0.5128241777420044 0.8217708468437195 -0.03983025252819061
0.5287971496582031 0.8010634183883667 -0.058070819824934006
0.5335000157356262 0.7863123416900635 -0.06085279583930969
0.5341960191726685 0.7728399634361267 -0.0569295696914196
0.5330337882041931 0.7634567022323608 -0.052465517073869705
0.4821513891220093 0.7561942338943481 -0.05953318625688553
0.4804113805294037 0.7592897415161133 -0.06275536119937897
0.475943922996521 0.7656479477882385 -0.06687340885400772
0.4700733423233032 0.7737824320793152 -0.06728878617286682
0.4569011926651001 0.6972445845603943 -0.08456927537918091
0.1205684244632721 0.6145445108413696 0.025096971541643143
0.5803972482681274 0.6439271569252014 -0.0741887167096138
0.4642447531223297 0.7518478035926819 -0.060014788061380386
0.4614395797252655 0.7523394823074341 -0.06282486021518707
0.5412911176681519 0.6535472273826599 -0.07101860642433167
0.4933391511440277 0.6472479701042175 -0.06840139627456665
0.5385420322418213 0.648831307888031 -0.07068289816379547
0.44569694995880127 0.557630181312561 -0.0686265081167221
0.4081011414527893 0.5737279057502747 -0.0857236385345459
0.48362165689468384 0.6174024939537048 -0.08694428205490112
0.3136906027793884 0.2859906852245331 -0.05933595076203346
0.354865163564682 0.3213585317134857 -0.07744085043668747
0.39061984419822693 0.3595646619796753 -0.09057027101516724
0.4507792592048645 0.7919489145278931 -0.06332363933324814
0.5025665760040283 0.3785688877105713 -0.05532963201403618
0.4885931611061096 0.3199840486049652 -0.046011246740818024
0.46704983711242676 0.26174336671829224 -0.03407404571771622
0.3561033010482788 0.4948698878288269 -0.08070732653141022
0.28215816617012024 0.5218202471733093 -0.08339720964431763
0.459512323141098 0.49037420749664307 -0.03210632875561714
0.31898629665374756 0.44812870025634766 -0.0859990045428276
0.49271219968795776 0.5277775526046753 -0.05481408163905144
0.5292290449142456 0.6086644530296326 -0.11026459187269211
0.2386995404958725 0.5408632755279541 -0.0821336880326271
0.3116210997104645 0.5400944948196411 -0.09439076483249664
0.3554169535636902 0.5492007732391357 -0.09319727122783661
0.4060956537723541 0.545918345451355 -0.07548321783542633
0.43823570013046265 0.5364298820495605 -0.058926060795784
0.4634144604206085 0.5254918336868286 -0.04766841605305672
0.5342723727226257 0.49490392208099365 -0.051372841000556946
0.24506354331970215 0.5974529385566711 -0.09148592501878738
0.29191505908966064 0.4451168477535248 -0.08781808614730835
0.5832445621490479 0.6363931894302368 -0.10423143208026886
0.4825693368911743 0.5680376887321472 -0.0675269067287445
0.12306568026542664 0.48992809653282166 0.016428181901574135
0.4836117923259735 0.5122597217559814 -0.03894278407096863
0.47112318873405457 0.6197060942649841 -0.06732267886400223
0.3293057382106781 0.4667157530784607 -0.07485085725784302
0.5191839337348938 0.5923376679420471 -0.10266830027103424
0.1298818439245224 0.6811792850494385 0.0179889015853405
0.45696455240249634 0.4814002513885498 -0.02900567278265953
0.5487844347953796 0.5768080353736877 -0.11019141227006912
0.2932620346546173 0.8100032210350037 -0.05632017180323601
0.2640041708946228 0.8438436388969421 -0.028926564380526543
0.17359811067581177 0.6077508330345154 -0.0381336584687233
0.240951269865036 0.776419997215271 -0.053213201463222504
0.20599158108234406 0.4353252947330475 -0.04609586298465729
0.4355581998825073 0.8839612007141113 -0.05596206709742546
0.5728003978729248 0.6430479884147644 -0.0774611383676529
0.45758071541786194 0.5865412950515747 -0.07244180142879486
0.23964177072048187 0.48936134576797485 -0.06841818988323212
0.3873007893562317 0.48600420355796814 -0.07406246662139893
0.40847769379615784 0.48936036229133606 -0.06783443689346313
0.4489596486091614 0.7587075233459473 -0.06614881753921509
0.24323175847530365 0.6527664661407471 -0.08448228985071182
0.4710787534713745 0.9145828485488892 -0.030385171994566917
0.3756345510482788 0.8922677040100098 -0.03666289895772934
0.3263985514640808 0.8736442923545837 -0.03439920023083687
0.5453647375106812 0.3285364508628845 -0.011563590727746487
0.5163325071334839 0.9133710265159607 -0.00599208427593112
0.4258873164653778 0.48897498846054077 -0.056249164044857025
0.44161325693130493 0.4856388568878174 -0.043334707617759705
0.4517219662666321 0.48370158672332764 -0.03300163894891739
0.25918543338775635 0.44007253646850586 -0.07820145785808563
0.44142434000968933 0.46260982751846313 -0.04658391699194908
0.4235791563987732 0.4538039565086365 -0.058841705322265625
0.40506890416145325 0.4512362480163574 -0.07015831023454666
0.38279545307159424 0.4535837769508362 -0.07714572548866272
0.36672243475914 0.4586743116378784 -0.07819388061761856
0.14802566170692444 0.4240337610244751 -0.005489896051585674
0.37042808532714844 0.4810459315776825 -0.07596214860677719
0.5669268369674683 0.6685131788253784 -0.056660283356904984
0.48361513018608093 0.6820836067199707 -0.08124503493309021
0.521064043045044 0.6306264996528625 -0.08809059858322144
0.5382771492004395 0.6722619533538818 -0.07292018830776215
0.5437031388282776 0.45742014050483704 -0.02633022516965866
0.3426406979560852 0.8411448001861572 -0.05228502303361893
0.387219101190567 0.8637522459030151 -0.05253748595714569
0.48613590002059937 0.8965840935707092 -0.05002816393971443
0.20659543573856354 0.8067826628684998 -0.013781832531094551
0.4529341161251068 0.4745071232318878 -0.03622898459434509
0.5276983976364136 0.5336076617240906 -0.06958606094121933
0.5324186086654663 0.8950773477554321 -0.025449654087424278
0.4253271520137787 0.9064550399780273 -0.040152471512556076
0.1781597137451172 0.6692758798599243 -0.039241619408130646
0.5075696110725403 0.7604740858078003 -0.0583859346807003
0.5059198141098022 0.7669560313224792 -0.06273350119590759
0.5031524896621704 0.7773261666297913 -0.06731244921684265
0.4986308813095093 0.790363609790802 -0.06642180681228638
0.4791693687438965 0.8097430467605591 -0.057290490716695786
0.46257323026657104 0.7380936145782471 -0.06985650956630707
0.4580133557319641 0.7354026436805725 -0.07446864247322083
0.4517638385295868 0.7317636609077454 -0.07838756591081619
0.4311530292034149 0.7177391052246094 -0.08449969440698624
0.3041805624961853 0.6644191741943359 -0.09985890984535217
0.5139468312263489 0.5095852017402649 -0.051358725875616074
0.4826180636882782 0.46029141545295715 -0.0226060152053833
0.4645722806453705 0.46295803785324097 -0.02916921116411686
0.4639586806297302 0.7351938486099243 -0.06594602018594742
0.2816891074180603 0.7328697443008423 -0.07738951593637466
0.5122739672660828 0.4594363570213318 -0.033435966819524765
0.4605698883533478 0.8325241804122925 -0.055217988789081573
0.5806624889373779 0.5394091606140137 -0.08059123158454895
0.548978328704834 0.5206305980682373 -0.0698302760720253
0.5684663653373718 0.5159086585044861 -0.06082587689161301
0.5130765438079834 0.5719537734985352 -0.0807100161910057
0.5404577255249023 0.8704351186752319 -0.032052986323833466
0.5421901941299438 0.8430954813957214 -0.02844250202178955
0.503658652305603 0.8447974920272827 -0.04495033994317055
0.3994676470756531 0.7843613624572754 -0.06772121042013168
0.4498193860054016 0.6407355666160583 -0.07457320392131805
0.4258362054824829 0.8124530911445618 -0.061121728271245956
0.3896576166152954 0.6379831433296204 -0.09882029891014099
0.4276605546474457 0.6667852401733398 -0.08551756292581558
0.3575194776058197 0.6820654273033142 -0.09803152084350586
0.4961644113063812 0.8721715807914734 -0.054273586720228195
0.49026036262512207 0.5866659283638 -0.07678113877773285
0.36755383014678955 0.8079478740692139 -0.06532521545886993
0.406119167804718 0.8348701000213623 -0.05819741263985634
0.38170167803764343 0.7505378723144531 -0.08232615888118744
0.24346180260181427 0.7008115649223328 -0.07505887001752853
0.3333604037761688 0.7598524689674377 -0.08045694977045059
0.19594699144363403 0.7262784242630005 -0.0438741073012352
0.4024686813354492 0.7006792426109314 -0.0895051434636116
0.5049781799316406 0.5504445433616638 -0.06819033622741699
0.5384392142295837 0.6210958957672119 -0.11179807037115097
0.5116308927536011 0.6283292174339294 -0.09680496156215668
0.5581521391868591 0.6013978719711304 -0.11817498505115509
0.47106635570526123 0.43361759185791016 -0.03909163177013397
0.43923744559288025 0.4135966897010803 -0.06231986731290817
0.4062446653842926 0.40719547867774963 -0.08091355115175247
0.37241384387016296 0.4110005497932434 -0.09176614880561829
0.34188634157180786 0.4241552948951721 -0.09307752549648285
0.30637624859809875 0.47548907995224 -0.0751158595085144
0.1739073395729065 0.5485074520111084 -0.0405898280441761
0.3352288007736206 0.5135398507118225 -0.08226019889116287
0.3680688440799713 0.5218393802642822 -0.07922240346670151
0.40305593609809875 0.5227949619293213 -0.06949720531702042
0.43235039710998535 0.5181379914283752 -0.05540800467133522
0.454262375831604 0.5104269981384277 -0.03938538208603859
0.4705110192298889 0.5026131272315979 -0.031426820904016495
0.11760973930358887 0.5520331859588623 0.025946421548724174
0.5049625635147095 0.6351913809776306 -0.08697579801082611
0.5392157435417175 0.5548807382583618 -0.0875740572810173
0.5649121403694153 0.6208387613296509 -0.11526917666196823
0.5671566724777222 0.6345936059951782 -0.10059009492397308
0.5575632452964783 0.6264444589614868 -0.10702187567949295
0.5062181353569031 0.643417239189148 -0.07506339997053146
0.574809730052948 0.6354995369911194 -0.1035912036895752
0.5657892823219299 0.6422016024589539 -0.08057564496994019
0.46809256076812744 0.48202913999557495 -0.023013368248939514
0.48364412784576416 0.48824137449264526 -0.02392840012907982
0.49871665239334106 0.4921947419643402 -0.03246857970952988
0.35534554719924927 0.4631640911102295 -0.07643678784370422
0.3367839455604553 0.44863560795783997 -0.08272337168455124
0.5925751328468323 0.5439035892486572 -0.059650737792253494
0.6256965398788452 0.49085283279418945 0.14221662282943726
0.5921158194541931 0.6373740434646606 -0.061277735978364944
0.6214663982391357 0.41146403551101685 0.30139023065567017
0.5844092965126038 0.5122470259666443 0.08126043528318405
0.6009009480476379 0.5147840976715088 0.09682781249284744
0.615115761756897 0.5135809183120728 0.11542081087827682
0.62407386302948 0.49976009130477905 0.15060584247112274
0.5720192790031433 0.5048391222953796 0.06854812055826187
0.6141290068626404 0.443906307220459 0.09640410542488098
0.5951427817344666 0.4457034468650818 0.07759444415569305
0.6285451650619507 0.44874224066734314 0.1168883815407753
0.634337306022644 0.45901116728782654 0.13316276669502258
0.6315858364105225 0.5180177688598633 0.16769762337207794
0.582156777381897 0.8444589972496033 0.041926849633455276
0.6269145011901855 0.48515748977661133 0.154403418302536
0.6174104809761047 0.5120434761047363 0.3033515214920044
0.6317023038864136 0.5020661950111389 0.20517536997795105
0.6210129261016846 0.6100197434425354 0.0537518672645092
0.5922518372535706 0.7002496719360352 -0.04442702233791351
0.5810776948928833 0.7255741357803345 -0.0393906868994236
0.605434775352478 0.7084072828292847 -0.014036418870091438
0.6082451939582825 0.7199971675872803 0.015748897567391396
0.5894244909286499 0.7280465364456177 -0.015340186655521393
0.5935254096984863 0.7321767807006836 0.010237948969006538
0.6027371287345886 0.7654889822006226 0.06238511577248573
0.6143170595169067 0.6217355728149414 -0.09486284852027893
0.6179460287094116 0.5969007015228271 -0.09716905653476715
0.6502029895782471 0.4386904835700989 0.16273370385169983
0.5843253135681152 0.547845721244812 0.031923357397317886
0.6167668104171753 0.6187286376953125 -0.015325825661420822
0.6120091676712036 0.6057713031768799 -0.007307545281946659
0.6523692607879639 0.6098373532295227 0.12492917478084564
0.6064388751983643 0.5679032206535339 -0.08029332011938095
0.638839602470398 0.40697717666625977 0.09036028385162354
0.649869441986084 0.4179353713989258 0.12880085408687592
0.6301696300506592 0.36458820104599 0.24924543499946594
0.5800595283508301 0.4227784276008606 0.011268419213593006
0.5777590870857239 0.45441919565200806 0.06952561438083649
0.613794207572937 0.7396503686904907 0.0794624537229538
0.5648171305656433 0.738871693611145 0.31635332107543945
0.602855920791626 0.6331248879432678 -0.019529737532138824
0.5900955200195312 0.6413182020187378 -0.03851320967078209
0.6035589575767517 0.7415636777877808 0.06664157658815384
0.5944312810897827 0.7407917976379395 0.053772203624248505
0.6520302295684814 0.4039916396141052 0.14728301763534546
0.6092676520347595 0.6300508975982666 -0.006710586603730917
0.6172133684158325 0.40706008672714233 0.05053732916712761
0.6217934489250183 0.3871367275714874 0.0499008372426033
0.6115092039108276 0.2959024906158447 0.11496687680482864
0.6430978775024414 0.3840947151184082 0.19188052415847778
0.6180714964866638 0.3394663631916046 0.08105252683162689
0.6496702432632446 0.43028050661087036 0.18995335698127747
0.6380492448806763 0.4228706359863281 0.2420077621936798
0.5886785387992859 0.7147185206413269 -0.04331932216882706
0.5988487601280212 0.7198026776313782 -0.01527461502701044
0.6024960279464722 0.7260411977767944 0.010608388110995293
0.5964347720146179 0.6378976702690125 -0.021543215960264206
0.5996834635734558 0.7417237162590027 0.05942051485180855
0.5988782644271851 0.7520493865013123 0.03948822245001793
0.590103805065155 0.7397583723068237 0.05188508331775665
0.6114953756332397 0.6236374974250793 -0.04768320173025131
0.584709644317627 0.7312023043632507 0.01072696503251791
0.5800079703330994 0.729637622833252 -0.010634754784405231
0.571965217590332 0.7295723557472229 -0.03176677227020264
0.566992998123169 0.8185297846794128 -0.008409678936004639
0.5809457898139954 0.798327624797821 -0.023521069437265396
0.5826417207717896 0.783876895904541 -0.0258707944303751
0.5795570611953735 0.7711367011070251 -0.02140178345143795
0.5738928914070129 0.7621601819992065 -0.019053729251027107
0.5872855186462402 0.7538853883743286 0.02018781751394272
0.5921850800514221 0.7566391229629517 0.016665026545524597
0.597519040107727 0.7621597647666931 0.015432663261890411
0.6002813577651978 0.7693771123886108 0.021922679618000984
0.6170717477798462 0.6955050230026245 0.03172162547707558
0.5691412687301636 0.620231568813324 0.3738628923892975
0.5880690813064575 0.749473512172699 0.03923498094081879
0.5942445993423462 0.749931275844574 0.0378921777009964
0.5850738286972046 0.6519805192947388 -0.040338702499866486
0.5987079739570618 0.6455408930778503 -0.002075222320854664
0.5877034664154053 0.6470640301704407 -0.040296804159879684
0.5981389284133911 0.5629048943519592 0.05241589620709419
0.6241998672485352 0.5799342393875122 0.0784960389137268
0.6082911491394043 0.6172366738319397 0.0040728929452598095
0.627389132976532 0.3252973258495331 0.18416349589824677
0.6360843181610107 0.35508179664611816 0.13855727016925812
0.6422715187072754 0.38840872049331665 0.10105730593204498
0.595478892326355 0.7849283218383789 0.04240167886018753
0.5904408097267151 0.39050954580307007 0.009728610515594482
0.588434100151062 0.33309146761894226 0.03201404958963394
0.5821514129638672 0.2785845696926117 0.05271802842617035
0.622490406036377 0.5086893439292908 0.1353675127029419
0.6400182247161865 0.5364032983779907 0.19113865494728088
0.5648325681686401 0.4970819652080536 0.06552473455667496
0.6371216773986816 0.470176100730896 0.16619038581848145
0.5772631168365479 0.5311442613601685 0.017232971265912056
0.6201323866844177 0.608605682849884 -0.040921226143836975
0.643024206161499 0.5545644760131836 0.2297593206167221
0.6450082063674927 0.5521780252456665 0.16307254135608673
0.6384491920471191 0.5591292381286621 0.12431322783231735
0.6131816506385803 0.5540383458137512 0.09009922295808792
0.5910913944244385 0.5428404211997986 0.06617449969053268
0.5766891241073608 0.5304447412490845 0.04615103453397751
0.5680028200149536 0.4968510568141937 -0.020510101690888405
0.652393102645874 0.6041173338890076 0.21868610382080078
0.6399681568145752 0.4681890606880188 0.18801768124103546
0.6001483798027039 0.6361123323440552 -0.08902131766080856
0.5911344289779663 0.5710040926933289 0.019991666078567505
0.5837830305099487 0.5137799978256226 0.3756605088710785
0.5678238868713379 0.5164263248443604 0.03419364243745804
0.6003587245941162 0.6197411417961121 0.02284413017332554
0.6278260946273804 0.48600995540618896 0.1641978919506073
0.6122002005577087 0.5929500460624695 -0.031981538981199265
0.5679872035980225 0.6775946617126465 0.35245823860168457
0.5616546273231506 0.4880208373069763 0.07362443953752518
0.6111191511154175 0.5776212811470032 -0.05870296061038971
0.5985285043716431 0.7915207147598267 0.17496797442436218
0.5708061456680298 0.8214043974876404 0.20700247585773468
0.6209236979484558 0.614456295967102 0.30243754386901855
0.6042782664299011 0.7608567476272583 0.21963980793952942
0.626603364944458 0.46472468972206116 0.28008726239204407
0.5766198635101318 0.8675545454025269 0.05364000052213669
0.586216390132904 0.6428940296173096 -0.06824817508459091
0.6005426049232483 0.5896090269088745 0.035488516092300415
0.6308461427688599 0.5083150267601013 0.23873987793922424
0.6165865063667297 0.4996313452720642 0.11636142432689667
0.6032133102416992 0.5020310878753662 0.10040731728076935
0.6015298366546631 0.7555713653564453 0.04646051675081253
0.6459022760391235 0.6533613204956055 0.21387797594070435
0.5472894906997681 0.9039064645767212 0.030190985649824142
0.565792977809906 0.8701504468917847 0.11561072617769241
0.5680518746376038 0.8497406244277954 0.1570904403924942
0.5880640149116516 0.5000075101852417 0.08706167340278625
0.5747779607772827 0.4947715699672699 0.07973603904247284
0.5662876963615417 0.4910171329975128 0.07736361771821976
0.6381796598434448 0.4657987356185913 0.21878018975257874
0.575225293636322 0.47319602966308594 0.07979191839694977
0.5890461802482605 0.4677678942680359 0.0873994529247284
0.6053352355957031 0.4660969078540802 0.10065234452486038
0.6188696026802063 0.46959739923477173 0.11690884083509445
0.6248171329498291 0.47580328583717346 0.1300656795501709
0.6055013537406921 0.4579217731952667 0.34595605731010437
0.622840940952301 0.4954252541065216 0.13140586018562317
0.6084964275360107 0.6798719167709351 0.007059966214001179
0.608197808265686 0.6288607716560364 -0.027806764468550682
0.5891611576080322 0.6708678007125854 -0.036672867834568024
0.5891347527503967 0.8202722072601318 0.13422249257564545
0.5818088054656982 0.8434198498725891 0.09473556280136108
0.5626909732818604 0.8870159983634949 0.00935526005923748
0.5667100548744202 0.7875106930732727 0.2648889422416687
0.5665604472160339 0.48165127635002136 0.0762007087469101
0.5858293771743774 0.5358535647392273 -0.020465552806854248
0.561515748500824 0.8885599374771118 0.07206574827432632
0.6157639622688293 0.6677225232124329 0.2867773771286011
0.5835443735122681 0.758480429649353 0.001330151571892202
0.5887297987937927 0.7643749713897705 -0.0012643925147131085
0.5933399796485901 0.7740020155906677 -0.0027735275216400623
0.5944744348526001 0.7860679030418396 0.0017274863785132766
0.5846861004829407 0.8037901520729065 0.018766043707728386
0.5948547124862671 0.7358810305595398 0.03501443192362785
0.6021559238433838 0.7335928082466125 0.04086516797542572
0.6072883605957031 0.7299081683158875 0.04472366347908974
0.6196004152297974 0.7155996561050415 0.06018581986427307
0.6491708755493164 0.6639406085014343 0.15037110447883606
0.5720733404159546 0.5124471783638 -0.0005112607032060623
0.5590503215789795 0.4668160676956177 0.042453475296497345
0.5626946687698364 0.47166311740875244 0.06432854384183884
0.5874436497688293 0.7332046627998352 0.03390723094344139
0.6275378465652466 0.7239860892295837 0.17783983051776886
0.5582790970802307 0.46360456943511963 0.004453605506569147
0.5810726881027222 0.8225290179252625 0.030579518526792526
0.5811976194381714 0.521945595741272 -0.04351309314370155
0.5976516604423523 0.5737614631652832 -0.01612284407019615
0.5661031603813171 0.8391153812408447 -0.0034600880462676287
0.605110764503479 0.7740648984909058 0.08265377581119537
0.6105648875236511 0.6407591104507446 0.03890470042824745
0.5925217270851135 0.800868570804596 0.05806862562894821
0.6411163806915283 0.6403067111968994 0.07944772392511368
0.6244146227836609 0.6667637228965759 0.05589299649000168
0.6415538787841797 0.6804765462875366 0.10564817488193512
0.5685825943946838 0.8645281791687012 0.0012483522295951843
0.5975501537322998 0.5882682800292969 0.0040895347483456135
0.6029243469238281 0.7922933101654053 0.10976626724004745
0.5898504853248596 0.8188760280609131 0.07651102542877197
0.6189679503440857 0.7434868812561035 0.09965138137340546
0.6338437795639038 0.6954408884048462 0.21101975440979004
0.6211580038070679 0.7488539218902588 0.13239532709121704
0.6084797978401184 0.7169374227523804 0.2651765048503876
0.6285809874534607 0.6989293098449707 0.07711880654096603
0.5874371528625488 0.5531623959541321 0.0012121150502935052
0.6176478266716003 0.6193679571151733 -0.04870256036520004
0.6142244338989258 0.6269240975379944 -0.024508561939001083
0.6213006973266602 0.6012664437294006 -0.0668107271194458
0.5759028196334839 0.44412606954574585 0.051144737750291824
0.6038259267807007 0.4311569333076477 0.07028605788946152
0.6258874535560608 0.4302141070365906 0.09281991422176361
0.6396641731262207 0.4367890954017639 0.11954812705516815
0.6431394219398499 0.4499523937702179 0.14423559606075287
0.6294634342193604 0.49398285150527954 0.1797366738319397
0.6204044222831726 0.5630520582199097 0.3078019618988037
0.6316260099411011 0.5273338556289673 0.14883482456207275
0.6236664056777954 0.5335052013397217 0.12203914672136307
0.6055618524551392 0.5326747298240662 0.09572850167751312
0.585617184638977 0.5262008905410767 0.0745125487446785
0.5716043710708618 0.5168005228042603 0.058624230325222015
0.5632950663566589 0.5078076124191284 0.048059672117233276
0.5714403986930847 0.5667401552200317 0.38319316506385803
0.607092559337616 0.6337563991546631 -0.016296323388814926
0.597220778465271 0.5561712980270386 -0.03686298802495003
0.6188477277755737 0.6191496849060059 -0.07457955181598663
0.6014575362205505 0.6326281428337097 -0.07720014452934265
0.6114032864570618 0.6240718364715576 -0.06567259877920151
0.5989007949829102 0.6416429281234741 -0.016157638281583786
0.6026409268379211 0.634774386882782 -0.08436769992113113
0.5899308323860168 0.6411581635475159 -0.06466476619243622
0.5590391159057617 0.4884037375450134 0.061550725251436234
0.5564236640930176 0.49313780665397644 0.03805875405669212
0.560603141784668 0.49640417098999023 0.01923220232129097
0.6269083023071289 0.480810284614563 0.14161452651023865
0.6335684061050415 0.47054731845855713 0.1501827836036682
