ply
format ascii 1.0
element vertex 468
property float x
property float y
property float z
end_header
0.5065813064575195 0.7013843059539795 -0.07103569805622101
0.5083610415458679 0.632286787033081 -0.140479177236557
0.5063526630401611 0.6553217768669128 -0.07796762883663177
0.48662832379341125 0.5460303425788879 -0.1049853041768074
0.5086368918418884 0.6054192781448364 -0.14811773598194122
0.5080579519271851 0.5704307556152344 -0.13732607662677765
0.5058009028434753 0.4885777533054352 -0.06689604371786118
0.332527220249176 0.4826580286026001 0.027216367423534393
0.5048859715461731 0.43545258045196533 -0.04605269804596901
0.505088210105896 0.4035191535949707 -0.04869701340794563
0.5049790740013123 0.27940860390663147 -0.016680847853422165
0.5063960552215576 0.7124248147010803 -0.06811271607875824
0.506084680557251 0.719247043132782 -0.06182589754462242
0.5057185292243958 0.719877302646637 -0.05233490467071533
0.5055209994316101 0.7618712186813354 -0.040885522961616516
0.5057648420333862 0.7708775401115417 -0.04627641290426254
0.5056763887405396 0.7822086811065674 -0.05359345301985741
0.5054885745048523 0.7963622212409973 -0.052130065858364105
0.5039991140365601 0.8241402506828308 -0.0343865230679512
0.5074595808982849 0.6459513306617737 -0.12813569605350494
0.4820390045642853 0.6425486207008362 -0.09498390555381775
0.2391282320022583 0.3970269560813904 0.14120586216449738
0.4035134017467499 0.501670777797699 0.005424093920737505
0.379408061504364 0.5032800436019897 0.005487003363668919
0.35533660650253296 0.5025709271430969 0.010584302246570587
0.321134090423584 0.49175018072128296 0.029636532068252563
0.4232672452926636 0.49665290117263794 0.008572148159146309
0.36949121952056885 0.4457319974899292 -0.003373189130797982
0.3949088454246521 0.4465568959712982 -0.0008976986282505095
0.3454623520374298 0.449884831905365 0.002526983618736267
0.32890230417251587 0.4582782983779907 0.01188453659415245
0.2998483180999756 0.5073696970939636 0.04044812172651291
0.4047856330871582 0.8608851432800293 -0.004791855812072754
0.3226959705352783 0.47842395305633545 0.03476160764694214
0.22139090299606323 0.5038249492645264 0.14699867367744446
0.2711997926235199 0.49562400579452515 0.06441421061754227
0.3739728331565857 0.6003222465515137 -0.025698767974972725
0.466836154460907 0.6965152025222778 -0.06975039094686508
0.4692734479904175 0.7174162864685059 -0.05853769928216934
0.4260837733745575 0.6993443369865417 -0.054716791957616806
0.3998974561691284 0.7043600082397461 -0.030723225325345993
0.4391856789588928 0.7159550786018372 -0.04625507444143295
0.41615551710128784 0.71586012840271 -0.02428625337779522
0.3719593286514282 0.7501780390739441 0.012264726683497429
0.48704659938812256 0.6314197778701782 -0.13883788883686066
0.48482874035835266 0.6050528883934021 -0.14611434936523438
0.29222428798675537 0.43845996260643005 0.01558089442551136
0.4304075837135315 0.5420086979866028 -0.024188373237848282
0.4228605329990387 0.6167150139808655 -0.07944599539041519
0.42154979705810547 0.6025251150131226 -0.07134167104959488
0.29606035351753235 0.5939880609512329 0.0029037902131676674
0.48589760065078735 0.5728311538696289 -0.13057070970535278
0.3533361852169037 0.41248083114624023 -0.023171020671725273
0.31801173090934753 0.4209855794906616 -0.006724121049046516
0.2669134736061096 0.3522224426269531 0.09627290070056915
0.4574826955795288 0.4311366379261017 -0.040025245398283005
0.41722407937049866 0.4534815549850464 0.0073209404945373535
0.35021835565567017 0.7183774709701538 0.015463024377822876
0.23179802298545837 0.7478771209716797 0.20115680992603302
0.44043150544166565 0.6316040754318237 -0.0691106989979744
0.46202948689460754 0.6409000754356384 -0.07188908755779266
0.3690251111984253 0.7168210744857788 0.017863018438220024
0.3817901611328125 0.7185564041137695 0.012777615338563919
0.30445683002471924 0.4056321680545807 0.006095686461776495
0.41944408416748047 0.6251085996627808 -0.06604845821857452
0.39939242601394653 0.41407710313796997 -0.03447875380516052
0.39502131938934326 0.3938010334968567 -0.03917098417878151
0.36757612228393555 0.29189494252204895 0.00912998802959919
0.28684747219085693 0.37770557403564453 0.04616850987076759
0.38411545753479004 0.33974719047546387 -0.015469624660909176
0.27662235498428345 0.42798441648483276 0.03679931163787842
0.25827261805534363 0.4135705530643463 0.08750773966312408
0.4674963653087616 0.7096315026283264 -0.0661730244755745
0.4334118664264679 0.7098187208175659 -0.050801802426576614
0.4082862436771393 0.710271954536438 -0.029230283573269844
0.44584476947784424 0.6356139779090881 -0.06448862701654434
0.3750264644622803 0.7172232270240784 0.015319024212658405
0.3907867968082428 0.7355607748031616 0.0017941417172551155
0.38611578941345215 0.7195239067077637 0.01212256122380495
0.45712006092071533 0.6288194060325623 -0.1039867028594017
0.42034125328063965 0.7134568691253662 -0.02093956060707569
0.44370001554489136 0.7150812745094299 -0.0370057038962841
0.47168099880218506 0.7180362343788147 -0.049026235938072205
0.463777095079422 0.8209486603736877 -0.03242719918489456
0.4666556417942047 0.7921802401542664 -0.04946798086166382
0.4684031009674072 0.7777608633041382 -0.05035316199064255
0.47004470229148865 0.766658365726471 -0.0422346405684948
0.4722617566585541 0.75909423828125 -0.03737500309944153
0.41986262798309326 0.7440512776374817 -0.011849048547446728
0.4156109690666199 0.7461596727371216 -0.016145886853337288
0.4099673628807068 0.7512959837913513 -0.019939297810196877
0.40528446435928345 0.7590356469154358 -0.015600117854773998
0.3829597234725952 0.683373749256134 -0.0250589270144701
0.21115851402282715 0.619809091091156 0.239724799990654
0.5069267153739929 0.6508339643478394 -0.09561770409345627
0.40441539883613586 0.735685408115387 0.003949808422476053
0.3974077105522156 0.7343956232070923 0.0013925774255767465
0.4709402620792389 0.6525145173072815 -0.07276316732168198
0.42576268315315247 0.638751208782196 -0.047345928847789764
0.4665532112121582 0.6470511555671692 -0.07310040295124054
0.4031195640563965 0.5540431141853333 -0.01781294122338295
0.36020171642303467 0.5673932433128357 -0.014229778200387955
0.415324330329895 0.6118788719177246 -0.057414814829826355
0.307352215051651 0.31610727310180664 0.04965279623866081
0.32676804065704346 0.35211774706840515 0.012906797230243683
0.34483474493026733 0.3930985927581787 -0.01757178269326687
0.39514467120170593 0.7783828973770142 -0.0021471893414855003
0.45012688636779785 0.3986438512802124 -0.04832523316144943
0.4413016736507416 0.3368135988712311 -0.030236495658755302
0.4309762120246887 0.28089290857315063 -0.013140538707375526
0.3338162899017334 0.49903345108032227 0.020105313509702682
0.271071195602417 0.5241197347640991 0.05277237668633461
0.435362845659256 0.4908526539802551 0.012603194452822208
0.30142807960510254 0.46740180253982544 0.031021444126963615
0.4488205313682556 0.52735835313797 -0.032451801002025604
0.4415431320667267 0.6113601326942444 -0.10342423617839813
0.2414608597755432 0.5430547595024109 0.07772395014762878
0.28885114192962646 0.5369354486465454 0.030769383534789085
0.32109177112579346 0.5435292720794678 0.009818363934755325
0.36899107694625854 0.5418256521224976 -0.0001505438849562779
0.40473777055740356 0.5342199206352234 -0.003314707428216934
0.43075084686279297 0.5242395401000977 -0.008917735889554024
0.48278507590293884 0.4952797293663025 -0.057809505611658096
0.23835688829421997 0.591642439365387 0.06905709952116013
0.2804006338119507 0.46509653329849243 0.04140458628535271
0.4945397973060608 0.6445704698562622 -0.1271393895149231
0.4305088520050049 0.5658493638038635 -0.036335695534944534
0.21186384558677673 0.505081057548523 0.2258528470993042
0.44969168305397034 0.5118463039398193 -0.011574766598641872
0.411367267370224 0.6123160719871521 -0.03112865798175335
0.31378287076950073 0.48078590631484985 0.03876696899533272
0.44051429629325867 0.593777596950531 -0.09326550364494324
0.215754896402359 0.6823365688323975 0.22614556550979614
0.4340464472770691 0.4824874997138977 0.019581899046897888
0.4634663760662079 0.5811530351638794 -0.11678013205528259
0.2888602018356323 0.7990772128105164 0.0829433724284172
0.290676474571228 0.8369927406311035 0.11955731362104416
0.21201741695404053 0.6086752414703369 0.15481264889240265
0.2539297640323639 0.7664035558700562 0.10820705443620682
0.23932534456253052 0.4546326994895935 0.12409614771604538
0.40017709136009216 0.8920600414276123 0.004967845976352692
0.496476411819458 0.6494936347007751 -0.09418746083974838
0.4060581624507904 0.5817028284072876 -0.02879091538488865
0.24828878045082092 0.501556396484375 0.087933748960495
0.35880786180496216 0.48782896995544434 0.013825264759361744
0.38023796677589417 0.4891529679298401 0.008835259824991226
0.3846938908100128 0.7384267449378967 0.005187267437577248
0.23552560806274414 0.644227921962738 0.07587682455778122
0.4472631812095642 0.9320357441902161 0.007061761803925037
0.36759206652641296 0.8957979679107666 0.05805985629558563
0.3322543501853943 0.8711778521537781 0.08648819476366043
0.5051991939544678 0.33851808309555054 -0.03343861550092697
0.5011106729507446 0.937110185623169 0.0015602072235196829
0.399874746799469 0.4881726801395416 0.008732005022466183
0.41825684905052185 0.4853593707084656 0.013012133538722992
0.42922258377075195 0.4839991331100464 0.01850033365190029
0.2612723410129547 0.46062594652175903 0.06564297527074814
0.4128587245941162 0.4672725796699524 0.010821625590324402
0.3923230469226837 0.4616087079048157 0.005408903118222952
0.3725101351737976 0.4604724049568176 0.005267958622425795
0.35171037912368774 0.4642486572265625 0.009844605810940266
0.33784377574920654 0.47054675221443176 0.01715257205069065
0.22158509492874146 0.44462689757347107 0.1890001744031906
0.3435419201850891 0.4853091835975647 0.020708303898572922
0.5063786506652832 0.670477032661438 -0.06997661292552948
0.4102133810520172 0.6719279289245605 -0.04439397528767586
0.44094574451446533 0.6293065547943115 -0.07857950776815414
0.466268926858902 0.6697843670845032 -0.06867867708206177
0.5049124956130981 0.4610423445701599 -0.046649567782878876
0.3276154696941376 0.8341286182403564 0.06190172955393791
0.3627229332923889 0.8633028268814087 0.03521757200360298
0.44740140438079834 0.9108892679214478 -0.02005656436085701
0.25857269763946533 0.7996318340301514 0.16057686507701874
0.4273436963558197 0.47626152634620667 0.015986138954758644
0.4664340019226074 0.5347976684570312 -0.06677904725074768
0.5025814771652222 0.9156777858734131 -0.024109216406941414
0.4043033719062805 0.9172331690788269 0.027447301894426346
0.2150452435016632 0.6663961410522461 0.14927105605602264
0.44378700852394104 0.7525087594985962 -0.026124252006411552
0.43957579135894775 0.7576586604118347 -0.03071359358727932
0.4359995722770691 0.7664071917533875 -0.035293061286211014
0.4329833984375 0.7791934609413147 -0.032576266676187515
0.42448997497558594 0.8033746480941772 -0.019288694486021996
0.39444106817245483 0.7154413461685181 -0.004374690819531679
0.38668927550315857 0.7125425934791565 -0.004291029181331396
0.37932923436164856 0.7084097266197205 -0.004877141211181879
0.35982897877693176 0.6974045634269714 -0.0030835189390927553
0.26831701397895813 0.6527019143104553 0.028050251305103302
0.466642290353775 0.5100839138031006 -0.04300844669342041
0.4539436995983124 0.46632087230682373 0.003834070172160864
0.43828830122947693 0.469357967376709 0.01237772312015295
0.400822252035141 0.7130999565124512 -0.002445336664095521
0.2630450129508972 0.7201288342475891 0.06542983651161194
0.47461631894111633 0.4652615189552307 -0.02967550978064537
0.4144698679447174 0.8300271034240723 -0.011373218148946762
0.5072298645973206 0.5422694087028503 -0.11239714175462723
0.4844322204589844 0.5218796730041504 -0.08326109498739243
0.5065733790397644 0.5164282917976379 -0.08815589547157288
0.4475642144680023 0.5726077556610107 -0.0690787211060524
0.5035362243652344 0.8858917355537415 -0.0351678803563118
0.5037817358970642 0.8517444133758545 -0.034369226545095444
0.45782339572906494 0.84871506690979 -0.029312198981642723
0.35500794649124146 0.7664870619773865 0.021915772929787636
0.3902708888053894 0.6316863894462585 -0.02471063658595085
0.3821563720703125 0.802133321762085 0.007293215021491051
0.32888415455818176 0.6284791827201843 -0.017174646258354187
0.3635319471359253 0.6555950045585632 -0.01700926385819912
0.30375805497169495 0.6685709953308105 0.005149616859853268
0.4507693350315094 0.881868839263916 -0.02975541725754738
0.43033450841903687 0.5844890475273132 -0.05207577720284462
0.33569008111953735 0.7955707907676697 0.0389212928712368
0.3700982928276062 0.8298805952072144 0.02057463489472866
0.3319271206855774 0.7292629480361938 0.02147050015628338
0.23923435807228088 0.6907554864883423 0.08451686054468155
0.29913514852523804 0.7434597015380859 0.040200598537921906
0.2274022400379181 0.719925582408905 0.1380108743906021
0.33865296840667725 0.6821624636650085 -0.002740552881732583
0.4491458535194397 0.550598680973053 -0.05016714334487915
0.4493454098701477 0.6240673065185547 -0.1088506430387497
0.43030259013175964 0.6260607242584229 -0.08236861228942871
0.4624600410461426 0.6079185009002686 -0.12636426091194153
0.43619000911712646 0.44808754324913025 -0.0030452783685177565
0.39772772789001465 0.4359121024608612 -0.009860300458967686
0.3637273907661438 0.43376094102859497 -0.011005260981619358
0.33460158109664917 0.43819284439086914 -0.002829472068697214
0.3133283853530884 0.4491350054740906 0.011136800050735474
0.29586565494537354 0.4882901906967163 0.04775358736515045
0.21418893337249756 0.5553222894668579 0.15213993191719055
0.3143715262413025 0.5154774188995361 0.02855551429092884
0.3406587839126587 0.5211628675460815 0.014798890799283981
0.3738332986831665 0.5214899182319641 0.006315554957836866
0.4049539566040039 0.5171534419059753 0.003991605713963509
0.4284464716911316 0.5098817944526672 0.0034864984918385744
0.4441511332988739 0.5024001598358154 0.0030407309532165527
0.21114423871040344 0.5620883703231812 0.2412673979997635
0.42944926023483276 0.6304709315299988 -0.07015018910169601
0.46676868200302124 0.5571733713150024 -0.08824406564235687
0.4687386751174927 0.6273415088653564 -0.12763568758964539
0.48135122656822205 0.6398190259933472 -0.11731509119272232
0.46775415539741516 0.6311628222465515 -0.11567302793264389
0.4348435401916504 0.6368963718414307 -0.06132389232516289
0.48629093170166016 0.6425907611846924 -0.12383975088596344
0.4879569411277771 0.647030234336853 -0.09460146725177765
0.4431341290473938 0.4840123653411865 0.015771079808473587
0.4565088748931885 0.48960500955581665 0.0008887269650585949
0.4639952480792999 0.4935021996498108 -0.01805710792541504
0.32927173376083374 0.4750383198261261 0.024583807215094566
0.3159301280975342 0.4680493175983429 0.025049079209566116
0.5270575284957886 0.5462629795074463 -0.10284382849931717
0.6701675057411194 0.4843529760837555 0.04321968927979469
0.5310141444206238 0.6430030465126038 -0.09334953874349594
0.7550923228263855 0.4033518433570862 0.16644667088985443
0.6010821461677551 0.5027971267700195 0.015490444377064705
0.6250237822532654 0.5044323801994324 0.0177207812666893
0.6485065817832947 0.5039938688278198 0.02478816546499729
0.6806284785270691 0.4939057230949402 0.04662550613284111
0.5814176201820374 0.497527539730072 0.016655679792165756
0.6346570253372192 0.447390079498291 0.009705043397843838
0.609395444393158 0.4480448067188263 0.009349986910820007
0.658295750617981 0.4519922137260437 0.01783536560833454
0.6740226745605469 0.4606510400772095 0.028110023587942123
0.7011709213256836 0.51020747423172 0.05872584506869316
0.5984724164009094 0.8607573509216309 0.002925326582044363
0.6794396638870239 0.48054707050323486 0.05171341821551323
0.770249605178833 0.5091738700866699 0.17283673584461212
0.7271900177001953 0.499179482460022 0.08537641167640686
0.6322190165519714 0.6021368503570557 -0.015619439072906971
0.545486330986023 0.6966782808303833 -0.0670260637998581
0.5420606136322021 0.7179363369941711 -0.056119903922080994
0.5846085548400879 0.6996253728866577 -0.04900791123509407
0.6090262532234192 0.704822301864624 -0.022699762135744095
0.5706668496131897 0.7164863348007202 -0.041449885815382004
0.592353880405426 0.7165045142173767 -0.017879771068692207
0.6330136060714722 0.7507581114768982 0.022980595007538795
0.529155969619751 0.6316303610801697 -0.13752734661102295
0.5314829349517822 0.6051967740058899 -0.14426840841770172
0.7101461291313171 0.4411957859992981 0.035395052284002304
0.5765383243560791 0.5430084466934204 -0.01783161796629429
0.5877083539962769 0.6176108121871948 -0.07325030118227005
0.5881210565567017 0.603446364402771 -0.06492173671722412
0.7064392566680908 0.5969582200050354 0.019969517365098
0.5294588804244995 0.5730981826782227 -0.1283954530954361
0.6528711318969727 0.41380321979522705 -0.009525386616587639
0.6865304708480835 0.42306727170944214 0.010478464886546135
0.7316811680793762 0.3578632175922394 0.11907742917537689
0.5512397885322571 0.4313505291938782 -0.035293739289045334
0.5873832106590271 0.45482945442199707 0.01575564220547676
0.6547384262084961 0.7193478941917419 0.028260866180062294
0.7484564185142517 0.7502623796463013 0.22511941194534302
0.5703381896018982 0.6323421001434326 -0.06500950455665588
0.5494452118873596 0.6416389346122742 -0.06967762112617493
0.6373796463012695 0.7179780006408691 0.028939759358763695
0.6246861219406128 0.7197288274765015 0.022586718201637268
0.6996221542358398 0.40805184841156006 0.02436220645904541
0.5901897549629211 0.6262229681015015 -0.059954289346933365
0.6081283092498779 0.4147559702396393 -0.0248721856623888
0.6133343577384949 0.39451783895492554 -0.02933698520064354
0.6390954852104187 0.29510313272476196 0.022171474993228912
0.7150498628616333 0.3816581666469574 0.06618893891572952
0.6240653395652771 0.34176889061927795 -0.004248847719281912
0.7242891788482666 0.43142038583755493 0.05795930698513985
0.7397485375404358 0.4186338186264038 0.11020269244909286
0.5444183349609375 0.7100419998168945 -0.06362247467041016
0.5770146250724792 0.7101385593414307 -0.04553784802556038
0.6007713675498962 0.7107994556427002 -0.022068778052926064
0.5648630857467651 0.6364831924438477 -0.06076299771666527
0.6314382553100586 0.7184464931488037 0.025514565408229828
0.61613529920578 0.7367048263549805 0.010587185621261597
0.6197431087493896 0.7206570506095886 0.021843377500772476
0.5555055737495422 0.6292489767074585 -0.09972930699586868
0.5873387455940247 0.7141304016113281 -0.014789617620408535
0.5655221939086914 0.7157658338546753 -0.03260158747434616
0.538781464099884 0.7184867262840271 -0.04674581065773964
0.5437930226325989 0.8215184211730957 -0.029980706050992012
0.5433407425880432 0.7927387356758118 -0.04692647606134415
0.5422523021697998 0.7784166932106018 -0.04759199917316437
0.5404259562492371 0.7672915458679199 -0.0396973192691803
0.5377378463745117 0.7597434520721436 -0.03499011695384979
0.5875586867332458 0.7448257207870483 -0.005337351933121681
0.59205561876297 0.7470961213111877 -0.009654363617300987
0.5977491736412048 0.7524037957191467 -0.013004032894968987
0.6023638248443604 0.7602069973945618 -0.008262790739536285
0.624748945236206 0.6843999028205872 -0.015797825530171394
0.7705235481262207 0.6248870491981506 0.2664109170436859
0.6020005941390991 0.7367807626724243 0.012190626934170723
0.6094498038291931 0.7353553175926208 0.009860693477094173
0.5411054491996765 0.653080940246582 -0.07036843150854111
0.5833931565284729 0.6399616599082947 -0.042563192546367645
0.5450249314308167 0.6477451920509338 -0.07096020877361298
0.6030440926551819 0.5553897619247437 -0.009155291132628918
0.6452568769454956 0.5693111419677734 -0.0022533205337822437
0.5934377908706665 0.6129662394523621 -0.05087139829993248
0.6951675415039062 0.32076355814933777 0.06816446781158447
0.6784229278564453 0.35502421855926514 0.029168616980314255
0.6615762710571289 0.39440909028053284 -0.0031594287138432264
0.6104665994644165 0.7790437340736389 0.0064668552950024605
0.5596420168876648 0.39898839592933655 -0.04322444647550583
0.5689136981964111 0.3380557596683502 -0.024318203330039978
0.5782542824745178 0.28283753991127014 -0.00643191346898675
0.6689149737358093 0.500846266746521 0.03611321747303009
0.7282148599624634 0.527718186378479 0.07331645488739014
0.5694355964660645 0.49170953035354614 0.019683556631207466
0.6999820470809937 0.470132052898407 0.049907926470041275
0.5587862730026245 0.5280717015266418 -0.02736305631697178
0.5707473754882812 0.6119586229324341 -0.09829680621623993
0.7547696828842163 0.5474170446395874 0.10113363713026047
0.7124396562576294 0.540024995803833 0.049967434257268906
0.6824208498001099 0.5459633469581604 0.025882935151457787
0.6359051465988159 0.5435963273048401 0.011974195018410683
0.600600004196167 0.5354377627372742 0.005651889834553003
0.575100839138031 0.525118350982666 -0.0022626405116170645
0.5278443694114685 0.4956362247467041 -0.05563747510313988
0.7575995326042175 0.5954557657241821 0.09241405129432678
0.7197808623313904 0.468372642993927 0.06216617301106453
0.5203268527984619 0.6448909044265747 -0.12600889801979065
0.5773640871047974 0.5669428110122681 -0.030067918822169304
0.7739663124084473 0.5114108324050903 0.25330647826194763
0.5569124817848206 0.5126028060913086 -0.006202063523232937
0.5961371660232544 0.613445520401001 -0.024449171498417854
0.6875823736190796 0.48304685950279236 0.05664950981736183
0.5707663297653198 0.5945180654525757 -0.08813055604696274
0.764639139175415 0.6862843036651611 0.2518009841442108
0.5703974366188049 0.4833294153213501 0.027175672352313995
0.549940824508667 0.5815776586532593 -0.11293809860944748
0.7029072046279907 0.799171507358551 0.10078291594982147
0.6960060596466064 0.8364318609237671 0.13749298453330994
0.776461660861969 0.6133949756622314 0.18058902025222778
0.7345170378684998 0.7675429582595825 0.1292724758386612
0.7556079626083374 0.45999860763549805 0.14889048039913177
0.600853681564331 0.8914467096328735 0.013522585853934288
0.5172000527381897 0.6496742367744446 -0.09361689537763596
0.600858211517334 0.5830435156822205 -0.02104070782661438
0.747893750667572 0.5058901309967041 0.11114431917667389
0.6454381346702576 0.48905593156814575 0.028031310066580772
0.6244837045669556 0.49027687311172485 0.021323103457689285
0.622093915939331 0.7394799590110779 0.014545218087732792
0.7583571672439575 0.6477901935577393 0.09840168803930283
0.553863525390625 0.9318588376045227 0.011713443323969841
0.6274508237838745 0.894782543182373 0.06947819888591766
0.6589198112487793 0.870002269744873 0.10105054825544357
0.6047887206077576 0.4890618324279785 0.019334478303790092
0.586432933807373 0.4861789643764496 0.022084813565015793
0.5753114223480225 0.48479604721069336 0.026564128696918488
0.7370612621307373 0.4647095203399658 0.08801215142011642
0.591240644454956 0.46857815980911255 0.020052660256624222
0.6114212274551392 0.46318817138671875 0.01610521785914898
0.6313530802726746 0.4621568024158478 0.017833473160862923
0.6517528295516968 0.46606749296188354 0.024301376193761826
0.6650658249855042 0.47244128584861755 0.03276447951793671
0.7686553001403809 0.4512549042701721 0.21590648591518402
0.6598938703536987 0.4869060218334198 0.03608322516083717
0.5987768173217773 0.6726900935173035 -0.03740064054727554
0.5704632997512817 0.6299734115600586 -0.07421579957008362
0.5455496907234192 0.6701264381408691 -0.06585823744535446
0.667314887046814 0.8335575461387634 0.07622157037258148
0.6347658038139343 0.8623673915863037 0.04667826369404793
0.5564548373222351 0.9106947779655457 -0.015515562146902084
0.7240583300590515 0.80045485496521 0.1819848120212555
0.5769520401954651 0.47730356454849243 0.024248333647847176
0.5442233681678772 0.5354095697402954 -0.06329746544361115
0.5942749381065369 0.9165712594985962 0.03601613640785217
0.7719351053237915 0.6702733635902405 0.1738540232181549
0.5651308298110962 0.7533605694770813 -0.021598009392619133
0.5694044828414917 0.7585780024528503 -0.025860298424959183
0.573184609413147 0.7674490213394165 -0.030211444944143295
0.5760073065757751 0.7802022695541382 -0.02712557092308998
0.5819208025932312 0.8042230010032654 -0.013051582500338554
0.6127718091011047 0.7165019512176514 0.003973585553467274
0.6207641959190369 0.71341872215271 0.0050544594414532185
0.6280593872070312 0.7094623446464539 0.00515701761469245
0.6464592814445496 0.698535680770874 0.008606667630374432
0.7301137447357178 0.6556677222251892 0.04693278670310974
0.5425149202346802 0.5107680559158325 -0.03959152102470398
0.5522938370704651 0.4669077694416046 0.008659603074193
0.5666385293006897 0.4701857566833496 0.01955360919237137
0.605904221534729 0.7140946984291077 0.005547448061406612
0.7310211658477783 0.7219864130020142 0.08499234914779663
0.5339707136154175 0.4657285213470459 -0.02678730897605419
0.5901170969009399 0.8300615549087524 -0.004531970713287592
0.5277388095855713 0.5221715569496155 -0.0812697783112526
0.562396764755249 0.57315593957901 -0.06430798023939133
0.5488080382347107 0.8487990498542786 -0.026405490934848785
0.6474453210830688 0.7668398022651672 0.03411692753434181
0.6166797876358032 0.6329889893531799 -0.016196388751268387
0.6208560466766357 0.8021243810653687 0.01710297353565693
0.6754226684570312 0.6308672428131104 -0.0039053645450621843
0.642591655254364 0.6572511792182922 -0.006004939321428537
0.6979241371154785 0.6707050800323486 0.020838096737861633
0.5549161434173584 0.8817592263221741 -0.02545122243463993
0.5783410668373108 0.5854507088661194 -0.046236418187618256
0.6632483005523682 0.795422375202179 0.05276358127593994
0.6305834054946899 0.8294659852981567 0.031087517738342285
0.6705353260040283 0.7299808263778687 0.035914454609155655
0.752726137638092 0.6935531497001648 0.10604745894670486
0.698651909828186 0.74432373046875 0.05687235668301582
0.7588930130004883 0.7226942181587219 0.16166360676288605
0.6657722592353821 0.6837931275367737 0.010487744584679604
0.5598506331443787 0.5512202382087708 -0.04531164839863777
0.5633772015571594 0.6245613098144531 -0.10427083820104599
0.580765962600708 0.626839816570282 -0.07700847089290619
0.552277684211731 0.6084446907043457 -0.1228906437754631
0.5698947906494141 0.44857892394065857 0.003506861161440611
0.6078263521194458 0.43672752380371094 0.00020979838154744357
0.641626238822937 0.43516963720321655 0.002405146835371852
0.6699762940406799 0.4403687119483948 0.012954263016581535
0.6896969079971313 0.4517013728618622 0.029007231816649437
0.7044992446899414 0.4912126064300537 0.0667164996266365
0.7759100198745728 0.5605806708335876 0.17880477011203766
0.6876246333122253 0.5179869532585144 0.04578724130988121
0.6627449989318848 0.5230890512466431 0.02979348599910736
0.6305168867111206 0.5229514837265015 0.018368322402238846
0.5997048020362854 0.5181946158409119 0.013473180122673512
0.5767362713813782 0.5109007954597473 0.010658565908670425
0.5614049434661865 0.5031164288520813 0.008793857879936695
0.7720987200737 0.567844033241272 0.26880285143852234
0.5807886123657227 0.6313357949256897 -0.06487937271595001
0.545364499092102 0.5577607154846191 -0.08455405384302139
0.5460829734802246 0.6275922656059265 -0.1247994601726532
0.5323033332824707 0.6400591731071472 -0.11561451852321625
0.5457853078842163 0.6315113306045532 -0.11259336769580841
0.5750450491905212 0.637919545173645 -0.057121213525533676
0.5281035304069519 0.6427944898605347 -0.12243872880935669
0.5254148244857788 0.6473944187164307 -0.09347764402627945
0.5618523955345154 0.48467200994491577 0.022104837000370026
0.5494974851608276 0.49023473262786865 0.005543140694499016
0.5434476733207703 0.4941099286079407 -0.014192663133144379
0.6731395721435547 0.477237343788147 0.04083647206425667
0.6860644817352295 0.47047966718673706 0.04243146628141403
