ply
format ascii 1.0
element vertex 468
property float x
property float y
property float z
end_header
0.49328258633613586 0.6788709759712219 -0.05299757421016693
0.4877467155456543 0.6316049098968506 -0.1289001703262329
0.4914734661579132 0.6473874449729919 -0.0648561641573906
0.47215837240219116 0.5542908310890198 -0.10471224784851074
0.4877741038799286 0.6087815165519714 -0.13938520848751068
0.4892703592777252 0.5774404406547546 -0.13342010974884033
0.494545578956604 0.5009275078773499 -0.0804171934723854
0.332929790019989 0.48303675651550293 0.02310844324529171
0.4962846040725708 0.44197916984558105 -0.07104691863059998
0.4967116415500641 0.41065680980682373 -0.08057963848114014
0.5016034245491028 0.2882678806781769 -0.0761089101433754
0.4938156306743622 0.6881174445152283 -0.04910295829176903
0.4946458339691162 0.6941025257110596 -0.04188507795333862
0.4954594671726227 0.6947963237762451 -0.03183167427778244
0.4964975118637085 0.7371131777763367 -0.015912141650915146
0.49603626132011414 0.7467266321182251 -0.018884938210248947
0.49577265977859497 0.7581398487091064 -0.02178589254617691
0.4956704080104828 0.7708078622817993 -0.015173912048339844
0.49535101652145386 0.7885520458221436 0.009623261168599129
0.488528311252594 0.6423120498657227 -0.11573465168476105
0.46931231021881104 0.6372513771057129 -0.08214574307203293
0.26769423484802246 0.38719528913497925 0.12251859158277512
0.40187281370162964 0.5053992867469788 -0.002950826659798622
0.3788149356842041 0.505929708480835 0.00043483046465553343
0.35641223192214966 0.50372713804245 0.008195747621357441
0.32493793964385986 0.48913082480430603 0.029021821916103363
0.42029598355293274 0.5015751123428345 -0.002236779546365142
0.3676704168319702 0.44632893800735474 -0.014336148276925087
0.3933446705341339 0.4501568078994751 -0.01671712100505829
0.3437659740447998 0.44821682572364807 -0.004286150448024273
0.328197717666626 0.455621600151062 0.0065681650303304195
0.3095778226852417 0.5016106963157654 0.0436987429857254
0.41169479489326477 0.806331992149353 0.05071381479501724
0.3241767883300781 0.47672349214553833 0.03126253932714462
0.25808215141296387 0.4854733347892761 0.1492251455783844
0.2886948883533478 0.4859250783920288 0.06631148606538773
0.37500861287117004 0.5923084616661072 -0.012094220146536827
0.45863789319992065 0.6738995909690857 -0.04828384146094322
0.4624738097190857 0.691719114780426 -0.03571763634681702
0.4243195354938507 0.6742907166481018 -0.029445776715874672
0.4040308892726898 0.6756680011749268 -0.003201599232852459
0.4376732409000397 0.6887637972831726 -0.0212070494890213
0.4196358323097229 0.6867431402206421 0.002555487910285592
0.3835058808326721 0.7135685682296753 0.05141245946288109
0.4690910279750824 0.6301159858703613 -0.12608391046524048
0.46685630083084106 0.6075962781906128 -0.13560105860233307
0.29750674962997437 0.4293428063392639 0.011598365381360054
0.42652738094329834 0.5427236557006836 -0.024982308968901634
0.41805195808410645 0.6123338937759399 -0.06629418581724167
0.41759082674980164 0.5992761850357056 -0.060207854956388474
0.30573904514312744 0.5827734470367432 0.02330366149544716
0.46914437413215637 0.5787766575813293 -0.12465319782495499
0.3478873074054718 0.4105030596256256 -0.03545844554901123
0.3172239661216736 0.41461384296417236 -0.013748355209827423
0.28518158197402954 0.34887057542800903 0.06955522298812866
0.44628286361694336 0.4372597932815552 -0.0614405982196331
0.4149922728538513 0.45965343713760376 -0.010940494015812874
0.36452022194862366 0.6839256286621094 0.050698526203632355
0.29119712114334106 0.6844233870506287 0.24470987915992737
0.4347291886806488 0.62540602684021 -0.05679548904299736
0.45441192388534546 0.6343289017677307 -0.05847802758216858
0.3804965913295746 0.682792603969574 0.050647225230932236
0.3926561176776886 0.6855694055557251 0.044198695570230484
0.30659395456314087 0.3978922963142395 -0.004741118289530277
0.41713276505470276 0.6184267401695251 -0.05193544551730156
0.38962486386299133 0.41691911220550537 -0.05245334655046463
0.3859473466873169 0.39709705114364624 -0.06081363931298256
0.36820587515830994 0.2986510992050171 -0.034893959760665894
0.2963210344314575 0.3733319044113159 0.027178924530744553
0.3797421455383301 0.3463517725467682 -0.04960429295897484
0.28622719645500183 0.4174651503562927 0.03020474687218666
0.27710631489753723 0.40387672185897827 0.07339117676019669
0.4598059058189392 0.684631884098053 -0.043972812592983246
0.43141964077949524 0.6830984354019165 -0.025342265143990517
0.4115815758705139 0.6811159253120422 -0.0017021764069795609
0.4403236508369446 0.6288760304450989 -0.05167173966765404
0.38610517978668213 0.6837365031242371 0.047010283917188644
0.39909103512763977 0.7040215730667114 0.03616829589009285
0.39733290672302246 0.6866143941879272 0.04349270090460777
0.4458809792995453 0.6249390840530396 -0.09101051837205887
0.42467111349105835 0.6848114728927612 0.0054854401387274265
0.44304803013801575 0.6882107257843018 -0.012260816060006618
0.46613526344299316 0.6923136711120605 -0.02577759511768818
0.459115594625473 0.7845351099967957 0.014512898400425911
0.4605567455291748 0.7655314207077026 -0.00931566208600998
0.46169736981391907 0.7529585361480713 -0.01457600761204958
0.46386852860450745 0.7416784763336182 -0.01154346764087677
0.46689754724502563 0.7337073087692261 -0.0090952692553401
0.4241737723350525 0.7150200605392456 0.01921372301876545
0.41962531208992004 0.7172895669937134 0.016909612342715263
0.4137886166572571 0.7222316265106201 0.01592833735048771
0.4095889925956726 0.728952169418335 0.022318203002214432
0.38817936182022095 0.6598891615867615 0.0010305396281182766
0.26732832193374634 0.5768842697143555 0.2598226070404053
0.4896620213985443 0.6451838612556458 -0.08336993306875229
0.41233956813812256 0.704713761806488 0.03569416329264641
0.4052114486694336 0.7036329507827759 0.03459807112812996
0.4617968201637268 0.6439403295516968 -0.05678245797753334
0.4238934814929962 0.6293662190437317 -0.03283166140317917
0.45835641026496887 0.6395668387413025 -0.05869501456618309
0.40162211656570435 0.551766037940979 -0.013489366509020329
0.36147603392601013 0.56231290102005 -0.002692013280466199
0.41351789236068726 0.6062384843826294 -0.04515590891242027
0.31633761525154114 0.31868812441825867 0.015175169333815575
0.3285137414932251 0.3527678847312927 -0.013206389732658863
0.3408666253089905 0.39072656631469727 -0.034835975617170334
0.4021022915840149 0.7420378923416138 0.04100213944911957
0.4390304386615753 0.40615564584732056 -0.0747796818614006
0.4345296621322632 0.3467121720314026 -0.07148626446723938
0.42804208397865295 0.2895539402961731 -0.065497025847435
0.3362679183483124 0.49820834398269653 0.01931198686361313
0.28767120838165283 0.5149744749069214 0.0600924976170063
0.43167510628700256 0.497078001499176 -0.0008863374823704362
0.307583212852478 0.4610997438430786 0.028927847743034363
0.4430214464664459 0.5313184857368469 -0.036216627806425095
0.431591272354126 0.6093137264251709 -0.09126199036836624
0.26707717776298523 0.5281009674072266 0.09062318503856659
0.3000115752220154 0.529647707939148 0.04065820947289467
0.3268909454345703 0.538705587387085 0.018656665459275246
0.37019625306129456 0.5391728281974792 0.004889513831585646
0.40336844325065613 0.5336326956748962 -0.0037576279137283564
0.4271649718284607 0.5260410904884338 -0.013546855188906193
0.4731045365333557 0.506097137928009 -0.06889890134334564
0.26456403732299805 0.5716866254806519 0.09085414558649063
0.29221758246421814 0.45612770318984985 0.039646878838539124
0.47732850909233093 0.6407929062843323 -0.11370614171028137
0.4265509247779846 0.5648646950721741 -0.03328472003340721
0.25829729437828064 0.4792185425758362 0.22526758909225464
0.44422492384910583 0.5163809657096863 -0.02037985436618328
0.41137510538101196 0.6050567626953125 -0.020665355026721954
0.3177076578140259 0.47702211141586304 0.03677549585700035
0.4317198693752289 0.5931960940361023 -0.08388695120811462
0.2756083607673645 0.6292028427124023 0.257959246635437
0.43109130859375 0.489391952753067 0.0036723301745951176
0.4501281976699829 0.5842321515083313 -0.1087762862443924
0.3280830979347229 0.7412546873092651 0.13230597972869873
0.33767032623291016 0.7644151449203491 0.17487356066703796
0.2555660903453827 0.5767762064933777 0.17585761845111847
0.29915285110473633 0.7112851738929749 0.15458980202674866
0.267035573720932 0.44194185733795166 0.11724621802568436
0.4123510718345642 0.8261165618896484 0.06622396409511566
0.4808531105518341 0.6439553499221802 -0.08141934126615524
0.40492719411849976 0.577079176902771 -0.02153557352721691
0.2729368805885315 0.48855143785476685 0.09102689474821091
0.35725516080856323 0.4915616810321808 0.008158165961503983
0.3780936002731323 0.4940183162689209 0.0014195035910233855
0.39340144395828247 0.7056138515472412 0.04061784967780113
0.2666051685810089 0.615606963634491 0.10535663366317749
0.45166921615600586 0.8562657833099365 0.07170221954584122
0.3941687047481537 0.8190409541130066 0.11898540705442429
0.3695765435695648 0.795812726020813 0.14439263939857483
0.49912258982658386 0.3481287658214569 -0.08088210970163345
0.4939461052417755 0.8633344173431396 0.06225329264998436
0.39755481481552124 0.4935496747493744 -0.0009831791976466775
0.41563212871551514 0.491476833820343 0.0009343900019302964
0.42643237113952637 0.4904852509498596 0.004312603268772364
0.279002845287323 0.44945889711380005 0.06298285722732544
0.4110206365585327 0.47223949432373047 -0.004903979599475861
0.39122217893600464 0.4641486406326294 -0.007861616089940071
0.37062543630599976 0.4614340662956238 -0.005397961474955082
0.3498106300830841 0.46385931968688965 0.0021560753230005503
0.33674198389053345 0.46938884258270264 0.011124997399747372
0.25925660133361816 0.4283984303474426 0.17850524187088013
0.3429388999938965 0.4875555634498596 0.016408415511250496
0.49251168966293335 0.6573232412338257 -0.05481337383389473
0.41062963008880615 0.6535995006561279 -0.02091902866959572
0.43394502997398376 0.6240103244781494 -0.0667724609375
0.457918256521225 0.6556072235107422 -0.04936794191598892
0.49614742398262024 0.46977704763412476 -0.06756629794836044
0.35936230421066284 0.772117018699646 0.11553231626749039
0.3858444094657898 0.7982984185218811 0.09294068068265915
0.448212593793869 0.8465004563331604 0.04251965135335922
0.312669575214386 0.7301728129386902 0.21199163794517517
0.424692839384079 0.4828765392303467 0.00017536903033033013
0.4565880298614502 0.5413535833358765 -0.07010923326015472
0.49341627955436707 0.8535764217376709 0.034675367176532745
0.4198586344718933 0.840417742729187 0.09128273278474808
0.2624453008174896 0.6250101327896118 0.17974130809307098
0.44315797090530396 0.7256584763526917 0.003823075909167528
0.4386472702026367 0.7310625910758972 0.0016877905000001192
0.43451690673828125 0.7397103905677795 0.0008335972088389099
0.4317912459373474 0.7511886358261108 0.006858798209577799
0.4261280298233032 0.7670619487762451 0.027002330869436264
0.402821809053421 0.6842446327209473 0.02479683607816696
0.3949625492095947 0.680672824382782 0.0259195938706398
0.38835322856903076 0.6767545938491821 0.02502010203897953
0.37057340145111084 0.6687787175178528 0.026226632297039032
0.2889128625392914 0.6290459632873535 0.057946573942899704
0.4585413336753845 0.5176979303359985 -0.050972986966371536
0.44744133949279785 0.4738619327545166 -0.017260173335671425
0.4342334270477295 0.4768495559692383 -0.005922968965023756
0.4094591736793518 0.6826432347297668 0.026481593027710915
0.2955964207649231 0.6802686452865601 0.10444191098213196
0.4664174020290375 0.4732457101345062 -0.04914733022451401
0.4181664288043976 0.7849650979042053 0.0400167740881443
0.4910382628440857 0.5518930554389954 -0.11438531428575516
0.47243914008140564 0.5319454669952393 -0.08950331807136536
0.4927405118942261 0.5280488133430481 -0.09664691984653473
0.4390648305416107 0.573449432849884 -0.06543494760990143
0.49361392855644226 0.8352156281471252 0.01990501396358013
0.4945124387741089 0.8101277947425842 0.014999445527791977
0.4536181688308716 0.8049042820930481 0.023009629920125008
0.37154656648635864 0.7250012159347534 0.06468947976827621
0.39260178804397583 0.6196544170379639 -0.00858606118708849
0.3932116627693176 0.7575620412826538 0.05543411895632744
0.33559471368789673 0.614923357963562 0.005037054419517517
0.369268000125885 0.6379585862159729 0.005837627220898867
0.31839680671691895 0.6456546783447266 0.03380303457379341
0.44837456941604614 0.828685998916626 0.02834428660571575
0.425856351852417 0.582126796245575 -0.04595285281538963
0.35908448696136475 0.7459738254547119 0.08716817945241928
0.38639384508132935 0.7765617966651917 0.07310398668050766
0.3501611053943634 0.6929405927658081 0.059708092361688614
0.2755856513977051 0.6529632210731506 0.12029142677783966
0.32543838024139404 0.7025485634803772 0.08097361028194427
0.27638813853263855 0.6699906587600708 0.1782645881175995
0.35100895166397095 0.6569564938545227 0.02648290991783142
0.4421508312225342 0.5531750321388245 -0.05018134415149689
0.4384008049964905 0.6209319829940796 -0.09603754431009293
0.4246125817298889 0.6207828521728516 -0.06871019303798676
0.4482157826423645 0.6082923412322998 -0.11420779675245285
0.42897558212280273 0.45449748635292053 -0.02482428215444088
0.3920850157737732 0.4393659234046936 -0.026920102536678314
0.3594307601451874 0.43416303396224976 -0.02203303761780262
0.33259785175323486 0.4356754422187805 -0.009167923592031002
0.314569354057312 0.4440767765045166 0.007348691113293171
0.30593687295913696 0.48141345381736755 0.04781173914670944
0.2545374929904938 0.5310912132263184 0.16443482041358948
0.320747971534729 0.5112500786781311 0.032287318259477615
0.34467896819114685 0.5189864635467529 0.01773705519735813
0.37502607703208923 0.5212260484695435 0.0063726152293384075
0.4037129282951355 0.5184794664382935 -0.001139672240242362
0.4252017140388489 0.5130277276039124 -0.004814204294234514
0.43954142928123474 0.5071496963500977 -0.008576744236052036
0.2627713978290558 0.5274890065193176 0.25033876299858093
0.42551058530807495 0.6238099336624146 -0.05633064731955528
0.4546829164028168 0.562251627445221 -0.08620340377092361
0.4540889263153076 0.625465452671051 -0.11471036076545715
0.4671773910522461 0.6355829834938049 -0.10421321541070938
0.4544238746166229 0.6277569532394409 -0.10293003171682358
0.43106216192245483 0.628956139087677 -0.04745005816221237
0.470680296421051 0.638616681098938 -0.11033015698194504
0.47408032417297363 0.6415094137191772 -0.08169087767601013
0.4387368857860565 0.4911412000656128 -0.0008399731013923883
0.4506595730781555 0.4961587190628052 -0.015248221345245838
0.4572015404701233 0.5005962252616882 -0.03125489130616188
0.32945191860198975 0.4736185669898987 0.020092129707336426
0.3179284334182739 0.46421748399734497 0.021577121689915657
0.5108867883682251 0.5548742413520813 -0.1076747477054596
0.6717326641082764 0.48827680945396423 0.0017938913078978658
0.5118087530136108 0.63846355676651 -0.08436811715364456
0.7592694759368896 0.39271607995033264 0.09000781178474426
0.599367082118988 0.508483350276947 -0.017069146037101746
0.6231809854507446 0.5096510648727417 -0.01627139002084732
0.6466003060340881 0.5080909729003906 -0.011307940818369389
0.6809561848640442 0.4947129487991333 0.006378057412803173
0.5801562070846558 0.5039787888526917 -0.013441761024296284
0.6349295377731323 0.4499312937259674 -0.032008349895477295
0.6086483001708984 0.4527275264263153 -0.030834835022687912
0.6598540544509888 0.45281982421875 -0.024520810693502426
0.6764500737190247 0.4608820676803589 -0.015176508575677872
0.6977989077568054 0.5072674751281738 0.01913556456565857
0.5816466808319092 0.8110546469688416 0.04028566554188728
0.6815545558929443 0.4823923110961914 0.009018284268677235
0.7653028964996338 0.4926302134990692 0.11656320840120316
0.7231571674346924 0.49219536781311035 0.03933550417423248
0.6206478476524353 0.5956966876983643 -0.02709568291902542
0.5301862955093384 0.6750518679618835 -0.05277667194604874
0.5293123126029968 0.692767858505249 -0.040163107216358185
0.5689790844917297 0.6766139268875122 -0.038582537323236465
0.594414234161377 0.6786355376243591 -0.0153424683958292
0.5574057698249817 0.6907097101211548 -0.029621385037899017
0.5796253085136414 0.6888940930366516 -0.008559894748032093
0.6202455163002014 0.7176138162612915 0.03617863357067108
0.5071619153022766 0.6309247612953186 -0.12797629833221436
0.5096553564071655 0.6083067655563354 -0.13780319690704346
0.710671603679657 0.43550121784210205 -0.013927476480603218
0.5687748193740845 0.5447463989257812 -0.03485243394970894
0.5683802962303162 0.6145263910293579 -0.07507463544607162
0.5705418586730957 0.6014554500579834 -0.06928396970033646
0.6958733201026917 0.5883646011352539 -0.0008418766665272415
0.5102652311325073 0.5794000029563904 -0.12751981616020203
0.6532030701637268 0.41403359174728394 -0.052902642637491226
0.687433660030365 0.4197649359703064 -0.03573952242732048
0.7372901439666748 0.35316434502601624 0.04041341692209244
0.5482516288757324 0.43797630071640015 -0.06721369177103043
0.5865591168403625 0.46161124110221863 -0.022272534668445587
0.6408447027206421 0.6883621215820312 0.03296537324786186
0.7317002415657043 0.6943327784538269 0.21458132565021515
0.551672637462616 0.6273176074028015 -0.06351224333047867
0.5306862592697144 0.6354842185974121 -0.061791691929101944
0.6257975697517395 0.6860440969467163 0.034525636583566666
0.6138704419136047 0.6882973909378052 0.02954251319169998
0.7008156776428223 0.40318286418914795 -0.028428446501493454
0.5712871551513672 0.620542049407959 -0.06074291840195656
0.6077793836593628 0.41887736320495605 -0.06458386033773422
0.6118504405021667 0.3990226686000824 -0.07300534844398499
0.6408816576004028 0.30040663480758667 -0.05124113708734512
0.7181443572044373 0.3780156970024109 0.0011843224056065083
0.6229398250579834 0.34832343459129333 -0.06367617100477219
0.725458562374115 0.423753023147583 0.0028529202099889517
0.7420270442962646 0.4098926782608032 0.043649863451719284
0.5302615761756897 0.6858262419700623 -0.04850658401846886
0.562777578830719 0.6852639317512512 -0.03425198793411255
0.5870925784111023 0.6838030219078064 -0.013417020440101624
0.546276867389679 0.6304792761802673 -0.05687698721885681
0.6203500628471375 0.6867944598197937 0.032147593796253204
0.6050406694412231 0.7069044709205627 0.02303536981344223
0.6095966696739197 0.6891711950302124 0.02917267009615898
0.5360170602798462 0.626937985420227 -0.09693659842014313
0.5757083892822266 0.6865243911743164 -0.005019442178308964
0.553295910358429 0.6897633075714111 -0.020343907177448273
0.5273990631103516 0.6931602954864502 -0.03056684508919716
0.5333402156829834 0.7859922051429749 0.009978699497878551
0.5328202843666077 0.7668508291244507 -0.014686539769172668
0.5319094657897949 0.7542898058891296 -0.020110372453927994
0.5301576852798462 0.7430631518363953 -0.01693085953593254
0.5278199911117554 0.7349518537521362 -0.014264763332903385
0.577219545841217 0.717256486415863 0.008634762838482857
0.5815553665161133 0.7196809649467468 0.006112892180681229
0.5871298313140869 0.7249921560287476 0.005006579216569662
0.5910414457321167 0.7316755056381226 0.010847089812159538
0.6088759303092957 0.6631457805633545 -0.012214289046823978
0.7620165348052979 0.585509181022644 0.2269483506679535
0.5918674468994141 0.7071724534034729 0.023078542202711105
0.598844587802887 0.7062986493110657 0.02175520546734333
0.5229438543319702 0.6449034214019775 -0.05994914472103119
0.5656843185424805 0.6310034394264221 -0.039833229035139084
0.5264845490455627 0.6405673623085022 -0.06186643987894058
0.5948679447174072 0.5543975830078125 -0.026559241116046906
0.6364018321037292 0.5660482048988342 -0.020294049754738808
0.5764224529266357 0.6083669066429138 -0.05485854297876358
0.6996275186538696 0.3216475546360016 -0.008663319982588291
0.6804431676864624 0.3561176657676697 -0.034118279814720154
0.661655604839325 0.39434903860092163 -0.05346241220831871
0.598007321357727 0.7455801963806152 0.028254712000489235
0.5558285117149353 0.4068293571472168 -0.08065573871135712
0.564897894859314 0.34763389825820923 -0.07848303020000458
0.576937735080719 0.2904473543167114 -0.07370959967374802
0.6682581901550293 0.5032490491867065 -0.0020740709733217955
0.7219166159629822 0.5212021470069885 0.03311380743980408
0.5681951642036438 0.499216228723526 -0.010676873847842216
0.7003401517868042 0.4669818580150604 0.004261840134859085
0.5511253476142883 0.5326852202415466 -0.044071014970541
0.5511313080787659 0.6114046573638916 -0.09836246818304062
0.7464512586593628 0.5352555513381958 0.06022980809211731
0.7059412002563477 0.5353389978408813 0.015203222632408142
0.6755157709121704 0.5434194803237915 -0.0038695759139955044
0.6295303106307983 0.5427340269088745 -0.01243787445127964
0.5950492024421692 0.5363574624061584 -0.01708877831697464
0.5704697370529175 0.5280685424804688 -0.023543918505311012
0.5174834728240967 0.506610631942749 -0.07213173806667328
0.7460309267044067 0.5791003108024597 0.06056896597146988
0.7183137536048889 0.46233052015304565 0.012806258164346218
0.5001675486564636 0.6413533687591553 -0.11511349678039551
0.5661891102790833 0.5668118000030518 -0.0428226962685585
0.7729569673538208 0.48619168996810913 0.19056515395641327
0.5522628426551819 0.5178214311599731 -0.027963923290371895
0.5809969305992126 0.6070995330810547 -0.030360301956534386
0.6889663338661194 0.4828622043132782 0.013592574745416641
0.5532469153404236 0.5950692296028137 -0.09118904173374176
0.7510852813720703 0.638846218585968 0.22646047174930573
0.5697459578514099 0.491664320230484 -0.006426314823329449
0.5316721200942993 0.5855079889297485 -0.11392433941364288
0.6806239485740662 0.7504650354385376 0.10976890474557877
0.6737596392631531 0.7742311954498291 0.15244163572788239
0.7643123269081116 0.5855717658996582 0.14332742989063263
0.7139426469802856 0.7209873795509338 0.128266841173172
0.7545725107192993 0.4482199549674988 0.08583411574363708
0.5804139375686646 0.8315158486366272 0.05537649989128113
0.49874231219291687 0.6443667411804199 -0.08230814337730408
0.5894339680671692 0.5794488787651062 -0.033168449997901917
0.7426298260688782 0.49536484479904175 0.06125492975115776
0.6451598405838013 0.4960566759109497 -0.010428071953356266
0.623692512512207 0.49784886837005615 -0.015193485654890537
0.6108481884002686 0.708787739276886 0.02687128260731697
0.7439075112342834 0.623738706111908 0.07575607299804688
0.5376545786857605 0.859322190284729 0.06547041982412338
0.6043775677680969 0.8261988162994385 0.1042478010058403
0.6350955367088318 0.8044708967208862 0.1259475201368332
0.6038442254066467 0.49681591987609863 -0.015346581116318703
0.5854430198669434 0.49402981996536255 -0.01143579464405775
0.5744444131851196 0.4928648769855499 -0.006702079903334379
0.7355223894119263 0.45583587884902954 0.03394591808319092
0.5915317535400391 0.47487252950668335 -0.01771523430943489
0.6123566031455994 0.4674113988876343 -0.022699380293488503
0.6329437494277954 0.46552202105522156 -0.022835735231637955
0.6540483832359314 0.4687289893627167 -0.017292402684688568
0.6676501035690308 0.47470611333847046 -0.009786617942154408
0.7702779769897461 0.434576153755188 0.14445486664772034
0.6606038808822632 0.49262329936027527 -0.004055756609886885
0.5817235112190247 0.6559994220733643 -0.030958976596593857
0.5513075590133667 0.6260562539100647 -0.07295245677232742
0.5292508006095886 0.6566848754882812 -0.05356559157371521
0.6441937685012817 0.7802709341049194 0.09710320085287094
0.6126392483711243 0.8052876591682434 0.0783090889453888
0.5401178598403931 0.8495365977287292 0.036369189620018005
0.7047713398933411 0.7400276064872742 0.18513230979442596
0.5764696598052979 0.4853156507015228 -0.01131780818104744
0.5321083068847656 0.542389452457428 -0.07518791407346725
0.5731387138366699 0.8457270860671997 0.08026228100061417
0.7561447620391846 0.6343291997909546 0.14855943620204926
0.5545406341552734 0.727664589881897 -0.004695877432823181
0.5587875247001648 0.7331699132919312 -0.007165577728301287
0.5624861717224121 0.7419480085372925 -0.008388830348849297
0.5647422671318054 0.7534205317497253 -0.0024616955779492855
0.570030689239502 0.7697631120681763 0.01710786111652851
0.6012651920318604 0.6867431402206421 0.011465388350188732
0.6084888577461243 0.6837487816810608 0.011562899686396122
0.6150799989700317 0.6800291538238525 0.010395926423370838
0.6313521265983582 0.6726312637329102 0.009926017373800278
0.7159307599067688 0.6361004114151001 0.031568173319101334
0.5339013338088989 0.5186952352523804 -0.05659472569823265
0.5509001016616821 0.4750537574291229 -0.023780006915330887
0.566068708896637 0.47864004969596863 -0.015360059216618538
0.5953171253204346 0.684773325920105 0.013641135767102242
0.7134243249893188 0.6886062026023865 0.07870130985975266
0.5282896161079407 0.4738675355911255 -0.053282901644706726
0.5768818855285645 0.7885864973068237 0.03025326319038868
0.5141221880912781 0.5325028896331787 -0.09215299040079117
0.5490036010742188 0.5749664902687073 -0.07226017862558365
0.5372542142868042 0.8069297671318054 0.018200455233454704
0.6311492919921875 0.730552077293396 0.04773850739002228
0.6022010445594788 0.6224183440208435 -0.02118873968720436
0.6060526967048645 0.7623599171638489 0.04197515547275543
0.6628473997116089 0.6198166608810425 -0.014198575168848038
0.6285243034362793 0.6420000195503235 -0.009737405925989151
0.6834636330604553 0.6517810225486755 0.01183642540127039
0.5406496524810791 0.8312724828720093 0.022626185789704323
0.5647792816162109 0.5840256214141846 -0.05455664172768593
0.6435652375221252 0.7529723048210144 0.06877974420785904
0.612286388874054 0.7825161218643188 0.05893290042877197
0.6542778015136719 0.6986188292503357 0.03932686522603035
0.736061692237854 0.6617948412895203 0.09189999103546143
0.6802139282226562 0.7100186347961426 0.05861678346991539
0.7406951189041138 0.6795510649681091 0.14819183945655823
0.6511116027832031 0.6616954207420349 0.0075477552600204945
0.5486956834793091 0.5546923875808716 -0.057622503489255905
0.5433872938156128 0.6229802370071411 -0.10239151865243912
0.5611045956611633 0.6230061650276184 -0.07607676088809967
0.5310060977935791 0.6099173426628113 -0.11941565573215485
0.5696743130683899 0.45608001947402954 -0.03411966189742088
0.6076798439025879 0.4419809579849243 -0.04007752612233162
0.6417538523674011 0.4377506375312805 -0.03906093165278435
0.6705808043479919 0.44048869609832764 -0.029852410778403282
0.6909244060516357 0.44980165362358093 -0.015526441857218742
0.7030923366546631 0.4873621165752411 0.022916918620467186
0.7673425674438477 0.5391365885734558 0.13096563518047333
0.6845555901527405 0.5164974331855774 0.008984771557152271
0.6585382223129272 0.523524284362793 -0.002725431928411126
0.6264933943748474 0.5248754024505615 -0.010610586032271385
0.5965580344200134 0.5212482213973999 -0.014625266194343567
0.5743185877799988 0.5152499079704285 -0.014882818795740604
0.5591758489608765 0.5088284015655518 -0.016862310469150543
0.7681027054786682 0.5351583957672119 0.21583212912082672
0.56171715259552 0.6258530616760254 -0.063782699406147
0.5304595232009888 0.563400149345398 -0.0914912223815918
0.5243624448776245 0.6269996762275696 -0.11853878945112228
0.5123332142829895 0.6367702484130859 -0.10644067078828812
0.5256032347679138 0.6295512914657593 -0.10693871229887009
0.5567318201065063 0.6307392716407776 -0.05377757549285889
0.5076455473899841 0.6395463347434998 -0.1122458353638649
0.506374180316925 0.6422998905181885 -0.08327212929725647
0.5609701871871948 0.4929293394088745 -0.009184050373733044
0.5473633408546448 0.4974418878555298 -0.021480463445186615
0.5387564301490784 0.5015615224838257 -0.036445025354623795
0.6755801439285278 0.47911763191223145 -0.0014217732241377234
0.6881371140480042 0.4699525237083435 -0.0011920598335564137
