ply
format ascii 1.0
element vertex 468
property float x
property float y
property float z
end_header
0.5042608380317688 0.6862977147102356 -0.07993746548891068
0.5026977062225342 0.6110632419586182 -0.14380328357219696
0.503683865070343 0.6380342841148376 -0.08125822246074677
0.4853851795196533 0.5335320830345154 -0.10334363579750061
0.5030602812767029 0.5852751731872559 -0.1508844643831253
0.5040017366409302 0.553790271282196 -0.13866165280342102
0.5068919062614441 0.48152679204940796 -0.06430549919605255
0.33623164892196655 0.48750048875808716 0.042503904551267624
0.5080732107162476 0.43280351161956787 -0.043240416795015335
0.508641242980957 0.4011027216911316 -0.04573040455579758
0.5121684670448303 0.27774152159690857 -0.010465152561664581
0.5043317079544067 0.6975781917572021 -0.07777968794107437
0.5046221613883972 0.7049329876899719 -0.07134275883436203
0.5048227906227112 0.7063398361206055 -0.06125175207853317
0.5066020488739014 0.7581223845481873 -0.04520004242658615
0.5062901377677917 0.7671505212783813 -0.05057617276906967
0.5058861374855042 0.7784768342971802 -0.05625006929039955
0.5053584575653076 0.7925083041191101 -0.05204023793339729
0.5040138363838196 0.8167318105697632 -0.029940295964479446
0.5027886629104614 0.6253656148910522 -0.13171370327472687
0.48236608505249023 0.6244091987609863 -0.09698983281850815
0.2511366307735443 0.40911024808883667 0.16953915357589722
0.40629905462265015 0.5066642165184021 0.014781855046749115
0.3814876079559326 0.5085968971252441 0.01666513830423355
0.3579034209251404 0.5073238015174866 0.023588823154568672
0.3259037733078003 0.4970909357070923 0.04586266726255417
0.42705950140953064 0.5002079010009766 0.016739841550588608
0.3758496642112732 0.4486868977546692 0.008475401438772678
0.40118172764778137 0.44976240396499634 0.008659964427351952
0.3514464795589447 0.45285552740097046 0.016596386209130287
0.3345623314380646 0.46144944429397583 0.02727402374148369
0.30576616525650024 0.5125566124916077 0.05798093229532242
0.4080874025821686 0.8498820066452026 -0.0003067835059482604
0.32786932587623596 0.483288049697876 0.051220621913671494
0.23795610666275024 0.5148068070411682 0.17338182032108307
0.2802353501319885 0.5017759203910828 0.08504962176084518
0.3806646466255188 0.5972592830657959 -0.018157659098505974
0.46802279353141785 0.6826761364936829 -0.07570381462574005
0.471151202917099 0.7043375372886658 -0.06595201045274734
0.43171435594558716 0.6887595057487488 -0.058279313147068024
0.4081480801105499 0.6975182294845581 -0.032905347645282745
0.44480377435684204 0.7054858803749084 -0.05173002928495407
0.42422276735305786 0.7080826163291931 -0.028292609378695488
0.3818613588809967 0.7496638298034668 0.014166370965540409
0.48296597599983215 0.610730767250061 -0.1410694122314453
0.4809636175632477 0.5859549641609192 -0.1473970264196396
0.29648199677467346 0.4403538107872009 0.035554878413677216
0.4353758692741394 0.5392920970916748 -0.01783602125942707
0.42834222316741943 0.6048094630241394 -0.07726415991783142
0.42758798599243164 0.5925377011299133 -0.0684359148144722
0.3039668798446655 0.5968268513679504 0.016325607895851135
0.4832054078578949 0.5569129586219788 -0.13016405701637268
0.3566564917564392 0.4118308424949646 -0.008808648213744164
0.3213251233100891 0.4212917685508728 0.010809941217303276
0.27581119537353516 0.3612297773361206 0.12180373072624207
0.4614320397377014 0.4297926127910614 -0.034067749977111816
0.4235066771507263 0.45664510130882263 0.015464568510651588
0.3622318506240845 0.7180836796760559 0.018210144713521004
0.25949907302856445 0.7534903287887573 0.22176924347877502
0.4458533227443695 0.6184582710266113 -0.06812512874603271
0.46580442786216736 0.6264938116073608 -0.07296834141016006
0.3815796375274658 0.7165851593017578 0.01828053407371044
0.39394327998161316 0.7171744704246521 0.012060028500854969
0.30789586901664734 0.40611767768859863 0.024883946403861046
0.42650625109672546 0.6148461103439331 -0.06389527022838593
0.40320447087287903 0.41343653202056885 -0.02429300919175148
0.3985896110534668 0.3926200270652771 -0.028476154431700706
0.3739415109157562 0.29434266686439514 0.024595443159341812
0.2927272915840149 0.38206014037132263 0.06759051233530045
0.3884007930755615 0.33948400616645813 -0.0024934730026870966
0.28215456008911133 0.4312894344329834 0.05886354669928551
0.2667296528816223 0.4209445118904114 0.11187771707773209
0.4689163863658905 0.696135938167572 -0.07317601144313812
0.43889302015304565 0.699134886264801 -0.055605679750442505
0.41622424125671387 0.702947735786438 -0.0324111245572567
0.45153847336769104 0.6225627064704895 -0.06397351622581482
0.3874606490135193 0.7166867852210999 0.01486666314303875
0.40089303255081177 0.7345905900001526 0.0012553532142192125
0.39837801456451416 0.717846691608429 0.01127223577350378
0.4589431583881378 0.6115445494651794 -0.10341428965330124
0.42877084016799927 0.7061035633087158 -0.025183362886309624
0.4494945704936981 0.7050088047981262 -0.04274601861834526
0.47437867522239685 0.7057451605796814 -0.05610695481300354
0.4648204445838928 0.8146607279777527 -0.02694062516093254
0.4678388237953186 0.7888336777687073 -0.04784233495593071
0.469982385635376 0.7746689319610596 -0.050538647919893265
0.47239625453948975 0.763447642326355 -0.04418579861521721
0.4754129946231842 0.7557794451713562 -0.0397413931787014
0.4280502498149872 0.7423528432846069 -0.012400737032294273
0.4234924018383026 0.7444944977760315 -0.01649186573922634
0.41724446415901184 0.7495515942573547 -0.019688451662659645
0.41226184368133545 0.7570734620094299 -0.014868388883769512
0.3921263813972473 0.6772913336753845 -0.024213122203946114
0.23703652620315552 0.632882833480835 0.2674482464790344
0.5032280683517456 0.6316067576408386 -0.09914933890104294
0.41439491510391235 0.7345050573348999 0.003290796186774969
0.40727248787879944 0.7333718538284302 0.000776599277742207
0.4729389548301697 0.6372472047805786 -0.07406233996152878
0.43353527784347534 0.6289639472961426 -0.045771773904561996
0.46962863206863403 0.6320774555206299 -0.07433269917964935
0.40811866521835327 0.5526420474052429 -0.010152991861104965
0.36521977186203003 0.5675399303436279 -0.003917737863957882
0.42236390709877014 0.6031635403633118 -0.054334525018930435
0.31477969884872437 0.3219867944717407 0.07047605514526367
0.3313695192337036 0.35366129875183105 0.030154380947351456
0.3482593297958374 0.39217841625213623 -0.0024598075542598963
0.40202754735946655 0.7756251096725464 0.000629758054856211
0.4535382091999054 0.39695823192596436 -0.04182742163538933
0.445656418800354 0.33527979254722595 -0.022197652608156204
0.43739527463912964 0.2811749279499054 -0.002806904260069132
0.3373384475708008 0.5040937066078186 0.03506361320614815
0.2794334292411804 0.5302053093910217 0.07170712202787399
0.4400363266468048 0.49334844946861267 0.019894704222679138
0.30687934160232544 0.47105318307876587 0.04983127862215042
0.45309749245643616 0.5235031843185425 -0.02697344496846199
0.4439375102519989 0.5963759422302246 -0.10203686356544495
0.25371110439300537 0.5506768226623535 0.09905849397182465
0.2951340675354004 0.5420587062835693 0.047565631568431854
0.3259376883506775 0.5471161603927612 0.023582614958286285
0.372740238904953 0.5439075231552124 0.01063248049467802
0.40888747572898865 0.5352234840393066 0.005285943392664194
0.4356076121330261 0.5239071846008301 -0.0019302901346236467
0.48449888825416565 0.4891897141933441 -0.05379210785031319
0.25145527720451355 0.5984560251235962 0.08876379579305649
0.28734007477760315 0.46970006823539734 0.06229137256741524
0.4911254644393921 0.6242979764938354 -0.12995761632919312
0.436090886592865 0.5604285001754761 -0.03131602704524994
0.23243919014930725 0.5205348134040833 0.2566087245941162
0.454527348279953 0.5102084875106812 -0.005656900350004435
0.41972246766090393 0.6054182648658752 -0.027411431074142456
0.3193502426147461 0.4858378767967224 0.05622491240501404
0.4438287615776062 0.5813353061676025 -0.09110039472579956
0.24324804544448853 0.6922552585601807 0.2509310245513916
0.4400305151939392 0.4850524067878723 0.02740839123725891
0.46337276697158813 0.5669484734535217 -0.11534443497657776
0.30750370025634766 0.7955353260040283 0.09395941346883774
0.31247633695602417 0.8315587043762207 0.13202981650829315
0.23224979639053345 0.6181538701057434 0.17872020602226257
0.2758753001689911 0.7667113542556763 0.12298857420682907
0.25178495049476624 0.464458703994751 0.15018315613269806
0.4051177501678467 0.8769167065620422 0.009909098967909813
0.4941045939922333 0.6304494738578796 -0.09730041027069092
0.4125237464904785 0.5774498581886292 -0.02309550531208515
0.26007726788520813 0.5090366005897522 0.1108301654458046
0.36032575368881226 0.49310824275016785 0.026537584140896797
0.38173842430114746 0.4948995113372803 0.019897067919373512
0.39495566487312317 0.7377384305000305 0.004977291915565729
0.2516185939311981 0.6499038934707642 0.09330128878355026
0.44961026310920715 0.9127006530761719 0.010470005683600903
0.378790020942688 0.8814566135406494 0.06530261039733887
0.34878647327423096 0.8606057167053223 0.09560803323984146
0.5103902220726013 0.3356091380119324 -0.029364226385951042
0.5006247162818909 0.9175907373428345 0.001682002330198884
0.4023537337779999 0.4936370849609375 0.01860104128718376
0.4217350482940674 0.4900040626525879 0.02195427380502224
0.4339595139026642 0.4875714182853699 0.026898596435785294
0.2703017592430115 0.4668767750263214 0.08867243677377701
0.4194171726703644 0.47032153606414795 0.01983422040939331
0.39911949634552 0.4650813043117523 0.01561807282269001
0.3790381848812103 0.46381449699401855 0.017031723633408546
0.3579041361808777 0.4677048325538635 0.02348404936492443
0.3436948359012604 0.47414255142211914 0.03189171478152275
0.23778632283210754 0.45900920033454895 0.21921038627624512
0.34604698419570923 0.4903791546821594 0.035027578473091125
0.5041293501853943 0.6546524167060852 -0.07425107061862946
0.41809916496276855 0.6628125905990601 -0.04356389865279198
0.4455235004425049 0.6151309013366699 -0.07762416452169418
0.46776604652404785 0.6558113098144531 -0.07065597176551819
0.5077610611915588 0.45724308490753174 -0.04367627203464508
0.34161514043807983 0.826490044593811 0.06961814314126968
0.37270215153694153 0.851555347442627 0.04153759405016899
0.4478975832462311 0.8942698240280151 -0.01699974574148655
0.2841494679450989 0.7998569011688232 0.17732352018356323
0.4336388111114502 0.47864431142807007 0.024506567046046257
0.4682118892669678 0.5265427231788635 -0.06316886097192764
0.5007190108299255 0.898514449596405 -0.024327611550688744
0.4107862710952759 0.8995976448059082 0.03292032331228256
0.23734554648399353 0.6737247705459595 0.170526921749115
0.44932109117507935 0.7499973773956299 -0.0270993635058403
0.44466733932495117 0.7552719116210938 -0.03144393488764763
0.4401327967643738 0.7638369798660278 -0.03505600988864899
0.43651849031448364 0.7761651873588562 -0.031069938093423843
0.4283186197280884 0.7984060049057007 -0.01497732289135456
0.4053172171115875 0.7109532952308655 -0.006597705651074648
0.3976559340953827 0.708466112613678 -0.005822832230478525
0.3906571865081787 0.7050407528877258 -0.005806276574730873
0.37107235193252563 0.6946660876274109 -0.0014563747681677341
0.28123319149017334 0.6556531190872192 0.04152580350637436
0.46964573860168457 0.5050279498100281 -0.03844686970114708
0.45909935235977173 0.4665132761001587 0.009579306468367577
0.44428136944770813 0.4714395999908447 0.01994543895125389
0.41166678071022034 0.7084380388259888 -0.0049604494124650955
0.28074777126312256 0.7219371795654297 0.0783977061510086
0.47846612334251404 0.46292877197265625 -0.02512107975780964
0.4177457392215729 0.8224967122077942 -0.006121465936303139
0.5050221085548401 0.5291427373886108 -0.11223244667053223
0.4847889542579651 0.5124138593673706 -0.08050268888473511
0.505946159362793 0.5062147974967957 -0.08684737235307693
0.45083993673324585 0.5631138682365417 -0.06594416499137878
0.5014947652816772 0.8722483515739441 -0.034768227487802505
0.5026994347572327 0.8417606353759766 -0.03249945119023323
0.4574875235557556 0.839604377746582 -0.025448905304074287
0.3647754490375519 0.7645220756530762 0.02586790919303894
0.39915943145751953 0.6262195110321045 -0.019563626497983932
0.3889685273170471 0.797167181968689 0.011907240375876427
0.33724021911621094 0.6273563504219055 -0.007546924985945225
0.3725437521934509 0.651958167552948 -0.011502925306558609
0.3151145577430725 0.6688423156738281 0.014623585157096386
0.4501810371875763 0.8691920042037964 -0.02651413343846798
0.43609243631362915 0.5767384767532349 -0.048387400805950165
0.3470264673233032 0.7909107208251953 0.04515812546014786
0.3779861330986023 0.8216705918312073 0.025697235018014908
0.34351617097854614 0.7288527488708496 0.027023006230592728
0.2577976584434509 0.694952130317688 0.10034774243831635
0.3135150969028473 0.74273282289505 0.0488235205411911
0.25058427453041077 0.7243177890777588 0.15668518841266632
0.34970545768737793 0.6815760135650635 0.0031738162506371737
0.4530393183231354 0.5436546802520752 -0.045853059738874435
0.4512970447540283 0.6072357296943665 -0.10811028629541397
0.43533486127853394 0.6128721237182617 -0.08106543123722076
0.4614737331867218 0.5901010036468506 -0.12604771554470062
0.4413211941719055 0.448993980884552 0.004006784409284592
0.40266019105911255 0.43712088465690613 0.00018684371025301516
0.3683421015739441 0.43494951725006104 0.0018401789711788297
0.33906400203704834 0.43975579738616943 0.012547502294182777
0.31774580478668213 0.4513694643974304 0.028797291219234467
0.3023777902126312 0.49354660511016846 0.06657078862190247
0.23242560029029846 0.565828263759613 0.17778827250003815
0.3189755976200104 0.5204592347145081 0.04450486600399017
0.34425586462020874 0.5252346992492676 0.02857932448387146
0.3769412636756897 0.5253047347068787 0.0175199992954731
0.4084053635597229 0.5203421115875244 0.013051668182015419
0.43298274278640747 0.5118255615234375 0.01114118192344904
0.44914770126342773 0.5030152201652527 0.009333707392215729
0.23459583520889282 0.5769232511520386 0.27110618352890015
0.43578535318374634 0.6186057925224304 -0.06860709190368652
0.4673285484313965 0.5462128520011902 -0.08549642562866211
0.4673916697502136 0.6077401638031006 -0.12833666801452637
0.48057281970977783 0.6206759810447693 -0.11927292495965958
0.46787577867507935 0.6124378442764282 -0.11622653156518936
0.4414896070957184 0.6254507899284363 -0.060522548854351044
0.48409202694892883 0.6227295398712158 -0.12628374993801117
0.487127423286438 0.628491997718811 -0.09705612063407898
0.4486578106880188 0.485617995262146 0.022742129862308502
0.4616782069206238 0.48930782079696655 0.0063727437518537045
0.4684807360172272 0.49126672744750977 -0.012914348393678665
0.33502230048179626 0.47907716035842896 0.04024112597107887
0.3212759494781494 0.4719386696815491 0.0418376661837101
0.5247567296028137 0.5334427356719971 -0.1041712686419487
0.6821026802062988 0.48543739318847656 0.03596379980444908
0.5250989198684692 0.6247544884681702 -0.09766866266727448
0.7818741798400879 0.40513765811920166 0.1595081090927124
0.6111381649971008 0.5052567720413208 0.010598920285701752
0.6360023021697998 0.5068366527557373 0.01142122782766819
0.6598487496376038 0.5052394270896912 0.017575696110725403
0.6927298307418823 0.4948204755783081 0.038720786571502686
0.5903176069259644 0.4990581274032593 0.013371286913752556
0.6427369117736816 0.4473649561405182 0.0033765758853405714
0.6172472834587097 0.4484548568725586 0.004702134523540735
0.6674270033836365 0.4512990117073059 0.010924308560788631
0.6843974590301514 0.45991837978363037 0.02081894315779209
0.7133644223213196 0.509933590888977 0.05050355941057205
0.5985157489776611 0.849895715713501 -0.0034859301522374153
0.6909306645393372 0.48124849796295166 0.04440966993570328
0.7900293469429016 0.5108163356781006 0.16341346502304077
0.7414805889129639 0.49881187081336975 0.07664617151021957
0.6322303414344788 0.5955994129180908 -0.02308543212711811
0.5417449474334717 0.682245671749115 -0.07728871703147888
0.5391875505447388 0.7039541006088257 -0.0676744133234024
0.5802507400512695 0.68780517578125 -0.06139214336872101
0.6060987710952759 0.6961860060691833 -0.036959536373615265
0.5672971606254578 0.7047973275184631 -0.05492997542023659
0.5900363326072693 0.7068255543708801 -0.032328035682439804
0.6339424252510071 0.7483704090118408 0.009415490552783012
0.5226923227310181 0.6107954978942871 -0.1415819227695465
0.5252010822296143 0.5858847498893738 -0.14807578921318054
0.7245619297027588 0.438506156206131 0.02804967388510704
0.5788698196411133 0.5383800864219666 -0.021121639758348465
0.5815632939338684 0.6042816042900085 -0.08003607392311096
0.5829619765281677 0.5917784571647644 -0.07139254361391068
0.7102861404418945 0.5936629772186279 0.008308354765176773
0.5250566601753235 0.5567811131477356 -0.13118918240070343
0.6617094278335571 0.41044703125953674 -0.013820633292198181
0.6983116865158081 0.41976675391197205 0.004503773991018534
0.7552982568740845 0.3575097918510437 0.11286724358797073
0.5554407835006714 0.429195761680603 -0.035482268780469894
0.5949629545211792 0.4555683135986328 0.012544423341751099
0.6545809507369995 0.7162442803382874 0.012604493647813797
0.7624757289886475 0.7509304285049438 0.21255892515182495
0.5639433264732361 0.6182473301887512 -0.07051271200180054
0.5431613922119141 0.6264746189117432 -0.0740179494023323
0.636601984500885 0.7146810293197632 0.013223252259194851
0.624916672706604 0.7153792977333069 0.007189080584794283
0.7135244011878967 0.40436679124832153 0.018116334453225136
0.5840092897415161 0.6141321063041687 -0.06671278178691864
0.6143383383750916 0.4123042821884155 -0.027773402631282806
0.6196444034576416 0.39136219024658203 -0.031719010323286057
0.6520054936408997 0.2921949028968811 0.020141109824180603
0.7335606813430786 0.3791981041431427 0.05964125320315361
0.6332955360412598 0.33784225583076477 -0.006858831737190485
0.7411792278289795 0.429263710975647 0.05052895471453667
0.7614948153495789 0.41794276237487793 0.10289708524942398
0.5410254597663879 0.6956655383110046 -0.07483937591314316
0.5730722546577454 0.6980772018432617 -0.05886232852935791
0.5981020927429199 0.7015866637229919 -0.03665333613753319
0.5582596063613892 0.6224040985107422 -0.06569571793079376
0.631123423576355 0.7147645354270935 0.010157867334783077
0.6167544722557068 0.7332831025123596 -0.0030333527829498053
0.620911717414856 0.7161424160003662 0.006647968664765358
0.549145519733429 0.6116008758544922 -0.10524483770132065
0.5858806371688843 0.7047668099403381 -0.029234103858470917
0.5627842545509338 0.7042477130889893 -0.045679353177547455
0.5366115570068359 0.7052096128463745 -0.05804816260933876
0.5440118312835693 0.8144916892051697 -0.028780343011021614
0.5435984134674072 0.788596510887146 -0.05000041797757149
0.5426573157310486 0.7745113968849182 -0.05284162983298302
0.5410188436508179 0.763569712638855 -0.04653565213084221
0.5385186672210693 0.7558668851852417 -0.041786078363657
0.5885777473449707 0.7414345145225525 -0.016184872016310692
0.5928918123245239 0.7434912323951721 -0.02035079337656498
0.5986685752868652 0.7487229704856873 -0.023548055440187454
0.6031502485275269 0.7561824917793274 -0.01880055107176304
0.6214838624000549 0.6756680607795715 -0.02864302322268486
0.7914786338806152 0.6294389963150024 0.25714775919914246
0.6035330891609192 0.7332247495651245 -0.0008731496636755764
0.6104864478111267 0.732058048248291 -0.003443825291469693
0.535712480545044 0.6372568011283875 -0.07499829679727554
0.5771943926811218 0.6282640695571899 -0.048164669424295425
0.5390933156013489 0.6321700811386108 -0.07534331828355789
0.6061692833900452 0.551333487033844 -0.014426535926759243
0.6488374471664429 0.5654241442680359 -0.009658140130341053
0.5888931751251221 0.6022493839263916 -0.05735718458890915
0.7135308384895325 0.31876513361930847 0.06348435580730438
0.6925410032272339 0.35140731930732727 0.024045875295996666
0.6715961694717407 0.3906175494194031 -0.007656329311430454
0.6114375591278076 0.7746121287345886 -0.003634176217019558
0.5640091896057129 0.39608097076416016 -0.04320761561393738
0.5753210186958313 0.3342357873916626 -0.024055922403931618
0.5874876976013184 0.27998673915863037 -0.005094443913549185
0.6807237267494202 0.5017870664596558 0.02832651324570179
0.7402690649032593 0.5269287824630737 0.06331359595060349
0.5771296620368958 0.49255895614624023 0.017070721834897995
0.7132087349891663 0.46915584802627563 0.04232586547732353
0.5611718893051147 0.5229418277740479 -0.029485417529940605
0.5645902156829834 0.5961543321609497 -0.10412756353616714
0.7677252292633057 0.5471640825271606 0.08971179276704788
0.7225790023803711 0.5388867855072021 0.03958165645599365
0.6902328729629517 0.5444784760475159 0.016375722363591194
0.6428326964378357 0.5419982671737671 0.005163348279893398
0.6066784262657166 0.5339482426643372 0.0009669587598182261
0.5799563527107239 0.5230621695518494 -0.005123460665345192
0.5293179154396057 0.48895227909088135 -0.05472233518958092
0.7668975591659546 0.5947041511535645 0.07912469655275345
0.7345302104949951 0.46723705530166626 0.05408470705151558
0.5146945714950562 0.6244663596153259 -0.13015998899936676
0.5768617987632751 0.5596439242362976 -0.034407392144203186
0.8000378608703613 0.5163528919219971 0.2458556443452835
0.5609981417655945 0.5096502900123596 -0.00789662729948759
0.5924850106239319 0.6042900681495667 -0.03049110434949398
0.6999626159667969 0.48369038105010986 0.049270641058683395
0.5656386613845825 0.5809418559074402 -0.0933615192770958
0.7823059558868408 0.6893647909164429 0.24112828075885773
0.5778549909591675 0.4842722415924072 0.024539267644286156
0.5453530550003052 0.5666736960411072 -0.11676585674285889
0.7066009044647217 0.7943459153175354 0.08714111149311066
0.7022506594657898 0.831053614616394 0.12537595629692078
0.7909554243087769 0.6145979166030884 0.16846899688243866
0.740675151348114 0.7645347714424133 0.11499212682247162
0.7770341038703918 0.4608830511569977 0.14071467518806458
0.5998802781105042 0.8773319125175476 0.006873938255012035
0.512346088886261 0.6305163502693176 -0.09746288508176804
0.6004325151443481 0.5762604475021362 -0.02678637206554413
0.7637344598770142 0.5058417320251465 0.10160747915506363
0.6572927236557007 0.4912880063056946 0.02088557370007038
0.6358489990234375 0.4932251572608948 0.014995959587395191
0.6225683689117432 0.7363495826721191 0.0005558203556574881
0.7655201554298401 0.646320104598999 0.08376830071210861
0.5523282289505005 0.9133899211883545 0.008418208919465542
0.6286721229553223 0.8820027112960815 0.06102853640913963
0.6623634099960327 0.8609275817871094 0.09029098600149155
0.6151645183563232 0.4921860694885254 0.014288216829299927
0.5960355401039124 0.4887178838253021 0.018196752294898033
0.5838837623596191 0.4865793287754059 0.023704003542661667
0.7541929483413696 0.4641467034816742 0.07981321960687637
0.5989837050437927 0.46911078691482544 0.016080139204859734
0.6195841431617737 0.463786780834198 0.0111646493896842
0.6395206451416016 0.4624876379966736 0.011868592351675034
0.6605499982833862 0.4661082625389099 0.017627473920583725
0.6746944189071655 0.4723452925682068 0.025619156658649445
0.7958076000213623 0.4549826383590698 0.20881612598896027
0.6719713807106018 0.48838740587234497 0.028749262914061546
0.5935549736022949 0.6616763472557068 -0.04675506055355072
0.5638339519500732 0.6149874925613403 -0.07953929901123047
0.5414383411407471 0.6554104685783386 -0.07214996218681335
0.6697002649307251 0.8262450695037842 0.06423089653253555
0.6357759237289429 0.8518881797790527 0.03708381950855255
0.5544236898422241 0.8947678804397583 -0.018969310447573662
0.7340339422225952 0.7983118891716003 0.16901889443397522
0.5842861533164978 0.47779685258865356 0.020912442356348038
0.544005274772644 0.5262471437454224 -0.06466589868068695
0.5932731628417969 0.9002875089645386 0.029545512050390244
0.7839288711547852 0.6703301668167114 0.1609143316745758
0.5657327771186829 0.7497275471687317 -0.030645878985524178
0.5700414180755615 0.7548577189445496 -0.03479303792119026
0.5737838745117188 0.7634273171424866 -0.03857579082250595
0.5765551924705505 0.7757918834686279 -0.034534674137830734
0.5826303958892822 0.7978812456130981 -0.01855543814599514
0.6116982102394104 0.7093856334686279 -0.011355314403772354
0.6191879510879517 0.7067975997924805 -0.010536386631429195
0.6261745691299438 0.703359842300415 -0.010619455948472023
0.6444571018218994 0.6926937103271484 -0.006660324987024069
0.7331615686416626 0.6523212194442749 0.03256719559431076
0.5445284843444824 0.5046849846839905 -0.04018261656165123
0.558346688747406 0.46579092741012573 0.007645451929420233
0.5735191702842712 0.47057873010635376 0.017278853803873062
0.6060108542442322 0.7069112062454224 -0.009361594915390015
0.7347139716148376 0.719011127948761 0.0701482817530632
0.5377610325813293 0.462493360042572 -0.026255572214722633
0.5910135507583618 0.8221298456192017 -0.009301730431616306
0.5271601676940918 0.5122432112693787 -0.08113569766283035
0.5601814985275269 0.562663197517395 -0.06795447319746017
0.5487546324729919 0.8395320773124695 -0.027156423777341843
0.6491292715072632 0.7634462118148804 0.02081580087542534
0.6137833595275879 0.6249603629112244 -0.023728663101792336
0.6222842931747437 0.7965536117553711 0.0076476507820189
0.6756548881530762 0.6249160170555115 -0.013991701416671276
0.6412336230278015 0.6502981781959534 -0.01649252139031887
0.6984395384788513 0.6662061214447021 0.007514027878642082
0.5537509322166443 0.8693901300430298 -0.02835276536643505
0.575706422328949 0.5760976076126099 -0.05124060809612274
0.6651771664619446 0.7901937365531921 0.03985774144530296
0.6318204402923584 0.8213546872138977 0.02132122404873371
0.6712718605995178 0.7271096706390381 0.020561063662171364
0.75895094871521 0.69158536195755 0.09097011387348175
0.7005288004875183 0.7407459616661072 0.04192041605710983
0.7685956358909607 0.7213579416275024 0.1474739909172058
0.6653322577476501 0.6793396472930908 -0.0030037700198590755
0.5595869421958923 0.5431004166603088 -0.048189397901296616
0.5569649934768677 0.6072548627853394 -0.10990626364946365
0.5742482542991638 0.6125239729881287 -0.08331494778394699
0.5458053350448608 0.5902472138404846 -0.1275462806224823
0.5764883756637573 0.44814255833625793 0.0013250671327114105
0.6151006817817688 0.435924232006073 -0.0036183232441544533
0.6497030854225159 0.4335455000400543 -0.002969045890495181
0.6797375679016113 0.4382018446922302 0.006618583109229803
0.7016381621360779 0.4497092366218567 0.0219575148075819
0.7178851962089539 0.4910072088241577 0.05900539830327034
0.7931845188140869 0.562275767326355 0.16754767298698425
0.6989901065826416 0.5178307890892029 0.037205640226602554
0.6730015873908997 0.5228224396705627 0.02217528596520424
0.6400557160377502 0.5234614610671997 0.012235864996910095
0.6082804203033447 0.5189666748046875 0.008889305405318737
0.5838543176651001 0.5108874440193176 0.008066855370998383
0.5675184726715088 0.5022071599960327 0.00695074675604701
0.7960330247879028 0.573065459728241 0.2602090835571289
0.5743056535720825 0.6180609464645386 -0.07110365480184555
0.5431660413742065 0.5458574891090393 -0.08716749399900436
0.5393174886703491 0.607848048210144 -0.1295183300971985
0.5262019038200378 0.6209316253662109 -0.12000621855258942
0.5394788980484009 0.6126943230628967 -0.11730001866817474
0.5685850381851196 0.6250773668289185 -0.06269066035747528
0.5220582485198975 0.6229232549667358 -0.1268417090177536
0.5199332237243652 0.6288093328475952 -0.09748131781816483
0.5686743259429932 0.48488444089889526 0.020283441990613937
0.5550898313522339 0.488696813583374 0.00450346153229475
0.5475044846534729 0.4908226728439331 -0.014473632909357548
0.6836535334587097 0.4771427512168884 0.033871620893478394
0.6980535984039307 0.4700136184692383 0.03504832834005356
