ply
format ascii 1.0
element vertex 468
property float x
property float y
property float z
end_header
0.43867671489715576 0.7028560042381287 -0.07069423049688339
0.3953832983970642 0.6123040318489075 -0.13082006573677063
0.4339975416660309 0.642422080039978 -0.07199325412511826
0.404030978679657 0.5277319550514221 -0.08383578062057495
0.3939197063446045 0.5849185585975647 -0.13828091323375702
0.4055580496788025 0.5513392686843872 -0.1281566619873047
0.44700270891189575 0.4711400866508484 -0.063710056245327
0.35278594493865967 0.4611632823944092 0.12991636991500854
0.4588679075241089 0.4117242097854614 -0.04597093164920807
0.45762449502944946 0.3790908455848694 -0.04877495393157005
0.48037081956863403 0.27012547850608826 -0.02161843702197075
0.44208022952079773 0.716260552406311 -0.06767928600311279
0.44795742630958557 0.7266494035720825 -0.060714881867170334
0.45524701476097107 0.7310442924499512 -0.050467509776353836
0.4569416344165802 0.7765867710113525 -0.03312985971570015
0.45375287532806396 0.7889155149459839 -0.03709467872977257
0.45215895771980286 0.8037006855010986 -0.041271377354860306
0.45399072766304016 0.819685161113739 -0.036302950233221054
0.4634944200515747 0.8419328331947327 -0.013970831409096718
0.40580904483795166 0.6278391480445862 -0.11927516758441925
0.4003758132457733 0.6264551281929016 -0.07720673829317093
0.35320329666137695 0.3940370976924896 0.29361823201179504
0.40496668219566345 0.4841136932373047 0.0712452232837677
0.3854905068874359 0.48585304617881775 0.08519504219293594
0.36771711707115173 0.4855998754501343 0.10282879322767258
0.35255709290504456 0.47139519453048706 0.1383853256702423
0.4193326234817505 0.4781307876110077 0.05899146571755409
0.3710854649543762 0.4210222363471985 0.0787939578294754
0.39312565326690674 0.42404937744140625 0.06234157830476761
0.3534086346626282 0.4243779182434082 0.09896120429039001
0.34486448764801025 0.43329036235809326 0.11580385267734528
0.34252482652664185 0.4928028881549835 0.1573563516139984
0.398832231760025 0.8599985837936401 0.06084033474326134
0.3495805561542511 0.45555514097213745 0.14181777834892273
0.34865498542785645 0.49100953340530396 0.30350202322006226
0.33770453929901123 0.47815874218940735 0.1949063539505005
0.36139166355133057 0.5930636525154114 0.04673879221081734
0.4111466407775879 0.697869062423706 -0.04991556331515312
0.4271939992904663 0.7256762981414795 -0.040142010897397995
0.3919029235839844 0.7042413353919983 -0.016271496191620827
0.38867396116256714 0.7154809832572937 0.019165072590112686
0.4139302670955658 0.7263436913490295 -0.013211134821176529
0.40820103883743286 0.7301223874092102 0.017851199954748154
0.3869900107383728 0.7662357091903687 0.07929109781980515
0.37937819957733154 0.6110936403274536 -0.11992539465427399
0.375419944524765 0.5852795839309692 -0.12496782094240189
0.3256817162036896 0.41348063945770264 0.14025424420833588
0.40512698888778687 0.5279806852340698 0.020677901804447174
0.36399391293525696 0.6043844223022461 -0.03162403777241707
0.3693709373474121 0.5905902981758118 -0.022517621517181396
0.32357606291770935 0.5893023014068604 0.11865567415952682
0.38838857412338257 0.5539204478263855 -0.10775865614414215
0.34396761655807495 0.38447028398513794 0.06428471207618713
0.32888063788414 0.39375579357147217 0.10297354310750961
0.34901928901672363 0.3499099314212799 0.23313218355178833
0.4181215167045593 0.4054756462574005 -0.011611705645918846
0.4133456349372864 0.4323808252811432 0.05733976513147354
0.37379974126815796 0.734882652759552 0.09370920062065125
0.39119473099708557 0.7233899235725403 0.346816748380661
0.3817223310470581 0.6196790337562561 -0.032598331570625305
0.39836016297340393 0.6298693418502808 -0.05093621835112572
0.39199671149253845 0.740454912185669 0.08271608501672745
0.4034671485424042 0.7405582070350647 0.06922563165426254
0.325510710477829 0.3806416094303131 0.12162639200687408
0.3715137243270874 0.6166774034500122 -0.019101642072200775
0.37209221720695496 0.38668277859687805 0.02470981702208519
0.3667253851890564 0.3681829571723938 0.02227431908249855
0.3813430964946747 0.2895354926586151 0.08723025768995285
0.33532029390335083 0.36552876234054565 0.17022989690303802
0.3728707730770111 0.3278254270553589 0.052958231419324875
0.3253384828567505 0.4064434766769409 0.16936686635017395
0.3375582695007324 0.40252238512039185 0.2276749610900879
0.417416512966156 0.7141144871711731 -0.04694639891386032
0.4023638367652893 0.7173972725868225 -0.015024666674435139
0.39728277921676636 0.722949206829071 0.016288723796606064
0.3888664245605469 0.6254512667655945 -0.03377038240432739
0.3970937132835388 0.7410731315612793 0.0750962570309639
0.3998172879219055 0.7558947801589966 0.0541265606880188
0.40861475467681885 0.7391852736473083 0.06692397594451904
0.3767886757850647 0.6103851795196533 -0.06787662953138351
0.4181981682777405 0.7290388941764832 0.018667031079530716
0.424678772687912 0.7283102869987488 -0.006424294784665108
0.43688467144966125 0.7294497489929199 -0.03031717799603939
0.432708740234375 0.8359139561653137 0.004454606678336859
0.4247346520423889 0.8127492666244507 -0.01541286800056696
0.4253256320953369 0.7971682548522949 -0.018925866112113
0.42945021390914917 0.7826604843139648 -0.014351649209856987
0.43567955493927 0.7726008296012878 -0.011882631108164787
0.4160740375518799 0.7597863078117371 0.03188810124993324
0.41004228591918945 0.7633147239685059 0.028979280963540077
0.40277373790740967 0.7698525786399841 0.027982985600829124
0.39844435453414917 0.7771509885787964 0.03539937362074852
0.3714287281036377 0.6871894598007202 0.032940901815891266
0.38992270827293396 0.6005253791809082 0.3981011211872101
0.41903156042099 0.6344080567359924 -0.0890699177980423
0.4133211672306061 0.7529752850532532 0.05362319201231003
0.40578949451446533 0.7539075016975403 0.05197632312774658
0.4068908393383026 0.6423351168632507 -0.051183365285396576
0.38432833552360535 0.6337845325469971 -0.009452414698898792
0.40243518352508545 0.6365954875946045 -0.05236112326383591
0.3881767988204956 0.5428136587142944 0.04267303645610809
0.35836678743362427 0.5596564412117004 0.06897498667240143
0.37261679768562317 0.6030542254447937 -0.008039889857172966
0.3562034070491791 0.31420236825942993 0.16059249639511108
0.3461640477180481 0.33900919556617737 0.1124950423836708
0.3394300937652588 0.3671819865703583 0.07407165318727493
0.39653000235557556 0.7915347814559937 0.05861668288707733
0.40785080194473267 0.37488192319869995 -0.01679954305291176
0.4119696319103241 0.32520052790641785 0.004144646693021059
0.4210100769996643 0.27662619948387146 0.024251379072666168
0.35634154081344604 0.4804306924343109 0.12278677523136139
0.32993051409721375 0.5124063491821289 0.18247391283512115
0.42814362049102783 0.471254825592041 0.05644267052412033
0.33874866366386414 0.44414281845092773 0.15026594698429108
0.4153739809989929 0.5114139318466187 0.003877870040014386
0.3648068904876709 0.5938918590545654 -0.06206703931093216
0.3232417106628418 0.5313824415206909 0.22449156641960144
0.32856687903404236 0.5283054709434509 0.1535816788673401
0.33991292119026184 0.5365392565727234 0.11457157880067825
0.3708256483078003 0.5314881205558777 0.08072818070650101
0.39710861444473267 0.5206207036972046 0.057318031787872314
0.41464459896087646 0.5087134838104248 0.03614550083875656
0.4304327070713043 0.4775116741657257 -0.04026085138320923
0.31407618522644043 0.5818038582801819 0.21726422011852264
0.33276665210723877 0.4436659812927246 0.1713237315416336
0.39539486169815063 0.626175045967102 -0.11118029803037643
0.39611250162124634 0.5530093312263489 0.008834315463900566
0.38054436445236206 0.49453669786453247 0.38852328062057495
0.4264778792858124 0.4952055513858795 0.022924331948161125
0.3803609311580658 0.6053959131240845 0.016748420894145966
0.3480282723903656 0.45745304226875305 0.1514589637517929
0.37260758876800537 0.5778408646583557 -0.052234139293432236
0.3881257176399231 0.659238338470459 0.3793391287326813
0.4296925663948059 0.4621722996234894 0.06468366086483002
0.3787565231323242 0.5629479885101318 -0.08364219218492508
0.36609384417533875 0.784929633140564 0.19778361916542053
0.3889360725879669 0.8171401619911194 0.23537497222423553
0.3401808738708496 0.5926491618156433 0.3126700222492218
0.358455628156662 0.748043417930603 0.24076415598392487
0.34464386105537415 0.44400376081466675 0.2740839719772339
0.39799851179122925 0.8890978693962097 0.07506847381591797
0.4102320671081543 0.633005678653717 -0.08316098153591156
0.3829330801963806 0.5720912218093872 0.026942288503050804
0.3367500305175781 0.48545271158218384 0.2312013953924179
0.3666939437389374 0.46885281801223755 0.10383489727973938
0.38353991508483887 0.47122257947921753 0.08845097571611404
0.39551854133605957 0.7586978673934937 0.06169217824935913
0.319288432598114 0.6318197846412659 0.21961714327335358
0.4327430725097656 0.9381641149520874 0.056746311485767365
0.39858102798461914 0.8857892751693726 0.1428225189447403
0.39318645000457764 0.85582435131073 0.18508248031139374
0.46623873710632324 0.3243216872215271 -0.036206021904945374
0.47919031977653503 0.9523426294326782 0.022021209821105003
0.40110719203948975 0.47028017044067383 0.07564350962638855
0.4162502884864807 0.46650373935699463 0.06929761916399002
0.42550748586654663 0.46409815549850464 0.06788061559200287
0.3338736891746521 0.4424889087677002 0.2055041342973709
0.4145103693008423 0.44905799627304077 0.06813745200634003
0.39805540442466736 0.4443102180957794 0.07340522855520248
0.37871506810188293 0.4420401453971863 0.08543934673070908
0.3618652820587158 0.4443064332008362 0.10154344886541367
0.3537258207798004 0.4491380751132965 0.11559829860925674
0.3632037043571472 0.4391213059425354 0.3486844003200531
0.3577726185321808 0.46509820222854614 0.11845424771308899
0.438310831785202 0.661831259727478 -0.06549832224845886
0.3782590925693512 0.6714476346969604 0.002900289371609688
0.3764742910861969 0.6151878833770752 -0.043210383504629135
0.4077659845352173 0.6638202667236328 -0.04514002799987793
0.45971810817718506 0.4412069320678711 -0.04572957381606102
0.3761647939682007 0.8224592804908752 0.1586565226316452
0.3877032995223999 0.8547431230545044 0.1182648167014122
0.4215872883796692 0.9159871339797974 0.030244439840316772
0.39090996980667114 0.7769415378570557 0.2938753068447113
0.42425471544265747 0.45677512884140015 0.06626659631729126
0.40813690423965454 0.517924427986145 -0.03927309066057205
0.46700185537338257 0.9296478033065796 -0.0031070674303919077
0.4086257219314575 0.9148388504981995 0.09835035353899002
0.3442268967628479 0.6475298404693604 0.3020443320274353
0.4227387309074402 0.7666524648666382 0.010898956097662449
0.4162532687187195 0.7737038731575012 0.008285092189908028
0.4101153016090393 0.7845585346221924 0.007329128682613373
0.4065399765968323 0.7978368997573853 0.013126443140208721
0.4097726047039032 0.8163009881973267 0.03359823301434517
0.4055248498916626 0.7335855960845947 0.04593691602349281
0.3962535560131073 0.7305780649185181 0.05128560587763786
0.38929641246795654 0.7260350584983826 0.054334186017513275
0.36967939138412476 0.708498477935791 0.06780733168125153
0.3230060636997223 0.6446697115898132 0.1532587856054306
0.4236189126968384 0.49306830763816833 -0.016990017145872116
0.43700629472732544 0.4459068179130554 0.03090781159698963
0.4304118752479553 0.44850432872772217 0.05350339785218239
0.41423511505126953 0.7303840517997742 0.04638390615582466
0.34049397706985474 0.7089430093765259 0.1912635713815689
0.44030627608299255 0.44539108872413635 -0.01186166238039732
0.40763571858406067 0.8345893025398254 0.047534432262182236
0.41999953985214233 0.524027407169342 -0.10553620010614395
0.416017085313797 0.5039442777633667 -0.0658474713563919
0.43309444189071655 0.49846741557121277 -0.08340954780578613
0.39098820090293884 0.5571759939193726 -0.033007051795721054
0.4622347950935364 0.898992121219635 -0.014229309745132923
0.46346402168273926 0.8661988377571106 -0.014077691361308098
0.4300275146961212 0.8576153516769409 0.011705461889505386
0.37542152404785156 0.7723405361175537 0.10078461468219757
0.37047773599624634 0.6273552775382996 0.035225555300712585
0.3909170627593994 0.8061390519142151 0.0761755108833313
0.33851179480552673 0.6230853199958801 0.07625877112150192
0.35933011770248413 0.6537286043167114 0.05576230213046074
0.3356110155582428 0.664324939250946 0.10995892435312271
0.4214519262313843 0.8872182965278625 0.01850483939051628
0.3874163031578064 0.5720210671424866 -0.0088381078094244
0.36845290660858154 0.7914842963218689 0.130165696144104
0.3861886262893677 0.8262483477592468 0.09740041196346283
0.36080673336982727 0.7361112236976624 0.11438235640525818
0.33078649640083313 0.6762257814407349 0.22332362830638885
0.3501262664794922 0.7391469478607178 0.14779901504516602
0.3517068326473236 0.6992875933647156 0.2852071523666382
0.35583844780921936 0.6872116923332214 0.08236251026391983
0.4032805860042572 0.5350913405418396 -0.013704719953238964
0.36882513761520386 0.6055697798728943 -0.07034057378768921
0.3683736026287079 0.6128136515617371 -0.040368180721998215
0.36739590764045715 0.588103711605072 -0.09293274581432343
0.4188709259033203 0.4238404631614685 0.036495454609394073
0.3855779767036438 0.4095476269721985 0.0510283000767231
0.3586786389350891 0.40691232681274414 0.07158766686916351
0.34081703424453735 0.4120778441429138 0.0979844257235527
0.3348078727722168 0.4240768551826477 0.12394564598798752
0.34379640221595764 0.46820199489593506 0.16750288009643555
0.342546671628952 0.5410589575767517 0.3132852613925934
0.3449649512767792 0.5015959739685059 0.13869766891002655
0.3571963608264923 0.5087400674819946 0.11131394654512405
0.37972715497016907 0.5075805187225342 0.0855502188205719
0.40342235565185547 0.5011734962463379 0.06605953723192215
0.4202885627746582 0.49269306659698486 0.04965634644031525
0.43064165115356445 0.4846169352531433 0.039479684084653854
0.3904055953025818 0.5473764538764954 0.40333467721939087
0.37536102533340454 0.6205319762229919 -0.029817216098308563
0.3952067494392395 0.539986789226532 -0.05794214457273483
0.3714117705821991 0.6068530678749084 -0.09882830083370209
0.3914194703102112 0.6218140125274658 -0.09775266796350479
0.37884604930877686 0.611853301525116 -0.08716898411512375
0.38505861163139343 0.6292917132377625 -0.0266799945384264
0.3913247585296631 0.6243870258331299 -0.10600370168685913
0.40413323044776917 0.6308603286743164 -0.0801977589726448
0.43417131900787354 0.4636434316635132 0.05252896621823311
0.4393182098865509 0.4709095060825348 0.02826737053692341
0.43604785203933716 0.47575628757476807 0.006377271376550198
0.35037291049957275 0.4530298709869385 0.12771794199943542
0.343468576669693 0.44339948892593384 0.13536019623279572
0.44261568784713745 0.5285247564315796 -0.11106068640947342
0.6676802039146423 0.4678085148334503 -0.06917652487754822
0.4473308026790619 0.6297196745872498 -0.09773505479097366
0.8519555330276489 0.3807280361652374 -0.011812571436166763
0.587663471698761 0.48767930269241333 -0.05672315135598183
0.6124929189682007 0.4900268614292145 -0.06824883073568344
0.6406143307685852 0.4901363253593445 -0.07448409497737885
0.6855176091194153 0.47784486413002014 -0.07205169647932053
0.567318320274353 0.48084622621536255 -0.041277963668107986
0.6207595467567444 0.4211881160736084 -0.08196132630109787
0.5927277207374573 0.4222349524497986 -0.06412945687770844
0.6503901481628418 0.42603278160095215 -0.08743306249380112
0.6724636554718018 0.43613529205322266 -0.08523878455162048
0.7135822176933289 0.4975992739200592 -0.06884460151195526
0.5802056789398193 0.8799216151237488 -0.03346862643957138
0.6824653148651123 0.46280384063720703 -0.06632081419229507
0.8571084141731262 0.493858277797699 -0.0069948178716003895
0.7582195997238159 0.4828907251358032 -0.05924176052212715
0.5950579047203064 0.5972470641136169 -0.08379951864480972
0.47703659534454346 0.7005001902580261 -0.0846247524023056
0.48207005858421326 0.7281759977340698 -0.07270688563585281
0.5254021286964417 0.7104255557060242 -0.08688987046480179
0.5609822273254395 0.7218264937400818 -0.0781741589307785
0.5173576474189758 0.7311476469039917 -0.07610705494880676
0.5475836992263794 0.7347573041915894 -0.06618577241897583
0.6181253790855408 0.7769014835357666 -0.04639601707458496
0.41877198219299316 0.6130257248878479 -0.13743501901626587
0.4205344617366791 0.5864898562431335 -0.14569325745105743
0.7182100415229797 0.4155935049057007 -0.09876202046871185
0.5425788164138794 0.5301063060760498 -0.0626906305551529
0.5198544859886169 0.6089801788330078 -0.11010242998600006
0.5274009108543396 0.5944839119911194 -0.10355286300182343
0.68922358751297 0.5968865752220154 -0.09776327013969421
0.4304882287979126 0.554934024810791 -0.13435281813144684
0.6310250759124756 0.3830503821372986 -0.10279601812362671
0.6779200434684753 0.3943602740764618 -0.10641568154096603
0.7952848672866821 0.3333131670951843 -0.04101260378956795
0.5110796689987183 0.4040766954421997 -0.06668538600206375
0.5703325867652893 0.4303680658340454 -0.04488912224769592
0.638340175151825 0.7445533275604248 -0.05723269656300545
0.87308669090271 0.7571364641189575 0.06265212595462799
0.5033730268478394 0.6246221661567688 -0.09101879596710205
0.48023271560668945 0.6329275369644165 -0.07998795807361603
0.6136378049850464 0.746353268623352 -0.048246219754219055
0.601016104221344 0.745434045791626 -0.04672529920935631
0.7000396251678467 0.3795303404331207 -0.1013161689043045
0.5312487483024597 0.6208237409591675 -0.09624385833740234
0.5752440690994263 0.3845615088939667 -0.08950821310281754
0.578864336013794 0.3646387755870819 -0.09546273201704025
0.6357502341270447 0.2750278115272522 -0.07014639675617218
0.7442754507064819 0.3565860390663147 -0.07494331896305084
0.6015700697898865 0.3186591863632202 -0.08284784108400345
0.7467507719993591 0.40640151500701904 -0.08709258586168289
0.7966206669807434 0.3959354758262634 -0.04972177371382713
0.47901880741119385 0.7169554829597473 -0.08134159445762634
0.5194138884544373 0.7229456305503845 -0.08264653384685516
0.5530640482902527 0.7287208437919617 -0.0737912580370903
0.49959444999694824 0.6298463940620422 -0.08140814304351807
0.6069496870040894 0.7461795806884766 -0.04721003770828247
0.5886090993881226 0.7616035342216492 -0.04895705729722977
0.5988643169403076 0.7445585131645203 -0.04583440348505974
0.46949148178100586 0.616396963596344 -0.12097146362066269
0.5478063821792603 0.7325435876846313 -0.06095346808433533
0.518079400062561 0.7315270900726318 -0.06521588563919067
0.48681291937828064 0.7309665679931641 -0.06324989348649979
0.5058788061141968 0.8409588932991028 -0.029055064544081688
0.49544376134872437 0.8173542022705078 -0.05214051157236099
0.49154967069625854 0.8015326857566833 -0.05672593042254448
0.4897051751613617 0.7866195440292358 -0.05190281569957733
0.49013835191726685 0.7762597799301147 -0.047377534210681915
0.5539005398750305 0.7650783658027649 -0.048278260976076126
0.5571343898773193 0.7690174579620361 -0.051975954324007034
0.5634159445762634 0.7763037085533142 -0.05587340518832207
0.5704201459884644 0.7848216891288757 -0.054028697311878204
0.5802196264266968 0.6933974623680115 -0.07823143899440765
0.9104102253913879 0.6175981760025024 0.0804334431886673
0.5760056376457214 0.7581444382667542 -0.04557191953063011
0.5813281536102295 0.7591392397880554 -0.04785493388772011
0.4715256690979004 0.6447699666023254 -0.08000699430704117
0.52967768907547 0.6375817656517029 -0.07166215777397156
0.47526389360427856 0.6392173171043396 -0.08034025877714157
0.5726743936538696 0.545171320438385 -0.06982181966304779
0.6156188249588013 0.5633318424224854 -0.08453680574893951
0.540054976940155 0.6066001057624817 -0.09197750687599182
0.7242587208747864 0.29668503999710083 -0.06261105835437775
0.6815804839134216 0.32941052317619324 -0.08489387482404709
0.643528401851654 0.3640487790107727 -0.10306055098772049
0.5881680250167847 0.802812933921814 -0.046148791909217834
0.5151998996734619 0.371520459651947 -0.07649839669466019
0.5331104397773743 0.31971773505210876 -0.0662725642323494
0.557783305644989 0.26760321855545044 -0.05491781234741211
0.6679321527481079 0.48626554012298584 -0.07511283457279205
0.749848484992981 0.5180474519729614 -0.0686354711651802
0.5535148978233337 0.4738314747810364 -0.03276268020272255
0.7113361954689026 0.4488621950149536 -0.08046159893274307
0.5198050141334534 0.5132653713226318 -0.06278862059116364
0.4874698519706726 0.5990248918533325 -0.1253393441438675
0.7960976958274841 0.5386834144592285 -0.05992214009165764
0.7180545330047607 0.5332047939300537 -0.08272731304168701
0.6717836856842041 0.540251612663269 -0.08607549965381622
0.615590512752533 0.5346155762672424 -0.0733131468296051
0.5782551765441895 0.5232390761375427 -0.05899297818541527
0.5502002835273743 0.511089026927948 -0.05066246911883354
0.47297561168670654 0.47810083627700806 -0.06887761503458023
0.7884049415588379 0.5935423970222473 -0.06717658042907715
0.7424808144569397 0.4468020796775818 -0.08003836870193481
0.41965383291244507 0.6275597214698792 -0.12481970340013504
0.5346943736076355 0.5552757382392883 -0.0723268985748291
0.9109363555908203 0.49519163370132446 0.06011471152305603
0.5279484391212463 0.4971356987953186 -0.044582825154066086
0.5526198148727417 0.608725368976593 -0.06774301826953888
0.6974179744720459 0.4635484218597412 -0.0672030821442604
0.4972933828830719 0.5810714364051819 -0.11639490723609924
0.9012578725814819 0.6848475337028503 0.07631100714206696
0.557374894618988 0.46559301018714905 -0.028853081166744232
0.46201154589653015 0.5652562379837036 -0.13067053258419037
0.747041642665863 0.8199484348297119 -0.013940601609647274
0.7707817554473877 0.8578487038612366 0.020984096452593803
0.8605268001556396 0.6081836223602295 0.0028543362859636545
0.7962673902511597 0.7823029160499573 -0.0086886677891016
0.8307149410247803 0.4406658411026001 -0.02278117462992668
0.5908517241477966 0.9133775234222412 -0.025513503700494766
0.430085152387619 0.6339331865310669 -0.09167266637086868
0.5635146498680115 0.5748006105422974 -0.07387497276067734
0.7961276173591614 0.4900209903717041 -0.0487835630774498
0.6336681842803955 0.47406288981437683 -0.07052748650312424
0.6100783348083496 0.4754018783569336 -0.06571854650974274
0.597131609916687 0.7652550339698792 -0.04894433543086052
0.7910870313644409 0.6499481797218323 -0.05534355714917183
0.5398826003074646 0.9536250829696655 -6.488582471320115e-07
0.6540822982788086 0.9190895557403564 0.003929107915610075
0.7079601883888245 0.8940122127532959 0.010821600444614887
0.5906370878219604 0.47376108169555664 -0.05523388832807541
0.5736045241355896 0.46967315673828125 -0.0432625375688076
0.5625189542770386 0.4671747088432312 -0.03299717977643013
0.7768814563751221 0.44349128007888794 -0.0659862756729126
0.5778182148933411 0.4515570402145386 -0.04731404781341553
0.5990827083587646 0.4467484951019287 -0.06097821146249771
0.6198548078536987 0.4467642307281494 -0.07128032296895981
0.6437028646469116 0.45044684410095215 -0.07650876045227051
0.6605890989303589 0.4557366371154785 -0.07537593692541122
0.8889203071594238 0.43087708950042725 0.02783094346523285
0.6521052718162537 0.4712165594100952 -0.07101627439260483
0.5459800362586975 0.6767146587371826 -0.08125826716423035
0.49766382575035095 0.6206729412078857 -0.0982726588845253
0.478618860244751 0.6663943529129028 -0.08014336973428726
0.6964430212974548 0.8564119338989258 -0.012729777954518795
0.6468842625617981 0.8860636949539185 -0.017124241217970848
0.5281890630722046 0.9301006197929382 -0.025446642190217972
0.8255998492240906 0.8157247304916382 0.039857082068920135
0.5632030963897705 0.45996230840682983 -0.0366782583296299
0.482628732919693 0.5191303491592407 -0.08442337065935135
0.597402036190033 0.9407176375389099 -0.004946483764797449
0.8560736775398254 0.67058926820755 0.0050070504657924175
0.5224948525428772 0.77195805311203 -0.05090237408876419
0.5255825519561768 0.7790724039077759 -0.05542062968015671
0.5296982526779175 0.7907692790031433 -0.05931432917714119
0.534943699836731 0.8048120737075806 -0.056803882122039795
0.5510995388031006 0.8256059885025024 -0.04367122799158096
0.5794277191162109 0.7382579445838928 -0.057512544095516205
0.5858495831489563 0.7360777258872986 -0.06158309057354927
0.5933881402015686 0.7319696545600891 -0.06486029177904129
0.6134189367294312 0.7156302332878113 -0.07089480012655258
0.7291521430015564 0.6600774526596069 -0.08110836893320084
0.4957534372806549 0.4940958619117737 -0.06388433277606964
0.5290234088897705 0.44638121128082275 -0.02813076227903366
0.5497182011604309 0.44932329654693604 -0.03227157145738602
0.5762035250663757 0.7346900105476379 -0.05321052670478821
0.7571389675140381 0.7335518598556519 -0.04522911086678505
0.4965320825576782 0.4451884627342224 -0.047253623604774475
0.5677657127380371 0.8497743010520935 -0.036025628447532654
0.45757538080215454 0.5047496557235718 -0.08971121907234192
0.5008755922317505 0.5593553781509399 -0.0923406258225441
0.5132646560668945 0.8659840226173401 -0.028300762176513672
0.6445475816726685 0.7900762557983398 -0.04348882660269737
0.5784088373184204 0.6318734288215637 -0.07200867682695389
0.6117392778396606 0.8242126703262329 -0.03814319893717766
0.6416547894477844 0.6314169764518738 -0.09257279336452484
0.6063557863235474 0.6606929898262024 -0.07793807238340378
0.6781812906265259 0.6781488060951233 -0.08345992863178253
0.520003080368042 0.898322582244873 -0.033979643136262894
0.5281540751457214 0.5745477080345154 -0.08347174525260925
0.674559473991394 0.8178486227989197 -0.033769238740205765
0.6305264234542847 0.8514219522476196 -0.028571709990501404
0.6644377112388611 0.7515103220939636 -0.05997616797685623
0.7929623126983643 0.6999427080154419 -0.040946751832962036
0.7100080847740173 0.7631890177726746 -0.0519506111741066
0.8387081623077393 0.7291380167007446 0.0023879187647253275
0.638780951499939 0.6964331865310669 -0.07695973664522171
0.5084590911865234 0.5370194315910339 -0.0775521993637085
0.4762842655181885 0.6115626692771912 -0.12772859632968903
0.5094876289367676 0.6183158159255981 -0.10695227235555649
0.4531094431877136 0.5917443633079529 -0.13897132873535156
0.5449846386909485 0.4234606921672821 -0.04604941979050636
0.5843464732170105 0.4093826115131378 -0.07051973789930344
0.6218407154083252 0.4068344831466675 -0.08793189376592636
0.6585192680358887 0.41286152601242065 -0.09602987766265869
0.6889773011207581 0.4264746904373169 -0.09292706102132797
0.7228301763534546 0.4735258221626282 -0.06569088250398636
0.8612265586853027 0.5501928329467773 -0.004516282118856907
0.6911916732788086 0.5064656734466553 -0.07381726801395416
0.6563003659248352 0.5122447609901428 -0.07432299852371216
0.6171787977218628 0.5108321905136108 -0.06684497743844986
0.583695650100708 0.5041306018829346 -0.054278623312711716
0.559139609336853 0.49525243043899536 -0.04104474559426308
0.5410956740379333 0.4870918393135071 -0.03375953435897827
0.9134629368782043 0.5558575987815857 0.0762990340590477
0.5167335271835327 0.6253166794776917 -0.0947188138961792
0.4703023433685303 0.5413802862167358 -0.10445359349250793
0.44472020864486694 0.611754298210144 -0.13552258908748627
0.4399714469909668 0.6258725523948669 -0.11906435340642929
0.45295047760009766 0.6176483631134033 -0.12485355138778687
0.5147830843925476 0.6334598660469055 -0.08139380812644958
0.4306222200393677 0.6270455121994019 -0.12320557981729507
0.43987545371055603 0.6334003806114197 -0.09459912031888962
0.5449247360229492 0.46591150760650635 -0.02478632889688015
0.5266684889793396 0.47253215312957764 -0.0289315078407526
0.5109134912490845 0.4768407940864563 -0.041609153151512146
0.6715778112411499 0.4596976637840271 -0.07234032452106476
0.6914942264556885 0.44821950793266296 -0.0776282325387001
