ply
format ascii 1.0
element vertex 468
property float x
property float y
property float z
end_header
0.48787736892700195 0.6982576847076416 -0.05782574787735939
0.46428611874580383 0.6416257619857788 -0.1220356822013855
0.481088250875473 0.6620744466781616 -0.06423313170671463
0.4551585912704468 0.5610703229904175 -0.0893770158290863
0.4625260531902313 0.6167181134223938 -0.1305350661277771
0.4664156138896942 0.5843585133552551 -0.1227504312992096
0.4822542071342468 0.5052471160888672 -0.06590206176042557
0.3475984036922455 0.496040403842926 0.06418288499116898
0.4861820936203003 0.4410773515701294 -0.05174648016691208
0.4847336411476135 0.40694862604141235 -0.05743683502078056
0.48860520124435425 0.28504201769828796 -0.04317760095000267
0.48990458250045776 0.7082231044769287 -0.054786521941423416
0.493078351020813 0.7155169248580933 -0.04813691973686218
0.4967278838157654 0.717498242855072 -0.039030663669109344
0.49682798981666565 0.7474454641342163 -0.028581973165273666
0.4959721267223358 0.7564383745193481 -0.032063499093055725
0.4962442219257355 0.7678447365760803 -0.036164119839668274
0.4976111054420471 0.7808894515037537 -0.03226075693964958
0.5025879144668579 0.8045939207077026 -0.01199332345277071
0.4688428044319153 0.6544021964073181 -0.11040888726711273
0.4559996724128723 0.6516520977020264 -0.07560759782791138
0.2944590449333191 0.4032217264175415 0.18729160726070404
0.4112631678581238 0.5187156200408936 0.026427097618579865
0.38957279920578003 0.5196229219436646 0.03411419689655304
0.3688618242740631 0.5175679326057434 0.04564305767416954
0.342292845249176 0.5026898980140686 0.07128490507602692
0.4278934597969055 0.5134716033935547 0.022995278239250183
0.37554484605789185 0.4522705078125 0.02441355027258396
0.3994547128677368 0.4555567502975464 0.016716914251446724
0.3540760576725006 0.4552919268608093 0.03824390470981598
0.34120750427246094 0.4645233750343323 0.050779156386852264
0.32886385917663574 0.517108678817749 0.08685469627380371
0.43111228942871094 0.8328354954719543 0.03792969509959221
0.3406844139099121 0.48952919244766235 0.07403311878442764
0.2944646179676056 0.5057203769683838 0.20345669984817505
0.31219804286956787 0.5012830495834351 0.11479445546865463
0.3827298879623413 0.6098603010177612 0.00991559773683548
0.4572945237159729 0.6930920481681824 -0.04771836847066879
0.4661449193954468 0.7131721377372742 -0.037370968610048294
0.4303942024707794 0.6957533359527588 -0.02479066699743271
0.41716310381889343 0.7002396583557129 0.002049240516498685
0.44652116298675537 0.7115170955657959 -0.01947941817343235
0.43364161252975464 0.7119595408439636 0.004549858160316944
0.40652158856391907 0.7405491471290588 0.051102183759212494
0.44745320081710815 0.6406938433647156 -0.11646978557109833
0.4436899423599243 0.6166098117828369 -0.1234259158372879
0.313045859336853 0.4402722716331482 0.06448862701654434
0.4285823702812195 0.5555918216705322 -0.004379782360047102
0.4134092926979065 0.6277366280555725 -0.04924720153212547
0.4147335886955261 0.6144875884056091 -0.04230125993490219
0.3237360417842865 0.6019845604896545 0.05748102441430092
0.44830477237701416 0.5865529775619507 -0.11018861830234528
0.35170474648475647 0.4155349135398865 0.008958207443356514
0.32717737555503845 0.42290353775024414 0.03651156276464462
0.3039186894893646 0.36068516969680786 0.13463431596755981
0.43964481353759766 0.4372796416282654 -0.034714311361312866
0.4201790392398834 0.4655267596244812 0.01793958991765976
0.38814181089401245 0.7136458158493042 0.057428028434515
0.34408408403396606 0.7216605544090271 0.2677997946739197
0.43014711141586304 0.6417213678359985 -0.044407084584236145
0.447075217962265 0.6504153609275818 -0.051917385309934616
0.40539589524269104 0.7113230228424072 0.05405107140541077
0.41674232482910156 0.7133328914642334 0.04517349973320961
0.3177952766418457 0.4070170521736145 0.049082279205322266
0.4162353277206421 0.6355001330375671 -0.036771804094314575
0.3872945010662079 0.4183969497680664 -0.015437819994986057
0.381943017244339 0.39845335483551025 -0.020545396953821182
0.3668721616268158 0.30198898911476135 0.019842863082885742
0.309702068567276 0.3836859464645386 0.08616530150175095
0.3754380941390991 0.3492160737514496 -0.0016984893009066582
0.30394402146339417 0.4294218420982361 0.08644542843103409
0.29801011085510254 0.4180949926376343 0.1333673596382141
0.4606207013130188 0.704826831817627 -0.04431626945734024
0.43859994411468506 0.7054041624069214 -0.022451205179095268
0.42496442794799805 0.7061895728111267 0.0015500510344281793
0.4358564019203186 0.6455669403076172 -0.04169103130698204
0.41059285402297974 0.7120537161827087 0.04919259250164032
0.41976675391197205 0.7267132997512817 0.033714521676301956
0.4209604561328888 0.7142306566238403 0.04406248778104782
0.4336819648742676 0.6387376189231873 -0.07692565768957138
0.4399760365486145 0.7106707692146301 0.00650747399777174
0.4536171555519104 0.7120473384857178 -0.012045910581946373
0.47231507301330566 0.7151676416397095 -0.02827758714556694
0.47142067551612854 0.8008285760879517 -0.0027782719116657972
0.46818673610687256 0.7761646509170532 -0.021463248878717422
0.4675343930721283 0.762555718421936 -0.024244816973805428
0.46892380714416504 0.7516170144081116 -0.01976747065782547
0.47212058305740356 0.7444082498550415 -0.016945578157901764
0.4397227168083191 0.7323122620582581 0.015659205615520477
0.4353875517845154 0.7345236539840698 0.012591663748025894
0.43013983964920044 0.7397026419639587 0.010729681700468063
0.426937460899353 0.7472313046455383 0.016424430534243584
0.3987165093421936 0.6836890578269958 0.010511629283428192
0.32043737173080444 0.6081911325454712 0.3001730740070343
0.47433915734291077 0.6587297320365906 -0.08079149574041367
0.4316253066062927 0.7263739109039307 0.03382733091711998
0.4252244830131531 0.725269079208374 0.032066985964775085
0.45415717363357544 0.6600105166435242 -0.05192841961979866
0.4248510003089905 0.6478596925735474 -0.022818630561232567
0.4505302906036377 0.6556494832038879 -0.05263405293226242
0.407310426235199 0.5666364431381226 0.009556932374835014
0.3712737560272217 0.5786332488059998 0.025139084085822105
0.414098858833313 0.6231009364128113 -0.028582023456692696
0.3255756199359894 0.3261899948120117 0.07668466120958328
0.33387431502342224 0.3596248924732208 0.04144003242254257
0.3439151346683502 0.3962101638317108 0.013418336398899555
0.4220275282859802 0.7647289633750916 0.03519890084862709
0.4299134612083435 0.40508121252059937 -0.04329456388950348
0.424234539270401 0.3468460738658905 -0.03237311914563179
0.4191562533378601 0.2894417345523834 -0.020791318267583847
0.35155242681503296 0.512107253074646 0.059954240918159485
0.3105849027633667 0.5322047472000122 0.10559938102960587
0.4378167986869812 0.5077192783355713 0.023166049271821976
0.3247448801994324 0.4730343222618103 0.07623802125453949
0.441653311252594 0.5418906807899475 -0.016826525330543518
0.4205140471458435 0.6223421692848206 -0.07458536326885223
0.2953455448150635 0.5479068160057068 0.1385214477777481
0.3192741572856903 0.5469892621040344 0.0829223245382309
0.3413413166999817 0.5553361177444458 0.0547182597219944
0.38027894496917725 0.5545521974563599 0.03446638584136963
0.41054052114486694 0.5477333068847656 0.020853344351053238
0.4312888979911804 0.5385481715202332 0.00832756981253624
0.46344268321990967 0.5117346048355103 -0.0509084090590477
0.2933443784713745 0.594040036201477 0.13453134894371033
0.3117387890815735 0.469174861907959 0.09141655266284943
0.4587607979774475 0.6530841588973999 -0.1061348170042038
0.42700380086898804 0.5786377191543579 -0.014532484114170074
0.3035687506198883 0.5032098293304443 0.2796871066093445
0.445503830909729 0.5269622802734375 -6.673051393590868e-05
0.41523635387420654 0.6229615211486816 -0.0061607686802744865
0.3354848623275757 0.48939526081085205 0.08077625185251236
0.42326128482818604 0.6060034036636353 -0.06659065932035446
0.3297901451587677 0.6638779640197754 0.290295273065567
0.4377368092536926 0.49951261281967163 0.028776774182915688
0.43477529287338257 0.5939036011695862 -0.09231032431125641
0.36238574981689453 0.773597240447998 0.1411498636007309
0.3787471354007721 0.8016364574432373 0.18101619184017181
0.29647982120513916 0.6035791039466858 0.21961067616939545
0.33837080001831055 0.7438176870346069 0.17298084497451782
0.29519838094711304 0.4590122103691101 0.17524071037769318
0.4333198368549347 0.8561215996742249 0.051750920712947845
0.46595442295074463 0.6576290726661682 -0.07736633718013763
0.40960371494293213 0.5931845307350159 -0.0016078311018645763
0.3011036515235901 0.505694568157196 0.14264178276062012
0.3687076270580292 0.5048468708992004 0.045453429222106934
0.3883010149002075 0.5074105858802795 0.03568662703037262
0.41524142026901245 0.72953200340271 0.039135925471782684
0.2987978160381317 0.6407420635223389 0.14172951877117157
0.4725561738014221 0.8907443284988403 0.04733285307884216
0.4237580895423889 0.8542200326919556 0.10955923050642014
0.40437793731689453 0.8320462107658386 0.14200438559055328
0.48551318049430847 0.34594011306762695 -0.052318133413791656
0.5138605833053589 0.899260938167572 0.029161253944039345
0.406759649515152 0.5065233707427979 0.02963116019964218
0.4234279990196228 0.5033610463142395 0.028654662892222404
0.4334339201450348 0.5012730360031128 0.030561191961169243
0.30207768082618713 0.46367013454437256 0.11763323843479156
0.41971874237060547 0.48374831676483154 0.02504759095609188
0.40143153071403503 0.47676321864128113 0.025879189372062683
0.3819804787635803 0.4741467833518982 0.03178552910685539
0.3628103733062744 0.4766668677330017 0.04240882024168968
0.3511175513267517 0.48225826025009155 0.05236770585179329
0.2940906584262848 0.4479854106903076 0.23923268914222717
0.35609614849090576 0.5008443593978882 0.05618812143802643
0.4847583770751953 0.6739068627357483 -0.05648600310087204
0.4152662754058838 0.6751841306686401 -0.012236770242452621
0.42740917205810547 0.6394904851913452 -0.05396181717514992
0.4536444842815399 0.6733254790306091 -0.04618341475725174
0.487209290266037 0.47281599044799805 -0.051227252930402756
0.38945478200912476 0.803994357585907 0.11497682332992554
0.41161054372787476 0.8293077945709229 0.08478295803070068
0.464526504278183 0.8762472867965698 0.02022189274430275
0.36018431186676025 0.7681108713150024 0.22766052186489105
0.4317220151424408 0.49332255125045776 0.027692798525094986
0.44755589962005615 0.5497691035270691 -0.05261566862463951
0.5078096985816956 0.8843860626220703 0.003507847897708416
0.44436806440353394 0.8748432397842407 0.07524503767490387
0.30533355474472046 0.6545605063438416 0.21585844457149506
0.45328307151794434 0.7386726140975952 -0.0010721463477239013
0.44912397861480713 0.7436636686325073 -0.004021975211799145
0.4459013342857361 0.7524558305740356 -0.006214803084731102
0.4443376660346985 0.764668345451355 -0.001599364448338747
0.4426907002925873 0.7858152985572815 0.016528582200407982
0.4230312705039978 0.711760401725769 0.027362721040844917
0.41513219475746155 0.7084398865699768 0.029733605682849884
0.40835583209991455 0.7043309211730957 0.03041086345911026
0.3881038427352905 0.6956900358200073 0.03597504645586014
0.31448420882225037 0.6523789167404175 0.08875671774148941
0.45305773615837097 0.5257676839828491 -0.032515402883291245
0.4488014280796051 0.4802141785621643 0.005857383832335472
0.4388520121574402 0.4843621850013733 0.01989682763814926
0.4297514259815216 0.7100811004638672 0.027983900159597397
0.3283185362815857 0.7084341645240784 0.12680868804454803
0.46156761050224304 0.4779443144798279 -0.0288601815700531
0.4369525909423828 0.8083128333091736 0.02769409865140915
0.47204023599624634 0.5578213334083557 -0.102747343480587
0.4590103030204773 0.5379750728607178 -0.07329262048006058
0.4770979881286621 0.533097505569458 -0.08363746106624603
0.43315809965133667 0.5854834914207458 -0.04858262464404106
0.5045537948608398 0.8610038757324219 -0.008988028392195702
0.5035176277160645 0.830632209777832 -0.010638732463121414
0.46734094619750977 0.8259405493736267 0.00320839905180037
0.3950079679489136 0.7535963654518127 0.0657535195350647
0.3996308147907257 0.6397473216056824 0.0071029565297067165
0.41521236300468445 0.7837020754814148 0.048763420432806015
0.3493318557739258 0.6345620155334473 0.02928854525089264
0.3802510201931 0.6599986553192139 0.021891728043556213
0.33864063024520874 0.6690399646759033 0.056094519793987274
0.46260184049606323 0.8543903827667236 0.007904778234660625
0.42497915029525757 0.5967550873756409 -0.028720909729599953
0.38540422916412354 0.7752395868301392 0.08877849578857422
0.40977177023887634 0.8045404553413391 0.06580844521522522
0.37385258078575134 0.7221574187278748 0.06994137167930603
0.3107771575450897 0.680697500705719 0.14978760480880737
0.35334956645965576 0.7311354875564575 0.09482798725366592
0.3192236125469208 0.7017637491226196 0.20631572604179382
0.36858832836151123 0.682966411113739 0.04215670004487038
0.4380132555961609 0.5644722580909729 -0.03208526596426964
0.426259309053421 0.634350597858429 -0.08054202049970627
0.4189600646495819 0.6362791657447815 -0.054097048938274384
0.43043041229248047 0.6189145445823669 -0.09825069457292557
0.42991283535957336 0.45748746395111084 0.0033484739251434803
0.3950691819190979 0.4417904019355774 0.007809097412973642
0.3652312159538269 0.43828174471855164 0.017961440607905388
0.34202009439468384 0.4424940347671509 0.0354829765856266
0.3282144367694855 0.4538004398345947 0.05463187023997307
0.32599586248397827 0.4953530430793762 0.0936027392745018
0.2934446930885315 0.5546473264694214 0.2145977020263672
0.3378288149833679 0.5265975594520569 0.07273770868778229
0.35793566703796387 0.5340701937675476 0.05404879152774811
0.3855503499507904 0.535677433013916 0.03779534995555878
0.4122816026210785 0.5322184562683105 0.02530759759247303
0.43151700496673584 0.5253358483314514 0.018350109457969666
0.4436727464199066 0.5180554389953613 0.012388331815600395
0.3138253688812256 0.5551471710205078 0.2982805669307709
0.42253226041793823 0.6406278610229492 -0.04303142800927162
0.44250696897506714 0.5712795257568359 -0.06937183439731598
0.4359143376350403 0.6370959281921387 -0.10194878280162811
0.45138221979141235 0.6488254070281982 -0.09570010751485825
0.43944233655929565 0.6407248973846436 -0.09094543755054474
0.42921632528305054 0.6465904116630554 -0.03708039969205856
0.453342080116272 0.6512559056282043 -0.10227639228105545
0.45991766452789307 0.6555155515670776 -0.07653243839740753
0.4439685344696045 0.500302791595459 0.022258764132857323
0.45302778482437134 0.5052242279052734 0.004976374562829733
0.45605188608169556 0.5089403390884399 -0.011892691254615784
0.34474316239356995 0.486447274684906 0.06189863011240959
0.3339489698410034 0.475136399269104 0.06608274579048157
0.4929170608520508 0.5615200400352478 -0.10096362233161926
0.6802289485931396 0.49962154030799866 -0.020083196461200714
0.4969480037689209 0.6535528898239136 -0.08467280864715576
0.8066752552986145 0.39898157119750977 0.056645337492227554
0.6028634905815125 0.5201013088226318 -0.027845988050103188
0.6282469630241394 0.5219717025756836 -0.03102649562060833
0.6540285348892212 0.5203468799591064 -0.029693791642785072
0.6932771801948547 0.5064383149147034 -0.01811090297996998
0.5822772979736328 0.5145386457443237 -0.0191461481153965
0.6373263001441956 0.44873255491256714 -0.04426395893096924
0.6094086170196533 0.45184826850891113 -0.037001095712184906
0.6649500727653503 0.453216016292572 -0.0415293350815773
0.6845966577529907 0.46387165784835815 -0.03521963208913803
0.7151378393173218 0.5204790234565735 -0.008756209164857864
0.599382221698761 0.8434513807296753 -0.0018727279966697097
0.6922491192817688 0.49289849400520325 -0.014173428528010845
0.8145620226860046 0.508934497833252 0.07239954173564911
0.7485179305076599 0.5037527680397034 0.007383465766906738
0.621197521686554 0.6142143607139587 -0.04517342522740364
0.523902416229248 0.6960031390190125 -0.06308136880397797
0.527641773223877 0.716084897518158 -0.05162825062870979
0.5659257173538208 0.702596127986908 -0.056260187178850174
0.5960326194763184 0.7084487080574036 -0.04071469232439995
0.5579940676689148 0.7173113822937012 -0.04744609072804451
0.5831165909767151 0.7184931039810181 -0.0323447659611702
0.632577657699585 0.7497579455375671 -0.0029226799961179495
0.4843809902667999 0.6418750882148743 -0.12398944050073624
0.48583507537841797 0.6171671152114868 -0.13233833014965057
0.7241460084915161 0.4364672005176544 -0.037122778594493866
0.5664344429969788 0.5569567680358887 -0.04054481163620949
0.5564018487930298 0.6311279535293579 -0.08333258330821991
0.5603196024894714 0.6173773407936096 -0.07754559814929962
0.7072468996047974 0.6090347170829773 -0.03272997960448265
0.4883955717086792 0.5869124531745911 -0.12153781205415726
0.6525721549987793 0.4071842432022095 -0.060128312557935715
0.6927732825279236 0.4166370630264282 -0.050926435738801956
0.7688456177711487 0.353317528963089 0.017560910433530807
0.5398485660552979 0.4332606792449951 -0.05656801909208298
0.586824357509613 0.4627097249031067 -0.025648856535553932
0.6535658836364746 0.723203718662262 -0.006821678020060062
0.7999564409255981 0.7389277219772339 0.1475902497768402
0.539895236492157 0.6454548835754395 -0.07072018831968307
0.5198987722396851 0.652759313583374 -0.06480004638433456
0.6336129307746887 0.720005214214325 -0.0026701113674789667
0.6219965815544128 0.7209562659263611 -0.00528515363112092
0.7099994421005249 0.39936748147010803 -0.044977858662605286
0.5623222589492798 0.6392139792442322 -0.07018385082483292
0.6020303964614868 0.41095903515815735 -0.06289853900671005
0.6054006218910217 0.39011964201927185 -0.06963754445314407
0.6401689052581787 0.29403331875801086 -0.04648634046316147
0.7378767132759094 0.3766234517097473 -0.01826353557407856
0.6183450818061829 0.34137532114982605 -0.058798205107450485
0.7446072101593018 0.4251907467842102 -0.022960355505347252
0.774625837802887 0.41431838274002075 0.014872860163450241
0.5258461833000183 0.7079986333847046 -0.05955398082733154
0.5612077116966248 0.7117865681648254 -0.05243100970983505
0.5890265703201294 0.7137956619262695 -0.03803524374961853
0.5357476472854614 0.649000346660614 -0.062286630272865295
0.627914309501648 0.7200350761413574 -0.003611690830439329
0.6109927892684937 0.7337881922721863 -0.011286411434412003
0.6189620494842529 0.7214547395706177 -0.005154353566467762
0.5188328623771667 0.6421322822570801 -0.10008426755666733
0.5814802050590515 0.7161688804626465 -0.028486058115959167
0.55640709400177 0.7166248559951782 -0.03827500715851784
0.5285831689834595 0.7175019383430481 -0.043013669550418854
0.5393454432487488 0.8043758869171143 -0.016931623220443726
0.5333893299102783 0.7791773080825806 -0.037690114229917526
0.5307170152664185 0.7658264636993408 -0.0408332534134388
0.5290119051933289 0.7546890377998352 -0.03655745089054108
0.527589738368988 0.7473757266998291 -0.03289413824677467
0.581878125667572 0.7380511164665222 -0.01970033347606659
0.58536696434021 0.7405456304550171 -0.022909015417099
0.5904206037521362 0.7459190487861633 -0.02598447911441326
0.5952029228210449 0.7537190914154053 -0.022019974887371063
0.6114040613174438 0.6907160878181458 -0.03787197545170784
0.8328355550765991 0.6177986860275269 0.16607066988945007
0.599501371383667 0.7328879237174988 -0.009663873352110386
0.60480135679245 0.7321739196777344 -0.011608601547777653
0.5128940343856812 0.6620774269104004 -0.06443337351083755
0.5594252943992615 0.6515964269638062 -0.04918067157268524
0.5160012245178223 0.6577308773994446 -0.0652056485414505
0.5948757529258728 0.5688316822052002 -0.03825155645608902
0.639448881149292 0.5825431942939758 -0.03903372213244438
0.5687955021858215 0.6262267827987671 -0.06499391049146652
0.7147620320320129 0.3172455132007599 -0.018913352862000465
0.687913179397583 0.350807249546051 -0.042541224509477615
0.662358820438385 0.3867810368537903 -0.06058177724480629
0.608119010925293 0.7732715606689453 -0.009713958948850632
0.5450907945632935 0.3991597294807434 -0.06745308637619019
0.5535892844200134 0.34266477823257446 -0.061872974038124084
0.5672473311424255 0.2850199043750763 -0.05440770462155342
0.6784276366233826 0.5157715678215027 -0.024480726569890976
0.7452267408370972 0.536446750164032 -0.00078012072481215
0.569023847579956 0.5085725784301758 -0.014385930262506008
0.7149839997291565 0.47346267104148865 -0.02126920036971569
0.5467509031295776 0.5426711440086365 -0.04553559422492981
0.5346553325653076 0.6253013610839844 -0.10227982699871063
0.778664767742157 0.5535611510276794 0.0184449702501297
0.7231475710868835 0.5514172911643982 -0.017303671687841415
0.6858646869659424 0.5592648386955261 -0.030289102345705032
0.6344558000564575 0.5573534965515137 -0.030336080119013786
0.5972331166267395 0.5495505928993225 -0.028310086578130722
0.5704757571220398 0.5396064519882202 -0.028818052262067795
0.5068016648292542 0.5115025639533997 -0.06298231333494186
0.7762129902839661 0.6027826070785522 0.014882633462548256
0.7385300397872925 0.4686262011528015 -0.016155852004885674
0.48086830973625183 0.6539068222045898 -0.11214320361614227
0.561400830745697 0.5803729295730591 -0.04968259483575821
0.8399659395217896 0.5056259036064148 0.14094632863998413
0.5500153303146362 0.5274783372879028 -0.02876189909875393
0.5764394402503967 0.6261427998542786 -0.0419684462249279
0.7027391791343689 0.49243927001953125 -0.011478489264845848
0.5390207767486572 0.6080408692359924 -0.09464719146490097
0.8214667439460754 0.6776924729347229 0.16201402246952057
0.5711967945098877 0.500809907913208 -0.010347328148782253
0.5134960412979126 0.5953383445739746 -0.1127106174826622
0.7225916981697083 0.7923272252082825 0.05190952867269516
0.7274096608161926 0.8221506476402283 0.09010651707649231
0.8147032260894775 0.613368809223175 0.08870203793048859
0.7621182203292847 0.7623370289802551 0.0677633062005043
0.7967386841773987 0.4583281874656677 0.048991501331329346
0.603446364402771 0.8681712746620178 0.0091807646676898
0.483431339263916 0.6580327749252319 -0.08111361414194107
0.5873391628265381 0.5958806872367859 -0.04491409286856651
0.7759302854537964 0.5084708333015442 0.024042490869760513
0.6499847769737244 0.5078707337379456 -0.028217891231179237
0.6270599961280823 0.5093757510185242 -0.029316892847418785
0.6175210475921631 0.73712158203125 -0.009245230816304684
0.7765518426895142 0.652851402759552 0.025852493941783905
0.5609129071235657 0.8977614641189575 0.023456858471035957
0.640953779220581 0.8700855374336243 0.050450634211301804
0.6797611713409424 0.8509325981140137 0.06793097406625748
0.6066381931304932 0.5076783895492554 -0.02554509975016117
0.587612509727478 0.5042538642883301 -0.018668442964553833
0.5762537121772766 0.5024267435073853 -0.011942585930228233
0.7632079124450684 0.4629684388637543 0.0018178790342062712
0.5929282307624817 0.483828604221344 -0.02425154484808445
0.6148423552513123 0.4763263165950775 -0.03141693398356438
0.6356192231178284 0.47471803426742554 -0.03519396111369133
0.658004879951477 0.478186696767807 -0.033790674060583115
0.6735435128211975 0.48449280858039856 -0.02883242443203926
0.8289547562599182 0.4468006193637848 0.10281690210103989
0.6671834588050842 0.5042732954025269 -0.02426922135055065
0.5794084668159485 0.6803417205810547 -0.04902089387178421
0.5376476645469666 0.6433083415031433 -0.07799285650253296
0.5215659737586975 0.6759949922561646 -0.061640914529561996
0.680567741394043 0.8217335939407349 0.04188801348209381
0.6430962681770325 0.8450554013252258 0.027444977313280106
0.5576366782188416 0.8830032348632812 -0.003012819681316614
0.766920804977417 0.7875808477401733 0.11959119141101837
0.5777223706245422 0.494476318359375 -0.016172604635357857
0.5207985639572144 0.550339937210083 -0.07210566848516464
0.6017575860023499 0.8868520855903625 0.03144710510969162
0.808094322681427 0.6682800054550171 0.09012551605701447
0.5562014579772949 0.7434945106506348 -0.028467047959566116
0.5597564578056335 0.7486077547073364 -0.032170314341783524
0.5630244612693787 0.7574600577354431 -0.035451944917440414
0.566132128238678 0.7695920467376709 -0.03163806349039078
0.5770977735519409 0.7923678755760193 -0.016825323924422264
0.6074146032333374 0.7190492749214172 -0.018445294350385666
0.6138238906860352 0.7164831161499023 -0.01978539116680622
0.6204059720039368 0.7129024863243103 -0.021686268970370293
0.6390931606292725 0.7041890621185303 -0.023570328950881958
0.7368547916412354 0.6636856198310852 -0.010326994583010674
0.5262108445167542 0.5258389711380005 -0.05272412672638893
0.5486563444137573 0.4791356921195984 -0.02052547223865986
0.5658738017082214 0.4838593602180481 -0.016444142907857895
0.6031534075737 0.7165907025337219 -0.015699617564678192
0.7463018894195557 0.7237739562988281 0.026676472276449203
0.5216478705406189 0.4766901731491089 -0.04414799064397812
0.5898387432098389 0.8171819448471069 -0.0075404406525194645
0.4998077154159546 0.5381056666374207 -0.08348413556814194
0.5382466316223145 0.5870264172554016 -0.07431943714618683
0.5468639731407166 0.8308369517326355 -0.013637292198836803
0.6509595513343811 0.7651525735855103 0.004308424890041351
0.6019172072410583 0.643966019153595 -0.03866429254412651
0.6231459379196167 0.7946346998214722 0.00012010916543658823
0.6688060760498047 0.6417665481567383 -0.04165535792708397
0.6329629421234131 0.6666111946105957 -0.03516469895839691
0.6977916359901428 0.6794774532318115 -0.025095820426940918
0.553555428981781 0.8601519465446472 -0.013889603316783905
0.5574504137039185 0.5987078547477722 -0.06126425415277481
0.6709688901901245 0.7901665568351746 0.01925310492515564
0.6355875730514526 0.8180824518203735 0.012556263245642185
0.6729556918144226 0.7333219051361084 -0.004029816947877407
0.7731145620346069 0.6955710649490356 0.03844776377081871
0.7074688076972961 0.7457594275474548 0.010006497614085674
0.7931323647499084 0.7184039354324341 0.08667760342359543
0.6621533632278442 0.6914710402488708 -0.02603456936776638
0.5408215522766113 0.5655203461647034 -0.05993340536952019
0.5256212949752808 0.6377651691436768 -0.10565461218357086
0.5480895638465881 0.6401219964027405 -0.08299504220485687
0.5102446675300598 0.621035635471344 -0.11900955438613892
0.566666841506958 0.45500320196151733 -0.03253045305609703
0.6056246757507324 0.43773114681243896 -0.04352913051843643
0.6419950723648071 0.4337487816810608 -0.04864886403083801
0.6744409799575806 0.43929892778396606 -0.045722223818302155
0.6997852921485901 0.45197391510009766 -0.03672047704458237
0.7219377160072327 0.49768513441085815 -0.004984118975698948
0.8174302577972412 0.5610405802726746 0.08053673058748245
0.6982157230377197 0.5301401615142822 -0.017246408388018608
0.6681694984436035 0.5368532538414001 -0.02462954819202423
0.6322757005691528 0.5380207300186157 -0.02682250179350376
0.6000047326087952 0.5335924625396729 -0.02548518404364586
0.5759272575378418 0.526383638381958 -0.01968272216618061
0.5591992735862732 0.5187820792198181 -0.018519170582294464
0.8381598591804504 0.5610462427139282 0.16016297042369843
0.5510377287864685 0.6443886756896973 -0.0713210254907608
0.5153570771217346 0.5721839666366577 -0.08948169648647308
0.5037252902984619 0.6396612524986267 -0.11774776875972748
0.4949474036693573 0.6509610414505005 -0.10476835817098618
0.5069654583930969 0.6438096761703491 -0.10727380216121674
0.5481202602386475 0.6501756310462952 -0.060995038598775864
0.48915886878967285 0.652730405330658 -0.10977603495121002
0.4914390444755554 0.6570307612419128 -0.08284848928451538
0.5610091686248779 0.500970721244812 -0.01038447581231594
0.5458822846412659 0.5053702592849731 -0.019193939864635468
0.5346629619598389 0.5087531805038452 -0.03214031457901001
0.6835007071495056 0.48922935128211975 -0.022646665573120117
0.699562668800354 0.4760821461677551 -0.024417094886302948
