ply
format ascii 1.0
element vertex 468
property float x
property float y
property float z
end_header
0.49852973222732544 0.7224445343017578 -0.059295911341905594
0.49922335147857666 0.6385127902030945 -0.11731185764074326
0.49959632754325867 0.6626392602920532 -0.05920754373073578
0.48248541355133057 0.5516773462295532 -0.09084098786115646
0.4994190037250519 0.6125850081443787 -0.1261489987373352
0.5004246234893799 0.5774610638618469 -0.1186310425400734
0.5035247802734375 0.4910014867782593 -0.061574455350637436
0.34440815448760986 0.4749978482723236 0.027973871678113937
0.5045099258422852 0.419413685798645 -0.048168838024139404
0.5047361850738525 0.38366907835006714 -0.05428191274404526
0.5070567727088928 0.26616838574409485 -0.036812297999858856
0.49837133288383484 0.734932541847229 -0.055758725851774216
0.4985317587852478 0.7439932823181152 -0.04719723016023636
0.49892503023147583 0.7475627660751343 -0.0367969386279583
0.49896854162216187 0.7557845711708069 -0.03575658053159714
0.49888429045677185 0.7670677900314331 -0.03861699625849724
0.49884966015815735 0.7806718945503235 -0.0420645996928215
0.49897146224975586 0.7939063310623169 -0.03744668886065483
0.4994548261165619 0.8101208209991455 -0.013761267997324467
0.49904897809028625 0.6508910655975342 -0.10541228950023651
0.4803817868232727 0.6480562090873718 -0.07413028180599213
0.26922762393951416 0.37338387966156006 0.13068373501300812
0.40931451320648193 0.49906283617019653 0.004279686138033867
0.38730761408805847 0.5006360411643982 0.006692223716527224
0.36586615443229675 0.4994994103908539 0.013461379334330559
0.3366890549659729 0.48394542932510376 0.03223111480474472
0.4274846911430359 0.4932647943496704 0.006532648112624884
0.37938302755355835 0.4321659207344055 -0.00521069997921586
0.40336519479751587 0.4348130524158478 -0.005909608211368322
0.357063353061676 0.43558305501937866 0.0028570175636559725
0.34194493293762207 0.44433385133743286 0.012386858463287354
0.3187485933303833 0.50083327293396 0.04456249997019768
0.41902634501457214 0.8369369506835938 0.017621155828237534
0.3361603617668152 0.4681805372238159 0.03514549881219864
0.2561796307563782 0.4817409813404083 0.1448614001274109
0.29460957646369934 0.48072323203086853 0.06687001883983612
0.3917195200920105 0.6090304851531982 -0.011857055127620697
0.47271525859832764 0.717729389667511 -0.055929191410541534
0.47691455483436584 0.7428057193756104 -0.043555278331041336
0.4466107487678528 0.7242234349250793 -0.04179862514138222
0.43069592118263245 0.7326406240463257 -0.02534894458949566
0.4585323631763458 0.74330735206604 -0.034719761461019516
0.44431039690971375 0.7443992495536804 -0.019535819068551064
0.40279555320739746 0.76630699634552 0.011663753539323807
0.48132213950157166 0.6374141573905945 -0.11515316367149353
0.4782126843929291 0.6125503778457642 -0.12305556237697601
0.3087359666824341 0.41466963291168213 0.019951259717345238
0.436558336019516 0.545110821723938 -0.018481124192476273
0.4333310127258301 0.6281579732894897 -0.05925365909934044
0.43171027302742004 0.6139131188392639 -0.05309397727251053
0.32619625329971313 0.6032713651657104 0.018204454332590103
0.4801243841648102 0.5797529816627502 -0.11113466322422028
0.3589291572570801 0.3877059817314148 -0.019862797111272812
0.32957446575164795 0.3962372839450836 -0.001424458809196949
0.2904094457626343 0.330515056848526 0.083933025598526
0.4550659656524658 0.41093266010284424 -0.040585845708847046
0.4239632785320282 0.4442957043647766 0.00023341264750342816
0.38703078031539917 0.7427380084991455 0.015986740589141846
0.2834239602088928 0.7081416249275208 0.21783606708049774
0.4495140314102173 0.6424646973609924 -0.050944626331329346
0.46696898341178894 0.65058833360672 -0.05251061171293259
0.41218069195747375 0.7458290457725525 0.012176723219454288
0.4222835302352905 0.7446703910827637 0.0053345453925430775
0.3177197575569153 0.3787291646003723 0.008042498491704464
0.43319249153137207 0.63896644115448 -0.04640509933233261
0.3991476595401764 0.38997340202331543 -0.033769797533750534
0.39530783891677856 0.36932599544525146 -0.039412181824445724
0.377775102853775 0.2759760320186615 -0.005818434990942478
0.3037582039833069 0.35464051365852356 0.039848532527685165
0.38885167241096497 0.3228749930858612 -0.024405349045991898
0.2955412268638611 0.4025791883468628 0.03839544951915741
0.2818898558616638 0.38979458808898926 0.08108272403478622
0.4742123484611511 0.7322911620140076 -0.05243862047791481
0.45311763882637024 0.7359464168548584 -0.03946738690137863
0.4373505711555481 0.7389720678329468 -0.02426447533071041
0.4550780951976776 0.6471168398857117 -0.045685138553380966
0.417474627494812 0.7458009123802185 0.008646959438920021
0.4253090023994446 0.7513970136642456 -0.004838759079575539
0.42445576190948486 0.7427499294281006 0.004742389544844627
0.45968392491340637 0.6349571347236633 -0.08199524134397507
0.44912490248680115 0.742698073387146 -0.01588357985019684
0.4634692966938019 0.744253396987915 -0.02583972178399563
0.480061799287796 0.7459657192230225 -0.03384542837738991
0.47052472829818726 0.8092067837715149 -0.012409642338752747
0.4715724289417267 0.7910873889923096 -0.03568247705698013
0.4727816581726074 0.7768930792808533 -0.03943312540650368
0.47487688064575195 0.7636632919311523 -0.03560718148946762
0.47723332047462463 0.7542145252227783 -0.03262089565396309
0.4440149664878845 0.7489445209503174 -0.014950798824429512
0.44053274393081665 0.7522376775741577 -0.018237467855215073
0.4353206753730774 0.7586534023284912 -0.020840125158429146
0.43075430393218994 0.7665464878082275 -0.016236774623394012
0.4110262393951416 0.7021832466125488 -0.018642084673047066
0.25874361395835876 0.5853390693664551 0.24412564933300018
0.4994136095046997 0.6550993323326111 -0.07516779750585556
0.43490830063819885 0.746956467628479 -0.003546039806678891
0.4304860830307007 0.74859219789505 -0.00543700298294425
0.473625123500824 0.6621442437171936 -0.05296251177787781
0.44065555930137634 0.654202401638031 -0.029839135706424713
0.47047609090805054 0.656686544418335 -0.05311114341020584
0.41371214389801025 0.5591040849685669 -0.009319196455180645
0.3772491216659546 0.5755553245544434 -0.0010574255138635635
0.4286792278289795 0.6246593594551086 -0.039804451167583466
0.3242764472961426 0.2972009778022766 0.035548072308301926
0.33720940351486206 0.3310043513774872 0.005620666779577732
0.3510180115699768 0.36728620529174805 -0.017481332644820213
0.41996222734451294 0.7825406789779663 0.0016828272491693497
0.44832438230514526 0.3767322301864624 -0.050936583429574966
0.44343501329421997 0.32416975498199463 -0.041962552815675735
0.4369392693042755 0.26718389987945557 -0.030512498691678047
0.34727728366851807 0.49400919675827026 0.023368455469608307
0.29458385705947876 0.5187157392501831 0.05782153084874153
0.4390890300273895 0.48700517416000366 0.009024115279316902
0.3185737133026123 0.45041823387145996 0.032534580677747726
0.4519175589084625 0.5291054844856262 -0.02741672471165657
0.44540107250213623 0.6194981932640076 -0.08192051947116852
0.27149224281311035 0.533764123916626 0.08421096950769424
0.3093131482601166 0.5389609336853027 0.03790373355150223
0.33822619915008545 0.550305962562561 0.016977554187178612
0.3814714550971985 0.5465071201324463 0.006573194172233343
0.41278451681137085 0.5361418724060059 0.00042925981688313186
0.43553799390792847 0.5247697830200195 -0.006605907343327999
0.48206576704978943 0.4967961013317108 -0.05231873318552971
0.2753574252128601 0.5877057313919067 0.08059380203485489
0.30028456449508667 0.44503241777420044 0.04336173087358475
0.4886910319328308 0.6495420932769775 -0.10390302538871765
0.4385761618614197 0.5717005729675293 -0.026930073276162148
0.25294360518455505 0.47591882944107056 0.22011849284172058
0.4526600241661072 0.5116762518882751 -0.010770491324365139
0.4267253577709198 0.6253646016120911 -0.017582597211003304
0.32968446612358093 0.46878793835639954 0.03987634927034378
0.4445350170135498 0.602263331413269 -0.07424747943878174
0.26670578122138977 0.6452439427375793 0.23717612028121948
0.438959002494812 0.4771191477775574 0.013986317440867424
0.46144551038742065 0.5881369709968567 -0.096870057284832
0.32989850640296936 0.7762272357940674 0.09829167276620865
0.33228135108947754 0.7978836297988892 0.1414307802915573
0.2557869255542755 0.5873430371284485 0.16234661638736725
0.30219966173171997 0.7412384748458862 0.12547744810581207
0.26832205057144165 0.432292640209198 0.1191902682185173
0.415790855884552 0.8563910722732544 0.03292372077703476
0.4912532567977905 0.6539317965507507 -0.07354698330163956
0.4190372824668884 0.5898157358169556 -0.01760934293270111
0.275676429271698 0.4840952754020691 0.08968764543533325
0.3674299716949463 0.4836841821670532 0.014489476568996906
0.3869859576225281 0.4860917031764984 0.008849243633449078
0.4196491241455078 0.7556390166282654 -0.00070744234835729
0.28182774782180786 0.6369205117225647 0.09035948663949966
0.45513322949409485 0.8866017460823059 0.04090062901377678
0.3927224576473236 0.851874828338623 0.08426595479249954
0.3652891218662262 0.8300493955612183 0.10899551957845688
0.5058932900428772 0.3269845247268677 -0.04781259968876839
0.49982085824012756 0.8926922678947449 0.03365457057952881
0.40550005435943604 0.485121488571167 0.007490397896617651
0.42275601625442505 0.4815064072608948 0.009923230856657028
0.4338047504425049 0.4792094826698303 0.01415154617279768
0.2844654321670532 0.4386647939682007 0.06626396626234055
0.4204215407371521 0.46062079071998596 0.004918878898024559
0.40124526619911194 0.4536171555519104 0.001784449559636414
0.38122016191482544 0.4519081115722656 0.0032351119443774223
0.3612688183784485 0.45507296919822693 0.009335544891655445
0.348798930644989 0.4608275294303894 0.016867564991116524
0.2572668790817261 0.4191882610321045 0.1802539825439453
0.35396909713745117 0.4795796275138855 0.02189015969634056
0.499361127614975 0.6811245083808899 -0.05386915057897568
0.42983511090278625 0.6891614198684692 -0.030654162168502808
0.4488672912120819 0.6386865377426147 -0.05931089445948601
0.47044169902801514 0.6831904053688049 -0.05135162174701691
0.5044081807136536 0.45457637310028076 -0.04651109129190445
0.35884928703308105 0.8079102039337158 0.07806506007909775
0.38641518354415894 0.8318116068840027 0.0570153072476387
0.4526708424091339 0.8758441805839539 0.01175920944660902
0.30592289566993713 0.7598428130149841 0.1823054403066635
0.43317896127700806 0.4706394374370575 0.010368671268224716
0.4662512540817261 0.5384413599967957 -0.05818495899438858
0.4995058476924896 0.8805806040763855 0.005489378701895475
0.42157018184661865 0.8717241287231445 0.05822889879345894
0.2641213834285736 0.6419618725776672 0.16164550185203552
0.45882484316825867 0.7514150738716125 -0.024592159315943718
0.4552382230758667 0.757874071598053 -0.028305215761065483
0.4514327049255371 0.7680636048316956 -0.031092561781406403
0.4485033452510834 0.7805219888687134 -0.027066441252827644
0.44230082631111145 0.7976795434951782 -0.00813321303576231
0.4314911365509033 0.7444010972976685 -0.00623119343072176
0.4247411787509918 0.7424216270446777 -0.0064013646915555
0.41820433735847473 0.7385232448577881 -0.006634365767240524
0.3955133855342865 0.7208220362663269 -0.002222783397883177
0.31101661920547485 0.654520571231842 0.04450215771794319
0.46718668937683105 0.5113645792007446 -0.03844720125198364
0.4563058018684387 0.4588491916656494 -0.0031010594684630632
0.44276124238967896 0.46304845809936523 0.005976798944175243
0.4364423155784607 0.7411063313484192 -0.0039548384957015514
0.3112279772758484 0.7110157012939453 0.08064142614603043
0.4754408001899719 0.457876056432724 -0.031043242663145065
0.42958706617355347 0.8169136047363281 0.0063933138735592365
0.5015618801116943 0.5481881499290466 -0.09911398589611053
0.4816506505012512 0.5259722471237183 -0.07403852790594101
0.5025201439857483 0.5209654569625854 -0.07986292243003845
0.4508173167705536 0.5789111256599426 -0.055920664221048355
0.4994342625141144 0.8601469993591309 -0.008532647043466568
0.4994736313819885 0.8335233330726624 -0.010530225932598114
0.46283653378486633 0.8314865827560425 -0.0056897420436143875
0.3813861608505249 0.7727071046829224 0.026357101276516914
0.40784674882888794 0.6445695161819458 -0.011220975778996944
0.40309107303619385 0.7976821660995483 0.01732109673321247
0.35758256912231445 0.6374646425247192 -0.000989845022559166
0.3876921236515045 0.668306291103363 -0.006387137342244387
0.34069451689720154 0.6760445237159729 0.018271582201123238
0.45531415939331055 0.8566144704818726 -0.0019097464391961694
0.43863755464553833 0.5925412178039551 -0.03904480114579201
0.3639894723892212 0.7862075567245483 0.04977286234498024
0.39113354682922363 0.8124344944953918 0.03688938543200493
0.3645975589752197 0.7426971197128296 0.02738940715789795
0.2897859215736389 0.6784313321113586 0.10007809102535248
0.3383076786994934 0.7415112257003784 0.05062473937869072
0.2778106927871704 0.6930519342422485 0.15423360466957092
0.37201839685440063 0.7001308798789978 0.005449111573398113
0.4525975286960602 0.5547081232070923 -0.04149074852466583
0.45273473858833313 0.6309749484062195 -0.08660852164030075
0.44000479578971863 0.6366413235664368 -0.061604540795087814
0.4605059325695038 0.6146934628486633 -0.10335269570350647
0.4379102289676666 0.43454164266586304 -0.01065987627953291
0.4022960364818573 0.419450581073761 -0.013484479859471321
0.371459037065506 0.41650670766830444 -0.010675657540559769
0.34571200609207153 0.42019209265708923 -0.00076942058512941
0.3280137777328491 0.4308798909187317 0.01358187198638916
0.3147299885749817 0.47466903924942017 0.049592480063438416
0.2525485157966614 0.5340266823768616 0.15471497178077698
0.33075812458992004 0.512791633605957 0.0329749770462513
0.3537479639053345 0.5214945673942566 0.0193184744566679
0.3835872411727905 0.5215659141540527 0.009625101462006569
0.4114770293235779 0.5159581899642944 0.004260426852852106
0.4327660799026489 0.5080133676528931 0.0031817022245377302
0.4474342465400696 0.5001623034477234 0.00091858598170802
0.2555476725101471 0.5297470092773438 0.23951086401939392
0.44107335805892944 0.6430194973945618 -0.05022963881492615
0.46541061997413635 0.5626245141029358 -0.07450832426548004
0.4667526185512543 0.6330821514129639 -0.10422956943511963
0.47887730598449707 0.6446810960769653 -0.09478483349084854
0.46744924783706665 0.6364282965660095 -0.09320772439241409
0.4473212659358978 0.65064936876297 -0.04254762455821037
0.4823889434337616 0.6474515795707703 -0.10061955451965332
0.4847773313522339 0.652054488658905 -0.07389628142118454
0.4467349946498871 0.4791920781135559 0.01063724048435688
0.4593079090118408 0.4862908720970154 -0.002647325862199068
0.46594691276550293 0.4916742146015167 -0.01784770004451275
0.34157276153564453 0.4649891257286072 0.024895545095205307
0.33096760511398315 0.45376208424568176 0.02573583833873272
0.5207622051239014 0.5522607564926147 -0.09189065545797348
0.6650344133377075 0.4783955514431 0.0206498634070158
0.5190754532814026 0.6486981511116028 -0.07481345534324646
0.7499175667762756 0.3793896436691284 0.12028242647647858
0.5998317003250122 0.5008498430252075 -0.0006956740980967879
0.6218499541282654 0.5027740001678467 0.000973368005361408
0.6435326337814331 0.5023021101951599 0.006743506528437138
0.6731906533241272 0.48768502473831177 0.0245068296790123
0.5815552473068237 0.4947125315666199 0.0024609260726720095
0.6304470300674438 0.4353236258029938 -0.01104020606726408
0.6063084602355957 0.43713247776031494 -0.010627295821905136
0.652869462966919 0.43945276737213135 -0.0038264801260083914
0.6679471135139465 0.44857513904571533 0.005062539596110582
0.6917836666107178 0.5053105354309082 0.035825371742248535
0.5812795758247375 0.8403707146644592 0.01502305082976818
0.6735057830810547 0.4719296097755432 0.027505187317728996
0.7600667476654053 0.4881289601325989 0.13364166021347046
0.7175021767616272 0.48606789112091064 0.057425402104854584
0.6137274503707886 0.6125097274780273 -0.016471754759550095
0.524724543094635 0.7186907529830933 -0.05695751681923866
0.5204735994338989 0.7437741160392761 -0.04449676349759102
0.5514198541641235 0.7266512513160706 -0.043920423835515976
0.5679860711097717 0.7357812523841858 -0.02815522626042366
0.5394186973571777 0.7453566789627075 -0.03663035109639168
0.5543084740638733 0.747089684009552 -0.02195923589169979
0.5977492928504944 0.7706459760665894 0.00826412532478571
0.5172946453094482 0.637843668460846 -0.11571969091892242
0.5210554599761963 0.6130920648574829 -0.1237790510058403
0.7030614018440247 0.4206307530403137 0.011246302165091038
0.5705472826957703 0.5468957424163818 -0.0215293075889349
0.5683727264404297 0.6308137774467468 -0.061784762889146805
0.5710057020187378 0.6165984272956848 -0.05587451905012131
0.6817766427993774 0.6083658933639526 0.010264422744512558
0.521066427230835 0.580314040184021 -0.11197535693645477
0.6513489484786987 0.3921210765838623 -0.025794662535190582
0.6816038489341736 0.40173912048339844 -0.00885722879320383
0.7279202938079834 0.3357691764831543 0.07460247725248337
0.5537678599357605 0.4122066795825958 -0.04266456887125969
0.5857009291648865 0.4460088312625885 -0.003576497547328472
0.6138617396354675 0.7475976347923279 0.011658238247036934
0.7284042239189148 0.7155526876449585 0.20849370956420898
0.5517287850379944 0.6446157693862915 -0.05237127095460892
0.5336864590644836 0.6522306203842163 -0.05319378525018692
0.5879924297332764 0.750210702419281 0.008583175018429756
0.5779559016227722 0.7485139966011047 0.002014567144215107
0.6945263743400574 0.3848778307437897 0.0003914841799996793
0.5686759948730469 0.6419930458068848 -0.04889439791440964
0.6101234555244446 0.392857164144516 -0.037717822939157486
0.6146033406257629 0.3724924325942993 -0.043352287262678146
0.6374162435531616 0.27887028455734253 -0.011604266241192818
0.7114701271057129 0.3601635694503784 0.031259045004844666
0.6236650943756104 0.3256996273994446 -0.029132790863513947
0.717498779296875 0.4088178873062134 0.029460223391652107
0.7343103885650635 0.39585891366004944 0.07124374806880951
0.5228477120399475 0.733462929725647 -0.053335465490818024
0.5446756482124329 0.738187849521637 -0.041400738060474396
0.561175525188446 0.7418474555015564 -0.026896478608250618
0.5461093783378601 0.6491655707359314 -0.047246839851140976
0.5825040936470032 0.7498542070388794 0.005030221771448851
0.5744360089302063 0.7550280690193176 -0.007961119525134563
0.5757013559341431 0.7466912269592285 0.0015102012548595667
0.5405370593070984 0.6361024975776672 -0.0837726965546608
0.5500248074531555 0.7452445030212402 -0.01816619001328945
0.5351853966712952 0.7461485266685486 -0.027329249307513237
0.5179370641708374 0.7468589544296265 -0.03460162132978439
0.528617262840271 0.8105207681655884 -0.013142632320523262
0.5265443325042725 0.7924118041992188 -0.03645368292927742
0.5250986814498901 0.7780663967132568 -0.040216222405433655
0.5229626893997192 0.7647708654403687 -0.03651276230812073
0.5208950042724609 0.7552900314331055 -0.033515408635139465
0.5554698705673218 0.7514926791191101 -0.01723116636276245
0.5588707327842712 0.7549841403961182 -0.020550038665533066
0.5638427138328552 0.761764645576477 -0.023140544071793556
0.5684598684310913 0.7698342204093933 -0.018683144822716713
0.5894803404808044 0.7057777643203735 -0.02215268649160862
0.7571063041687012 0.5924811363220215 0.23335415124893188
0.5648565292358398 0.7501604557037354 -0.006264288444072008
0.5692623853683472 0.7520529627799988 -0.008503017015755177
0.5262349843978882 0.6633557081222534 -0.05380433425307274
0.561081051826477 0.6570339202880859 -0.03195074200630188
0.529643177986145 0.6579785346984863 -0.05397746339440346
0.5935490131378174 0.5616490840911865 -0.01367300096899271
0.6301600933074951 0.5789915323257446 -0.006786406971514225
0.5740906000137329 0.6277793049812317 -0.04284150153398514
0.6923905611038208 0.3012215793132782 0.027665505185723305
0.6766898036003113 0.3355361223220825 -0.0012715235352516174
0.660027265548706 0.3718761205673218 -0.02374931052327156
0.5802879333496094 0.7860230207443237 -0.0013561968225985765
0.5610423684120178 0.37841716408729553 -0.053026266396045685
0.5684816241264343 0.325639009475708 -0.04443184286355972
0.5776723623275757 0.26866424083709717 -0.03329204395413399
0.6623917818069458 0.49727100133895874 0.016161931678652763
0.7165712118148804 0.5239821672439575 0.04849589616060257
0.5698896646499634 0.488179087638855 0.005604456644505262
0.692439615726471 0.4555079936981201 0.02380959875881672
0.5552900433540344 0.5304926633834839 -0.02993888407945633
0.5556797385215759 0.6213381290435791 -0.08400677144527435
0.7405537962913513 0.539814293384552 0.07370541244745255
0.7005060911178589 0.5437342524528503 0.02930280938744545
0.6707427501678467 0.5543689131736755 0.00915428064763546
0.6268397569656372 0.5495743751525879 0.0004526671546045691
0.5954123139381409 0.5383069515228271 -0.004258394241333008
0.5725622177124023 0.5264323353767395 -0.010076596401631832
0.5252337455749512 0.4972904920578003 -0.05351915583014488
0.7351638078689575 0.5940691828727722 0.07019660621881485
0.711920440196991 0.4505550265312195 0.034471090883016586
0.5098259449005127 0.6498159766197205 -0.10416193306446075
0.5670294165611267 0.5738005042076111 -0.029973873868584633
0.7660766839981079 0.48261773586273193 0.2087007462978363
0.5555899143218994 0.512890100479126 -0.013483424670994282
0.5766866207122803 0.6284849643707275 -0.020817115902900696
0.6804543733596802 0.4729512929916382 0.031790945678949356
0.5578340291976929 0.6042742729187012 -0.07646756619215012
0.7472242712974548 0.6526190042495728 0.2271064966917038
0.5704090595245361 0.47828537225723267 0.010417931713163853
0.5402723550796509 0.5893326997756958 -0.09848776459693909
0.6753528714179993 0.7823644876480103 0.09132963418960571
0.6741355061531067 0.8041864037513733 0.13415895402431488
0.7573024034500122 0.5943814516067505 0.1514766365289688
0.7052028179168701 0.7480835914611816 0.11756305396556854
0.7482055425643921 0.43833211064338684 0.1086474359035492
0.5848744511604309 0.8599872589111328 0.030141182243824005
0.5077548027038574 0.6541726589202881 -0.07390373945236206
0.586618959903717 0.5926024317741394 -0.021172737702727318
0.7375468015670776 0.4899628758430481 0.07948508113622665
0.6416988968849182 0.486258327960968 0.008075756020843983
0.6222326755523682 0.48821723461151123 0.003097325563430786
0.5801476836204529 0.759558379650116 -0.0038569075986742973
0.7276583909988403 0.6436290144920349 0.08061552792787552
0.5446005463600159 0.8887100219726562 0.03915051370859146
0.6097784638404846 0.8566871285438538 0.07982052117586136
0.6388261318206787 0.8357168436050415 0.1033380925655365
0.6037395596504211 0.48676079511642456 0.002398568904027343
0.5865985155105591 0.48272401094436646 0.005628298968076706
0.5756945013999939 0.4804269075393677 0.010285780765116215
0.7291553616523743 0.44453519582748413 0.05653508007526398
0.5892425775527954 0.462269127368927 0.0009108326048590243
0.6083329916000366 0.45585405826568604 -0.0032735473942011595
0.6279109120368958 0.4546464681625366 -0.0021867258474230766
0.6477957963943481 0.45829373598098755 0.0028638846706598997
0.6603834629058838 0.46432560682296753 0.00979959312826395
0.7622829675674438 0.4256141185760498 0.1692596673965454
0.6553010940551758 0.48259437084198 0.014799566939473152
0.5704910159111023 0.6922175288200378 -0.03331008180975914
0.5522773861885071 0.6405802369117737 -0.06102384626865387
0.5288304090499878 0.6843269467353821 -0.05246971547603607
0.6444251537322998 0.8136491775512695 0.07258555293083191
0.6155567765235901 0.8366586565971375 0.05296274647116661
0.5465014576911926 0.8779194355010986 0.010142132639884949
0.7030115723609924 0.7667791843414307 0.17388443648815155
0.5762566924095154 0.4719730615615845 0.006479309406131506
0.5391294956207275 0.539562463760376 -0.059924427419900894
0.5795819163322449 0.8753981590270996 0.055117327719926834
0.7474707961082458 0.649166464805603 0.1513884961605072
0.5399324893951416 0.7533317804336548 -0.02639072760939598
0.5433696508407593 0.7599059343338013 -0.02993326261639595
0.547135055065155 0.770312488079071 -0.03307076171040535
0.5500554442405701 0.7829360961914062 -0.029051218181848526
0.5575145483016968 0.8002548217773438 -0.010250409133732319
0.5679680109024048 0.7477773427963257 -0.008996144868433475
0.5744753479957581 0.74614018201828 -0.009465526789426804
0.5811865925788879 0.7423815727233887 -0.0098995640873909
0.6049374938011169 0.7251037955284119 -0.006467617116868496
0.6959362030029297 0.6604726314544678 0.036685217171907425
0.5400857329368591 0.5122608542442322 -0.04009641334414482
0.5532808899879456 0.45996415615081787 -0.005139178596436977
0.5666390657424927 0.4642077088356018 0.0024550629314035177
0.5632388591766357 0.7444172501564026 -0.006757836323231459
0.6950196027755737 0.7174259424209595 0.0730559378862381
0.5336513519287109 0.45864781737327576 -0.032489076256752014
0.5705022215843201 0.819945216178894 0.004099173005670309
0.5233888030052185 0.5265361070632935 -0.07497556507587433
0.5530679821968079 0.5805505514144897 -0.05809923633933067
0.5363478064537048 0.8331665396690369 -0.006757827941328287
0.6198439598083496 0.77732914686203 0.0222901850938797
0.595313549041748 0.6480361819267273 -0.014896580018103123
0.5976336002349854 0.8017826080322266 0.01412040926516056
0.647788405418396 0.642052412033081 -0.006861630827188492
0.6150389909744263 0.6722946166992188 -0.010691585950553417
0.6642448306083679 0.6813845634460449 0.011837500147521496
0.5436375737190247 0.8585474491119385 -0.00323312496766448
0.565606951713562 0.5949417352676392 -0.0416843518614769
0.638382613658905 0.7913823127746582 0.04480823501944542
0.6102368831634521 0.8169176578521729 0.033172473311424255
0.6375868320465088 0.7476499676704407 0.02233750745654106
0.7184734344482422 0.6852480173110962 0.09128504991531372
0.6655361652374268 0.7471708655357361 0.04438524693250656
0.7322779893875122 0.7001389265060425 0.14486636221408844
0.6303839683532715 0.7047691941261292 0.0006419520941562951
0.5528826713562012 0.5562800168991089 -0.04386517405509949
0.5477203130722046 0.6324340105056763 -0.08857149630784988
0.561211347579956 0.639069139957428 -0.06385311484336853
0.5396728515625 0.6158519387245178 -0.10439591854810715
0.5712722539901733 0.43616607785224915 -0.01346209179610014
0.6071527600288391 0.42197972536087036 -0.01794382371008396
0.638486385345459 0.4199761152267456 -0.016712993383407593
0.6645200252532959 0.42472511529922485 -0.007986928336322308
0.6826114058494568 0.43582606315612793 0.005580198485404253
0.6964035034179688 0.4793267250061035 0.04081982374191284
0.76220703125 0.540850818157196 0.14342643320560455
0.6791134476661682 0.5167697668075562 0.02478170394897461
0.6557076573371887 0.524887204170227 0.012283583171665668
0.6252956390380859 0.5241690874099731 0.0037063779309391975
0.5971440076828003 0.5178205370903015 -0.0005645508645102382
0.576125979423523 0.5095227360725403 -0.0004730242653749883
0.5614779591560364 0.5012737512588501 -0.00216127117164433
0.7620712518692017 0.5366420745849609 0.22836056351661682
0.5602019429206848 0.6456877589225769 -0.05239900201559067
0.5382304191589355 0.5637310743331909 -0.07613924890756607
0.532663881778717 0.6339054107666016 -0.10542115569114685
0.520414412021637 0.6452644467353821 -0.09546592086553574
0.5322443842887878 0.6373017430305481 -0.09439080953598022
0.5540454387664795 0.6532778739929199 -0.04452485218644142
0.5165214538574219 0.6478903889656067 -0.10123303532600403
0.5145362615585327 0.6525880694389343 -0.07434245198965073
0.5626173615455627 0.48029881715774536 0.007472056429833174
0.5497925281524658 0.48723751306533813 -0.00513462582603097
0.5426453351974487 0.4925253093242645 -0.01957676000893116
0.6677896976470947 0.4686465859413147 0.01755356416106224
0.6791863441467285 0.45815980434417725 0.018085870891809464
