ply
format ascii 1.0
element vertex 468
property float x
property float y
property float z
end_header
0.48954901099205017 0.7165261507034302 -0.06929174810647964
0.48324668407440186 0.6399875283241272 -0.12907320261001587
0.4891491234302521 0.6648067235946655 -0.06820965558290482
0.4673820436000824 0.5536577105522156 -0.09222979098558426
0.48221805691719055 0.6131595969200134 -0.13731645047664642
0.48384222388267517 0.5780043601989746 -0.12706254422664642
0.49097368121147156 0.4940742254257202 -0.061143629252910614
0.3364134132862091 0.48560309410095215 0.060831695795059204
0.49190211296081543 0.4311874210834503 -0.043349429965019226
0.4903406798839569 0.39704570174217224 -0.04795333743095398
0.4922448992729187 0.27000752091407776 -0.0203715767711401
0.4900935888290405 0.7286589741706848 -0.06658880412578583
0.4913522005081177 0.7377427816390991 -0.05878996476531029
0.4932492673397064 0.7413041591644287 -0.04830560460686684
0.49313127994537354 0.7538571357727051 -0.048654403537511826
0.4926838278770447 0.764535129070282 -0.05273766070604324
0.4927365481853485 0.7783350944519043 -0.057717811316251755
0.49365922808647156 0.7929991483688354 -0.05390407145023346
0.49727654457092285 0.8175716996192932 -0.030174165964126587
0.48504549264907837 0.6534095406532288 -0.11687980592250824
0.468117892742157 0.6511838436126709 -0.08123726397752762
0.2708868384361267 0.3951030969619751 0.189491868019104
0.4029983878135681 0.5079278945922852 0.026775313541293144
0.379913866519928 0.5097911953926086 0.03164052590727806
0.3579365015029907 0.5089777112007141 0.04132368415594101
0.3293392062187195 0.49546656012535095 0.06566926091909409
0.42213642597198486 0.5021371841430664 0.025787703692913055
0.36986950039863586 0.4459517300128937 0.023149892687797546
0.39496201276779175 0.4475010633468628 0.01868598721921444
0.34741640090942383 0.4498373866081238 0.033951286226511
0.3329446315765381 0.45848244428634644 0.04560298100113869
0.31144025921821594 0.5130828619003296 0.07989980280399323
0.41392451524734497 0.8554571270942688 0.011130168102681637
0.32862263917922974 0.4797866642475128 0.07002303749322891
0.2572427988052368 0.503764808177948 0.19841551780700684
0.28897202014923096 0.49741774797439575 0.10789085179567337
0.37938210368156433 0.6142144203186035 0.0005593378446064889
0.4606451094150543 0.7126163840293884 -0.061726268380880356
0.46638718247413635 0.73722243309021 -0.051420822739601135
0.43225806951522827 0.7190032005310059 -0.042942896485328674
0.41544875502586365 0.7278565764427185 -0.02158176340162754
0.4465252161026001 0.737763524055481 -0.037709370255470276
0.43150389194488525 0.7397607564926147 -0.017675386741757393
0.39287734031677246 0.7675199508666992 0.018950454890727997
0.4647848606109619 0.6394225358963013 -0.12467632442712784
0.4606856107711792 0.6136775612831116 -0.13158297538757324
0.29942208528518677 0.4348977208137512 0.05839956924319267
0.4280000627040863 0.5506142377853394 -0.007002185098826885
0.41969090700149536 0.6308401226997375 -0.05713069066405296
0.4193156361579895 0.6165921092033386 -0.0492972768843174
0.31169193983078003 0.6110416650772095 0.0422557108104229
0.4635944068431854 0.5810753107070923 -0.11607614904642105
0.34740376472473145 0.40850141644477844 0.006747695617377758
0.31822317838668823 0.41665297746658325 0.030864251777529716
0.287536084651947 0.34977787733078003 0.13829867541790009
0.4440431296825409 0.4276195466518402 -0.028485694900155067
0.4170801639556885 0.4554758071899414 0.022652840241789818
0.374580979347229 0.742300271987915 0.027116967365145683
0.2892342507839203 0.7392920255661011 0.2554735541343689
0.4372544288635254 0.6452035307884216 -0.05085188150405884
0.45593759417533875 0.6531053185462952 -0.05740369111299515
0.39754718542099 0.7423239946365356 0.022846246138215065
0.40959542989730835 0.7416918277740479 0.014703374356031418
0.30730754137039185 0.40045154094696045 0.04434656351804733
0.42092373967170715 0.6410437226295471 -0.04425588250160217
0.38781797885894775 0.410378098487854 -0.013714397326111794
0.3826332986354828 0.38961291313171387 -0.018169820308685303
0.36450278759002686 0.2880348265171051 0.031096119433641434
0.29717373847961426 0.3742830157279968 0.08483586460351944
0.37520337104797363 0.33697909116744995 0.004427050240337849
0.2877388298511505 0.4242561459541321 0.08143528550863266
0.2788603901863098 0.4109101891517639 0.13208889961242676
0.46249738335609436 0.7268679141998291 -0.058947525918483734
0.43970489501953125 0.7303709983825684 -0.041338421404361725
0.4230480492115021 0.7340513467788696 -0.021663952618837357
0.44341790676116943 0.6494467258453369 -0.04740471765398979
0.4034598469734192 0.7422481179237366 0.01838696002960205
0.4126838743686676 0.749453067779541 0.001215012394823134
0.4134669899940491 0.7407083511352539 0.013462526723742485
0.44526949524879456 0.6385208964347839 -0.08467837423086166
0.4376669228076935 0.738166093826294 -0.014696741476655006
0.4527277648448944 0.7387319803237915 -0.029024576768279076
0.47101372480392456 0.7402970790863037 -0.04131650552153587
0.46565431356430054 0.8161821961402893 -0.024986114352941513
0.4642430543899536 0.7904571294784546 -0.04763989523053169
0.4646438956260681 0.774867057800293 -0.050364986062049866
0.4664493501186371 0.7615501284599304 -0.04495368152856827
0.4691367745399475 0.7527847290039062 -0.04093462601304054
0.43374165892601013 0.7477632164955139 -0.013463624753057957
0.42975595593452454 0.7508407235145569 -0.017380215227603912
0.42430028319358826 0.7574288249015808 -0.020270327106118202
0.4200519621372223 0.7663679122924805 -0.01486989576369524
0.39656931161880493 0.7021365165710449 -0.01135355606675148
0.2666302025318146 0.6139516234397888 0.29600149393081665
0.4872480034828186 0.658176600933075 -0.08508924394845963
0.4245345890522003 0.7458082437515259 0.002939382568001747
0.41872861981391907 0.7465933561325073 0.00048329454148188233
0.4627934396266937 0.6643209457397461 -0.058258526027202606
0.42958298325538635 0.6557973623275757 -0.02893279679119587
0.45958709716796875 0.6591604351997375 -0.05858124420046806
0.40425801277160645 0.5648961067199707 0.004485041368752718
0.36526668071746826 0.5814462304115295 0.016058342531323433
0.4170434772968292 0.6271316409111023 -0.03541107848286629
0.31612497568130493 0.313507080078125 0.08222111314535141
0.327193021774292 0.3484450876712799 0.0432957261800766
0.3394699692726135 0.3882293403148651 0.012454967945814133
0.4109889268875122 0.7865626215934753 0.003940989729017019
0.43452033400535583 0.394326388835907 -0.037312157452106476
0.42788979411125183 0.3337141275405884 -0.021509580314159393
0.42145484685897827 0.2750108242034912 -0.004119018092751503
0.3395043909549713 0.5044403672218323 0.05421561375260353
0.2873042821884155 0.5321173071861267 0.09614662081003189
0.4342115521430969 0.4956856667995453 0.027763796970248222
0.3106624484062195 0.46658754348754883 0.07021487504243851
0.44325870275497437 0.5343006253242493 -0.01791789010167122
0.430373877286911 0.6226196885108948 -0.08261116594076157
0.26552653312683105 0.5498253107070923 0.1267312914133072
0.3002357482910156 0.5492342114448547 0.07178160548210144
0.3281394839286804 0.557928740978241 0.04495943337678909
0.3721594214439392 0.553425133228302 0.027639884501695633
0.40512365102767944 0.5430407524108887 0.017746975645422935
0.42875587940216064 0.5314085483551025 0.007327776402235031
0.47021278738975525 0.5011570453643799 -0.047956082969903946
0.2659023106098175 0.602326512336731 0.11867885291576385
0.2934250235557556 0.46378469467163086 0.08466541767120361
0.47413140535354614 0.6522511839866638 -0.11370432376861572
0.4285711944103241 0.5762904286384583 -0.018145926296710968
0.26042377948760986 0.5021511912345886 0.28050947189331055
0.4457020163536072 0.5179837942123413 0.0015497313579544425
0.4165598750114441 0.628216028213501 -0.01110328920185566
0.322495698928833 0.4821012616157532 0.07590349018573761
0.43108105659484863 0.6053338646888733 -0.07318668812513351
0.27382683753967285 0.675277590751648 0.282737135887146
0.43477576971054077 0.4859420359134674 0.034695208072662354
0.44626179337501526 0.5904804468154907 -0.09879722446203232
0.32402437925338745 0.7982712984085083 0.11670888960361481
0.3332509994506836 0.8274818062782288 0.16040067374706268
0.2544735372066498 0.6097606420516968 0.2089170217514038
0.2968939542770386 0.7650196552276611 0.1518133580684662
0.2677716016769409 0.45378535985946655 0.17244581878185272
0.41269946098327637 0.8811683654785156 0.025284770876169205
0.478741317987442 0.6571844220161438 -0.08233345299959183
0.40877464413642883 0.5943354964256287 -0.007325883489102125
0.27184486389160156 0.502866268157959 0.13548137247562408
0.35891181230545044 0.4931451082229614 0.0434630922973156
0.3791385889053345 0.4952911138534546 0.03504016995429993
0.4071729779243469 0.7540812492370605 0.006313748192042112
0.2710988223552704 0.6531848907470703 0.12387026101350784
0.4575360417366028 0.9164110422134399 0.024584461003541946
0.39299505949020386 0.8816032409667969 0.085605189204216
0.365595281124115 0.8594819903373718 0.11896036565303802
0.49066346883773804 0.3325975239276886 -0.03608037158846855
0.5058767795562744 0.9226036071777344 0.009997235611081123
0.39871877431869507 0.4941037893295288 0.031037749722599983
0.41732868552207947 0.4904591143131256 0.03202417492866516
0.42929893732070923 0.48827946186065674 0.0353231355547905
0.27947428822517395 0.4592231512069702 0.11190837621688843
0.41460472345352173 0.46797341108322144 0.028603576123714447
0.3945440649986267 0.4603845477104187 0.02738800086081028
0.3734248876571655 0.4585109353065491 0.031096702441573143
0.35304221510887146 0.4629051685333252 0.03975310176610947
0.34048235416412354 0.4700641632080078 0.04935675859451294
0.26202142238616943 0.4429072141647339 0.24118058383464813
0.34549814462661743 0.48963820934295654 0.05306414142251015
0.4898293912410736 0.6807939410209656 -0.06240426376461983
0.4173380136489868 0.6890600919723511 -0.02779362164437771
0.4356305003166199 0.641897976398468 -0.059988025575876236
0.45904380083084106 0.6826611161231995 -0.05603662505745888
0.493196576833725 0.4615892171859741 -0.042724836617708206
0.3548157215118408 0.8301326632499695 0.08785314857959747
0.382794052362442 0.8554566502571106 0.05803878605365753
0.4515281915664673 0.8998166918754578 -0.00500158965587616
0.30962106585502625 0.7904130220413208 0.21074099838733673
0.42844128608703613 0.47865092754364014 0.03232536464929581
0.45425477623939514 0.5420215129852295 -0.053842730820178986
0.5014179348945618 0.9052221775054932 -0.01825540140271187
0.4219537079334259 0.9015324711799622 0.05091436952352524
0.26211750507354736 0.6656760573387146 0.20254570245742798
0.4492941200733185 0.7500259280204773 -0.02793993055820465
0.4453825056552887 0.7563154697418213 -0.03235723823308945
0.44175341725349426 0.7666775584220886 -0.03519711270928383
0.43922337889671326 0.7805299162864685 -0.031232276931405067
0.43479716777801514 0.8038090467453003 -0.01226137951016426
0.41816461086273193 0.7403871417045593 -0.00017904046399053186
0.4101020097732544 0.7381982207298279 0.0009361341362819076
0.40285181999206543 0.7345238327980042 0.0015911743976175785
0.38026002049446106 0.719960629940033 0.008657505735754967
0.2959444522857666 0.6661741733551025 0.06857959926128387
0.45721304416656494 0.5161172151565552 -0.031321048736572266
0.4498007595539093 0.468721866607666 0.01288478635251522
0.4373354911804199 0.4724533259868622 0.02572985179722309
0.42483583092689514 0.7374268174171448 0.0017102907877415419
0.299569308757782 0.7273664474487305 0.10415111482143402
0.4658275842666626 0.4667179584503174 -0.02139103040099144
0.42332953214645386 0.8290315270423889 0.0010120831429958344
0.4862865209579468 0.5493459105491638 -0.10412269830703735
0.4680183529853821 0.5289216041564941 -0.07286808639764786
0.48854517936706543 0.5229940414428711 -0.08174888044595718
0.43893998861312866 0.5824202299118042 -0.05218767374753952
0.4988616406917572 0.8790066242218018 -0.03107512556016445
0.497786283493042 0.8461780548095703 -0.030490003526210785
0.45854461193084717 0.8438347578048706 -0.02018558792769909
0.3736463189125061 0.7793971300125122 0.03471948578953743
0.3976249098777771 0.6477692723274231 -0.0030022808350622654
0.39651691913604736 0.8077125549316406 0.01911795511841774
0.3421247601509094 0.643738865852356 0.013835897669196129
0.3747626543045044 0.671833336353302 0.004606170114129782
0.3252243995666504 0.6837955713272095 0.035678405314683914
0.4519740045070648 0.8749133348464966 -0.017694570124149323
0.42802780866622925 0.5963698625564575 -0.033217571675777435
0.3574146032333374 0.8005417585372925 0.05956358090043068
0.38557711243629456 0.8292444944381714 0.03784656897187233
0.3536738157272339 0.7475876212120056 0.04018234461545944
0.2796657681465149 0.6967352628707886 0.1299932450056076
0.3274558186531067 0.7538816332817078 0.06723885983228683
0.2750742435455322 0.7178493738174438 0.18899773061275482
0.3574131727218628 0.7025793790817261 0.018151115626096725
0.4419846534729004 0.5589383244514465 -0.034679315984249115
0.43762457370758057 0.6344242691993713 -0.08882635831832886
0.4263768792152405 0.6394843459129333 -0.06159205362200737
0.4440214931964874 0.6172206401824951 -0.10787990689277649
0.43039265275001526 0.448098361492157 0.00865507684648037
0.3927481472492218 0.43549248576164246 0.00961768813431263
0.3606099784374237 0.4332771301269531 0.01618894375860691
0.3347899317741394 0.4369567334651947 0.03035321645438671
0.31804555654525757 0.44758254289627075 0.048134926706552505
0.30832862854003906 0.4895746111869812 0.0876636877655983
0.2526043951511383 0.5560520887374878 0.20577681064605713
0.3226274847984314 0.5232731103897095 0.0654260441660881
0.34549784660339355 0.5303198099136353 0.04712297022342682
0.3759422302246094 0.5298593044281006 0.03278747573494911
0.4050418734550476 0.5241314172744751 0.024455832317471504
0.4272652566432953 0.515945553779602 0.019595205783843994
0.4419156312942505 0.5076388120651245 0.016027314588427544
0.2638806700706482 0.5574649572372437 0.2968618869781494
0.4285956621170044 0.6453590989112854 -0.04980320855975151
0.4516248106956482 0.5655537247657776 -0.07286443561315536
0.4506973326206207 0.6359374523162842 -0.11052732914686203
0.4650272727012634 0.6477212905883789 -0.10288387537002563
0.4526657462120056 0.6396985054016113 -0.09871449321508408
0.43563276529312134 0.6524834036827087 -0.043049853295087814
0.4678620398044586 0.6503646373748779 -0.10981559008359909
0.47237467765808105 0.6551908254623413 -0.0818786770105362
0.44224897027015686 0.4880174398422241 0.028679488226771355
0.45355015993118286 0.4939731955528259 0.01119499746710062
0.45824602246284485 0.4982873201370239 -0.007788980379700661
0.33362334966659546 0.47539156675338745 0.058454252779483795
0.3227859139442444 0.4680255055427551 0.0608089379966259
0.5070123672485352 0.5530425310134888 -0.09945099800825119
0.6756277084350586 0.4768902063369751 0.00888032652437687
0.5092178583145142 0.6511844992637634 -0.08682174235582352
0.7796971797943115 0.38167834281921387 0.11025938391685486
0.6044278144836426 0.5022028684616089 -0.007025910075753927
0.6289016604423523 0.5031512975692749 -0.008662974461913109
0.6530418395996094 0.5019607543945312 -0.005387958604842424
0.686525821685791 0.4870757460594177 0.010527191683650017
0.5836210250854492 0.4973334074020386 -0.0008984436863102019
0.6333678960800171 0.4370086193084717 -0.018770068883895874
0.6073789596557617 0.43997931480407715 -0.014492684975266457
0.6585320830345154 0.44000786542892456 -0.014596271328628063
0.6762837767601013 0.44839340448379517 -0.006938616745173931
0.7091334462165833 0.5053021907806396 0.020147893577814102
0.593368649482727 0.8587625026702881 -0.012308141216635704
0.6851699352264404 0.4703659415245056 0.015612853690981865
0.7965153455734253 0.49414676427841187 0.11705613881349564
0.7391637563705444 0.4885023832321167 0.04107882082462311
0.6211960315704346 0.6119052767753601 -0.032911356538534164
0.5201621055603027 0.7124900817871094 -0.07055933028459549
0.518631637096405 0.7373054027557373 -0.059040263295173645
0.5537481904029846 0.719468355178833 -0.06106976419687271
0.5760252475738525 0.7282058596611023 -0.045829638838768005
0.5427312254905701 0.7383072376251221 -0.05316566303372383
0.5621516704559326 0.7399879693984985 -0.03834320604801178
0.6105997562408447 0.7688403725624084 -0.011599845252931118
0.5033049583435059 0.6390669941902161 -0.1293061226606369
0.5053166151046753 0.612981915473938 -0.13704000413417816
0.7145878672599792 0.4231104850769043 -0.004073313437402248
0.5701921582221985 0.5480458736419678 -0.029365086928009987
0.5653961300849915 0.6293553113937378 -0.07792839407920837
0.5682580471038818 0.6151846647262573 -0.07098323851823807
0.7021458745002747 0.6072184443473816 -0.013043525628745556
0.505998969078064 0.5804115533828735 -0.12302346527576447
0.6486079692840576 0.3968326449394226 -0.03569376841187477
0.6861531734466553 0.4045338034629822 -0.022436410188674927
0.7466953992843628 0.33558183908462524 0.06740988045930862
0.5416821241378784 0.4233870804309845 -0.04230325296521187
0.5856336355209351 0.4494042992591858 -0.004499322269111872
0.6293246746063232 0.7431331872940063 -0.009824234992265701
0.7865346074104309 0.7400671243667603 0.18144726753234863
0.548347532749176 0.6443337798118591 -0.06578914076089859
0.5276362895965576 0.6528183221817017 -0.06484884023666382
0.6020956039428711 0.7430628538131714 -0.009247076697647572
0.5912615060806274 0.7420457601547241 -0.013625441119074821
0.7009466886520386 0.3873295187950134 -0.012407761998474598
0.567953884601593 0.6402714252471924 -0.06446819752454758
0.6008469462394714 0.4014512896537781 -0.04266722872853279
0.6042353510856628 0.3801719546318054 -0.04834779351949692
0.6338657736778259 0.27782973647117615 -0.009539194405078888
0.7227578163146973 0.3608134388923645 0.021304041147232056
0.6156206130981445 0.3274000883102417 -0.030503587797284126
0.7324262857437134 0.411738783121109 0.01477098185569048
0.7557930946350098 0.3982846140861511 0.059511251747608185
0.5194854140281677 0.7270846962928772 -0.06760279089212418
0.5471735000610352 0.7307692766189575 -0.05825205519795418
0.5686631798744202 0.734423041343689 -0.04402323439717293
0.5425457954406738 0.6488296985626221 -0.05983690544962883
0.5963290333747864 0.742754340171814 -0.011311461217701435
0.5847227573394775 0.7499607801437378 -0.023998456075787544
0.5889732837677002 0.7413266897201538 -0.014030899852514267
0.5329030156135559 0.6376053094863892 -0.09900708496570587
0.5587657690048218 0.7382151484489441 -0.034086477011442184
0.5396770238876343 0.7391390800476074 -0.043237775564193726
0.5176444053649902 0.7402281761169434 -0.04930783063173294
0.5307026505470276 0.816844642162323 -0.03223803639411926
0.5245348811149597 0.7906291484832764 -0.05577727034687996
0.5222544074058533 0.7751501202583313 -0.05868862196803093
0.5202562212944031 0.7618144154548645 -0.0534772053360939
0.5185308456420898 0.7529935836791992 -0.04906293749809265
0.5617712736129761 0.7480254173278809 -0.03263449668884277
0.565153956413269 0.7512005567550659 -0.036827489733695984
0.5700260996818542 0.7579510807991028 -0.040248971432447433
0.5749200582504272 0.7668639421463013 -0.036203622817993164
0.5981472134590149 0.701847493648529 -0.03946305066347122
0.8132931590080261 0.6091960072517395 0.2139625996351242
0.5746702551841736 0.7463147640228271 -0.02115127071738243
0.5791968703269958 0.7471455335617065 -0.02387136034667492
0.5191270112991333 0.6642012000083923 -0.06571171432733536
0.5611618757247925 0.6556063294410706 -0.04501843824982643
0.5231450200080872 0.6588609218597412 -0.06587309390306473
0.5973891019821167 0.5618286728858948 -0.02514219842851162
0.6395484209060669 0.5778782963752747 -0.023647354915738106
0.5738186836242676 0.6261016130447388 -0.057737480849027634
0.6998050212860107 0.299882173538208 0.024389829486608505
0.6781171560287476 0.33569127321243286 -0.00760400528088212
0.6571676135063171 0.3757600784301758 -0.03264111280441284
0.5906270742416382 0.7881579399108887 -0.02118818648159504
0.5472564101219177 0.3893125057220459 -0.05208442732691765
0.555681586265564 0.3287048637866974 -0.039823975414037704
0.5672364234924316 0.269493967294693 -0.0243937149643898
0.6742861866950989 0.4967235326766968 0.0024233171716332436
0.7387705445289612 0.524625837802887 0.030092349275946617
0.5700604915618896 0.49175718426704407 0.004161092918366194
0.7061796188354492 0.4563468098640442 0.009684966877102852
0.5514553785324097 0.5321493148803711 -0.03569810837507248
0.5482616424560547 0.6211389899253845 -0.0997420996427536
0.7703783512115479 0.5425311326980591 0.05216071382164955
0.719427764415741 0.5426852107048035 0.009794286452233791
0.6845947504043579 0.5524711012840271 -0.008273274637758732
0.634990930557251 0.5490190982818604 -0.012870400212705135
0.5993117690086365 0.5392837524414062 -0.013072391040623188
0.572960376739502 0.5283396244049072 -0.015876835212111473
0.5147836804389954 0.49996456503868103 -0.05538655444979668
0.7683597803115845 0.5970605611801147 0.0444641187787056
0.7289266586303711 0.45319169759750366 0.0186811201274395
0.4968791604042053 0.6520341038703918 -0.11724887788295746
0.5661500096321106 0.5742831230163574 -0.039858389645814896
0.8129876255989075 0.4925711750984192 0.1955401599407196
0.5529030561447144 0.5152706503868103 -0.016399651765823364
0.5788700580596924 0.627046525478363 -0.03349000960588455
0.6938793659210205 0.4726696014404297 0.018718881532549858
0.551048755645752 0.6037840247154236 -0.09056393802165985
0.8057788610458374 0.6733464598655701 0.20373263955116272
0.5706329941749573 0.4818209409713745 0.010079327039420605
0.5286587476730347 0.5892727971076965 -0.11132001876831055
0.7135128974914551 0.8014976978302002 0.06213622912764549
0.7192386388778687 0.8319949507713318 0.10410049557685852
0.8023909330368042 0.6046020984649658 0.12787418067455292
0.7507867217063904 0.7664164900779724 0.08722694963216782
0.7773501873016357 0.44236549735069275 0.09478103369474411
0.600218653678894 0.8851909637451172 -0.0003500752500258386
0.49623557925224304 0.6570389270782471 -0.08469013124704361
0.5898061394691467 0.5921968817710876 -0.03372754156589508
0.7645412683486938 0.49370068311691284 0.06181192025542259
0.6496635675430298 0.48540401458740234 -0.002095682080835104
0.6284500956535339 0.48802846670150757 -0.005350827239453793
0.5910353064537048 0.754825234413147 -0.020668357610702515
0.7660893797874451 0.6500992774963379 0.0527663417160511
0.55670565366745 0.9189419746398926 0.010540153831243515
0.6370157599449158 0.8872549533843994 0.0496184378862381
0.6743326783180237 0.8651803135871887 0.07341108471155167
0.6080194115638733 0.4874245524406433 -0.003333768807351589
0.5888308882713318 0.48491939902305603 0.0025802876334637403
0.5765883326530457 0.4837648272514343 0.008797836489975452
0.75052410364151 0.4481825828552246 0.04058072715997696
0.5914792418479919 0.4623967707157135 -0.0014392145676538348
0.6124054193496704 0.4535972476005554 -0.007856285199522972
0.6332796812057495 0.4510458707809448 -0.009679880924522877
0.6549263596534729 0.4543473422527313 -0.006796823814511299
0.6691755652427673 0.4609649181365967 -0.0008312816498801112
0.8008691072463989 0.43103766441345215 0.15813903510570526
0.6647948622703552 0.4813924729824066 0.0036323906388133764
0.5732840299606323 0.6888955235481262 -0.04915543273091316
0.5481144189834595 0.6407288312911987 -0.07469843327999115
0.5231221318244934 0.6822565197944641 -0.06492296606302261
0.6742889881134033 0.8347370624542236 0.04372869059443474
0.6384021043777466 0.860430896282196 0.023262759670615196
0.5542029142379761 0.9021880030632019 -0.018820839002728462
0.7557296752929688 0.7931324243545532 0.14445410668849945
0.5767252445220947 0.47429758310317993 0.00508347200229764
0.5301520824432373 0.5406827330589294 -0.06602650135755539
0.5985244512557983 0.905998706817627 0.024620670825242996
0.7960437536239624 0.6630662083625793 0.12492141872644424
0.5418142080307007 0.7505240440368652 -0.042497314512729645
0.5451705455780029 0.7566554546356201 -0.04722621664404869
0.5486539602279663 0.7671672701835632 -0.05099586769938469
0.5519498586654663 0.7811113595962524 -0.04753777012228966
0.5639632940292358 0.8051067590713501 -0.03011966496706009
0.579900860786438 0.7406842112541199 -0.025204310193657875
0.586375892162323 0.7387098073959351 -0.026584448292851448
0.5934872031211853 0.7348082661628723 -0.02755195088684559
0.6187177896499634 0.7200057506561279 -0.02615492045879364
0.7265415191650391 0.6637141108512878 0.009105231612920761
0.5326457023620605 0.5143896341323853 -0.04365065321326256
0.5487707853317261 0.46514618396759033 -0.003048613667488098
0.5651732683181763 0.4681144952774048 0.0027078185230493546
0.5752487778663635 0.7376604676246643 -0.022555166855454445
0.7328356504440308 0.7270129919052124 0.04404052346944809
0.5252129435539246 0.4648174047470093 -0.03092300333082676
0.5800690054893494 0.8314448595046997 -0.019097957760095596
0.511049747467041 0.527970552444458 -0.07928678393363953
0.5473178029060364 0.5807712078094482 -0.06819935888051987
0.5397676229476929 0.845257580280304 -0.02966306358575821
0.6365494728088379 0.781368613243103 -0.0009209622512571514
0.600796103477478 0.6466338634490967 -0.030431190505623817
0.6110954880714417 0.8103327751159668 -0.008778574876487255
0.663557767868042 0.6414458751678467 -0.028555966913700104
0.6259958148002625 0.670839786529541 -0.029279960319399834
0.6874662637710571 0.6824474930763245 -0.012718429788947105
0.5486860871315002 0.8767167329788208 -0.03016139753162861
0.5638642907142639 0.5947374701499939 -0.05325108766555786
0.6616073250770569 0.8035333156585693 0.018198195844888687
0.6277995109558105 0.8331143260002136 0.006387884728610516
0.6567435264587402 0.7483046054840088 -0.0026614784728735685
0.760535478591919 0.6951404213905334 0.06234084442257881
0.6941916942596436 0.754780113697052 0.017120590433478355
0.7817798852920532 0.7171721458435059 0.11567792296409607
0.6474573612213135 0.7019919753074646 -0.02127118781208992
0.5479010939598083 0.5571718811988831 -0.051912061870098114
0.5401505827903748 0.6331886053085327 -0.104232557117939
0.5577616691589355 0.6382876038551331 -0.07927706837654114
0.527838408946991 0.6162397265434265 -0.11972974240779877
0.5660648941993713 0.4432446360588074 -0.013109911233186722
0.6039186120033264 0.42772001028060913 -0.021899506449699402
0.6383867263793945 0.42322874069213867 -0.02518559619784355
0.6687361001968384 0.42638450860977173 -0.019972866401076317
0.6919167041778564 0.4367639720439911 -0.008416371420025826
0.713266134262085 0.4804677665233612 0.026346590369939804
0.8031318187713623 0.5487884283065796 0.12286360561847687
0.694227933883667 0.5161420702934265 0.009557409211993217
0.6670593023300171 0.5242061614990234 -0.0015331788454204798
0.6329522728919983 0.5243759155273438 -0.007423341274261475
0.6014246940612793 0.5193373560905457 -0.007370917592197657
0.5773941874504089 0.5121005177497864 -0.004436475224792957
0.5604541897773743 0.5044089555740356 -0.0038600547704845667
0.8144407272338867 0.5501915812492371 0.21276795864105225
0.5580995678901672 0.6446191072463989 -0.06709852069616318
0.527786135673523 0.5643486976623535 -0.08528658747673035
0.5211115479469299 0.6351380348205566 -0.12014190107584
0.5096001029014587 0.647424042224884 -0.10853645950555801
0.5224215984344482 0.6390463709831238 -0.1087670549750328
0.5523086786270142 0.6522749066352844 -0.05764762684702873
0.5045689344406128 0.6501177549362183 -0.11444173008203506
0.5039827823638916 0.6551258563995361 -0.08570481836795807
0.5613688230514526 0.4842382073402405 0.007960911840200424
0.5466796159744263 0.49109911918640137 -0.004494589753448963
0.5374117493629456 0.49590790271759033 -0.020239489153027534
0.6777870059013367 0.4661473333835602 0.006242969539016485
0.6906921863555908 0.4579809904098511 0.005223784130066633
