ply
format ascii 1.0
element vertex 468
property float x
property float y
property float z
end_header
0.5345208644866943 0.6923241019248962 -0.06836794316768646
0.5608227252960205 0.6168279647827148 -0.1264788657426834
0.5437973141670227 0.6431202292442322 -0.07165434956550598
0.5312504768371582 0.5386937856674194 -0.09734809398651123
0.5624361038208008 0.5909010767936707 -0.13306835293769836
0.558070957660675 0.5592931509017944 -0.12276565283536911
0.5410594344139099 0.486245334148407 -0.0591026246547699
0.35356593132019043 0.482092022895813 -0.001726091606542468
0.5360396504402161 0.43355852365493774 -0.040090885013341904
0.5366330146789551 0.40193304419517517 -0.04185555502772331
0.5307192802429199 0.27269551157951355 -0.01211368478834629
0.5319801568984985 0.7042580246925354 -0.0659155398607254
0.5287531614303589 0.7133621573448181 -0.06044372171163559
0.5253706574440002 0.7164883613586426 -0.05200142785906792
0.524442195892334 0.7744245529174805 -0.03546009957790375
0.5251138806343079 0.7858523726463318 -0.03999551013112068
0.5245625972747803 0.7995823621749878 -0.044999491423368454
0.5232658386230469 0.8152258396148682 -0.040437158197164536
0.5189610719680786 0.8388944268226624 -0.021619576960802078
0.5562020540237427 0.6311654448509216 -0.1156674399971962
0.5263376832008362 0.6311718821525574 -0.08920078724622726
0.24258090555667877 0.3910332918167114 0.08456674218177795
0.42367061972618103 0.49969884753227234 -0.011695683002471924
0.4008650481700897 0.5017865896224976 -0.014892646111547947
0.37716174125671387 0.5015889406204224 -0.013738727197051048
0.33943161368370056 0.4900935888290405 -0.0015039657009765506
0.44210508465766907 0.49419066309928894 -0.004987791180610657
0.39553385972976685 0.43969905376434326 -0.022981513291597366
0.41993948817253113 0.44187963008880615 -0.01617809198796749
0.3706180453300476 0.443092942237854 -0.02095273695886135
0.35214799642562866 0.4517596364021301 -0.014825220219790936
0.3184613585472107 0.5059022903442383 0.005085201468318701
0.41829949617385864 0.8707075715065002 -0.010182207450270653
0.3421076238155365 0.4774327874183655 0.0035623114090412855
0.22456970810890198 0.5015782117843628 0.08812427520751953
0.28861260414123535 0.49332672357559204 0.0227943304926157
0.40118199586868286 0.5982213020324707 -0.04166156426072121
0.4957864284515381 0.6883898973464966 -0.07167460769414902
0.4916878044605255 0.7131527066230774 -0.062252890318632126
0.4507746398448944 0.6954387426376343 -0.06284749507904053
0.4183691740036011 0.7037307024002075 -0.04367060586810112
0.45916780829429626 0.7142359018325806 -0.05511868745088577
0.4324154853820801 0.7161650657653809 -0.03718692809343338
0.38020002841949463 0.7600797414779663 -0.004508033860474825
0.5405491590499878 0.6168448328971863 -0.12757214903831482
0.5388933420181274 0.5917227864265442 -0.13389262557029724
0.32013028860092163 0.4319289028644562 -0.017776362597942352
0.4570440351963043 0.539024829864502 -0.03329075500369072
0.46462497115135193 0.6093971133232117 -0.08331172168254852
0.45991671085357666 0.5963801145553589 -0.0758267343044281
0.3190983533859253 0.5958255529403687 -0.028650356456637383
0.5359270572662354 0.5623279809951782 -0.12018098682165146
0.3897024691104889 0.40697789192199707 -0.041355423629283905
0.35142552852630615 0.4146155118942261 -0.032755348831415176
0.2813774645328522 0.3454883396625519 0.04987839609384537
0.48952576518058777 0.42898422479629517 -0.04201378673315048
0.4396344721317291 0.45001134276390076 -0.005610508378595114
0.36059945821762085 0.7245959043502808 -0.0074906665831804276
0.21688251197338104 0.754996657371521 0.1378183364868164
0.4812532961368561 0.6241435408592224 -0.07163636386394501
0.5020912885665894 0.6325682401657104 -0.07022290676832199
0.3772776424884796 0.723308801651001 -0.0030577625147998333
0.3903789520263672 0.7242050766944885 -0.005317178089171648
0.33735427260398865 0.3989461064338684 -0.023948311805725098
0.45799970626831055 0.6191386580467224 -0.07127168029546738
0.435621976852417 0.4103895127773285 -0.044596172869205475
0.4331599473953247 0.390350341796875 -0.04894460365176201
0.39739736914634705 0.28468453884124756 -0.01031071413308382
0.311273992061615 0.3710538148880005 0.00939937960356474
0.4193051755428314 0.3340989053249359 -0.02903555892407894
0.3014921545982361 0.42155733704566956 -0.0014920629328116775
0.27287304401397705 0.4075729250907898 0.040896978229284286
0.49328145384788513 0.7027956247329712 -0.06909234076738358
0.4552966058254242 0.7066440582275391 -0.05916610360145569
0.4254125952720642 0.7098997235298157 -0.0416853167116642
0.48549801111221313 0.6286694407463074 -0.06559406965970993
0.3835183382034302 0.7235450744628906 -0.0041986568830907345
0.4005339741706848 0.7451975345611572 -0.011301107704639435
0.3946911096572876 0.7245216369628906 -0.005317691247910261
0.5034507513046265 0.6181461215019226 -0.10108574479818344
0.43506133556365967 0.7141299843788147 -0.033753130584955215
0.4613780975341797 0.7144197821617126 -0.04660244286060333
0.4909377694129944 0.715394139289856 -0.05393286049365997
0.47745802998542786 0.8361292481422424 -0.025294316932559013
0.4824545383453369 0.8109803199768066 -0.04382045567035675
0.4856221377849579 0.7954530715942383 -0.046971265226602554
0.4883359670639038 0.7814663052558899 -0.04169193655252457
0.49028152227401733 0.7721097469329834 -0.03746083006262779
0.4337114691734314 0.7548544406890869 -0.020398035645484924
0.42900413274765015 0.7579218745231628 -0.023382019251585007
0.42187708616256714 0.7643779516220093 -0.026165099814534187
0.41585013270378113 0.7728047966957092 -0.022379284724593163
0.4061656594276428 0.6815050840377808 -0.03960578143596649
0.19419077038764954 0.6209467053413391 0.16812659800052643
0.5507946610450745 0.6370848417282104 -0.08720427006483078
0.4154287874698639 0.7445029020309448 -0.00945132877677679
0.40800243616104126 0.7438452243804932 -0.01135881058871746
0.5094490051269531 0.642935037612915 -0.07094328850507736
0.46031099557876587 0.6336601376533508 -0.05275493115186691
0.5062923431396484 0.6379664540290833 -0.07133617997169495
0.42894890904426575 0.5511376857757568 -0.03185043856501579
0.38584017753601074 0.5658211708068848 -0.034716662019491196
0.4508240520954132 0.6068194508552551 -0.06410820782184601
0.33201804757118225 0.3092365562915802 0.01631571538746357
0.35905611515045166 0.34556904435157776 -0.012478855438530445
0.3823094367980957 0.38770997524261475 -0.03751811385154724
0.4049226641654968 0.7911491990089417 -0.011586322449147701
0.4850411117076874 0.39660727977752686 -0.049479492008686066
0.4746934175491333 0.33155420422554016 -0.033520638942718506
0.4609702229499817 0.2737109065055847 -0.019183678552508354
0.35398435592651367 0.49798783659935 -0.008403563871979713
0.28867608308792114 0.5233114361763 0.012127866968512535
0.45401161909103394 0.48823291063308716 5.895884896744974e-05
0.323138952255249 0.4625500440597534 -0.002383685437962413
0.4770928621292114 0.5246003270149231 -0.03818173706531525
0.4875282645225525 0.6016809940338135 -0.10192167013883591
0.2545101046562195 0.5432049036026001 0.02923879213631153
0.3088722229003906 0.5366045236587524 -0.0054046581499278545
0.34369131922721863 0.5432645678520203 -0.019353453069925308
0.3925219476222992 0.5403717756271362 -0.021754663437604904
0.42799222469329834 0.5319530963897705 -0.019101375713944435
0.4540365934371948 0.5218421220779419 -0.01961308717727661
0.5170753598213196 0.49293118715286255 -0.05491245537996292
0.2511932849884033 0.5939252376556396 0.02102946676313877
0.3020373284816742 0.46074074506759644 0.0036461034324020147
0.543644368648529 0.6304997801780701 -0.11683528125286102
0.4601173400878906 0.5618051290512085 -0.04406849667429924
0.20063981413841248 0.5020065903663635 0.15440966188907623
0.4736989736557007 0.5095377564430237 -0.019035741686820984
0.44244664907455444 0.6082732677459717 -0.04051068797707558
0.3315356969833374 0.47772055864334106 0.005477542988955975
0.4823138117790222 0.5856040716171265 -0.09278295189142227
0.19892024993896484 0.6858055591583252 0.1576956808567047
0.45161882042884827 0.48077553510665894 0.00598186394199729
0.5098917484283447 0.5717558860778809 -0.11086463928222656
0.29371243715286255 0.8114537000656128 0.04576395824551582
0.2866426706314087 0.8492527604103088 0.07642486691474915
0.21080809831619263 0.6108719706535339 0.09387309849262238
0.2551354467868805 0.7772778272628784 0.061352577060461044
0.24733437597751617 0.45034724473953247 0.07020766288042068
0.4142155051231384 0.9003332853317261 -0.002527872333303094
0.541288435459137 0.6361632943153381 -0.0871313288807869
0.4341304898262024 0.5783742666244507 -0.040339644998311996
0.2618420720100403 0.4995609223842621 0.039911530911922455
0.3817964196205139 0.48667874932289124 -0.010161081328988075
0.40267133712768555 0.4875456690788269 -0.011903215199708939
0.39326614141464233 0.7481870651245117 -0.009364759549498558
0.24604563415050507 0.6488725543022156 0.027758697047829628
0.45920634269714355 0.9374049305915833 0.005172332748770714
0.3743826150894165 0.9046984314918518 0.036367740482091904
0.33430352807044983 0.8823718428611755 0.05458840727806091
0.5341117978096008 0.3331109881401062 -0.027316708117723465
0.5097975730895996 0.9398699998855591 0.008401233702898026
0.42040184140205383 0.4863056540489197 -0.008812310174107552
0.43689990043640137 0.48324453830718994 -0.0025208103470504284
0.4470003843307495 0.4817318916320801 0.004009968601167202
0.27918311953544617 0.45634788274765015 0.021683499217033386
0.4327516555786133 0.4696594178676605 -0.004411681089550257
0.41393181681632996 0.4654123783111572 -0.01167240645736456
0.3958568871021271 0.46421313285827637 -0.01446017250418663
0.3754579424858093 0.46665602922439575 -0.01372677180916071
0.3605339229106903 0.4713504910469055 -0.008976565673947334
0.2172795981168747 0.4400472044944763 0.12363024801015854
0.3660784959793091 0.4847401976585388 -0.006239064037799835
0.5392841696739197 0.659958004951477 -0.06507990509271622
0.438965380191803 0.6676760315895081 -0.053427405655384064
0.4839276075363159 0.6208064556121826 -0.079097680747509
0.4996281564235687 0.6614218354225159 -0.0685838907957077
0.5359545350074768 0.459280788898468 -0.0410228930413723
0.3356107473373413 0.8455389738082886 0.03446907922625542
0.37278205156326294 0.8734526634216309 0.0177718847990036
0.4626408517360687 0.9181066751480103 -0.017470376566052437
0.24855060875415802 0.8103514909744263 0.1058020368218422
0.4458725154399872 0.47629618644714355 0.0015271827578544617
0.5028477311134338 0.5304166078567505 -0.06559709459543228
0.5149273872375488 0.9211081862449646 -0.01298484019935131
0.4150528907775879 0.924159049987793 0.016094660386443138
0.21154072880744934 0.671069860458374 0.09033242613077164
0.46043655276298523 0.7647190690040588 -0.030972177162766457
0.45591551065444946 0.771443247795105 -0.03433162719011307
0.45080775022506714 0.7821276187896729 -0.03733810409903526
0.44648444652557373 0.7961821556091309 -0.03371052071452141
0.4362388849258423 0.8180630207061768 -0.021315470337867737
0.40626591444015503 0.7179484963417053 -0.020758632570505142
0.3988712728023529 0.7148361206054688 -0.021448567509651184
0.3921487033367157 0.71068274974823 -0.022731564939022064
0.3771633505821228 0.6992546319961548 -0.023118073120713234
0.2858741879463196 0.6574974656105042 -0.00889571476727724
0.49776148796081543 0.507498562335968 -0.04483997821807861
0.4761386811733246 0.46399036049842834 -0.0036773663014173508
0.45831191539764404 0.4669610261917114 0.000784674659371376
0.4118160605430603 0.7153396606445312 -0.018521737307310104
0.27337855100631714 0.7286238074302673 0.024928253144025803
0.5029953122138977 0.4634764790534973 -0.030387109145522118
0.4256340265274048 0.8421928882598877 -0.013970904052257538
0.5520352125167847 0.5345267057418823 -0.10041868686676025
0.5242499113082886 0.5173640847206116 -0.07729292660951614
0.5465202331542969 0.5115740895271301 -0.07834923267364502
0.4837224781513214 0.5665149092674255 -0.07023145258426666
0.5175241827964783 0.8942627310752869 -0.022198205813765526
0.5181462168693542 0.8634313941001892 -0.021255485713481903
0.47128167748451233 0.8611427545547485 -0.022420717403292656
0.3653656244277954 0.776381254196167 0.0021167765371501446
0.41798919439315796 0.6290997862815857 -0.03774760663509369
0.3916766941547394 0.8133139610290527 -0.003708990290760994
0.3546009957790375 0.6297903060913086 -0.039104390889406204
0.3879324197769165 0.6551778316497803 -0.03410579636693001
0.3253687620162964 0.6728765368461609 -0.02295735850930214
0.46635720133781433 0.8912991285324097 -0.025250229984521866
0.4628884196281433 0.5792599320411682 -0.057578492909669876
0.34665775299072266 0.8066078424453735 0.014917717315256596
0.38076528906822205 0.8405824303627014 0.006058905739337206
0.3448219895362854 0.7368782758712769 -0.005092328879982233
0.2471635788679123 0.6974207162857056 0.037377987056970596
0.31142178177833557 0.7533072233200073 0.008653691969811916
0.22430936992168427 0.7276114225387573 0.08235254138708115
0.35874471068382263 0.6850844025611877 -0.02547563426196575
0.48181214928627014 0.5463179349899292 -0.05380909517407417
0.49669358134269714 0.6135734915733337 -0.1060524731874466
0.4730718433856964 0.618159830570221 -0.08407673239707947
0.5133767127990723 0.5960893034934998 -0.12010187655687332
0.4612370431423187 0.44447094202041626 -0.012331404723227024
0.42714643478393555 0.4305146634578705 -0.023112814873456955
0.39435476064682007 0.42673933506011963 -0.02918754331767559
0.3639060854911804 0.4308411478996277 -0.02641153894364834
0.33908629417419434 0.44243407249450684 -0.01743689738214016
0.3139631748199463 0.4854468107223511 0.011278245598077774
0.21525424718856812 0.555432915687561 0.09099213778972626
0.33398565649986267 0.5145506858825684 -0.003669849131256342
0.36216944456100464 0.5204015374183655 -0.011993303894996643
0.3956730365753174 0.5201255679130554 -0.015032841823995113
0.42587393522262573 0.5151522159576416 -0.012372083961963654
0.4486088454723358 0.5077338814735413 -0.008455534465610981
0.46458494663238525 0.5001839399337769 -0.0066645266488194466
0.19586002826690674 0.5608012080192566 0.16775734722614288
0.46957626938819885 0.6237702965736389 -0.07324294745922089
0.5082140564918518 0.5504083633422852 -0.08519036322832108
0.5201467275619507 0.6147248148918152 -0.11985932290554047
0.5284963846206665 0.627752423286438 -0.10887820273637772
0.5159555673599243 0.6195579767227173 -0.10938655585050583
0.47243669629096985 0.6309390068054199 -0.06432733684778214
0.5350165367126465 0.6294162273406982 -0.11430653184652328
0.5325648784637451 0.6349210143089294 -0.08813156932592392
0.4618123471736908 0.48125606775283813 0.004616783000528812
0.47735533118247986 0.4873397946357727 -0.00608506565913558
0.48892074823379517 0.491459459066391 -0.022095292806625366
0.3505420684814453 0.4749615788459778 -0.003980651497840881
0.33660054206848145 0.4630799889564514 -0.0050112102180719376
0.568516731262207 0.5383523106575012 -0.08835754543542862
0.6656270027160645 0.4770076274871826 0.06449877470731735
0.5701085329055786 0.630558967590332 -0.0823473185300827
0.7094228267669678 0.39593178033828735 0.18822547793388367
0.6073338389396667 0.49823230504989624 0.03109152428805828
0.627386212348938 0.49937793612480164 0.03650223836302757
0.6470845937728882 0.4988456964492798 0.04569261521100998
0.6731150150299072 0.4858171343803406 0.06909719109535217
0.5912048816680908 0.4932166337966919 0.028362281620502472
0.6381264925003052 0.43805813789367676 0.030955448746681213
0.6154760122299194 0.44110533595085144 0.02606440894305706
0.6591557264328003 0.4407445788383484 0.04129619896411896
0.6719000339508057 0.4491863250732422 0.052183832973241806
0.6876450777053833 0.5037811994552612 0.081318199634552
0.5961892604827881 0.8617757558822632 0.022755475714802742
0.6725006699562073 0.47222593426704407 0.07322312891483307
0.7203258275985718 0.5012542009353638 0.1924828588962555
0.7029017210006714 0.4914935529232025 0.10798417031764984
0.6400041580200195 0.597186267375946 0.0028504489455372095
0.5671384334564209 0.6875985264778137 -0.059284504503011703
0.5575125813484192 0.7127770781517029 -0.050478775054216385
0.5957511067390442 0.6931421756744385 -0.03746591508388519
0.6101288199424744 0.7019447088241577 -0.00875900499522686
0.5786295533180237 0.7131433486938477 -0.03242146596312523
0.592322826385498 0.7156596183776855 -0.006537063047289848
0.6226714253425598 0.757299542427063 0.04097163677215576
0.5779200792312622 0.6164026856422424 -0.12176408618688583
0.580731213092804 0.5911127328872681 -0.12691575288772583
0.6978000402450562 0.42935019731521606 0.06260041892528534
0.5935726165771484 0.5386367440223694 -0.005111828446388245
0.613967776298523 0.6080046892166138 -0.056921496987342834
0.6129910945892334 0.5953211784362793 -0.04879235103726387
0.6965585350990295 0.5942268371582031 0.045121368020772934
0.5759292244911194 0.5618133544921875 -0.11151447892189026
0.6565194725990295 0.40628960728645325 0.014183198101818562
0.6823846101760864 0.4124932289123535 0.03702032193541527
0.6978256106376648 0.3516208529472351 0.14246298372745514
0.5746159553527832 0.4297437071800232 -0.02383221685886383
0.5962347984313965 0.44939500093460083 0.028397703543305397
0.639735758304596 0.7223098278045654 0.046459924429655075
0.689622163772583 0.7407317161560059 0.23364391922950745
0.5976130366325378 0.6227392554283142 -0.05191146582365036
0.5798989534378052 0.6319563388824463 -0.060067515820264816
0.6240973472595215 0.7233198881149292 0.04439297690987587
0.6119367480278015 0.724904477596283 0.03711893782019615
0.6897801160812378 0.3976578116416931 0.050946444272994995
0.612159013748169 0.6181270480155945 -0.045270103961229324
0.6210594177246094 0.41086477041244507 -0.00678482698276639
0.6252925992012024 0.3912854492664337 -0.010153476148843765
0.6380549073219299 0.2901281416416168 0.04179936274886131
0.6934396028518677 0.3737317621707916 0.09133468568325043
0.6303136944770813 0.33739516139030457 0.01529528759419918
0.7051129341125488 0.42005109786987305 0.08462530374526978
0.7077537178993225 0.40932029485702515 0.1342291235923767
0.5631635189056396 0.7021331191062927 -0.05644825100898743
0.5868453979492188 0.7048269510269165 -0.03510287031531334
0.6019790172576904 0.7086377739906311 -0.009328434243798256
0.5916279554367065 0.6274933218955994 -0.049765508621931076
0.6187213659286499 0.7241177558898926 0.040257081389427185
0.6089361906051636 0.7451390027999878 0.026752689853310585
0.6066347360610962 0.7251611948013306 0.035825762897729874
0.5925697088241577 0.6164774894714355 -0.08342862129211426
0.5855424404144287 0.7144044637680054 -0.004522052593529224
0.5714125037193298 0.7141081094741821 -0.02484217844903469
0.5517991781234741 0.7154923677444458 -0.04195694252848625
0.5549948811531067 0.8345191478729248 -0.012889017350971699
0.5576322078704834 0.8101710081100464 -0.030132809653878212
0.5573554039001465 0.7946330308914185 -0.03280806913971901
0.5552083253860474 0.7808580994606018 -0.028007665649056435
0.551521897315979 0.7713767886161804 -0.0244813971221447
0.5863124132156372 0.7542421221733093 0.00929711852222681
0.5913775563240051 0.7574305534362793 0.006114149000495672
0.5978500843048096 0.7637145519256592 0.0047117359936237335
0.6020998954772949 0.7717099189758301 0.010239140130579472
0.6274585723876953 0.6799412965774536 -0.0004054804740007967
0.7060684561729431 0.6154186725616455 0.2758443355560303
0.5948808193206787 0.7443808317184448 0.027180232107639313
0.6027575731277466 0.7438616752624512 0.025475315749645233
0.5723737478256226 0.6423669457435608 -0.061031974852085114
0.6034450531005859 0.6329547762870789 -0.03200191259384155
0.5762477517127991 0.6375894546508789 -0.06164590269327164
0.6148873567581177 0.5507126450538635 0.006281712558120489
0.6492514610290527 0.565453290939331 0.017912553623318672
0.6142902970314026 0.6059421300888062 -0.036148227751255035
0.6756051778793335 0.31579869985580444 0.09100339561700821
0.6689449548721313 0.34864139556884766 0.05258813500404358
0.6619928479194641 0.3875877261161804 0.020990727469325066
0.6064494848251343 0.7875863313674927 0.026051266118884087
0.5825772285461426 0.39867103099823 -0.030199402943253517
0.5874725580215454 0.33370912075042725 -0.010720601305365562
0.5917727947235107 0.27703818678855896 0.0066087390296161175
0.6638442277908325 0.49416589736938477 0.05841142311692238
0.7067871689796448 0.521854817867279 0.09707175940275192
0.5817841291427612 0.48720622062683105 0.02974003553390503
0.6887452006340027 0.45919981598854065 0.07424548268318176
0.5798262357711792 0.5241109132766724 -0.015772204846143723
0.60540771484375 0.6003157496452332 -0.08087441325187683
0.7236427068710327 0.5410830974578857 0.12530919909477234
0.6985840797424316 0.5355713367462158 0.07447496801614761
0.677177369594574 0.5428332686424255 0.04889211431145668
0.6391130089759827 0.5398231744766235 0.030366111546754837
0.6099594831466675 0.5313283205032349 0.01993541046977043
0.5892529487609863 0.5211943984031677 0.009324759244918823
0.5588976144790649 0.4929872751235962 -0.04540431126952171
0.7293922305107117 0.5903732776641846 0.11718782782554626
0.7006978392601013 0.45854365825653076 0.08767542243003845
0.5665537714958191 0.6301949620246887 -0.11216343939304352
0.5978862643241882 0.5612926483154297 -0.01710616983473301
0.7104547023773193 0.5032576322555542 0.2662794589996338
0.5754095911979675 0.5090547204017639 0.0032969496678560972
0.6135541796684265 0.6075350642204285 -0.012732025235891342
0.6791590452194214 0.4730593264102936 0.07863015681505203
0.6033421754837036 0.5845385193824768 -0.07135243713855743
0.7018111944198608 0.6760088205337524 0.2603612542152405
0.581632137298584 0.47903621196746826 0.03700101375579834
0.5900111794471741 0.5709001421928406 -0.095341756939888
0.6675200462341309 0.794927179813385 0.11759475618600845
0.6549050807952881 0.8294802904129028 0.14864282310009003
0.7297580242156982 0.6050963401794434 0.19836117327213287
0.6918839812278748 0.7618324756622314 0.14580975472927094
0.7140893936157227 0.45204830169677734 0.17024214565753937
0.5950525999069214 0.8888493776321411 0.031858064234256744
0.55971759557724 0.636120617389679 -0.08432095497846603
0.6153022050857544 0.5778176188468933 -0.0064699831418693066
0.7140768766403198 0.49798229336738586 0.1343100666999817
0.6455720067024231 0.4831981062889099 0.04834391921758652
0.6274546384811401 0.484974205493927 0.039932381361722946
0.614163339138031 0.7476456165313721 0.031000303104519844
0.7271875143051147 0.642032265663147 0.12149963527917862
0.555317759513855 0.9304417967796326 0.024683909490704536
0.6089071035385132 0.8884826898574829 0.08356727659702301
0.6293802857398987 0.8630763292312622 0.11346308887004852
0.6105316877365112 0.4845273494720459 0.03508972004055977
0.5950419902801514 0.4819525182247162 0.03511699289083481
0.585802435874939 0.4803120791912079 0.037756603211164474
0.7092808485031128 0.45527708530426025 0.11318432539701462
0.5969907641410828 0.4673117995262146 0.03377562016248703
0.613369882106781 0.4625245928764343 0.032919783145189285
0.6309236884117126 0.46021348237991333 0.037562284618616104
0.6490959525108337 0.46206748485565186 0.04597775638103485
0.6605623960494995 0.4665486514568329 0.054697491228580475
0.713387131690979 0.4438890218734741 0.23299548029899597
0.6574440002441406 0.4802234172821045 0.057175371795892715
0.6117053031921387 0.6661686897277832 -0.023889806121587753
0.5997740626335144 0.6193053722381592 -0.06059345230460167
0.5717201232910156 0.6603864431381226 -0.056326959282159805
0.6408979296684265 0.8292187452316284 0.09297239035367966
0.6179821491241455 0.8581481575965881 0.0640299841761589
0.5612121224403381 0.9118527173995972 0.001981536392122507
0.6735121011734009 0.7927563190460205 0.19195394217967987
0.58673095703125 0.4742416739463806 0.03560386225581169
0.5749872922897339 0.5300177335739136 -0.05084935948252678
0.5863905549049377 0.9117364883422852 0.05086708068847656
0.7249002456665039 0.6615614295005798 0.19046518206596375
0.5715600848197937 0.7639686465263367 -0.008362077176570892
0.5766366720199585 0.7706486582756042 -0.011169269680976868
0.5811206102371216 0.7813804149627686 -0.012811029329895973
0.583681046962738 0.7951235771179199 -0.0081755630671978
0.5857602953910828 0.8151594400405884 0.006941895000636578
0.604677677154541 0.7180973291397095 0.017395462840795517
0.6129382252693176 0.7144353985786438 0.019751742482185364
0.6198910474777222 0.7099014520645142 0.020306039601564407
0.6382452845573425 0.6976352334022522 0.02594713307917118
0.7086261510848999 0.6521247625350952 0.07176744937896729
0.5687469840049744 0.5072615742683411 -0.028923993930220604
0.5699681639671326 0.46358829736709595 0.015850218012928963
0.579524040222168 0.46570706367492676 0.02929614670574665
0.5970077514648438 0.7158679366111755 0.018176257610321045
0.6984980702400208 0.7184295058250427 0.10553701221942902
0.5590957403182983 0.4635670781135559 -0.018777992576360703
0.5904815196990967 0.8356807827949524 0.015789341181516647
0.5637843608856201 0.5170524716377258 -0.06913941353559494
0.5919941663742065 0.5657021403312683 -0.05060340464115143
0.55813068151474 0.8577538728713989 -0.008307298645377159
0.6328357458114624 0.7694932222366333 0.05318558216094971
0.62701815366745 0.628009021282196 -0.0012609038967639208
0.613017737865448 0.8059350848197937 0.03699225187301636
0.6713948249816895 0.6273059844970703 0.019071105867624283
0.6432360410690308 0.653300404548645 0.012342567555606365
0.6829606294631958 0.6682170629501343 0.04426748305559158
0.562512993812561 0.886588990688324 -0.00675782049074769
0.602160632610321 0.5785772204399109 -0.03275320306420326
0.6427136659622192 0.7946931719779968 0.07158681005239487
0.6183894872665405 0.8290752172470093 0.04999442771077156
0.6526679992675781 0.7310600280761719 0.05650334805250168
0.7169617414474487 0.6878372430801392 0.12699581682682037
0.6729387044906616 0.7430640459060669 0.07790062576532364
0.7122606039047241 0.7146921753883362 0.17775343358516693
0.6546343564987183 0.6826650500297546 0.0312773659825325
0.5856112241744995 0.5456560850143433 -0.03274036571383476
0.5998532176017761 0.6117915511131287 -0.08678865432739258
0.6083276271820068 0.6164954304695129 -0.0617651604115963
0.5947091579437256 0.5949617624282837 -0.10431291162967682
0.5853639841079712 0.4436570107936859 0.014483229257166386
0.6174473762512207 0.4293244481086731 0.01664053276181221
0.6467791795730591 0.42535752058029175 0.023905344307422638
0.6702250242233276 0.42920511960983276 0.037805717438459396
0.6844133734703064 0.43983563780784607 0.054291531443595886
0.6891462802886963 0.4822344183921814 0.0890062227845192
0.7271788120269775 0.5526612997055054 0.19807106256484985
0.6791688799858093 0.5122992396354675 0.06834561377763748
0.659446120262146 0.5189335346221924 0.05065980553627014
0.6329314708709717 0.5188711285591125 0.036260347813367844
0.6072790026664734 0.5141496062278748 0.02759726531803608
0.5885103940963745 0.5067604780197144 0.02160392515361309
0.5765204429626465 0.4993959069252014 0.017551669850945473
0.7068244218826294 0.5590062141418457 0.27943870425224304
0.6052992939949036 0.6223645806312561 -0.051358602941036224
0.5814634561538696 0.5498590469360352 -0.07001595944166183
0.5895703434944153 0.6132323741912842 -0.10768880695104599
0.5742013454437256 0.6265994310379028 -0.10206788033246994
0.5865673422813416 0.6179919242858887 -0.09692897647619247
0.5986197590827942 0.6299675107002258 -0.045743122696876526
0.5721672177314758 0.6286912560462952 -0.10867475718259811
0.565941333770752 0.6344075798988342 -0.08326859772205353
0.5756157636642456 0.4801015257835388 0.03026699274778366
0.5674170255661011 0.4868924021720886 0.012508983723819256
0.5653606653213501 0.491146445274353 -0.006193187553435564
0.6675502061843872 0.46994566917419434 0.06293746083974838
0.6799384355545044 0.45933258533477783 0.06583459675312042
