ply
format ascii 1.0
element vertex 468
property float x
property float y
property float z
end_header
0.518959641456604 0.6984602212905884 -0.05675935000181198
0.5397944450378418 0.6332092881202698 -0.13440585136413574
0.5260286331176758 0.6538615822792053 -0.06788541376590729
0.5115446448326111 0.5506694912910461 -0.1128564178943634
0.5408231019973755 0.6075743436813354 -0.1447744369506836
0.5373176336288452 0.5739123225212097 -0.13795670866966248
0.5232441425323486 0.49308276176452637 -0.08210421353578568
0.32465285062789917 0.4842657446861267 -0.010587330907583237
0.5185437798500061 0.43751561641693115 -0.0719098299741745
0.5185073614120483 0.4047950506210327 -0.08130097389221191
0.5108615159988403 0.2630009055137634 -0.07183727622032166
0.5172066688537598 0.7093165516853333 -0.05274937301874161
0.5148270130157471 0.7162836194038391 -0.04539098963141441
0.5122178792953491 0.7169675230979919 -0.03499307855963707
0.5124865770339966 0.7539175152778625 -0.021265700459480286
0.5132541060447693 0.7636809349060059 -0.024780308827757835
0.5131460428237915 0.7757531404495239 -0.02872144989669323
0.5125355124473572 0.7896634340286255 -0.023072199895977974
0.5096554160118103 0.813168466091156 0.0014970422489568591
0.5362521409988403 0.6457516551017761 -0.12067503482103348
0.5089596509933472 0.6428936123847961 -0.08957234770059586
0.21092194318771362 0.38394656777381897 0.0730438083410263
0.40253138542175293 0.5069161057472229 -0.024183638393878937
0.3768291175365448 0.5086507201194763 -0.025972062721848488
0.3513379693031311 0.5069900155067444 -0.023139776661992073
0.31302058696746826 0.4922391474246979 -0.007685937453061342
0.4236578941345215 0.5014154314994812 -0.018361570313572884
0.3674210011959076 0.44383862614631653 -0.041465550661087036
0.3954365849494934 0.44619548320770264 -0.037252943962812424
0.3406441807746887 0.44719621539115906 -0.036658674478530884
0.32171395421028137 0.45550602674484253 -0.028309332206845284
0.2928706407546997 0.5076384544372559 0.004040633328258991
0.41454601287841797 0.8499550223350525 0.024092603474855423
0.31318217515945435 0.4774642586708069 -0.004256722051650286
0.20204240083694458 0.49728092551231384 0.09855789691209793
0.2616958022117615 0.4933793246746063 0.02247106470167637
0.3839266896247864 0.6038905382156372 -0.03808184713125229
0.4812435507774353 0.69476318359375 -0.059237368404865265
0.4783235192298889 0.7154892683029175 -0.04616084322333336
0.438333123922348 0.6982426643371582 -0.04771650955080986
0.4069269299507141 0.7023561000823975 -0.02636585757136345
0.4470393657684326 0.7144415974617004 -0.03769025579094887
0.4206216335296631 0.7132467031478882 -0.01812039315700531
0.37333938479423523 0.7461640238761902 0.02171947993338108
0.5195178985595703 0.6329916715621948 -0.1345365047454834
0.5177029371261597 0.6080533266067505 -0.14481614530086517
0.28372877836227417 0.43222641944885254 -0.03262176364660263
0.44003862142562866 0.5448855757713318 -0.041051775217056274
0.44840922951698303 0.620139479637146 -0.08368074893951416
0.4445935785770416 0.6058472394943237 -0.07731308043003082
0.2980181574821472 0.5998334288597107 -0.01849660649895668
0.5155195593833923 0.5767384171485901 -0.13379591703414917
0.3542947769165039 0.4099823236465454 -0.06734384596347809
0.31381818652153015 0.4157070219516754 -0.05376707389950752
0.24400435388088226 0.33838599920272827 0.024554817005991936
0.4667821526527405 0.4351760149002075 -0.07194702327251434
0.41856706142425537 0.45496922731399536 -0.02617066726088524
0.3511768877506256 0.7152039408683777 0.017417946830391884
0.21985572576522827 0.735611617565155 0.19602158665657043
0.46538081765174866 0.6340866684913635 -0.06976447999477386
0.48665913939476013 0.6418521404266357 -0.06706137210130692
0.3674771189689636 0.7116223573684692 0.02102002315223217
0.37987303733825684 0.7127755880355835 0.017423275858163834
0.29768165946006775 0.39777490496635437 -0.04668518155813217
0.44295987486839294 0.6277040839195251 -0.06861618906259537
0.4050619900226593 0.4158024191856384 -0.07424554973840714
0.4011533260345459 0.3938058614730835 -0.0830007791519165
0.36225754022598267 0.27738866209983826 -0.059466466307640076
0.2725030779838562 0.3670526444911957 -0.015924520790576935
0.3855731189250946 0.33228152990341187 -0.0726422667503357
0.2646212875843048 0.42006945610046387 -0.015802161768078804
0.2385614514350891 0.4031470715999603 0.026529548689723015
0.47924748063087463 0.7076922655105591 -0.05494390428066254
0.44342756271362305 0.708320140838623 -0.04297848790884018
0.41404250264167786 0.7080400586128235 -0.023735783994197845
0.47031721472740173 0.6376067996025085 -0.06284110248088837
0.37336641550064087 0.7118222713470459 0.019186966121196747
0.3913807272911072 0.7300764918327332 0.010360636748373508
0.3837989270687103 0.7134593725204468 0.017250990495085716
0.4854689836502075 0.631176233291626 -0.10446697473526001
0.42305788397789 0.710482120513916 -0.014001373201608658
0.4494778513908386 0.7132594585418701 -0.027616675943136215
0.47844862937927246 0.715777575969696 -0.03605284541845322
0.47068288922309875 0.812078595161438 -0.0009803433204069734
0.474778950214386 0.7869402170181274 -0.025286614894866943
0.4766049385070801 0.7725969552993774 -0.02977404184639454
0.4779694080352783 0.7607826590538025 -0.025692269206047058
0.47956568002700806 0.7526592016220093 -0.022043412551283836
0.42281055450439453 0.7381938695907593 -0.0023489531595259905
0.41890963912010193 0.74071204662323 -0.005279064644128084
0.41330429911613464 0.7464603185653687 -0.007178481202572584
0.40904563665390015 0.7546219229698181 -0.0018086722120642662
0.3939310610294342 0.6825286746025085 -0.024098346009850502
0.1884995400905609 0.6091611981391907 0.20983396470546722
0.5317396521568298 0.6497708559036255 -0.08703812211751938
0.40445584058761597 0.72951340675354 0.011131209321320057
0.3979777693748474 0.7286349534988403 0.009410342201590538
0.49386322498321533 0.6521375179290771 -0.0654074102640152
0.446801096200943 0.640086829662323 -0.0461345836520195
0.49082663655281067 0.6473208069801331 -0.06736817210912704
0.4112296402454376 0.5570705533027649 -0.035389892756938934
0.365836501121521 0.5717617273330688 -0.033166155219078064
0.4363958239555359 0.6146469116210938 -0.06256326287984848
0.2930157780647278 0.30206385254859924 -0.021595172584056854
0.3201211988925934 0.3419097661972046 -0.04774385318160057
0.3452507555484772 0.3881860375404358 -0.06755495071411133
0.3995053172111511 0.7740215063095093 0.014114158228039742
0.4597110450267792 0.4014093279838562 -0.08625273406505585
0.44775235652923584 0.32989302277565 -0.0823502168059349
0.4324837625026703 0.26559749245643616 -0.07554803043603897
0.327562153339386 0.5018765926361084 -0.01578693836927414
0.2642415165901184 0.5250462293624878 0.01591445319354534
0.4371528625488281 0.4954770803451538 -0.014340286143124104
0.2925344705581665 0.46391957998275757 -0.011520380154252052
0.4599537253379822 0.5306597352027893 -0.049128156155347824
0.46949315071105957 0.6147096157073975 -0.10650540888309479
0.23275621235370636 0.5431323051452637 0.04067075625061989
0.28495341539382935 0.5400437116622925 -0.0017880573868751526
0.32115036249160767 0.5479951500892639 -0.018141252920031548
0.37177789211273193 0.5458136200904846 -0.023767737671732903
0.40921449661254883 0.5373936295509338 -0.02475748583674431
0.4363727867603302 0.5272074341773987 -0.02921866998076439
0.4987892508506775 0.500083327293396 -0.07556403428316116
0.23327180743217468 0.5937185287475586 0.039842307567596436
0.27062952518463135 0.4609299898147583 -0.004785915371030569
0.5240170955657959 0.6451509594917297 -0.12117071449756622
0.4446839392185211 0.5686886310577393 -0.048809658735990524
0.18238458037376404 0.4932296872138977 0.17435136437416077
0.4568727910518646 0.5150412321090698 -0.03193530812859535
0.4292524456977844 0.6143836975097656 -0.036549702286720276
0.3042646050453186 0.4793528914451599 -0.0007810023380443454
0.4655231833457947 0.5971810817718506 -0.09869541227817535
0.19838809967041016 0.6714417338371277 0.20860011875629425
0.43538910150527954 0.4868471026420593 -0.00973372533917427
0.4907965064048767 0.5849942564964294 -0.12127447128295898
0.29315853118896484 0.7923665642738342 0.0905710905790329
0.2924177050590515 0.823398232460022 0.13373532891273499
0.2000460922718048 0.6051731705665588 0.12383580207824707
0.2534850835800171 0.7604410648345947 0.10794299840927124
0.21877744793891907 0.4461871385574341 0.06819003820419312
0.4128139913082123 0.8754425048828125 0.038281168788671494
0.52271968126297 0.6488001942634583 -0.08651738613843918
0.4185538589954376 0.5842806100845337 -0.04085761681199074
0.23612001538276672 0.4984707534313202 0.04336123168468475
0.3538781702518463 0.4930211305618286 -0.021388212218880653
0.37699946761131287 0.49525681138038635 -0.024563414976000786
0.3851380944252014 0.7332754135131836 0.013639936223626137
0.2326810210943222 0.6460093855857849 0.05516544729471207
0.4575485587120056 0.9055225849151611 0.05154125392436981
0.37828826904296875 0.8761349320411682 0.08690293878316879
0.339862585067749 0.855099081993103 0.1080460175871849
0.515089750289917 0.32953590154647827 -0.07879649847745895
0.5042867660522461 0.9071282148361206 0.05285900831222534
0.39809396862983704 0.4939013421535492 -0.022482074797153473
0.41780778765678406 0.4904996156692505 -0.016787266358733177
0.4299350380897522 0.4887220859527588 -0.010908500291407108
0.2480546087026596 0.4548527002334595 0.01587473787367344
0.41179659962654114 0.466661661863327 -0.022227250039577484
0.3893849551677704 0.45768508315086365 -0.029069513082504272
0.36726099252700806 0.4555768072605133 -0.031179580837488174
0.34439677000045776 0.4596710801124573 -0.02779727429151535
0.32947880029678345 0.46703392267227173 -0.020993391051888466
0.19197386503219604 0.4323756694793701 0.12770392000675201
0.337094247341156 0.4889337122440338 -0.015885330736637115
0.5227057933807373 0.6685172915458679 -0.05780424922704697
0.42673608660697937 0.6716706156730652 -0.04074873775243759
0.467277467250824 0.6320589184761047 -0.07958605140447617
0.4848160743713379 0.6691740155220032 -0.0601159930229187
0.5187710523605347 0.46346041560173035 -0.0679161474108696
0.3358505666255951 0.8244708180427551 0.07844012975692749
0.37334996461868286 0.8501259684562683 0.060516878962516785
0.45856091380119324 0.891497015953064 0.021453918889164925
0.253542959690094 0.7865657806396484 0.1658845692873001
0.4282280206680298 0.4790599048137665 -0.015161752700805664
0.4847639501094818 0.539013147354126 -0.07987080514431
0.5081424117088318 0.8928991556167603 0.02387246862053871
0.4166458547115326 0.8941470980644226 0.06401142477989197
0.20652765035629272 0.6621509790420532 0.128657728433609
0.44975903630256653 0.7466821074485779 -0.0141377504914999
0.4460966885089874 0.7523611783981323 -0.017534993588924408
0.4426126182079315 0.7617182731628418 -0.019737483933568
0.4398534893989563 0.7747594118118286 -0.014323566108942032
0.43111535906791687 0.7972734570503235 0.00376627198420465
0.39464104175567627 0.7113117575645447 3.787308378377929e-05
0.3877096176147461 0.7086194157600403 -0.0006570856785401702
0.3811728358268738 0.7049683332443237 -0.0023201834410429
0.3652368187904358 0.695845901966095 -0.003959782887250185
0.2693737745285034 0.6569519639015198 0.012192743830382824
0.479958176612854 0.514005184173584 -0.06064501032233238
0.458156019449234 0.46974092721939087 -0.02487531676888466
0.4401913583278656 0.4729025065898895 -0.018269484862685204
0.400162935256958 0.7087334990501404 0.0026513030752539635
0.26374250650405884 0.7197780013084412 0.05905209854245186
0.48462554812431335 0.46843135356903076 -0.05450831726193428
0.4213724136352539 0.822495698928833 0.015715166926383972
0.532433032989502 0.546526312828064 -0.11760714650154114
0.5053895711898804 0.52693772315979 -0.09619195014238358
0.5278435349464417 0.5211065411567688 -0.09891841560602188
0.46717268228530884 0.5759125351905823 -0.07790102064609528
0.5098624229431152 0.8697139024734497 0.008647185750305653
0.5096831917762756 0.8393452167510986 0.0051177628338336945
0.46510231494903564 0.8388247489929199 0.005342776421457529
0.35937297344207764 0.7629173994064331 0.03179401904344559
0.4043589234352112 0.6334154605865479 -0.030348824337124825
0.3878922462463379 0.796549379825592 0.026612164452672005
0.3356821537017822 0.633679211139679 -0.02915157936513424
0.3729439675807953 0.6577879190444946 -0.022043844684958458
0.30804604291915894 0.6727458238601685 -0.004992688540369272
0.46053647994995117 0.8687222003936768 0.0075462148524820805
0.4483621418476105 0.5872612595558167 -0.060799308121204376
0.34241294860839844 0.7905192375183105 0.05095924437046051
0.3784383237361908 0.8216016292572021 0.042279988527297974
0.33530980348587036 0.7278741598129272 0.022101158276200294
0.23743078112602234 0.6906172037124634 0.07144444435834885
0.3030679523944855 0.7425783276557922 0.039888329803943634
0.22217957675457 0.71451735496521 0.12791915237903595
0.344089537858963 0.6834911108016968 -0.007491474971175194
0.46516159176826477 0.5538839101791382 -0.06296967715024948
0.47835394740104675 0.6270068883895874 -0.11052148044109344
0.45658066868782043 0.6291999220848083 -0.0839383527636528
0.4935700595378876 0.6110666990280151 -0.12798893451690674
0.439920037984848 0.4513990879058838 -0.03726986050605774
0.4003225266933441 0.4372491240501404 -0.048061951994895935
0.36364874243736267 0.43276363611221313 -0.051179416477680206
0.3311861753463745 0.4353135824203491 -0.04476563259959221
0.30629652738571167 0.4451349377632141 -0.03220014274120331
0.28661254048347473 0.4861377477645874 0.0077697476372122765
0.1982591152191162 0.5509569048881531 0.1117938905954361
0.3090220093727112 0.5176309943199158 -0.0054863630793988705
0.3385791778564453 0.5248918533325195 -0.01566334068775177
0.3737936019897461 0.525757372379303 -0.021098820492625237
0.40623927116394043 0.5211607217788696 -0.021420130506157875
0.43086951971054077 0.5136313438415527 -0.019823839887976646
0.44791796803474426 0.5059501528739929 -0.019864104688167572
0.18392989039421082 0.5505669116973877 0.1993561089038849
0.454103022813797 0.6330460906028748 -0.07101298123598099
0.48944711685180664 0.5612918138504028 -0.09706217050552368
0.5003098845481873 0.6297733783721924 -0.12614719569683075
0.5101009607315063 0.6409438848495483 -0.1126415878534317
0.49722224473953247 0.633297324180603 -0.11414507776498795
0.4579296410083771 0.6387044787406921 -0.06003577262163162
0.515781581401825 0.6434279680252075 -0.11840038001537323
0.5147420167922974 0.6470052003860474 -0.08794571459293365
0.4453273117542267 0.48848867416381836 -0.01135557796806097
0.46103233098983765 0.4930611252784729 -0.023051930591464043
0.47216376662254333 0.49692919850349426 -0.03906919062137604
0.3203974962234497 0.4728269875049591 -0.013942153193056583
0.3070654273033142 0.4654551148414612 -0.015254409052431583
0.5500540137290955 0.5495949983596802 -0.105162613093853
0.6696352362632751 0.472040593624115 0.04515034332871437
0.5506088733673096 0.6415153741836548 -0.08378097414970398
0.7218173742294312 0.3752804100513458 0.15997208654880524
0.6030660271644592 0.5010194182395935 0.011662333272397518
0.6263846158981323 0.5009099841117859 0.017064375802874565
0.6481658816337585 0.49772948026657104 0.026710769161581993
0.6754931211471558 0.4801284074783325 0.05157056823372841
0.5842989683151245 0.49661877751350403 0.009466797113418579
0.6366708278656006 0.436162531375885 0.0042127156630158424
0.6108548641204834 0.4406549632549286 -0.0016859237803146243
0.6601070761680603 0.4374282956123352 0.01617356762290001
0.6744837760925293 0.44453611969947815 0.028390230610966682
0.690285861492157 0.4961596131324768 0.06795851141214371
0.5891616344451904 0.8399475812911987 0.05154541879892349
0.6766785979270935 0.4646405577659607 0.054257091134786606
0.7294201254844666 0.48371368646621704 0.1860489845275879
0.7082388401031494 0.4808996319770813 0.09423207491636276
0.6318954825401306 0.5975973010063171 -0.0009487716015428305
0.5523046851158142 0.6927990913391113 -0.04899533838033676
0.54533451795578 0.7138148546218872 -0.03637108951807022
0.5828254222869873 0.694027304649353 -0.027007048949599266
0.6004207730293274 0.6974874138832092 0.002194096799939871
0.567772626876831 0.7112846374511719 -0.019161542877554893
0.5842828154563904 0.709888756275177 0.006678976584225893
0.6164300441741943 0.7391682267189026 0.05902891233563423
0.5575459599494934 0.6316680312156677 -0.12998317182064056
0.560120701789856 0.6066546440124512 -0.1389748454093933
0.7052014470100403 0.4199090003967285 0.035203322768211365
0.5819342136383057 0.541447639465332 -0.01747266948223114
0.5965477228164673 0.615827202796936 -0.061636827886104584
0.5955256223678589 0.6019337177276611 -0.05469535291194916
0.6968553066253662 0.5888627767562866 0.042922958731651306
0.5560132265090942 0.5756080150604248 -0.12635251879692078
0.6586778163909912 0.4024544358253479 -0.02059388905763626
0.6881596446037292 0.4051474928855896 0.005101229064166546
0.7094800472259521 0.3319861590862274 0.10247351229190826
0.5639667510986328 0.43342268466949463 -0.05654709041118622
0.589073657989502 0.4506828188896179 0.002599775092676282
0.6354462504386902 0.7077986598014832 0.06194770336151123
0.6912746429443359 0.7134277820587158 0.27599358558654785
0.5801346302032471 0.630430281162262 -0.05332488939166069
0.56150221824646 0.6399691700935364 -0.058462850749492645
0.6191670894622803 0.7068424820899963 0.06011354550719261
0.6078243255615234 0.7089397311210632 0.05202197656035423
0.6977652907371521 0.38749802112579346 0.01668848656117916
0.5953521728515625 0.6238529086112976 -0.04712168127298355
0.6178784370422363 0.41138210892677307 -0.04219440743327141
0.6222973465919495 0.3896353542804718 -0.050127264112234116
0.6373153924942017 0.275322288274765 -0.015483214519917965
0.7031452655792236 0.35872742533683777 0.05343121662735939
0.627888560295105 0.32929953932762146 -0.03494822978973389
0.7143270969390869 0.40789639949798584 0.056587353348731995
0.7183994650840759 0.3928810954093933 0.1050291657447815
0.5495908856391907 0.7057187557220459 -0.04467751085758209
0.5748127698898315 0.7046163082122803 -0.02334338054060936
0.5926327109336853 0.7037782073020935 0.002667458262294531
0.5740118622779846 0.634584367275238 -0.04967812821269035
0.6140899062156677 0.7075423002243042 0.055583227425813675
0.6024924516677856 0.7257832288742065 0.041142504662275314
0.6031034588813782 0.7097729444503784 0.05100660398602486
0.5739428997039795 0.6276105642318726 -0.08969664573669434
0.5783610939979553 0.7077640295028687 0.009694807231426239
0.5614903569221497 0.7108527421951294 -0.009875399060547352
0.540336012840271 0.7145280241966248 -0.026163509115576744
0.5449450016021729 0.8093377351760864 0.008975670672953129
0.5457175374031067 0.7847386002540588 -0.014405744150280952
0.5454789400100708 0.7704512476921082 -0.018735511228442192
0.543598473072052 0.7589081525802612 -0.014726275578141212
0.5404269099235535 0.7508032321929932 -0.011745626106858253
0.5796394944190979 0.734607458114624 0.021393908187747
0.5840464234352112 0.7369167804718018 0.01842629723250866
0.5893808603286743 0.7422912120819092 0.01755107380449772
0.5929549932479858 0.7498053312301636 0.02428174763917923
0.6175092458724976 0.6768698692321777 0.008219408802688122
0.7122271060943604 0.5914313197135925 0.2991682291030884
0.5899624824523926 0.7259664535522461 0.040694233030080795
0.5967544913291931 0.7249045372009277 0.03932710364460945
0.5540816783905029 0.650831937789917 -0.05719255656003952
0.5869256258010864 0.6370996832847595 -0.028973745182156563
0.557863175868988 0.6457647085189819 -0.05912018567323685
0.6054091453552246 0.5523356795310974 -0.003423729445785284
0.644259512424469 0.5648348927497864 0.010726300068199635
0.5976722240447998 0.6106765866279602 -0.03911248967051506
0.6833008527755737 0.2979752719402313 0.04148516431450844
0.6746222972869873 0.33603769540786743 0.007674236781895161
0.6652993559837341 0.38088542222976685 -0.01801689714193344
0.5987663269042969 0.7671597599983215 0.04457482323050499
0.5726736187934875 0.4003133773803711 -0.06979144364595413
0.5770938396453857 0.3284435570240021 -0.06306087225675583
0.5818964242935181 0.2649220824241638 -0.053566042333841324
0.6662864089012146 0.4908742308616638 0.040322139859199524
0.7103785276412964 0.5128167867660522 0.08710071444511414
0.5728905200958252 0.491361141204834 0.01042057853192091
0.6933003664016724 0.4512333869934082 0.05291472375392914
0.5672581195831299 0.52781081199646 -0.030343450605869293
0.5872345566749573 0.6109784245491028 -0.0890115424990654
0.7280596494674683 0.5290391445159912 0.12106271833181381
0.7005327343940735 0.5290541648864746 0.06498583406209946
0.6763272881507874 0.5388797521591187 0.038732971996068954
0.634941816329956 0.5390949249267578 0.01966233365237713
0.6024028062820435 0.5324633121490479 0.007753652986139059
0.5795652270317078 0.5234336256980896 -0.004867448005825281
0.5429627895355225 0.499013751745224 -0.06754852086305618
0.7316590547561646 0.5786038637161255 0.12000354379415512
0.7071018218994141 0.4483898878097534 0.06619075685739517
0.546850323677063 0.64421147108078 -0.11725588142871857
0.5833558440208435 0.5654380917549133 -0.026216626167297363
0.7218507528305054 0.4806150197982788 0.2672652006149292
0.5638145804405212 0.5121289491653442 -0.013276423327624798
0.5975527763366699 0.6104750037193298 -0.013435199856758118
0.6820024251937866 0.46650248765945435 0.060813408344984055
0.584886372089386 0.5939168334007263 -0.08079218119382858
0.7050762176513672 0.651118814945221 0.2940273880958557
0.5724447965621948 0.482171893119812 0.01650332286953926
0.5711855888366699 0.5825663805007935 -0.10826900601387024
0.666180431842804 0.7720683813095093 0.1507456749677658
0.6522046327590942 0.8009612560272217 0.19429709017276764
0.7325308322906494 0.587146520614624 0.21121513843536377
0.6922942399978638 0.7387968897819519 0.1786709427833557
0.7239030003547668 0.43476974964141846 0.15244123339653015
0.587611198425293 0.8635851740837097 0.06713037937879562
0.5404674410820007 0.6484411358833313 -0.0841459259390831
0.6028974652290344 0.5798624157905579 -0.012644981034100056
0.7208013534545898 0.4850328862667084 0.12238549441099167
0.6481273174285889 0.48333504796028137 0.027728505432605743
0.6278044581413269 0.487343430519104 0.019092975184321404
0.6072983145713806 0.7284397482872009 0.046651627868413925
0.7288094758987427 0.628638505935669 0.13303017616271973
0.5471750497817993 0.89876788854599 0.06793166697025299
0.6014120578765869 0.859876275062561 0.12655684351921082
0.6238198280334473 0.8349639773368835 0.1575792133808136
0.6074908971786499 0.48757022619247437 0.01446743868291378
0.5887234807014465 0.4852866232395172 0.014795644208788872
0.5774948596954346 0.48397061228752136 0.01735549233853817
0.7174876928329468 0.44242995977401733 0.09261290729045868
0.5920357704162598 0.4607445299625397 0.010080159641802311
0.611325204372406 0.4504666328430176 0.008725735358893871
0.6322234272956848 0.44634032249450684 0.012790719047188759
0.6532543301582336 0.4486042559146881 0.02246750518679619
0.6655257344245911 0.4551268219947815 0.032806139439344406
0.7255164384841919 0.422268271446228 0.21921193599700928
0.6612429022789001 0.477853000164032 0.037400517612695694
0.5975715517997742 0.6673504114151001 -0.016440868377685547
0.5822333097457886 0.6280967593193054 -0.06421216577291489
0.5555543899536133 0.6670987606048584 -0.04981973394751549
0.6368081569671631 0.806039571762085 0.12769819796085358
0.6117117404937744 0.8341621160507202 0.09939266741275787
0.5532286763191223 0.8851121664047241 0.037370406091213226
0.6732298135757446 0.7638112306594849 0.23796533048152924
0.578679084777832 0.47388750314712524 0.013467768207192421
0.5593926906585693 0.537036657333374 -0.06731917709112167
0.578011155128479 0.8820403814315796 0.09319518506526947
0.7253512144088745 0.6419378519058228 0.2122381627559662
0.562513530254364 0.7436238527297974 0.0038478400092571974
0.567000150680542 0.7491893172264099 0.0008205974008888006
0.5706527233123779 0.7583144903182983 -0.000310405099298805
0.5727146863937378 0.7709728479385376 0.005842988844960928
0.5762888193130493 0.7919965386390686 0.02646804228425026
0.5992133021354675 0.707624614238739 0.031181316822767258
0.6067842245101929 0.7042911052703857 0.03292937949299812
0.6134157180786133 0.7000455260276794 0.03281823545694351
0.632343590259552 0.6893740892410278 0.03651467710733414
0.7102962732315063 0.6422209739685059 0.0792107805609703
0.5545387268066406 0.5121192336082458 -0.04706946760416031
0.5589552521705627 0.4670233726501465 -0.00826134905219078
0.5704028606414795 0.4689810276031494 0.005628402344882488
0.5920854806900024 0.7057194709777832 0.032665811479091644
0.7003976106643677 0.7019997835159302 0.12623906135559082
0.545146107673645 0.46725761890411377 -0.04491310194134712
0.582710862159729 0.8143764138221741 0.039997950196266174
0.5466527342796326 0.5256415605545044 -0.08920462429523468
0.5753662586212158 0.5730720162391663 -0.06140056625008583
0.5494887232780457 0.8345390558242798 0.017034659162163734
0.6279433369636536 0.7523584961891174 0.07379632443189621
0.6146877408027649 0.6284487843513489 -7.519273640355095e-05
0.6063770651817322 0.7865905165672302 0.0600602813065052
0.6690691113471985 0.6239534020423889 0.01917257532477379
0.6363825798034668 0.650754451751709 0.01631268672645092
0.6837714910507202 0.6604393124580383 0.05065641552209854
0.5546135902404785 0.8631388545036316 0.02283352240920067
0.5854377150535583 0.5839971303939819 -0.04013567417860031
0.6390925049781799 0.7754594087600708 0.09820732474327087
0.6123397350311279 0.8084259629249573 0.07864293456077576
0.6499580144882202 0.7169464230537415 0.07296789437532425
0.7186605930328369 0.6717264652252197 0.14614203572273254
0.6725143790245056 0.7267069220542908 0.09765561670064926
0.7124086022377014 0.6927953958511353 0.20751787722110748
0.6522507667541504 0.6751084923744202 0.039339181035757065
0.5705069899559021 0.5512773394584656 -0.04521706700325012
0.5814185738563538 0.6230690479278564 -0.09436661005020142
0.591028094291687 0.6249878406524658 -0.06526701152324677
0.5751322507858276 0.6082388162612915 -0.11467207968235016
0.5767558813095093 0.4477042257785797 -0.014381215907633305
0.6134494543075562 0.43150967359542847 -0.014103828929364681
0.6463274955749512 0.42508357763290405 -0.006203056778758764
0.6724474430084229 0.4256726801395416 0.009565846994519234
0.688730776309967 0.43365365266799927 0.028308069333434105
0.692989706993103 0.4737359881401062 0.07291625440120697
0.7333909273147583 0.5352561473846436 0.20123571157455444
0.6807554960250854 0.5067813396453857 0.054694563150405884
0.6590272784233093 0.515941321849823 0.03662315011024475
0.6297659873962402 0.5186650156974792 0.02170890010893345
0.601327657699585 0.5156858563423157 0.012120896950364113
0.5800782442092896 0.5093590617179871 0.005325253587216139
0.5663193464279175 0.5024337768554688 0.00027776669594459236
0.7160422801971436 0.5356450080871582 0.2920731008052826
0.5882165431976318 0.6292306184768677 -0.05274771526455879
0.5642509460449219 0.5592930316925049 -0.0843299999833107
0.5699718594551086 0.6267816424369812 -0.11592354625463486
0.5548761487007141 0.6387354135513306 -0.10670851916074753
0.5673901438713074 0.6301029920578003 -0.10358136892318726
0.581570029258728 0.6356446146965027 -0.04466238245368004
0.5525704026222229 0.641829788684845 -0.11349546909332275
0.5464978218078613 0.6457624435424805 -0.08391807973384857
0.5657219886779785 0.4845443367958069 0.009942199103534222
0.5557765960693359 0.4905187487602234 -0.007404020521789789
0.5523170828819275 0.49497073888778687 -0.025598620995879173
0.6720311641693115 0.46030521392822266 0.04245984926819801
0.6830655336380005 0.45319241285324097 0.04435982182621956
