ply
format ascii 1.0
element vertex 468
property float x
property float y
property float z
end_header
0.441567599773407 0.7122589349746704 -0.05152317136526108
0.40054768323898315 0.6304008960723877 -0.11113971471786499
0.43766969442367554 0.6525822877883911 -0.05619010329246521
0.4111718237400055 0.5478890538215637 -0.07631691545248032
0.3984377980232239 0.6059399247169495 -0.11954779922962189
0.4100492596626282 0.5734923481941223 -0.1132473349571228
0.45092567801475525 0.49209463596343994 -0.06502531468868256
0.37662091851234436 0.4679742455482483 0.11149688065052032
0.4636136591434479 0.43801337480545044 -0.05467063561081886
0.4624749720096588 0.40810662508010864 -0.06054659187793732
0.4825174808502197 0.2910057008266449 -0.04518789052963257
0.4441540837287903 0.7244037389755249 -0.04747282713651657
0.4498453140258789 0.7334319949150085 -0.04014227166771889
0.45672404766082764 0.7367933988571167 -0.03042156994342804
0.45663660764694214 0.7506515979766846 -0.02317868173122406
0.4537019431591034 0.7617801427841187 -0.02617153339087963
0.453052282333374 0.7752976417541504 -0.02956077642738819
0.4556054472923279 0.789238452911377 -0.025200340896844864
0.46724772453308105 0.8086603879928589 -0.004361849278211594
0.4104066491127014 0.6424344778060913 -0.10003051161766052
0.40650248527526855 0.6377511024475098 -0.06172385811805725
0.37562820315361023 0.3841709792613983 0.24805985391139984
0.42346465587615967 0.4898011088371277 0.05939309671521187
0.4061167240142822 0.4909597933292389 0.0721886157989502
0.3900711238384247 0.4900458753108978 0.08850729465484619
0.3766404986381531 0.4758163094520569 0.11951082199811935
0.43576735258102417 0.48483750224113464 0.04739106819033623
0.39096391201019287 0.4368646442890167 0.062199629843235016
0.41067492961883545 0.43894416093826294 0.04691759869456291
0.3759589195251465 0.43903011083602905 0.08030322194099426
0.3690875470638275 0.44541382789611816 0.09643632173538208
0.3676436245441437 0.49212440848350525 0.13745209574699402
0.4171641170978546 0.8255577683448792 0.06748619675636292
0.37363189458847046 0.46279677748680115 0.12132196873426437
0.37573862075805664 0.4765413999557495 0.2675356864929199
0.36421504616737366 0.47599053382873535 0.16939371824264526
0.382842481136322 0.5931675434112549 0.046872977167367935
0.42042431235313416 0.7062567472457886 -0.03370263800024986
0.4345623254776001 0.7313970923423767 -0.02274557389318943
0.4073079824447632 0.7090732455253601 -0.004259746056050062
0.4061164855957031 0.7171187400817871 0.02468501403927803
0.42533132433891296 0.7298920750617981 -0.00038437912007793784
0.42169612646102905 0.7311042547225952 0.024379201233386993
0.4065995514392853 0.7501103281974792 0.07538314163684845
0.38664358854293823 0.6276942491531372 -0.10120879113674164
0.38363516330718994 0.6045438051223755 -0.10748624056577682
0.35095977783203125 0.42827242612838745 0.11462726444005966
0.41922110319137573 0.5352487564086914 0.017195673659443855
0.37946194410324097 0.6117843985557556 -0.02137390896677971
0.3855792284011841 0.598260760307312 -0.014398053288459778
0.35229048132896423 0.5834876298904419 0.11104869097471237
0.3955004811286926 0.5741186141967773 -0.09461662918329239
0.3669334650039673 0.4094228744506836 0.04301478713750839
0.353208065032959 0.41493797302246094 0.07845469564199448
0.37085509300231934 0.3477577567100525 0.19009307026863098
0.4308950901031494 0.43025654554367065 -0.02364027313888073
0.4287715256214142 0.4454076886177063 0.0428529754281044
0.3950839340686798 0.7259755730628967 0.08959513902664185
0.41508597135543823 0.6852630376815796 0.32701751589775085
0.3933190107345581 0.6265296936035156 -0.02126719057559967
0.40698450803756714 0.637443482875824 -0.03784303367137909
0.4119575619697571 0.7338584661483765 0.07811566442251205
0.42100071907043457 0.7334726452827454 0.06547479331493378
0.3510093688964844 0.40056508779525757 0.09438842535018921
0.3867671489715576 0.6214509010314941 -0.009578239172697067
0.39160579442977905 0.41265588998794556 0.008740855380892754
0.3867040276527405 0.39484792947769165 0.004577722400426865
0.3957827091217041 0.3009131848812103 0.05451719090342522
0.35967281460762024 0.3735949397087097 0.13613417744636536
0.39009737968444824 0.34644508361816406 0.027795691043138504
0.35058239102363586 0.41803890466690063 0.1398373693227768
0.3612958788871765 0.4026942253112793 0.19085441529750824
0.4258801341056824 0.720949113368988 -0.030129382386803627
0.4157654345035553 0.7216151356697083 -0.003017131006345153
0.41276758909225464 0.7244600057601929 0.022708535194396973
0.4000184237957001 0.6317148208618164 -0.023202018812298775
0.4163058400154114 0.7342699766159058 0.07046942412853241
0.41698798537254333 0.740880012512207 0.05057745426893234
0.42442870140075684 0.7317594885826111 0.06314726918935776
0.38608890771865845 0.6218352317810059 -0.054199445992708206
0.43071624636650085 0.7301400303840637 0.02609069086611271
0.4349512457847595 0.7315031886100769 0.006759949494153261
0.4436436593532562 0.7344760894775391 -0.013086359947919846
0.4443594813346863 0.8029168844223022 0.010826623067259789
0.4342624545097351 0.7829660177230835 -0.008367705158889294
0.4336889386177063 0.7690086364746094 -0.01156724151223898
0.4366469383239746 0.7561290264129639 -0.007791005540639162
0.44132694602012634 0.7474178075790405 -0.005692541133612394
0.4281589090824127 0.7402597665786743 0.030643757432699203
0.4236528277397156 0.7433071136474609 0.02763817273080349
0.41831305623054504 0.7486656904220581 0.02701757475733757
0.4151075482368469 0.7553073763847351 0.03430037945508957
0.39030295610427856 0.6859871745109558 0.03558090701699257
0.4137038588523865 0.5709099769592285 0.3629099428653717
0.42340028285980225 0.6467668414115906 -0.07207504659891129
0.4271514415740967 0.7373723983764648 0.04951721802353859
0.4217017590999603 0.738676130771637 0.04831693321466446
0.41455066204071045 0.6494465470314026 -0.037236329168081284
0.3984317481517792 0.6370507478713989 -0.000592029420658946
0.4104165732860565 0.643832802772522 -0.03865586221218109
0.4063621759414673 0.5466977953910828 0.03889092057943344
0.38134321570396423 0.5607662796974182 0.06375785917043686
0.38929852843284607 0.6078908443450928 -0.0005342039512470365
0.3759097158908844 0.3192574381828308 0.12273315340280533
0.3687766492366791 0.35382556915283203 0.08307308703660965
0.36286595463752747 0.39149731397628784 0.05070122703909874
0.41513174772262573 0.7680048942565918 0.05656754598021507
0.42156821489334106 0.4021371006965637 -0.031037067994475365
0.42319390177726746 0.34618210792541504 -0.01673227734863758
0.42941048741340637 0.2923695743083954 -0.00292700226418674
0.3801755905151367 0.4847065508365631 0.10637756437063217
0.3582933843135834 0.5073977708816528 0.16188949346542358
0.44237202405929565 0.47969862818717957 0.04467910900712013
0.36302870512008667 0.4517403841018677 0.12654368579387665
0.4270473122596741 0.522442638874054 0.0004733602690976113
0.37783282995224 0.6059999465942383 -0.04983654245734215
0.3532910645008087 0.5207467079162598 0.20139442384243011
0.35603711009025574 0.5250638723373413 0.1375201940536499
0.3652389645576477 0.5358412265777588 0.10300128906965256
0.3921928405761719 0.5339998006820679 0.07114212214946747
0.4143972396850586 0.5250257849693298 0.049278028309345245
0.42856088280677795 0.5157742500305176 0.029072076082229614
0.43751221895217896 0.49618402123451233 -0.04302455857396126
0.34568166732788086 0.5678857564926147 0.19901199638843536
0.35765448212623596 0.4488565921783447 0.14533254504203796
0.4013173580169678 0.6405308842658997 -0.09249657392501831
0.4108632802963257 0.5603689551353455 0.009722569957375526
0.4044167399406433 0.4727228879928589 0.34319645166397095
0.4376435875892639 0.5057218074798584 0.015911012887954712
0.39758044481277466 0.6080843210220337 0.02127448096871376
0.3725029230117798 0.46343278884887695 0.1295035481452942
0.38595595955848694 0.5893820524215698 -0.04226817190647125
0.41257548332214355 0.6252155900001526 0.3513667583465576
0.4436070919036865 0.47125279903411865 0.05120706185698509
0.3891802430152893 0.5796396136283875 -0.07168447971343994
0.390036404132843 0.7529869079589844 0.19223114848136902
0.41083061695098877 0.7780227661132812 0.23061954975128174
0.3700365126132965 0.5702779293060303 0.28556394577026367
0.384721577167511 0.7157343626022339 0.2313619703054428
0.3688315153121948 0.43590492010116577 0.23600786924362183
0.41645145416259766 0.8501439690589905 0.08417472243309021
0.41547560691833496 0.6449037790298462 -0.06661603599786758
0.40140360593795776 0.5758647322654724 0.02790619060397148
0.36423176527023315 0.4787534773349762 0.20261546969413757
0.389320433139801 0.47544121742248535 0.08863073587417603
0.4047560691833496 0.47765710949897766 0.0745287761092186
0.4136257767677307 0.7438788414001465 0.05769746005535126
0.35138756036758423 0.613601565361023 0.20554308593273163
0.4468024969100952 0.8934245109558105 0.07108694314956665
0.41832390427589417 0.8450422286987305 0.14640220999717712
0.41420117020606995 0.816264808177948 0.184885635972023
0.4701494574546814 0.34851670265197754 -0.0537814162671566
0.4867120087146759 0.9076684713363647 0.039923351258039474
0.42050477862358093 0.476825475692749 0.06258935481309891
0.4333842098712921 0.47350695729255676 0.05626746639609337
0.44058287143707275 0.4720636308193207 0.0545295812189579
0.3587380051612854 0.4439195692539215 0.1750590056180954
0.43101730942726135 0.4595654010772705 0.05393324792385101
0.4165695905685425 0.4550667405128479 0.05802813544869423
0.3991847038269043 0.45302486419677734 0.06907353550195694
0.38415807485580444 0.4546028971672058 0.08415304124355316
0.3769834637641907 0.45850977301597595 0.09732864797115326
0.38650020956993103 0.42290639877319336 0.3018238842487335
0.38104885816574097 0.47169584035873413 0.1016431376338005
0.44164323806762695 0.6715747117996216 -0.04958619177341461
0.3948460519313812 0.67276531457901 0.010288185440003872
0.3879377841949463 0.623296856880188 -0.032029926776885986
0.4168630838394165 0.6708874106407166 -0.03190818056464195
0.4637855887413025 0.46343743801116943 -0.051555607467889786
0.39832228422164917 0.789232075214386 0.15667980909347534
0.407636821269989 0.8195399045944214 0.12140373140573502
0.4357343912124634 0.8749800324440002 0.044177550822496414
0.4137229323387146 0.7370729446411133 0.28243690729141235
0.4389006495475769 0.46634918451309204 0.052280500531196594
0.4180063307285309 0.5336960554122925 -0.037775490432977676
0.4741950035095215 0.8886308670043945 0.014447398483753204
0.42680835723876953 0.8719245195388794 0.10741361975669861
0.3740676939487457 0.6201545596122742 0.2805462181568146
0.4321718215942383 0.7435762882232666 0.012838836759328842
0.4273674488067627 0.7497448325157166 0.010593936778604984
0.42302897572517395 0.7589689493179321 0.009420089423656464
0.4209774434566498 0.7706930041313171 0.014853712171316147
0.4262966513633728 0.7869035601615906 0.03446146100759506
0.4214286208152771 0.7316544651985168 0.04729628562927246
0.4140351712703705 0.7290862798690796 0.0510639026761055
0.4081011414527893 0.7243634462356567 0.05406470596790314
0.3898158669471741 0.7044243216514587 0.0657530352473259
0.3535555303096771 0.6306606531143188 0.14605076611042023
0.4327431321144104 0.5080663561820984 -0.020159222185611725
0.44851192831993103 0.45984214544296265 0.01948903128504753
0.4436330199241638 0.4597706198692322 0.03949585184454918
0.4285362958908081 0.7289196252822876 0.047499675303697586
0.36882832646369934 0.6855677366256714 0.18384337425231934
0.4485819935798645 0.46370020508766174 -0.020031461492180824
0.4246636629104614 0.8038904666900635 0.05126892402768135
0.42422664165496826 0.5459727048873901 -0.09645358473062515
0.4230418801307678 0.5234057903289795 -0.06356945633888245
0.43730178475379944 0.5200523734092712 -0.07987677305936813
0.40348732471466064 0.5688608884811401 -0.02782716415822506
0.4687381386756897 0.8617293834686279 0.0010470655979588628
0.4686986804008484 0.8317793011665344 -0.0012204876402392983
0.4425128102302551 0.8235440850257874 0.021145720034837723
0.3959636986255646 0.7527148127555847 0.09684848040342331
0.38896846771240234 0.6266945600509644 0.037784166634082794
0.4100603759288788 0.7805191278457642 0.07608146220445633
0.3638352155685425 0.6183404922485352 0.07493279874324799
0.3795909881591797 0.6501400470733643 0.05579845979809761
0.3618524372577667 0.6539829969406128 0.10669223219156265
0.43539655208587646 0.8501010537147522 0.03034507855772972
0.4020615220069885 0.579521119594574 -0.004367605783045292
0.3906039297580719 0.7652851343154907 0.12751658260822296
0.40608611702919006 0.7966002225875854 0.09942756593227386
0.3829057216644287 0.7217098474502563 0.10999526083469391
0.361336886882782 0.6532557010650635 0.21147288382053375
0.3755786716938019 0.7177829742431641 0.14268846809864044
0.37998828291893005 0.6681349277496338 0.2692807912826538
0.3770695626735687 0.6806420087814331 0.0800316110253334
0.41504764556884766 0.5467620491981506 -0.012645583599805832
0.37965524196624756 0.6172847747802734 -0.05661294236779213
0.38195738196372986 0.620387613773346 -0.02908853255212307
0.3776535987854004 0.6040610074996948 -0.07808130234479904
0.43299686908721924 0.4409791827201843 0.02281702309846878
0.4033764600753784 0.4292730391025543 0.03444278612732887
0.3797576129436493 0.4267381429672241 0.052626848220825195
0.3639896810054779 0.4298586845397949 0.0769573301076889
0.3588155508041382 0.4380820095539093 0.10109692066907883
0.3689042627811432 0.47011202573776245 0.14415039122104645
0.3713747262954712 0.5224995017051697 0.2814382016658783
0.3698923885822296 0.502403199672699 0.12159576267004013
0.3801131844520569 0.5105733871459961 0.09687382727861404
0.4001963138580322 0.5108304619789124 0.07368213683366776
0.42079707980155945 0.5059113502502441 0.05562944337725639
0.4348013699054718 0.4994308352470398 0.03952151536941528
0.4433138370513916 0.49363264441490173 0.030025769025087357
0.4141427278518677 0.521412193775177 0.3615243136882782
0.38885241746902466 0.6262847185134888 -0.01901676505804062
0.4048232436180115 0.5563037395477295 -0.051609016954898834
0.38003072142601013 0.6217691898345947 -0.08261583000421524
0.39783012866973877 0.6345734596252441 -0.08088520914316177
0.38701486587524414 0.624932050704956 -0.07203946262598038
0.3978201448917389 0.6342931389808655 -0.016297291964292526
0.3976265788078308 0.6379703283309937 -0.08791141957044601
0.4098266363143921 0.6424422860145569 -0.06422896683216095
0.44716960191726685 0.4734475016593933 0.04052118957042694
0.45045536756515503 0.48268043994903564 0.018479913473129272
0.44583621621131897 0.48943373560905457 -0.0010593815241008997
0.3742193579673767 0.4613892138004303 0.10820788890123367
0.3678157925605774 0.4525418281555176 0.1145763248205185
0.444783091545105 0.5507674217224121 -0.10114395618438721
0.6556582450866699 0.49017035961151123 -0.07209435105323792
0.44878387451171875 0.6426366567611694 -0.08080229163169861
0.8256900906562805 0.39605987071990967 -0.03340546786785126
0.5797014236450195 0.5020925998687744 -0.05839240550994873
0.6028078198432922 0.5062147378921509 -0.06930366903543472
0.6288955807685852 0.5084201693534851 -0.07542175054550171
0.6717606782913208 0.49865904450416565 -0.07442384958267212
0.5612602233886719 0.4948364496231079 -0.045177996158599854
0.6138197183609009 0.44847390055656433 -0.08595301955938339
0.5878183245658875 0.4469791054725647 -0.06952308863401413
0.6399518251419067 0.45417720079421997 -0.0911918506026268
0.6598364114761353 0.46321913599967957 -0.08910077065229416
0.6961890459060669 0.5159121751785278 -0.07131185382604599
0.5688645839691162 0.8516489267349243 -0.017780670896172523
0.6700019836425781 0.4855325222015381 -0.07053987681865692
0.8281782865524292 0.5038564205169678 -0.019149426370859146
0.7377715110778809 0.5016660690307617 -0.06492145359516144
0.5831209421157837 0.6098229885101318 -0.07148739695549011
0.4723748564720154 0.7112188339233398 -0.06399471312761307
0.4771343469619751 0.7359102964401245 -0.050815556198358536
0.512505054473877 0.7203543186187744 -0.0667835995554924
0.543222963809967 0.7300666570663452 -0.06177988648414612
0.5065144300460815 0.7383221387863159 -0.055196747183799744
0.5322155356407166 0.7408174276351929 -0.048939548432826996
0.5943888425827026 0.7695896625518799 -0.0367761105298996
0.42130202054977417 0.6313374638557434 -0.11742392927408218
0.42272883653640747 0.6081334948539734 -0.12667758762836456
0.6994034051895142 0.4482426047325134 -0.10605289041996002
0.5386171936988831 0.5448358058929443 -0.05951853469014168
0.5121315717697144 0.6244127750396729 -0.0930710956454277
0.5196482539176941 0.6101600527763367 -0.08812756836414337
0.6696493029594421 0.6102880835533142 -0.086574487388134
0.432250440120697 0.5772545337677002 -0.11889010667800903
0.618111252784729 0.4211100935935974 -0.11049267649650574
0.6618831753730774 0.4310699999332428 -0.1139369085431099
0.7738710045814514 0.3543700575828552 -0.06287408620119095
0.5090435743331909 0.4338591992855072 -0.07395701110363007
0.5669960379600525 0.4514947235584259 -0.05125995725393295
0.6123245358467102 0.7470383048057556 -0.04549562931060791
0.8392296433448792 0.7368083596229553 0.06571317464113235
0.4970405101776123 0.6374544501304626 -0.07527517527341843
0.47723013162612915 0.6443514823913574 -0.06452138721942902
0.5860033631324768 0.7475475072860718 -0.03849697485566139
0.5752227306365967 0.7455763220787048 -0.037139661610126495
0.6817496418952942 0.41643714904785156 -0.11070264130830765
0.5215385556221008 0.6336289644241333 -0.07996079325675964
0.5668163895606995 0.42006877064704895 -0.09690696746110916
0.5704659223556519 0.40145444869995117 -0.10404711216688156
0.6267110109329224 0.3013204038143158 -0.09079689532518387
0.724375307559967 0.3850880265235901 -0.09021679311990738
0.5930261611938477 0.35025960206985474 -0.09742309153079987
0.7256960272789001 0.43743300437927246 -0.09643557667732239
0.7731564044952393 0.4186478853225708 -0.06544500589370728
0.47388893365859985 0.7262247204780579 -0.06027849763631821
0.5076600313186646 0.7315917611122131 -0.0617898590862751
0.536342978477478 0.7361240983009338 -0.05664048343896866
0.4937705993652344 0.6414888501167297 -0.06652259081602097
0.5797345638275146 0.7469372749328613 -0.03761805221438408
0.5642014741897583 0.7534792423248291 -0.04050799459218979
0.5740805864334106 0.7439849972724915 -0.03668880835175514
0.4678894579410553 0.6318204998970032 -0.10300572216510773
0.5327742099761963 0.7382298707962036 -0.043646350502967834
0.5079653859138489 0.7383023500442505 -0.0447581522166729
0.4818595051765442 0.7379629611968994 -0.04162931069731712
0.5001313090324402 0.8105435967445374 -0.01775975711643696
0.4876592755317688 0.7898244261741638 -0.0394289456307888
0.4830548167228699 0.7755072116851807 -0.04346270114183426
0.4817209839820862 0.7614794373512268 -0.03921808674931526
0.48257696628570557 0.75229412317276 -0.03547506779432297
0.5358728170394897 0.7500895261764526 -0.039464399218559265
0.5382051467895508 0.7538519501686096 -0.04231151565909386
0.5431841611862183 0.7609866857528687 -0.04513777792453766
0.5494520664215088 0.769338071346283 -0.043734192848205566
0.5624611973762512 0.7021897435188293 -0.06388337165117264
0.8761445879936218 0.6098507046699524 0.0701557919383049
0.554476797580719 0.7482843399047852 -0.037412192672491074
0.557902455329895 0.7502745389938354 -0.039428599178791046
0.46924060583114624 0.6549359560012817 -0.06339110434055328
0.5198955535888672 0.6476367712020874 -0.05661074072122574
0.4726670980453491 0.649814784526825 -0.06438014656305313
0.5648744106292725 0.5590289831161499 -0.06422420591115952
0.6036230325698853 0.5779144763946533 -0.07680914551019669
0.5302544832229614 0.6200804710388184 -0.07676038891077042
0.7086137533187866 0.3217931091785431 -0.08388257026672363
0.6658218502998352 0.3614253103733063 -0.0994337722659111
0.6293797492980957 0.4029337167739868 -0.11184000968933105
0.5680079460144043 0.7866522669792175 -0.03535691648721695
0.513006329536438 0.4041527509689331 -0.08612173795700073
0.5307714939117432 0.34770825505256653 -0.08177856355905533
0.5540497303009033 0.2921566069126129 -0.07607129961252213
0.6548712849617004 0.5062094330787659 -0.07652018219232559
0.7287778258323669 0.5341402292251587 -0.06984454393386841
0.5494246482849121 0.4882669448852539 -0.03773745894432068
0.6949309706687927 0.4740435481071472 -0.08610013872385025
0.5185210704803467 0.5297431945800781 -0.06111945956945419
0.48395565152168274 0.6171025633811951 -0.10762831568717957
0.7706021070480347 0.5516061782836914 -0.06121920049190521
0.698837399482727 0.550195038318634 -0.07976122945547104
0.6559107899665833 0.557013213634491 -0.0816500335931778
0.604681670665741 0.5497178435325623 -0.06980506330728531
0.5712213516235352 0.5370324850082397 -0.05732988938689232
0.5466520190238953 0.5252605676651001 -0.05074070021510124
0.47480952739715576 0.49888738989830017 -0.06946170330047607
0.7615967988967896 0.6031000018119812 -0.06239932030439377
0.7228894829750061 0.47200143337249756 -0.08716773986816406
0.42340973019599915 0.6428965330123901 -0.10513192415237427
0.5293368697166443 0.5700269937515259 -0.06422263383865356
0.8782112002372742 0.4977102279663086 0.04094928875565529
0.5261112451553345 0.5128999948501587 -0.04638218879699707
0.5416840314865112 0.6202089190483093 -0.054594822227954865
0.682950496673584 0.4860961437225342 -0.07205789536237717
0.4933518171310425 0.5993678569793701 -0.10103308409452438
0.8663799166679382 0.6710970997810364 0.07168684154748917
0.5539597272872925 0.48068171739578247 -0.03510589897632599
0.4614085555076599 0.586208164691925 -0.11492113023996353
0.7212026715278625 0.8024188876152039 -0.001838353113271296
0.7450132369995117 0.8310961127281189 0.03319302201271057
0.8281584978103638 0.6094371676445007 0.0002155340916942805
0.7662109136581421 0.7672776579856873 0.0027945777401328087
0.8045676350593567 0.45632731914520264 -0.03805723413825035
0.5815125703811646 0.8804746866226196 -0.007553090341389179
0.4332561790943146 0.6463471055030823 -0.07454849034547806
0.5544207096099854 0.5880362391471863 -0.0635751336812973
0.7722628116607666 0.5062265396118164 -0.055786941200494766
0.6227510571479797 0.4940185248851776 -0.0724807158112526
0.6003059148788452 0.49305617809295654 -0.06784666329622269
0.5723084807395935 0.7577338218688965 -0.040122367441654205
0.7621868848800659 0.6536175012588501 -0.046077433973550797
0.5393450856208801 0.9113459587097168 0.019672591239213943
0.63950514793396 0.8858171701431274 0.019351061433553696
0.6879859566688538 0.864195704460144 0.0248840544372797
0.5825865864753723 0.4894617199897766 -0.058476999402046204
0.5671926140785217 0.48406562209129333 -0.04781341180205345
0.5577622652053833 0.4815964102745056 -0.0387616828083992
0.7545293569564819 0.46681636571884155 -0.07534443587064743
0.5736587047576904 0.4705297648906708 -0.05318491905927658
0.5939337015151978 0.46804511547088623 -0.06626550853252411
0.6137996315956116 0.46983519196510315 -0.07551459223031998
0.6353225708007812 0.4745234251022339 -0.08052407205104828
0.6504030823707581 0.4797672927379608 -0.07906931638717651
0.8589084148406982 0.44049257040023804 0.006011062767356634
0.6406850218772888 0.49275460839271545 -0.07359132915735245
0.5332746505737305 0.685688853263855 -0.06534354388713837
0.49241524934768677 0.6346290707588196 -0.08232353627681732
0.4749130606651306 0.6768481731414795 -0.06300041079521179
0.6755976676940918 0.8345205783843994 -0.00017605807806830853
0.6312131285667419 0.8592246770858765 -0.0019211916951462626
0.5271164774894714 0.8921451568603516 -0.006002699490636587
0.7950153350830078 0.7911100387573242 0.04896020144224167
0.5597453117370605 0.47658681869506836 -0.043098561465740204
0.4829774498939514 0.5391446352005005 -0.0792321190237999
0.5892110466957092 0.9026157855987549 0.013333727605640888
0.8222339153289795 0.6653328537940979 0.00797222275286913
0.5094436407089233 0.7516441345214844 -0.039493683725595474
0.5114427208900452 0.7586582899093628 -0.04361743852496147
0.5148267149925232 0.7692714929580688 -0.04738231748342514
0.5196797847747803 0.782189667224884 -0.04503510519862175
0.5370932817459106 0.801450252532959 -0.03239350765943527
0.5580122470855713 0.7427147626876831 -0.04448544979095459
0.5634675621986389 0.7412788271903992 -0.04895223304629326
0.57060706615448 0.7378168106079102 -0.05222802609205246
0.5908845663070679 0.7229177951812744 -0.058459196239709854
0.7046765685081482 0.6658907532691956 -0.06764420866966248
0.49621105194091797 0.5130085349082947 -0.0636642575263977
0.5275698900222778 0.46543794870376587 -0.03542836755514145
0.5470852255821228 0.4666236937046051 -0.03911592438817024
0.5557332038879395 0.7388918399810791 -0.040218889713287354
0.7289966344833374 0.7289627194404602 -0.03217310458421707
0.4971795380115509 0.46676379442214966 -0.05244062840938568
0.554771900177002 0.8246508240699768 -0.022899240255355835
0.459797203540802 0.5261945724487305 -0.08599749952554703
0.4980810284614563 0.5771045088768005 -0.08182588964700699
0.5089597702026367 0.8346754908561707 -0.01469140313565731
0.6226677894592285 0.7818491458892822 -0.03257133811712265
0.5650247931480408 0.6415628790855408 -0.058722060173749924
0.5935190916061401 0.807044267654419 -0.026434248313307762
0.6247888803482056 0.6423652172088623 -0.07836195081472397
0.589616060256958 0.6695830225944519 -0.06480560451745987
0.6574450135231018 0.6845037937164307 -0.06828803569078445
0.5169692635536194 0.8644614219665527 -0.017064293846488
0.5218716859817505 0.5895786881446838 -0.07214551419019699
0.6533410549163818 0.8040275573730469 -0.021237537264823914
0.6134859919548035 0.830452561378479 -0.01464128028601408
0.6406469345092773 0.7512381076812744 -0.046792998909950256
0.7627017498016357 0.6977591514587402 -0.02961602248251438
0.6846175193786621 0.7575913667678833 -0.038651950657367706
0.8059208393096924 0.7183955311775208 0.010147036984562874
0.6175927519798279 0.7040622234344482 -0.06371258944272995
0.506367564201355 0.5544382333755493 -0.07118422538042068
0.47365161776542664 0.6284586191177368 -0.10949312895536423
0.5027317404747009 0.6328936815261841 -0.08970598876476288
0.4527736306190491 0.6121881008148193 -0.1211988553404808
0.5420169234275818 0.4476040005683899 -0.05352357402443886
0.577980637550354 0.4386425018310547 -0.0777619332075119
0.6120761632919312 0.4388103485107422 -0.09431424736976624
0.6455051302909851 0.44479596614837646 -0.1015898659825325
0.6740103960037231 0.45647263526916504 -0.09873025119304657
0.7060436010360718 0.4941718280315399 -0.07078592479228973
0.830838680267334 0.5562751889228821 -0.011582273989915848
0.6754438877105713 0.5248972773551941 -0.07406904548406601
0.6429335474967957 0.5296043753623962 -0.07395636290311813
0.6067646145820618 0.526142954826355 -0.06685423851013184
0.5765171051025391 0.517924427986145 -0.05433173477649689
0.5544486045837402 0.5089665055274963 -0.043467771261930466
0.538215160369873 0.5014012455940247 -0.03717710077762604
0.8799605369567871 0.5530267953872681 0.06066303327679634
0.5087234973907471 0.637932300567627 -0.07828617095947266
0.47028693556785583 0.5619717836380005 -0.0941680520772934
0.44535452127456665 0.629767119884491 -0.11639469116926193
0.4420718252658844 0.640428364276886 -0.10021103918552399
0.45295485854148865 0.6335361003875732 -0.1064143255352974
0.5067422389984131 0.6444384455680847 -0.06599006056785583
0.43329429626464844 0.6420679092407227 -0.10382761061191559
0.4423028826713562 0.6460260152816772 -0.07757861912250519
0.5422245264053345 0.4811822772026062 -0.030659547075629234
0.5250253677368164 0.4885643422603607 -0.03384709730744362
0.5106673836708069 0.49448493123054504 -0.04519696161150932
0.6603866815567017 0.48335886001586914 -0.0760902613401413
0.677139163017273 0.473270982503891 -0.08231908828020096
