ply
format ascii 1.0
element vertex 468
property float x
property float y
property float z
end_header
0.507759153842926 0.7260827422142029 -0.0396239198744297
0.5156311988830566 0.6599392294883728 -0.11896885931491852
0.5095730423927307 0.6766784191131592 -0.05161536484956741
0.49358469247817993 0.5699090361595154 -0.10959150642156601
0.5167414546012878 0.6350266337394714 -0.13200779259204865
0.5160588026046753 0.5986402630805969 -0.1301567107439041
0.5120589137077332 0.5032854080200195 -0.08909942209720612
0.3263680338859558 0.47320473194122314 -0.019639210775494576
0.5120005011558533 0.4171382188796997 -0.0885326936841011
0.5134271383285522 0.3772677183151245 -0.10326368361711502
0.515951931476593 0.240212082862854 -0.11773739755153656
0.5068507790565491 0.7374179363250732 -0.033983729779720306
0.5054381489753723 0.7453740239143372 -0.024489926174283028
0.504104495048523 0.7477737069129944 -0.012948074378073215
0.5042694807052612 0.7635775804519653 -0.003063858486711979
0.5042708516120911 0.7764850854873657 -0.0039028774481266737
0.5038532614707947 0.7909802198410034 -0.003970500081777573
0.5026739835739136 0.8044635057449341 0.005238515790551901
0.49950459599494934 0.8152527213096619 0.03553849458694458
0.5138056874275208 0.6703440546989441 -0.10439835488796234
0.49127396941185 0.6648646593093872 -0.07353810220956802
0.22535642981529236 0.338814914226532 0.05342875421047211
0.4016450047492981 0.503399133682251 -0.035083137452602386
0.3759952187538147 0.5043440461158752 -0.034182753413915634
0.35110509395599365 0.5009109377861023 -0.02896910160779953
0.3167860507965088 0.47934696078300476 -0.013429785147309303
0.42268702387809753 0.49769681692123413 -0.0301926638931036
0.3653961718082428 0.42136886715888977 -0.057017453014850616
0.39422786235809326 0.4262523353099823 -0.05555058270692825
0.338598370552063 0.4245927631855011 -0.04871959239244461
0.32090404629707336 0.43439602851867676 -0.038958869874477386
0.2959156930446625 0.4941013753414154 0.0015754862688481808
0.41367191076278687 0.8306689262390137 0.066294364631176
0.3162345886230469 0.4631316661834717 -0.013079277239739895
0.21707138419151306 0.4575156569480896 0.09483145922422409
0.2672026753425598 0.46767374873161316 0.01864415965974331
0.3821072578430176 0.6136046648025513 -0.026749389246106148
0.4774097204208374 0.7214862108230591 -0.04021451622247696
0.47803035378456116 0.7439191341400146 -0.023941563442349434
0.44480830430984497 0.725415825843811 -0.02731476165354252
0.42313554883003235 0.7290927171707153 -0.00917463842779398
0.45483365654945374 0.742751955986023 -0.016793711110949516
0.43629369139671326 0.7410897612571716 -0.00032074598129838705
0.3893046975135803 0.7583808302879333 0.041917603462934494
0.49654850363731384 0.6584304571151733 -0.11859077960252762
0.49424612522125244 0.6340994834899902 -0.1311282515525818
0.28229886293411255 0.39700305461883545 -0.03971640393137932
0.43301501870155334 0.5509731769561768 -0.04185798019170761
0.43799084424972534 0.6403096914291382 -0.06909580528736115
0.43484970927238464 0.6246798634529114 -0.06549642235040665
0.3036651015281677 0.6021842360496521 -0.0035808102693408728
0.49411895871162415 0.599993884563446 -0.12504656612873077
0.34188082814216614 0.37223440408706665 -0.07827015966176987
0.3070180416107178 0.3786994218826294 -0.060851018875837326
0.2519606351852417 0.2963514029979706 -0.0018228399567306042
0.4534696042537689 0.4066249132156372 -0.08756211400032043
0.41834160685539246 0.4394839406013489 -0.046340104192495346
0.37229102849960327 0.7332077622413635 0.03671519458293915
0.2523716688156128 0.6804618835449219 0.23150460422039032
0.4549027681350708 0.6548464298248291 -0.05607837066054344
0.47458821535110474 0.6638382077217102 -0.05046122148633003
0.3952314257621765 0.7355630397796631 0.03526708483695984
0.4070398807525635 0.7365776300430298 0.029752584174275398
0.29208511114120483 0.3569592237472534 -0.05727408826351166
0.4363316595554352 0.648471474647522 -0.05345175415277481
0.3889274299144745 0.3792422115802765 -0.08846662193536758
0.3854179084300995 0.3559846878051758 -0.09991694986820221
0.3618789315223694 0.24575132131576538 -0.09765128791332245
0.2722301483154297 0.3280322253704071 -0.03540363535284996
0.3773787021636963 0.3026902377605438 -0.10142911970615387
0.26535874605178833 0.3805484175682068 -0.02563055418431759
0.24510043859481812 0.3621155619621277 0.009697800502181053
0.4773000180721283 0.7345743179321289 -0.034768786281347275
0.450446218252182 0.7360782623291016 -0.022740470245480537
0.42965710163116455 0.7354064583778381 -0.006374479737132788
0.4606539309024811 0.6590443849563599 -0.047609150409698486
0.40119367837905884 0.7363864183425903 0.03256538510322571
0.4119691848754883 0.7480605840682983 0.02408584952354431
0.40991541743278503 0.7356011271476746 0.029515380039811134
0.4685775935649872 0.6518397927284241 -0.08955104649066925
0.4402899146080017 0.7388098239898682 0.004132864996790886
0.4586041271686554 0.742676854133606 -0.006382838822901249
0.479658305644989 0.7458197474479675 -0.013002022169530392
0.4664401412010193 0.8136703968048096 0.03400806337594986
0.4700484871864319 0.8009514808654785 0.0036526466719806194
0.4723055064678192 0.7870571613311768 -0.0044691795483231544
0.47516271471977234 0.7724518775939941 -0.004441550932824612
0.4776318669319153 0.7619296908378601 -0.00330623472109437
0.43540018796920776 0.7504664063453674 0.01218059565871954
0.43126678466796875 0.754127025604248 0.010246261022984982
0.4251609146595001 0.7608373761177063 0.00987017247825861
0.41998913884162903 0.7682265043258667 0.016142796725034714
0.4041855037212372 0.7021703720092773 -0.00789899192750454
0.21921908855438232 0.5545644760131836 0.22533071041107178
0.511907696723938 0.6726391911506653 -0.07106992602348328
0.4234967827796936 0.7447268962860107 0.02314833737909794
0.4181683361530304 0.74603271484375 0.022406576201319695
0.48167288303375244 0.6748030781745911 -0.047507379204034805
0.44242408871650696 0.6616711616516113 -0.03055579401552677
0.4785205125808716 0.6696842312812805 -0.049760229885578156
0.40646642446517944 0.563001811504364 -0.0318506620824337
0.3641809821128845 0.577811062335968 -0.023270314559340477
0.4301997423171997 0.6333169937133789 -0.049865905195474625
0.2952635586261749 0.2645483911037445 -0.05403749644756317
0.31378674507141113 0.30614903569221497 -0.07184360176324844
0.33266139030456543 0.34828269481658936 -0.08321616798639297
0.4092513918876648 0.7798582911491394 0.03765593469142914
0.44709065556526184 0.3687777519226074 -0.10576967149972916
0.4422069787979126 0.3079364001750946 -0.1153305396437645
0.433383971452713 0.23907658457756042 -0.11845038831233978
0.32922235131263733 0.4925403892993927 -0.020735783502459526
0.26806706190109253 0.5098361968994141 0.01634601131081581
0.4362393617630005 0.49174508452415466 -0.0281562227755785
0.2946363091468811 0.4390833079814911 -0.019786925986409187
0.45118576288223267 0.5368621349334717 -0.05196359381079674
0.4529435932636261 0.6351785659790039 -0.0927889421582222
0.24129773676395416 0.5211179256439209 0.04563708230853081
0.2856925427913666 0.533575177192688 0.001102127251215279
0.3193874955177307 0.548313558101654 -0.015835018828511238
0.369147390127182 0.5476679801940918 -0.02190006710588932
0.4048283100128174 0.5390582084655762 -0.027223678305745125
0.43056392669677734 0.5290768146514893 -0.03387415036559105
0.48802289366722107 0.5081701874732971 -0.08156031370162964
0.2456115186214447 0.5775009393692017 0.053260691463947296
0.27329808473587036 0.429779976606369 -0.012338990345597267
0.5024963021278381 0.669055700302124 -0.10440683364868164
0.4370301365852356 0.5792237520217896 -0.046025462448596954
0.20681145787239075 0.44129112362861633 0.17082971334457397
0.45031115412712097 0.5174317955970764 -0.03953862190246582
0.42572563886642456 0.6314362287521362 -0.026691658422350883
0.3079807162284851 0.4615083932876587 -0.008241571485996246
0.4503064751625061 0.6159821152687073 -0.0878245159983635
0.2312595546245575 0.6160316467285156 0.23453208804130554
0.43580687046051025 0.4816494286060333 -0.02645011804997921
0.47162026166915894 0.6056352853775024 -0.1112535372376442
0.3135780096054077 0.7617813944816589 0.12590056657791138
0.3150387704372406 0.7762724161148071 0.17752738296985626
0.22095945477485657 0.5679100155830383 0.1379985511302948
0.2785765528678894 0.725288987159729 0.1427539736032486
0.22961217164993286 0.4063442349433899 0.057101767510175705
0.41222256422042847 0.8450461626052856 0.08748718351125717
0.5033666491508484 0.6714213490486145 -0.07017800211906433
0.41396674513816833 0.5950241088867188 -0.0344429649412632
0.24423286318778992 0.4674767851829529 0.04010710492730141
0.35342663526535034 0.4870976209640503 -0.03108057752251625
0.37621334195137024 0.4909704923629761 -0.035105083137750626
0.4054560661315918 0.750752329826355 0.02834145352244377
0.251763254404068 0.6268569231033325 0.07647237181663513
0.4505302608013153 0.8693959712982178 0.10743790864944458
0.3866667151451111 0.832863986492157 0.1361795961856842
0.3555406928062439 0.8100855350494385 0.1536041796207428
0.5151045918464661 0.312142550945282 -0.11470605432987213
0.4913763701915741 0.8744991421699524 0.10646553337574005
0.3977011442184448 0.4898391366004944 -0.034560833126306534
0.41807642579078674 0.48592811822891235 -0.030690191313624382
0.43040749430656433 0.4836820065975189 -0.026213355362415314
0.25289586186408997 0.4186769723892212 0.007777468301355839
0.4133146107196808 0.4581984877586365 -0.040619246661663055
0.3904426693916321 0.44705215096473694 -0.045880869030952454
0.3671713173389435 0.44430264830589294 -0.046388886868953705
0.34431958198547363 0.44792330265045166 -0.04052596539258957
0.3304072916507721 0.45462656021118164 -0.032999955117702484
0.2111973762512207 0.38464879989624023 0.11543796956539154
0.33769214153289795 0.48054617643356323 -0.024699732661247253
0.5084763169288635 0.6915966272354126 -0.04150677099823952
0.42843136191368103 0.6932017803192139 -0.022314300760626793
0.45486974716186523 0.652523934841156 -0.06602858752012253
0.4761943519115448 0.6926042437553406 -0.041502490639686584
0.5110737681388855 0.45810362696647644 -0.08128930628299713
0.3495824635028839 0.7940266132354736 0.11736388504505157
0.3805178999900818 0.8186869621276855 0.10459478944540024
0.44963523745536804 0.8657342791557312 0.07359683513641357
0.2813064455986023 0.7352334856987 0.2080906480550766
0.42900070548057556 0.47334617376327515 -0.03255951404571533
0.47134044766426086 0.55172199010849 -0.08105948567390442
0.4940983057022095 0.8702245950698853 0.07378102838993073
0.41723737120628357 0.8539994955062866 0.11730759590864182
0.23131303489208221 0.6233677268028259 0.1515093892812729
0.454634428024292 0.7570054531097412 0.0028814333491027355
0.45048606395721436 0.7642040252685547 0.001042165677063167
0.4458067715167999 0.7751526236534119 0.0007458535837940872
0.44231292605400085 0.7877216935157776 0.007923080585896969
0.4342656135559082 0.799726128578186 0.03282872587442398
0.4187823534011841 0.7382776737213135 0.015284614637494087
0.4115571677684784 0.7352845668792725 0.014511474408209324
0.4047551453113556 0.7307793498039246 0.012414286844432354
0.3837606906890869 0.7155213952064514 0.01141069270670414
0.2852902412414551 0.6501500606536865 0.03493640944361687
0.469825804233551 0.5210103988647461 -0.06547462195158005
0.45372191071510315 0.4603973627090454 -0.04413823410868645
0.43922609090805054 0.4642513394355774 -0.0370214469730854
0.42412039637565613 0.7353771924972534 0.01798001118004322
0.28693699836730957 0.7014262080192566 0.0875728651881218
0.4770246744155884 0.46034878492355347 -0.06986553966999054
0.4222067892551422 0.8144621849060059 0.051420047879219055
0.5144867897033691 0.5672663450241089 -0.11571919173002243
0.4904063045978546 0.5417104363441467 -0.09846135973930359
0.5132047533988953 0.5377383828163147 -0.10241881012916565
0.4539993107318878 0.5908721685409546 -0.07300560921430588
0.49616628885269165 0.8565871715545654 0.05418514087796211
0.4978545606136322 0.8349291682243347 0.045101385563611984
0.45885586738586426 0.8321359157562256 0.04638686031103134
0.37081634998321533 0.7640028595924377 0.05696461349725723
0.4035283029079437 0.6484082937240601 -0.016835082322359085
0.39400947093963623 0.7913042306900024 0.056781161576509476
0.3412187695503235 0.6402936577796936 -0.011676628142595291
0.37825384736061096 0.6702392101287842 -0.006562970113009214
0.3212686777114868 0.6745648384094238 0.015194851905107498
0.4522213041782379 0.8527134656906128 0.0548381507396698
0.4391140341758728 0.6014351844787598 -0.05420009419322014
0.35386741161346436 0.7762410640716553 0.08279760926961899
0.38377541303634644 0.8036655783653259 0.07970714569091797
0.3508347272872925 0.734038233757019 0.04620005562901497
0.2612378001213074 0.6669701337814331 0.09810271114110947
0.32097509503364563 0.7330090999603271 0.06709545850753784
0.24846044182777405 0.675136923789978 0.15866850316524506
0.35842493176460266 0.6962709426879883 0.011441617272794247
0.45424532890319824 0.5650790333747864 -0.06223691254854202
0.4612490236759186 0.6479439735412598 -0.09569790214300156
0.4454899728298187 0.6497616767883301 -0.06865988671779633
0.4728768765926361 0.6338900923728943 -0.11259807646274567
0.4331056773662567 0.43145209550857544 -0.05825619772076607
0.3922090530395508 0.41112810373306274 -0.06531455367803574
0.35617688298225403 0.4054587185382843 -0.06390702724456787
0.32625019550323486 0.4081108272075653 -0.05430436506867409
0.30535611510276794 0.41864848136901855 -0.04022518917918205
0.29081761837005615 0.46463170647621155 0.00193015206605196
0.21574825048446655 0.5127980709075928 0.11718489229679108
0.31022799015045166 0.5088085532188416 -0.007633601780980825
0.337250292301178 0.5205320119857788 -0.017435507848858833
0.3719978630542755 0.5233527421951294 -0.024124430492520332
0.4035978615283966 0.5190196633338928 -0.029145238921046257
0.4275062382221222 0.5118001699447632 -0.028232824057340622
0.4440249800682068 0.50469970703125 -0.031243493780493736
0.2120209038257599 0.49650394916534424 0.20473885536193848
0.44561058282852173 0.6540752053260803 -0.05560632795095444
0.47290533781051636 0.5781614780426025 -0.09322454780340195
0.4795922636985779 0.6529319286346436 -0.11047391593456268
0.4906827211380005 0.6629932522773743 -0.0962461605668068
0.47838568687438965 0.6548322439193726 -0.09869299829006195
0.4509652554988861 0.6604635715484619 -0.04439142346382141
0.4952402412891388 0.6666536927223206 -0.10150835663080215
0.49630114436149597 0.6693289279937744 -0.07174654304981232
0.4445105493068695 0.48370522260665894 -0.027698883786797523
0.4572600722312927 0.4908812642097473 -0.03759763762354851
0.4658167064189911 0.4974960684776306 -0.04898381233215332
0.3223426938056946 0.4593968391418457 -0.024150514975190163
0.3089001178741455 0.4447990655899048 -0.024630047380924225
0.5336998105049133 0.5703825354576111 -0.10511046648025513
0.6758230924606323 0.47776323556900024 0.013336923904716969
0.5313722491264343 0.6646999716758728 -0.0700569823384285
0.7531495094299316 0.34898799657821655 0.10429859906435013
0.6044522523880005 0.5061929225921631 -0.014200204983353615
0.6286118030548096 0.5075559616088867 -0.008798468858003616
0.6517298221588135 0.5046979188919067 0.00017288990784436464
0.6820363998413086 0.484039843082428 0.021313976496458054
0.5850250720977783 0.5002028346061707 -0.013937382958829403
0.6439260840415955 0.42785048484802246 -0.03016476333141327
0.6163532137870789 0.4317507743835449 -0.03471014276146889
0.6683063507080078 0.43133652210235596 -0.017706487327814102
0.6830103993415833 0.44136708974838257 -0.005430279299616814
0.6985290050506592 0.4989166855812073 0.03888789936900139
0.5714626908302307 0.8286264538764954 0.0813789963722229
0.6843600273132324 0.46821174025535583 0.02146114967763424
0.752448320388794 0.4649137854576111 0.14639243483543396
0.7214994430541992 0.4737115502357483 0.06086920574307442
0.6228388547897339 0.6149895191192627 -0.005550387781113386
0.5358312129974365 0.72065269947052 -0.03413420915603638
0.5299792885780334 0.7431644797325134 -0.018640443682670593
0.5626367330551147 0.7229820489883423 -0.015245476737618446
0.5782824754714966 0.7260381579399109 0.0072962380945682526
0.5492686033248901 0.7409260869026184 -0.006254686042666435
0.5634751319885254 0.7389482855796814 0.013579697348177433
0.5996776223182678 0.7559333443641663 0.06242402642965317
0.5334376096725464 0.6585472226142883 -0.11563734710216522
0.537516176700592 0.6343958377838135 -0.1274619847536087
0.7183947563171387 0.4058699309825897 -0.00010633489000611007
0.5776160955429077 0.5525265336036682 -0.028013315051794052
0.5788975954055786 0.6402904987335205 -0.05560721829533577
0.5802686810493469 0.6249476075172424 -0.05152583122253418
0.6908607482910156 0.604651689529419 0.031363002955913544
0.5363926291465759 0.6003670692443848 -0.1205248162150383
0.672120213508606 0.3817814588546753 -0.05155807361006737
0.7007904648780823 0.3882133960723877 -0.027240267023444176
0.7399591207504272 0.30698639154434204 0.04373600333929062
0.5684862732887268 0.41056710481643677 -0.07891372591257095
0.5925979018211365 0.4440712630748749 -0.029200486838817596
0.6168663501739502 0.7309691309928894 0.06112410128116608
0.6936088800430298 0.6806174516677856 0.27823102474212646
0.5619598627090454 0.6543378233909607 -0.04601697251200676
0.54344642162323 0.6637252569198608 -0.04531629756093025
0.5962989926338196 0.7325938940048218 0.05686695873737335
0.5848414301872253 0.7339248061180115 0.048871103674173355
0.7135354280471802 0.36728334426879883 -0.020655306056141853
0.5774751901626587 0.6482066512107849 -0.040148284286260605
0.6302222013473511 0.38680458068847656 -0.07033074647188187
0.6355282068252563 0.36387789249420166 -0.08085651695728302
0.6578500270843506 0.2532806396484375 -0.0718240812420845
0.7273664474487305 0.3380810022354126 0.005149387288838625
0.6443671584129333 0.310128390789032 -0.0792270302772522
0.7313867211341858 0.3898370862007141 0.0168473981320858
0.7430947422981262 0.3716663718223572 0.05586257576942444
0.5336561799049377 0.733714759349823 -0.02872512862086296
0.5556353330612183 0.733919084072113 -0.011398141272366047
0.5713066458702087 0.7328433394432068 0.00890440959483385
0.555860698223114 0.658608078956604 -0.03962227702140808
0.5905753374099731 0.7335282564163208 0.05253000184893608
0.5822188854217529 0.7454971075057983 0.041218336671590805
0.5815545320510864 0.7330084443092346 0.04831641539931297
0.5544227361679077 0.6513385772705078 -0.08037702739238739
0.5577561855316162 0.7369054555892944 0.017451459541916847
0.5432723164558411 0.7414156198501587 0.0033153241965919733
0.5257170796394348 0.7452645897865295 -0.007679601199924946
0.5304456353187561 0.8129124641418457 0.03929753601551056
0.5329105257987976 0.8001415133476257 0.009509198367595673
0.5329216718673706 0.7862653136253357 0.0018425818998366594
0.5309282541275024 0.7717421054840088 0.0018735191551968455
0.5280686616897583 0.7609434127807617 0.002840976696461439
0.5623308420181274 0.7482982873916626 0.025694461539387703
0.5665801763534546 0.7519839406013489 0.02409728802740574
0.572180449962616 0.7587912082672119 0.02396201156079769
0.5760838985443115 0.7661800384521484 0.031157268211245537
0.5975821018218994 0.7009905576705933 0.01065179891884327
0.7290846705436707 0.5592875480651855 0.27775728702545166
0.5707117915153503 0.742509663105011 0.0400983989238739
0.5765283107757568 0.7437424659729004 0.039150238037109375
0.5361106991767883 0.6746611595153809 -0.04264158755540848
0.5693120956420898 0.6613553166389465 -0.020063666626811028
0.5395236015319824 0.6695926785469055 -0.044831063598394394
0.601145327091217 0.5648215413093567 -0.013392659835517406
0.6394609212875366 0.580085277557373 0.0013067529071122408
0.5821656584739685 0.6334022879600525 -0.03558230772614479
0.7108641862869263 0.2742960751056671 -0.017192766070365906
0.6970431804656982 0.31602463126182556 -0.03931838646531105
0.6814724206924438 0.3582078218460083 -0.05453956872224808
0.5818756818771362 0.7779657244682312 0.05468310788273811
0.5782219171524048 0.37371695041656494 -0.09637109190225601
0.585314929485321 0.31198620796203613 -0.10385417938232422
0.5946347117424011 0.2431609332561493 -0.10529211908578873
0.6712841987609863 0.4968867599964142 0.012260370887815952
0.7206085920333862 0.51483553647995 0.058168597519397736
0.5730341672897339 0.49409469962120056 -0.013399367220699787
0.7037827968597412 0.44599035382270813 0.018271874636411667
0.5624960660934448 0.5383323431015015 -0.04098932072520256
0.5689219832420349 0.6355085968971252 -0.08197537809610367
0.7395058870315552 0.5262174010276794 0.09284166246652603
0.7072573304176331 0.537890613079071 0.04026106372475624
0.6790255308151245 0.5517004728317261 0.017210843041539192
0.6342880725860596 0.5503795146942139 0.0031451559625566006
0.6016730070114136 0.5411503314971924 -0.008108804002404213
0.5785245299339294 0.53098064661026 -0.019707560539245605
0.533694326877594 0.5089757442474365 -0.07709034532308578
0.7342197895050049 0.5811330676078796 0.10010294616222382
0.7211217880249023 0.43715548515319824 0.02971462719142437
0.5244876742362976 0.6689513325691223 -0.10198908299207687
0.5747970342636108 0.580448567867279 -0.0323137491941452
0.7502215504646301 0.4492835998535156 0.22523093223571777
0.5616503357887268 0.5191189050674438 -0.028727075085043907
0.583351194858551 0.6315290331840515 -0.01256875041872263
0.6903798580169678 0.46700024604797363 0.027862805873155594
0.5695598721504211 0.6166062951087952 -0.07687877863645554
0.7149826884269714 0.6184038519859314 0.28470608592033386
0.5730980634689331 0.48403096199035645 -0.011027514934539795
0.5539832711219788 0.6061233282089233 -0.1033901497721672
0.6524664163589478 0.7591639757156372 0.16010625660419464
0.6414376497268677 0.7731181979179382 0.21284180879592896
0.7425204515457153 0.57197105884552 0.18932534754276276
0.682679295539856 0.7238833904266357 0.18366950750350952
0.7490160465240479 0.4147486984729767 0.10662396997213364
0.5685158371925354 0.842515230178833 0.10362059623003006
0.520355761051178 0.6714485287666321 -0.06873336434364319
0.5941582918167114 0.5961825251579285 -0.017770979553461075
0.7377065420150757 0.47410401701927185 0.08688095957040787
0.6515921950340271 0.49116426706314087 -0.0022341094445437193
0.6301196813583374 0.4946058392524719 -0.009545325301587582
0.5876602530479431 0.7482219934463501 0.04679296165704727
0.7238856554031372 0.6289716958999634 0.12133076786994934
0.5298874378204346 0.8678450584411621 0.11651860177516937
0.5832934975624084 0.8294673562049866 0.1589103490114212
0.6078237891197205 0.8062741160392761 0.18219736218452454
0.6092320084571838 0.4931427240371704 -0.012968972325325012
0.5900002717971802 0.488583505153656 -0.012123857624828815
0.5782517790794373 0.4861548840999603 -0.009645378217101097
0.7358397245407104 0.42649710178375244 0.0530567467212677
0.59492027759552 0.46187543869018555 -0.021808801218867302
0.6167787313461304 0.4516258239746094 -0.023980166763067245
0.6395664811134338 0.44925457239151 -0.0202123261988163
0.6612677574157715 0.45301520824432373 -0.011023723520338535
0.6734784841537476 0.45989638566970825 -0.001422106521204114
0.7565257549285889 0.39408349990844727 0.16889938712120056
0.6659879088401794 0.4848463535308838 0.006484495010226965
0.5791268944740295 0.6923567056655884 -0.007974408566951752
0.5637233257293701 0.6520258784294128 -0.056545183062553406
0.5387269258499146 0.6919674277305603 -0.035442281514406204
0.6207290291786194 0.790736198425293 0.1450498104095459
0.5942105054855347 0.8152730464935303 0.12650664150714874
0.5358698964118958 0.8643652200698853 0.08226975798606873
0.6686143279075623 0.7335190176963806 0.25012528896331787
0.5799509286880493 0.47600194811820984 -0.015576032921671867
0.5489280819892883 0.5526342391967773 -0.07346843183040619
0.5588144063949585 0.8513997793197632 0.13371197879314423
0.7287707328796387 0.6255056858062744 0.20050276815891266
0.547431468963623 0.7553701400756836 0.013228249736130238
0.5516782999038696 0.7626053690910339 0.011973881162703037
0.5557049512863159 0.7737345099449158 0.011876169592142105
0.557438850402832 0.7863192558288574 0.019536219537258148
0.5595213770866394 0.798149824142456 0.04524488374590874
0.5762714743614197 0.7356203198432922 0.03265611454844475
0.5837652087211609 0.7325066328048706 0.03298988565802574
0.59058678150177 0.7279492020606995 0.03249085694551468
0.6114935278892517 0.7140151262283325 0.03435135260224342
0.6992247104644775 0.6516176462173462 0.07269912213087082
0.5479573607444763 0.5222833156585693 -0.05779239162802696
0.5600351691246033 0.46291255950927734 -0.03388845548033714
0.5716387033462524 0.46716323494911194 -0.02260540798306465
0.5700135827064514 0.7332373261451721 0.034542690962553024
0.6864922046661377 0.7011931538581848 0.1260213702917099
0.5416887402534485 0.46213483810424805 -0.06377408653497696
0.5662564635276794 0.8123710751533508 0.06474064290523529
0.5340166091918945 0.5423067212104797 -0.09450671821832657
0.5635403394699097 0.5917062163352966 -0.0629759281873703
0.5342395901679993 0.8311233520507812 0.05240149050951004
0.6134451627731323 0.7618803977966309 0.0800701379776001
0.6019270420074463 0.6488003730773926 0.000796979758888483
0.591356098651886 0.7889772653579712 0.07504623383283615
0.657362699508667 0.6417244672775269 0.015097832307219505
0.6222104430198669 0.6706865429878235 0.015383084304630756
0.6691671013832092 0.6753420829772949 0.04597631096839905
0.5376357436180115 0.8514792919158936 0.06293237209320068
0.573989987373352 0.6022908687591553 -0.041558779776096344
0.6240346431732178 0.7737520933151245 0.10924423485994339
0.5967926979064941 0.8008722066879272 0.09997101873159409
0.6345823407173157 0.7324610948562622 0.07398657500743866
0.7094559669494629 0.6678295731544495 0.14115206897258759
0.6571220755577087 0.7316275835037231 0.09929453581571579
0.7101821899414062 0.6754521131515503 0.20513837039470673
0.6349847316741943 0.6960946321487427 0.0371999517083168
0.5615929961204529 0.5662981271743774 -0.051590386778116226
0.5617551803588867 0.6477294564247131 -0.08584725111722946
0.5724039077758789 0.6493496894836426 -0.05736101046204567
0.5546614527702332 0.6342272758483887 -0.10473325848579407
0.5818701982498169 0.43550989031791687 -0.04412131756544113
0.6218687891960144 0.41706424951553345 -0.04530731588602066
0.6557272672653198 0.41278427839279175 -0.03809281066060066
0.6820691823959351 0.4160403609275818 -0.022854458540678024
0.6982095837593079 0.42647042870521545 -0.0047556133940815926
0.7036357522010803 0.47043076157569885 0.04033352807164192
0.7502059936523438 0.518754780292511 0.16997748613357544
0.6868761777877808 0.513123095035553 0.027548203244805336
0.6632164120674133 0.5240450501441956 0.012978856451809406
0.6315822005271912 0.5263234972953796 0.0010112107265740633
0.6022669672966003 0.5214474201202393 -0.009475293569266796
0.5806121230125427 0.5139681100845337 -0.013581410050392151
0.5660108327865601 0.50667804479599 -0.01929738000035286
0.7391488552093506 0.5029427409172058 0.2589236795902252
0.5699054002761841 0.6537783741950989 -0.04445707052946091
0.5502239465713501 0.5790151357650757 -0.08543470501899719
0.5479976534843445 0.6528912782669067 -0.10422510653734207
0.5342927575111389 0.6629016399383545 -0.0926826223731041
0.5467638969421387 0.654462456703186 -0.09236042201519012
0.5633133053779602 0.6602028608322144 -0.035076964646577835
0.530915379524231 0.6665979623794556 -0.09844230860471725
0.5268043279647827 0.6691187620162964 -0.06944046914577484
0.5657386183738708 0.48602765798568726 -0.014887047931551933
0.5547256469726562 0.49278563261032104 -0.0280479583889246
0.54891037940979 0.49912428855895996 -0.0411938838660717
0.67999267578125 0.46452128887176514 0.0089652631431818
0.691659688949585 0.45119160413742065 0.010555742308497429
