ply
format ascii 1.0
element vertex 468
property float x
property float y
property float z
end_header
0.4823054075241089 0.7238390445709229 -0.04780039191246033
0.4618943929672241 0.6358906626701355 -0.12405852228403091
0.47803616523742676 0.6574346423149109 -0.0556027926504612
0.44868388772010803 0.5516490936279297 -0.10357019305229187
0.4591929316520691 0.6117161512374878 -0.13677315413951874
0.4621245861053467 0.5779290795326233 -0.13382366299629211
0.47604700922966003 0.4904274046421051 -0.08976206928491592
0.33586108684539795 0.4698421359062195 0.046035781502723694
0.47868314385414124 0.42206162214279175 -0.08944423496723175
0.47671520709991455 0.3864068388938904 -0.1031753346323967
0.4801073670387268 0.2555420994758606 -0.10943131893873215
0.4839800298213959 0.7368825078010559 -0.04204200208187103
0.4871460199356079 0.7460693717002869 -0.03162321448326111
0.4910568594932556 0.7490768432617188 -0.018972424790263176
0.4917484521865845 0.7612602710723877 -0.007985265925526619
0.49134746193885803 0.7746347784996033 -0.009030075743794441
0.4919278025627136 0.790017306804657 -0.009316577576100826
0.4946291744709015 0.8046301603317261 0.0003219784703105688
0.5025087594985962 0.8169063329696655 0.032613616436719894
0.46656280755996704 0.6468877792358398 -0.10951195657253265
0.4529447555541992 0.6425523161888123 -0.0710243210196495
0.27684229612350464 0.36092284321784973 0.15698787569999695
0.4021742343902588 0.4946596026420593 0.009531155228614807
0.37990379333496094 0.49632909893989563 0.0176846943795681
0.358306884765625 0.4945100247859955 0.029581302776932716
0.33133143186569214 0.4772922098636627 0.05501579865813255
0.41901537775993347 0.4887019693851471 0.00482383044436574
0.3635120391845703 0.4301738440990448 -0.0044090161100029945
0.38863974809646606 0.433050274848938 -0.012784510850906372
0.34140661358833313 0.4326093792915344 0.010874466970562935
0.32878607511520386 0.4402342438697815 0.026043610647320747
0.317558228969574 0.49311935901641846 0.07386139035224915
0.4326275587081909 0.8288817405700684 0.08936397731304169
0.32877522706985474 0.4629562497138977 0.054662320762872696
0.28122058510780334 0.46785858273506165 0.19709521532058716
0.2984057068824768 0.47177964448928833 0.10041544586420059
0.38145726919174194 0.6028047800064087 0.014735542237758636
0.4556211531162262 0.7175211906433105 -0.03766965493559837
0.46582579612731934 0.7437015771865845 -0.021781736984848976
0.4335072636604309 0.7215796709060669 -0.013792331330478191
0.42292237281799316 0.7289072275161743 0.012231067754328251
0.4497266709804535 0.7423727512359619 -0.005540651269257069
0.43890684843063354 0.7424151301383972 0.017162267118692398
0.4074045717716217 0.7609133720397949 0.07138749957084656
0.4442276954650879 0.6339218020439148 -0.11814633011817932
0.4386826455593109 0.6113036870956421 -0.1293601095676422
0.2937065362930298 0.41096171736717224 0.03403197601437569
0.42224693298339844 0.5401431918144226 -0.014309952035546303
0.408686101436615 0.6210359334945679 -0.04681053012609482
0.4091886281967163 0.6071735620498657 -0.04124803468585014
0.3256520628929138 0.5947367548942566 0.0626094862818718
0.4425397515296936 0.5794443488121033 -0.12050703167915344
0.3320189118385315 0.3894910216331482 -0.02989608608186245
0.3069765567779541 0.39539700746536255 0.00029422654188238084
0.2832740843296051 0.32049819827079773 0.09131336957216263
0.42866629362106323 0.4149652421474457 -0.07205931842327118
0.4106769561767578 0.4419512152671814 -0.009991200640797615
0.3908843994140625 0.7363280057907104 0.07503040134906769
0.3441232442855835 0.6819019913673401 0.3209154009819031
0.4264759421348572 0.6349166631698608 -0.03933824971318245
0.4440789818763733 0.6447795629501343 -0.0450253039598465
0.41349685192108154 0.7420210838317871 0.06692130118608475
0.4241032600402832 0.7416039705276489 0.056421104818582535
0.29577118158340454 0.376443475484848 0.010386104695498943
0.4126570224761963 0.6312227845191956 -0.03129896894097328
0.3709217309951782 0.39394909143447876 -0.054940205067396164
0.36432915925979614 0.3725650906562805 -0.06424804776906967
0.34898608922958374 0.2679665982723236 -0.04092196747660637
0.2885589897632599 0.3482579290866852 0.04435108229517937
0.35753458738327026 0.31999465823173523 -0.05464867129921913
0.2838689088821411 0.39724910259246826 0.054895784705877304
0.2791990637779236 0.38079291582107544 0.1017308160662651
0.45974060893058777 0.7328466773033142 -0.032378967851400375
0.441677063703537 0.7343900203704834 -0.01064186543226242
0.43021202087402344 0.7362455129623413 0.012487184256315231
0.4331118166446686 0.6399976015090942 -0.03549431636929512
0.41879042983055115 0.7425576448440552 0.0608065240085125
0.42446112632751465 0.7504062056541443 0.04601316526532173
0.4268941879272461 0.7396041750907898 0.05512315779924393
0.42976152896881104 0.6280080676078796 -0.07617925107479095
0.4460265040397644 0.740944504737854 0.02064484916627407
0.457646906375885 0.7436412572860718 0.004241300281137228
0.4726574718952179 0.746487557888031 -0.009951356798410416
0.47232621908187866 0.813378095626831 0.03921346738934517
0.46523910760879517 0.7992215156555176 0.00770878791809082
0.46459922194480896 0.7845267057418823 -0.0004125922278035432
0.4666324257850647 0.7691117525100708 0.00020350208797026426
0.47010287642478943 0.758142352104187 0.0011345786042511463
0.44212570786476135 0.7493537068367004 0.02875017374753952
0.4376118779182434 0.7531816959381104 0.026481755077838898
0.4315674304962158 0.7600783705711365 0.026893477886915207
0.42776572704315186 0.7675126791000366 0.03490001708269119
0.4024086594581604 0.6967915296554565 0.01890103705227375
0.31423288583755493 0.5642658472061157 0.3305550515651703
0.472025603055954 0.6505170464515686 -0.07525694370269775
0.43550336360931396 0.7459064722061157 0.04475533217191696
0.4300416111946106 0.7477289438247681 0.04384419322013855
0.45182672142982483 0.656781017780304 -0.04275106266140938
0.42328786849975586 0.6465905904769897 -0.013234316371381283
0.4480467438697815 0.651090145111084 -0.044870540499687195
0.40254855155944824 0.553206741809845 0.004483965691179037
0.3688105344772339 0.5693312883377075 0.02406255155801773
0.4097443222999573 0.6173787117004395 -0.024557068943977356
0.3047066628932953 0.2886894941329956 0.022326821461319923
0.312492698431015 0.326560914516449 -0.006613289937376976
0.32274264097213745 0.367684006690979 -0.028861965984106064
0.4237622022628784 0.7792346477508545 0.0608997642993927
0.4174233675003052 0.38117021322250366 -0.08796387910842896
0.41103577613830566 0.3205779194831848 -0.08800408244132996
0.4055834412574768 0.25812533497810364 -0.08510851860046387
0.3407158851623535 0.488140344619751 0.04408354312181473
0.29952624440193176 0.5092940330505371 0.0969897136092186
0.42904895544052124 0.4826470911502838 0.003645791206508875
0.30982720851898193 0.44444572925567627 0.05360843986272812
0.43430039286613464 0.5253903269767761 -0.03026781789958477
0.41515713930130005 0.613547682762146 -0.07570309937000275
0.2858099341392517 0.5219832062721252 0.1365138590335846
0.309651255607605 0.5305324196815491 0.07640017569065094
0.33373579382896423 0.543215274810791 0.04842187836766243
0.3738565146923065 0.5406069159507751 0.026757104322314262
0.4035884141921997 0.5304139852523804 0.010947237722575665
0.423908531665802 0.5197635889053345 -0.004884869325906038
0.4558846950531006 0.495717316865921 -0.07317937165498734
0.29136165976524353 0.5747036933898926 0.14274191856384277
0.29510635137557983 0.4385715126991272 0.06814296543598175
0.4561123251914978 0.6454933285713196 -0.10494715720415115
0.4220169484615326 0.5664196014404297 -0.01870546117424965
0.29221683740615845 0.45850247144699097 0.2817448675632477
0.4380940794944763 0.5077857971191406 -0.016709299758076668
0.4125291109085083 0.617393434047699 0.00017450297309551388
0.3236539363861084 0.462176114320755 0.062151387333869934
0.4169005751609802 0.59681236743927 -0.06958277523517609
0.32627707719802856 0.6211251020431519 0.33301931619644165
0.42874157428741455 0.4733835756778717 0.0073549640364944935
0.4280868470668793 0.5858933925628662 -0.09948837757110596
0.3662090003490448 0.7556771039962769 0.1890844702720642
0.3817768394947052 0.7732551097869873 0.24165235459804535
0.2923212945461273 0.5702805519104004 0.23819999396800995
0.3439241945743561 0.7193934321403503 0.21924364566802979
0.27941250801086426 0.4208335280418396 0.15580236911773682
0.4354115426540375 0.8459254503250122 0.11299246549606323
0.46362772583961487 0.6490479707717896 -0.0718814954161644
0.4064484238624573 0.5833855271339417 -0.00129721371922642
0.28711673617362976 0.47338420152664185 0.13089923560619354
0.3574257493019104 0.479850709438324 0.02750914916396141
0.3778631091117859 0.4826224446296692 0.01714634895324707
0.4193941354751587 0.7537937760353088 0.0528271421790123
0.3034611940383911 0.621802031993866 0.16206414997577667
0.4766586124897003 0.8787245750427246 0.11970823258161545
0.4261188209056854 0.8345413208007812 0.17429131269454956
0.40665364265441895 0.8084788918495178 0.2037249207496643
0.47747892141342163 0.32201215624809265 -0.10882895439863205
0.5203808546066284 0.8886997699737549 0.10273220390081406
0.39725157618522644 0.4812288284301758 0.010411451570689678
0.4141429662704468 0.477066308259964 0.008205567486584187
0.4242384135723114 0.4749901592731476 0.009410593658685684
0.2850346267223358 0.43047598004341125 0.09538251161575317
0.4107946753501892 0.45925599336624146 4.422456186148338e-05
0.3918682038784027 0.453899621963501 -0.0010719463462010026
0.3708135485649109 0.4522031545639038 0.005653866101056337
0.35059279203414917 0.4542935788631439 0.01787504553794861
0.3389478325843811 0.4584451913833618 0.029775330796837807
0.27985748648643494 0.40440186858177185 0.2241038680076599
0.34442371129989624 0.47504425048828125 0.037924230098724365
0.48077020049095154 0.6786772012710571 -0.04674210399389267
0.41618287563323975 0.6837748289108276 -0.002685641637071967
0.4234429895877838 0.6311919093132019 -0.05092761293053627
0.45116478204727173 0.6799960732460022 -0.03658665344119072
0.4804258942604065 0.4546254873275757 -0.08069352060556412
0.3902358412742615 0.7895575165748596 0.1657233089208603
0.41278791427612305 0.8165940642356873 0.1411990225315094
0.4669885039329529 0.8700500726699829 0.08441697806119919
0.36287450790405273 0.73358154296875 0.2859012186527252
0.4226718842983246 0.46769922971725464 0.004152932204306126
0.4402574300765991 0.5366513133049011 -0.06685451418161392
0.5132085680961609 0.8795148730278015 0.06856387108564377
0.4475838243961334 0.8592855930328369 0.14391601085662842
0.3055380880832672 0.6222542524337769 0.24640922248363495
0.4536088705062866 0.753912091255188 0.014518242329359055
0.449052631855011 0.7614821791648865 0.012558701448142529
0.4447060823440552 0.7727335691452026 0.013179503381252289
0.44290560483932495 0.7855419516563416 0.020970063284039497
0.4445694386959076 0.7978024482727051 0.048580776900053024
0.43053340911865234 0.7415260076522827 0.03823725879192352
0.4226958155632019 0.738875150680542 0.039592400193214417
0.4159678816795349 0.7342325448989868 0.04026440531015396
0.3931804895401001 0.7149266004562378 0.0463150292634964
0.3225470185279846 0.6422762274742126 0.10610106587409973
0.4453447461128235 0.5090857744216919 -0.050606101751327515
0.4404442608356476 0.4566407799720764 -0.020884674042463303
0.430271714925766 0.45962849259376526 -0.005709420423954725
0.4366872012615204 0.7384073734283447 0.040057431906461716
0.3366613984107971 0.6945252418518066 0.1592250019311905
0.4537338316440582 0.45739465951919556 -0.05648214742541313
0.43878257274627686 0.8120105862617493 0.07053999602794647
0.466915100812912 0.5486756563186646 -0.11829254031181335
0.4516209363937378 0.5254670977592468 -0.09186924248933792
0.47146522998809814 0.5209944844245911 -0.10354731231927872
0.42690539360046387 0.5748540163040161 -0.054474130272865295
0.5081630349159241 0.8614014983177185 0.0483713373541832
0.5052252411842346 0.8372842669487 0.04056698828935623
0.4689844846725464 0.8313697576522827 0.05273370444774628
0.39243027567863464 0.7630465030670166 0.09307349473237991
0.397211492061615 0.6370429396629333 0.015520264394581318
0.414435476064682 0.7893039584159851 0.08443430066108704
0.35309258103370667 0.6302775144577026 0.04008174687623978
0.3808920085430145 0.6616971492767334 0.032095011323690414
0.3453314006328583 0.666510820388794 0.07351658493280411
0.46446889638900757 0.8533363938331604 0.0642109364271164
0.41966187953948975 0.5865473747253418 -0.03032291680574417
0.3839634656906128 0.7720497250556946 0.1273285150527954
0.409346342086792 0.800621747970581 0.11263193935155869
0.3737221360206604 0.7328617572784424 0.0929737314581871
0.31770533323287964 0.6610994338989258 0.17955605685710907
0.35738956928253174 0.7274044156074524 0.12476719170808792
0.3219911456108093 0.6711792349815369 0.24712151288986206
0.3719359040260315 0.6927401423454285 0.05575726553797722
0.4315788745880127 0.5509911179542542 -0.041315898299217224
0.4218553304672241 0.6242069005966187 -0.08088890463113785
0.4147835969924927 0.6292182803153992 -0.050551898777484894
0.42494451999664307 0.6108199954032898 -0.102625772356987
0.4198528230190277 0.43388891220092773 -0.02794031798839569
0.381711483001709 0.41897135972976685 -0.02581171877682209
0.34980130195617676 0.4153725206851959 -0.014872611500322819
0.32587888836860657 0.41814836859703064 0.004911687690764666
0.31243354082107544 0.4273213744163513 0.027255745604634285
0.3126654028892517 0.467039555311203 0.07617392390966415
0.28409793972969055 0.5188714265823364 0.22064991295337677
0.32726845145225525 0.5058800578117371 0.061003677546978
0.34797996282577515 0.515365481376648 0.041880350559949875
0.3766995966434479 0.5162752270698547 0.025231895968317986
0.40382981300354004 0.5107431411743164 0.01218649372458458
0.4232550859451294 0.5030559301376343 0.002618025755509734
0.4359082579612732 0.49588847160339355 -0.004820776637643576
0.3053581416606903 0.51073157787323 0.31420668959617615
0.41897714138031006 0.6354304552078247 -0.03768657520413399
0.43554553389549255 0.561018705368042 -0.07976077497005463
0.43176573514938354 0.6280080080032349 -0.10335738211870193
0.4482243061065674 0.6396053433418274 -0.09420084953308105
0.435627818107605 0.6305112838745117 -0.090765081346035
0.4271870255470276 0.6433348059654236 -0.029653113335371017
0.45030590891838074 0.6428565979003906 -0.10094062983989716
0.4572570323944092 0.6468929052352905 -0.07150205224752426
0.4353688359260559 0.4753868877887726 0.0008707820670679212
0.44554686546325684 0.48291561007499695 -0.015999916940927505
0.44862887263298035 0.48899227380752563 -0.032704055309295654
0.33280524611473083 0.4612298607826233 0.040680207312107086
0.32118692994117737 0.4483489394187927 0.044333748519420624
0.48946234583854675 0.552711546421051 -0.11543538421392441
0.6769737005233765 0.47804638743400574 -0.041732046753168106
0.49423354864120483 0.6446484923362732 -0.0800561010837555
0.809322714805603 0.3605072498321533 0.021702369675040245
0.5995858311653137 0.4993399381637573 -0.046810682862997055
0.6255634427070618 0.5020681023597717 -0.049753203988075256
0.6519574522972107 0.501062273979187 -0.04877740889787674
0.6897562742233276 0.48574912548065186 -0.038018111139535904
0.5778400301933289 0.49221691489219666 -0.03954753279685974
0.6355830430984497 0.4337378442287445 -0.07621636986732483
0.6073329448699951 0.434763103723526 -0.06896792352199554
0.6621445417404175 0.43797042965888977 -0.07185596227645874
0.6807871460914612 0.4469468593597412 -0.06360501050949097
0.7143985033035278 0.5013588666915894 -0.025800280272960663
0.6010264754295349 0.8416616916656494 0.05055038258433342
0.6886903643608093 0.4714912176132202 -0.037228845059871674
0.8156266212463379 0.47466498613357544 0.05967897176742554
0.7495325207710266 0.4801385700702667 -0.012114498764276505
0.6158133149147034 0.6097601652145386 -0.04055161029100418
0.5124322175979614 0.7201558947563171 -0.05160496011376381
0.5135223865509033 0.7461293935775757 -0.034142009913921356
0.5474545955657959 0.7281081080436707 -0.0421198233962059
0.572410523891449 0.736555814743042 -0.026937570422887802
0.538400411605835 0.7473246455192566 -0.03022451139986515
0.5593144297599792 0.7483068704605103 -0.01566668413579464
0.6178990602493286 0.7715629935264587 0.021004797890782356
0.4822896420955658 0.6355173587799072 -0.12582996487617493
0.4840293526649475 0.6127722263336182 -0.13832303881645203
0.72418612241745 0.41754329204559326 -0.07202789932489395
0.5646911263465881 0.5434451103210449 -0.05080506205558777
0.5540601015090942 0.6271300315856934 -0.08067463338375092
0.5590085387229919 0.6127012968063354 -0.07630673050880432
0.6991544961929321 0.6054483652114868 -0.02961829863488674
0.48591458797454834 0.580787181854248 -0.13180340826511383
0.6519206762313843 0.3920559287071228 -0.10284091532230377
0.6925243139266968 0.4002841114997864 -0.0916668027639389
0.7716459631919861 0.3181649148464203 -0.03032178245484829
0.534490704536438 0.4153464436531067 -0.09609819948673248
0.5835114121437073 0.44294190406799316 -0.0553436353802681
0.633575439453125 0.7475500702857971 0.01404090691357851
0.799004077911377 0.7018715739250183 0.19730553030967712
0.5364201068878174 0.640255868434906 -0.06454592943191528
0.5160128474235535 0.6479685306549072 -0.05740055441856384
0.6057837605476379 0.7502657175064087 0.014173965901136398
0.5941189527511597 0.7489073276519775 0.010228225030004978
0.7105513215065002 0.38086313009262085 -0.08795905858278275
0.5584932565689087 0.6371632218360901 -0.06439163535833359
0.6000185608863831 0.3952571153640747 -0.10519930720329285
0.6035133004188538 0.3733111023902893 -0.1160469576716423
0.6394749879837036 0.2647378146648407 -0.11056757718324661
0.7397791743278503 0.34947580099105835 -0.0647055134177208
0.6172816753387451 0.31884220242500305 -0.11491422355175018
0.7458354234695435 0.4030633568763733 -0.05880216136574745
0.7771263122558594 0.383775532245636 -0.021711306646466255
0.5128359198570251 0.7357327342033386 -0.04602651670575142
0.5416788458824158 0.740185022354126 -0.037321701645851135
0.5653261542320251 0.7430915236473083 -0.023081105202436447
0.5311272144317627 0.6447948813438416 -0.05588030815124512
0.599323034286499 0.7501420974731445 0.012119080871343613
0.5883303880691528 0.7578297853469849 0.004904462490230799
0.592039942741394 0.7469877600669861 0.01024592760950327
0.5161826610565186 0.6327196359634399 -0.09923263639211655
0.5567070245742798 0.745775580406189 -0.010597688145935535
0.5364197492599487 0.7474002838134766 -0.01850759983062744
0.5141690373420715 0.7485452890396118 -0.02234954573214054
0.5366528630256653 0.8172096610069275 0.02731458842754364
0.527698278427124 0.8029769062995911 -0.005654241424053907
0.5234857201576233 0.7878273725509644 -0.013993069529533386
0.5198153257369995 0.7720162868499756 -0.013587639667093754
0.5177521109580994 0.7607599496841431 -0.011827806010842323
0.5632154941558838 0.7551007866859436 -0.002619392704218626
0.566963255405426 0.759425163269043 -0.0047141434624791145
0.5737744569778442 0.7672337293624878 -0.005613513290882111
0.5805078744888306 0.7754225730895996 -4.432568857737351e-06
0.5929621458053589 0.7049458026885986 -0.02661566250026226
0.8314845561981201 0.5765044093132019 0.19113986194133759
0.576884388923645 0.7521659135818481 0.005553592462092638
0.5816653966903687 0.7546204328536987 0.004312887322157621
0.5087317228317261 0.6591535806655884 -0.05490872636437416
0.5530750155448914 0.6519449353218079 -0.0393446609377861
0.5119267106056213 0.6536884903907776 -0.05687365308403969
0.5925849676132202 0.5578348636627197 -0.044302236288785934
0.6351500749588013 0.5761016011238098 -0.04156671464443207
0.5659217834472656 0.6230583786964417 -0.060528211295604706
0.7164924144744873 0.2849808931350708 -0.07711091637611389
0.6884309649467468 0.32620108127593994 -0.09437986463308334
0.6623241305351257 0.3697509169578552 -0.10643423348665237
0.5965588688850403 0.7891161441802979 0.019758883863687515
0.5398949980735779 0.3807515501976013 -0.114073745906353
0.5495784282684326 0.31988662481307983 -0.1191667839884758
0.5634078979492188 0.256008118391037 -0.12027993053197861
0.675857424736023 0.4959844946861267 -0.04336188733577728
0.7455577254295349 0.5182896852493286 -0.013881753198802471
0.5640069842338562 0.48551902174949646 -0.03599913418292999
0.7136791944503784 0.45241260528564453 -0.048478566110134125
0.5445526838302612 0.5280094742774963 -0.05968261882662773
0.5335882306098938 0.6186152100563049 -0.10312975198030472
0.7792502641677856 0.5323845148086548 0.010926338844001293
0.7228350639343262 0.5394699573516846 -0.027265500277280807
0.6846604943275452 0.5510268211364746 -0.0393235981464386
0.6325186491012573 0.5464852452278137 -0.040085192769765854
0.5956557393074036 0.5346918106079102 -0.03979739919304848
0.5684126615524292 0.5229783058166504 -0.0429653637111187
0.5021441578865051 0.4964725077152252 -0.0857701450586319
0.7723240256309509 0.5877721309661865 0.018687579780817032
0.7396065592765808 0.4461156129837036 -0.043643612414598465
0.4786236584186554 0.6463897824287415 -0.11106055974960327
0.5592818856239319 0.5701321363449097 -0.0539700873196125
0.8397232294082642 0.4630981981754303 0.13726896047592163
0.5468356609344482 0.510066568851471 -0.04652351140975952
0.5723463296890259 0.6230132579803467 -0.03533490002155304
0.6992467045783997 0.4705057740211487 -0.03433934971690178
0.5385605692863464 0.60126131772995 -0.09747107326984406
0.821021556854248 0.6375272870063782 0.20024099946022034
0.5658690333366394 0.47673696279525757 -0.03420324996113777
0.5122479200363159 0.5885322690010071 -0.1198124885559082
0.7184723615646362 0.7777239084243774 0.09796193987131119
0.727304220199585 0.7960160970687866 0.14861930906772614
0.8129624724388123 0.5840384364128113 0.10222820192575455
0.7554250955581665 0.7412010431289673 0.11179663985967636
0.7988506555557251 0.4249557852745056 0.024143051356077194
0.6090345978736877 0.860084056854248 0.07033585757017136
0.48114150762557983 0.6495836973190308 -0.07558710128068924
0.5840727686882019 0.5884783864021301 -0.044518765062093735
0.7778056859970093 0.48172876238822937 0.007093843538314104
0.6471614837646484 0.4866597652435303 -0.049474772065877914
0.6238270401954651 0.4883281886577606 -0.0506272129714489
0.596068263053894 0.7617939114570618 0.008588867262005806
0.7681190967559814 0.6377459168434143 0.04337942600250244
0.5690818428993225 0.8866158723831177 0.09641294181346893
0.6471395492553711 0.8529884815216064 0.11442180722951889
0.6833362579345703 0.8302229642868042 0.12840241193771362
0.6028168797492981 0.48590320348739624 -0.04749814420938492
0.5831683278083801 0.48077455163002014 -0.04149343818426132
0.5713074803352356 0.4782918691635132 -0.03543137013912201
0.76505446434021 0.4369626045227051 -0.025028197094798088
0.5883892774581909 0.46273472905158997 -0.051318880170583725
0.6117597818374634 0.45804816484451294 -0.06042726710438728
0.6338028311729431 0.4584437310695648 -0.06381244957447052
0.6563405394554138 0.46216708421707153 -0.06141955778002739
0.6710901856422424 0.46679049730300903 -0.05513690039515495
0.8304165005683899 0.40602925419807434 0.08254395425319672
0.664040207862854 0.48264262080192566 -0.045647021383047104
0.5669549107551575 0.6902631521224976 -0.03729692101478577
0.5346352458000183 0.6366174221038818 -0.07469389587640762
0.5145388245582581 0.6829838156700134 -0.050932928919792175
0.681914210319519 0.8107384443283081 0.09230662882328033
0.6468350887298584 0.8354487419128418 0.08362628519535065
0.5641919374465942 0.8779658079147339 0.06175824627280235
0.7656621336936951 0.7559616565704346 0.1754854917526245
0.5726714730262756 0.47131937742233276 -0.04158543795347214
0.5183521509170532 0.5385944843292236 -0.08677668124437332
0.6094828248023987 0.8732220530509949 0.0998905673623085
0.80435711145401 0.6395452618598938 0.11662475019693375
0.5417311787605286 0.7583619356155396 -0.009021553210914135
0.5460931062698364 0.7663512229919434 -0.011385677382349968
0.55143141746521 0.7783751487731934 -0.012262522242963314
0.5568624138832092 0.7917758822441101 -0.005390034522861242
0.5701823234558105 0.8053571581840515 0.019090453162789345
0.5793319344520569 0.7481074333190918 -0.002858283929526806
0.5862200856208801 0.7462780475616455 -0.005190951284021139
0.5934755206108093 0.7422589063644409 -0.007718317210674286
0.6165074110031128 0.7245732545852661 -0.010149716399610043
0.7240471839904785 0.657044529914856 0.00706865917891264
0.5230283141136169 0.5107282996177673 -0.07128525525331497
0.5432649254798889 0.45806771516799927 -0.04784306138753891
0.5607936978340149 0.46152248978614807 -0.04434685781598091
0.5749397873878479 0.7444949150085449 0.0007207560120150447
0.7338324785232544 0.7131945490837097 0.05878148600459099
0.5161459445953369 0.4580956697463989 -0.07249003648757935
0.586990237236023 0.8223339915275574 0.037452127784490585
0.4961007833480835 0.5264830589294434 -0.10269254446029663
0.5368257164955139 0.5781183242797852 -0.08046090602874756
0.5467917323112488 0.8368322253227234 0.03693307936191559
0.6439521312713623 0.7776350975036621 0.034607984125614166
0.5957818627357483 0.6438723802566528 -0.029047124087810516
0.6192014813423157 0.8026469945907593 0.038223154842853546
0.6580098271369934 0.6407272815704346 -0.03058813512325287
0.6211128234863281 0.6704570055007935 -0.023418277502059937
0.6837160587310791 0.6800187826156616 -0.007012360729277134
0.5568713545799255 0.8602758646011353 0.042940087616443634
0.5559548139572144 0.5909122228622437 -0.06263992935419083
0.6691137552261353 0.7906525135040283 0.05881142243742943
0.6360732913017273 0.8172579407691956 0.06026211753487587
0.6609237790107727 0.7472198605537415 0.022116951644420624
0.7624465823173523 0.6793205142021179 0.06661772727966309
0.6975588798522949 0.7455281019210815 0.04128590226173401
0.7884823083877563 0.6912946105003357 0.12454169988632202
0.6443228125572205 0.7037843465805054 -0.009798644110560417
0.5389211177825928 0.5540474653244019 -0.06925269216299057
0.5237603783607483 0.6294335722923279 -0.10608988255262375
0.5453246235847473 0.6352553963661194 -0.0792282298207283
0.509238600730896 0.6142855882644653 -0.12280204147100449
0.5621331930160522 0.4355714023113251 -0.06481850892305374
0.6033509373664856 0.42148393392562866 -0.07965351641178131
0.6402599215507507 0.4189428985118866 -0.08538167923688889
0.6728304028511047 0.42333555221557617 -0.08087608963251114
0.6978663206100464 0.4337824583053589 -0.06884977966547012
0.7211312651634216 0.4753512740135193 -0.026865195482969284
0.8177266120910645 0.5291078090667725 0.08072158694267273
0.6970983147621155 0.5137884616851807 -0.032814837992191315
0.6676048636436462 0.5222194194793701 -0.039658740162849426
0.630812406539917 0.5218850374221802 -0.04160428047180176
0.5976398587226868 0.5151721239089966 -0.0404505655169487
0.5725508332252502 0.5062834024429321 -0.03710019588470459
0.5549089908599854 0.4983266592025757 -0.037260621786117554
0.8370696306228638 0.5186959505081177 0.17106486856937408
0.5474105477333069 0.6412513852119446 -0.06565738469362259
0.5133962631225586 0.5631425976753235 -0.1000986248254776
0.5018498301506042 0.6314324140548706 -0.11948292702436447
0.49247249960899353 0.6420175433158875 -0.10348772257566452
0.5047090649604797 0.6341618895530701 -0.10719989240169525
0.5424849987030029 0.6486265659332275 -0.05312283709645271
0.48674023151397705 0.6446089744567871 -0.10841494053602219
0.4889238476753235 0.6483647227287292 -0.07779359072446823
0.5555696487426758 0.4778863191604614 -0.03375650569796562
0.5405985713005066 0.4845387637615204 -0.04168331250548363
0.5299296379089355 0.4903845191001892 -0.05389579012989998
0.6804625988006592 0.46958035230636597 -0.04757112264633179
0.6958819031715393 0.45593348145484924 -0.05012918636202812
