ply
format ascii 1.0
element vertex 468
property float x
property float y
property float z
end_header
0.5256389379501343 0.7077485918998718 -0.07438921928405762
0.5366652607917786 0.6344083547592163 -0.1275889277458191
0.5264008045196533 0.6576411724090576 -0.06816711276769638
0.5049684643745422 0.552355170249939 -0.0961492583155632
0.5371623635292053 0.6092240810394287 -0.1350378841161728
0.5331457257270813 0.5758984088897705 -0.12440045922994614
0.5184217691421509 0.49687808752059937 -0.05540257319808006
0.31433895230293274 0.4877766966819763 0.011324488557875156
0.5129423141479492 0.4342700242996216 -0.03609732538461685
0.5121415853500366 0.4022843539714813 -0.03904309496283531
0.5019572973251343 0.2977639138698578 -0.007238206919282675
0.5249100923538208 0.7198323011398315 -0.07163958996534348
0.5229576230049133 0.7304063439369202 -0.06362012028694153
0.5203970074653625 0.7357524037361145 -0.05320460721850395
0.5218833684921265 0.7447786331176758 -0.05309239402413368
0.5229703783988953 0.7563863396644592 -0.057128772139549255
0.5232205390930176 0.7714517116546631 -0.061662547290325165
0.5223677158355713 0.7866082787513733 -0.05720120668411255
0.5187447667121887 0.8125252723693848 -0.03275113180279732
0.5336287617683411 0.6470282077789307 -0.11545855551958084
0.5053116083145142 0.6452386379241943 -0.0857120230793953
0.2080853283405304 0.3980938494205475 0.11655799299478531
0.39383161067962646 0.5060694217681885 -0.005478029605001211
0.3688156008720398 0.5089094638824463 -0.006572723854333162
0.34299421310424805 0.5093131065368652 -0.002713634865358472
0.3036952018737793 0.49548327922821045 0.012944205664098263
0.413785457611084 0.4997383952140808 0.0018917710985988379
0.35672497749328613 0.4440559148788452 -0.015118974260985851
0.38334694504737854 0.44640052318573 -0.010757935233414173
0.3305310010910034 0.44697749614715576 -0.010653501376509666
0.3118903338909149 0.45586371421813965 -0.0033468790352344513
0.28523021936416626 0.5120308995246887 0.021635370329022408
0.4150596559047699 0.8510550856590271 -0.01703713834285736
0.3026452660560608 0.48114213347435 0.018277926370501518
0.19713088870048523 0.5004879236221313 0.11810171604156494
0.25351887941360474 0.494986891746521 0.043498821556568146
0.38303738832473755 0.6099661588668823 -0.03194659203290939
0.4929214417934418 0.7041727304458618 -0.07540032267570496
0.49512767791748047 0.7308451533317566 -0.06432933360338211
0.45693084597587585 0.7138366103172302 -0.06654470413923264
0.43403196334838867 0.7244775295257568 -0.05383167415857315
0.4696597456932068 0.7331796884536743 -0.05950427055358887
0.4499776065349579 0.7367182970046997 -0.04685189947485924
0.39533108472824097 0.7651883959770203 -0.02275370992720127
0.5146406292915344 0.6338033676147461 -0.1277729719877243
0.5109426975250244 0.6093452572822571 -0.13490037620067596
0.2740841507911682 0.42897194623947144 0.0012088530929759145
0.43295708298683167 0.5487576127052307 -0.026704706251621246
0.4433574080467224 0.626006543636322 -0.07649549096822739
0.4385087490081787 0.6127316951751709 -0.06945548951625824
0.30171817541122437 0.6067136526107788 -0.013069761916995049
0.5084202885627747 0.5784325003623962 -0.12023114413022995
0.33920061588287354 0.4030793309211731 -0.029400795698165894
0.3017333745956421 0.41119781136512756 -0.015886526554822922
0.23855260014533997 0.35717493295669556 0.07564379274845123
0.45442837476730347 0.42657455801963806 -0.03613536059856415
0.40652602910995483 0.45489656925201416 -0.0010681707644835114
0.3757678270339966 0.741213321685791 -0.020444415509700775
0.2146517038345337 0.7283173203468323 0.17509758472442627
0.46250736713409424 0.6396589875221252 -0.06554286181926727
0.48406246304512024 0.6471045017242432 -0.06363537162542343
0.4073874354362488 0.7419567108154297 -0.021386217325925827
0.4203166365623474 0.7407002449035645 -0.026555202901363373
0.2861248552799225 0.3956739604473114 -0.005572999827563763
0.4403381645679474 0.6364352703094482 -0.06369510293006897
0.38850080966949463 0.4060429036617279 -0.0364283062517643
0.3843371868133545 0.38767480850219727 -0.04077591747045517
0.35185062885284424 0.30605313181877136 0.001547678024508059
0.2627187669277191 0.37658247351646423 0.02893618308007717
0.37164685130119324 0.34675100445747375 -0.020519375801086426
0.2561280429363251 0.4187983274459839 0.020038846880197525
0.23265476524829865 0.41026538610458374 0.06527576595544815
0.4939742684364319 0.71904456615448 -0.07295826077461243
0.46442627906799316 0.7253512740135193 -0.06458503752946854
0.4424009919166565 0.731072723865509 -0.052287112921476364
0.4683355689048767 0.6441251635551453 -0.05861595645546913
0.4146568179130554 0.7417120337486267 -0.02367890067398548
0.426425963640213 0.7469654083251953 -0.03589567169547081
0.42232611775398254 0.7390782833099365 -0.02654743380844593
0.4806933104991913 0.6327856183052063 -0.09746594727039337
0.45367613434791565 0.735767662525177 -0.042707473039627075
0.47312769293785095 0.7352370023727417 -0.05002174153923988
0.49592500925064087 0.7353557348251343 -0.054630015045404434
0.4835330843925476 0.8107161521911621 -0.03577600419521332
0.489491730928421 0.7841995358467102 -0.06015630066394806
0.4919891357421875 0.7682394981384277 -0.06372489780187607
0.4942866563796997 0.7538752555847168 -0.05867462977766991
0.4958677887916565 0.744470477104187 -0.054503560066223145
0.4516918957233429 0.7425583600997925 -0.04179961234331131
0.44771111011505127 0.7463617920875549 -0.045964840799570084
0.4416106343269348 0.7536868453025818 -0.04994150623679161
0.4354417622089386 0.7628514766693115 -0.04628470912575722
0.4091341495513916 0.6981148719787598 -0.04638607054948807
0.1853131651878357 0.6054414510726929 0.2109573632478714
0.5300742983818054 0.6517665386199951 -0.08407554030418396
0.4378255605697632 0.7421524524688721 -0.03269728645682335
0.4331081509590149 0.74364173412323 -0.03559378162026405
0.4930824637413025 0.6576725244522095 -0.06593190878629684
0.4471234679222107 0.6511653065681458 -0.04509694129228592
0.4888212978839874 0.6527217030525208 -0.06501270830631256
0.40565624833106995 0.5621747374534607 -0.022835221141576767
0.36333611607551575 0.5782050490379333 -0.02145395241677761
0.43269675970077515 0.6232830882072449 -0.05661778897047043
0.28411757946014404 0.32539719343185425 0.0342506468296051
0.306652307510376 0.35391682386398315 0.0011734834406524897
0.32931533455848694 0.3850494921207428 -0.02563333883881569
0.41756975650787354 0.7838528752326965 -0.030810723081231117
0.4471939504146576 0.3959042429924011 -0.044907744973897934
0.43647050857543945 0.3484223186969757 -0.029079167172312737
0.42233917117118835 0.298432856798172 -0.012090977281332016
0.3187715411186218 0.5050145983695984 0.005185842514038086
0.25788629055023193 0.5295429825782776 0.031182512640953064
0.42602184414863586 0.49326589703559875 0.006977494806051254
0.28304389119148254 0.4638288617134094 0.01274161133915186
0.45205673575401306 0.5335645079612732 -0.03252093493938446
0.46255141496658325 0.6176763772964478 -0.0977369174361229
0.2272656112909317 0.546214759349823 0.052002135664224625
0.27887415885925293 0.5464486479759216 0.010604863986372948
0.3149155378341675 0.5556678175926208 -0.007325210142880678
0.36560654640197754 0.5512269735336304 -0.011241501197218895
0.4017823338508606 0.5408592224121094 -0.011464567855000496
0.42835426330566406 0.5298783183097839 -0.012979850172996521
0.49190157651901245 0.5026768445968628 -0.05005132034420967
0.2335674911737442 0.5971454381942749 0.043496131896972656
0.26157134771347046 0.45981526374816895 0.022214461117982864
0.5204588770866394 0.6461217403411865 -0.11596627533435822
0.43864700198173523 0.573527991771698 -0.03743778169155121
0.1804911494255066 0.4980090856552124 0.19644470512866974
0.4486629068851471 0.5175023078918457 -0.013081841170787811
0.42685240507125854 0.6244949698448181 -0.03308805450797081
0.2940541207790375 0.4811819791793823 0.0209818035364151
0.45777416229248047 0.6013308167457581 -0.08838736265897751
0.19436490535736084 0.665083646774292 0.19936159253120422
0.4232034981250763 0.4848947525024414 0.012904196977615356
0.482858270406723 0.5872262716293335 -0.10907147824764252
0.2875077426433563 0.7919474244117737 0.05454220622777939
0.28111767768859863 0.82000333070755 0.09655684232711792
0.1976330578327179 0.6028481721878052 0.12562382221221924
0.2520902156829834 0.7563614845275879 0.08079887926578522
0.21386432647705078 0.4520018696784973 0.09833820164203644
0.40679851174354553 0.8786748051643372 -0.004750619176775217
0.5199556350708008 0.6507754921913147 -0.08364887535572052
0.4144781827926636 0.5912100076675415 -0.032003242522478104
0.22889190912246704 0.49980586767196655 0.06381180882453918
0.3449816107749939 0.49455785751342773 -0.00010238730465061963
0.3683265149593353 0.4952985644340515 -0.0033028151374310255
0.4187140166759491 0.751607358455658 -0.03295000270009041
0.2380499541759491 0.6464690566062927 0.050303734838962555
0.45555824041366577 0.9157602787017822 0.006561094429343939
0.36575067043304443 0.8788379430770874 0.04298751801252365
0.32606256008148193 0.8550217151641846 0.06576882302761078
0.5074360966682434 0.3508978486061096 -0.02521127089858055
0.5134281516075134 0.9201865196228027 0.0070100571028888226
0.38874661922454834 0.49307310581207275 -0.0013739181449636817
0.4069642424583435 0.4889279305934906 0.004747805651277304
0.4179823100566864 0.48650529980659485 0.01173243299126625
0.24020159244537354 0.45485079288482666 0.04404187202453613
0.40117672085762024 0.473091185092926 0.0013184741837903857
0.37942108511924744 0.4684271812438965 -0.004808907397091389
0.3582107722759247 0.46709370613098145 -0.006402510218322277
0.33539140224456787 0.4697785973548889 -0.0036619780585169792
0.3198646306991577 0.4748823046684265 0.0018469158094376326
0.1898876428604126 0.44241011142730713 0.16162283718585968
0.3275606632232666 0.491690456867218 0.0057403407990932465
0.5252993702888489 0.6730844378471375 -0.06431549042463303
0.43405646085739136 0.684596836566925 -0.05336731672286987
0.46339043974876404 0.6359296441078186 -0.07320980727672577
0.48889151215553284 0.6756889224052429 -0.06701048463582993
0.5137535333633423 0.46547067165374756 -0.03647258132696152
0.3260619640350342 0.8258393406867981 0.03605556860566139
0.363943487405777 0.8527345657348633 0.016814250499010086
0.45832356810569763 0.8968706130981445 -0.02160770073533058
0.2456592172384262 0.7803903818130493 0.13718949258327484
0.41635239124298096 0.48012667894363403 0.008237486705183983
0.477151483297348 0.5413278341293335 -0.06255966424942017
0.5174865126609802 0.9021811485290527 -0.020035112276673317
0.4081036448478699 0.9004240036010742 0.019393425434827805
0.20563319325447083 0.6571283340454102 0.12165176123380661
0.4722711145877838 0.7432080507278442 -0.049482766538858414
0.46858516335487366 0.749902606010437 -0.05392033979296684
0.4643598198890686 0.7611448764801025 -0.05863310024142265
0.4600742757320404 0.7757764458656311 -0.055307015776634216
0.4470890760421753 0.7998005151748657 -0.03732411935925484
0.4327391982078552 0.7389765977859497 -0.03595395013689995
0.4248597323894501 0.7367432117462158 -0.03751998394727707
0.41669273376464844 0.7327861785888672 -0.038330789655447006
0.38842979073524475 0.7173422574996948 -0.03529515117406845
0.2795501947402954 0.6597388982772827 0.007566011976450682
0.47216710448265076 0.516743004322052 -0.039472199976444244
0.4484233260154724 0.4691474139690399 0.0010937894694507122
0.4294130206108093 0.47213906049728394 0.006713113747537136
0.4370970129966736 0.736190915107727 -0.03315986692905426
0.27158135175704956 0.7200796604156494 0.03928530588746071
0.4769226312637329 0.46902531385421753 -0.025501998141407967
0.4293418824672699 0.824539303779602 -0.024962399154901505
0.5280166268348694 0.5485982894897461 -0.10048256814479828
0.4981432259082794 0.5287548899650574 -0.07489224523305893
0.5234653353691101 0.5235549807548523 -0.07684780657291412
0.4603564441204071 0.579613208770752 -0.06572075188159943
0.5192101001739502 0.8744992613792419 -0.032514963299036026
0.5188543200492859 0.8412038087844849 -0.03172948211431503
0.4740106463432312 0.8384413123130798 -0.03233560547232628
0.3663051128387451 0.7762838006019592 -0.010514912195503712
0.40379583835601807 0.6434576511383057 -0.03094889037311077
0.3937709331512451 0.8040900826454163 -0.0173399168998003
0.34166187047958374 0.6387608051300049 -0.02874857932329178
0.3791891932487488 0.6671774387359619 -0.032453328371047974
0.3182990252971649 0.6788169741630554 -0.015963353216648102
0.46473127603530884 0.8696913719177246 -0.03296413645148277
0.4421286880970001 0.592998743057251 -0.05129106715321541
0.33929306268692017 0.7971196174621582 0.009630508720874786
0.37568750977516174 0.8261411190032959 -0.0005632328684441745
0.3462293744087219 0.7442936301231384 -0.010788186453282833
0.24374382197856903 0.6888656616210938 0.05823402851819992
0.30777662992477417 0.748971700668335 0.010511867702007294
0.2209140956401825 0.7082988023757935 0.11053833365440369
0.3581010103225708 0.6988099813461304 -0.02709641121327877
0.45772337913513184 0.557208240032196 -0.04897833615541458
0.4726189374923706 0.6288889050483704 -0.10253199934959412
0.4524102807044983 0.6341512203216553 -0.07807482779026031
0.4859231412410736 0.6126767992973328 -0.11736684292554855
0.4275776147842407 0.44633322954177856 -0.008688247762620449
0.38676726818084717 0.4311562776565552 -0.017281275242567062
0.3508707582950592 0.4275144934654236 -0.02074013091623783
0.31959307193756104 0.43166613578796387 -0.01518078614026308
0.2964708209037781 0.44337642192840576 -0.003870572429150343
0.27744537591934204 0.4880194365978241 0.028626076877117157
0.19387385249137878 0.5511399507522583 0.1215289905667305
0.30110761523246765 0.5221796631813049 0.010753103531897068
0.33035922050476074 0.5295557975769043 -0.00013377338473219424
0.3657039403915405 0.5282912850379944 -0.0055502792820334435
0.3979394733905792 0.5219976902008057 -0.006285457871854305
0.421941339969635 0.5139725804328918 -0.0017914132913574576
0.4388127326965332 0.506469190120697 -0.0008408570429310203
0.18190181255340576 0.5510449409484863 0.21114647388458252
0.45148563385009766 0.6403177380561829 -0.0661761462688446
0.48201754689216614 0.563643217086792 -0.08255332708358765
0.4941259026527405 0.6303809881210327 -0.11849653720855713
0.5059051513671875 0.6420590281486511 -0.1071559488773346
0.4922724664211273 0.6341404914855957 -0.10728558897972107
0.45734038949012756 0.6477336883544922 -0.05713782086968422
0.5117291212081909 0.6444082856178284 -0.11316885054111481
0.5112483501434326 0.6489636301994324 -0.08456402271986008
0.4342505931854248 0.48634350299835205 0.011654384434223175
0.4523851275444031 0.49379074573516846 -0.0005732573918066919
0.4644280970096588 0.4990437626838684 -0.01574702188372612
0.31023263931274414 0.47860389947891235 0.008640744723379612
0.297153115272522 0.4662453532218933 0.008363919332623482
0.5483972430229187 0.5522327423095703 -0.08887889236211777
0.675675094127655 0.4879990220069885 0.06462797522544861
0.5507881045341492 0.6451041102409363 -0.07996974885463715
0.7249380350112915 0.4030667543411255 0.19758369028568268
0.6068041324615479 0.5075559616088867 0.02913900464773178
0.6298257112503052 0.5101737976074219 0.034881167113780975
0.6521767377853394 0.5100229382514954 0.04506374150514603
0.6817850470542908 0.4958556294441223 0.0694887712597847
0.588341236114502 0.5014121532440186 0.029096825048327446
0.6416140794754028 0.4450846016407013 0.027565503492951393
0.616003692150116 0.4478163719177246 0.02301214449107647
0.6651686429977417 0.44799405336380005 0.038744840770959854
0.6801290512084961 0.4568273425102234 0.05014880746603012
0.6960404515266418 0.5129919052124023 0.0830409899353981
0.6051387190818787 0.8455867767333984 0.008024291135370731
0.6840161681175232 0.48137378692626953 0.07402659952640533
0.7397648096084595 0.5020639300346375 0.20130082964897156
0.7162165641784668 0.49577921628952026 0.11207033693790436
0.6320590972900391 0.6096102595329285 0.0031330734491348267
0.5545933246612549 0.703112006187439 -0.06607326865196228
0.5462892055511475 0.7301125526428223 -0.05600237101316452
0.5802958607673645 0.7115882635116577 -0.04775889962911606
0.5932849049568176 0.7223594784736633 -0.02773146890103817
0.5642800331115723 0.7315738201141357 -0.043177541345357895
0.5760378837585449 0.7350903153419495 -0.024851225316524506
0.6163722276687622 0.7622634172439575 0.010644719935953617
0.5563849210739136 0.6336374282836914 -0.12304304540157318
0.559788703918457 0.6092399954795837 -0.12938617169857025
0.7103217244148254 0.429265558719635 0.06470075994729996
0.5839319825172424 0.5491575002670288 -0.003758884035050869
0.5982863903045654 0.6248579621315002 -0.05525391548871994
0.5980625748634338 0.6118252873420715 -0.047516047954559326
0.6937874555587769 0.6060663461685181 0.04532169550657272
0.5549874901771545 0.5784643888473511 -0.11305981874465942
0.6648629903793335 0.40414369106292725 0.014345959760248661
0.6933064460754395 0.4115269184112549 0.039129048585891724
0.7109799981117249 0.3625248074531555 0.14814549684524536
0.5654009580612183 0.4274176359176636 -0.02173611894249916
0.5939152836799622 0.4565690755844116 0.026289239525794983
0.6325835585594177 0.7383476495742798 0.020333178341388702
0.709852933883667 0.7209981083869934 0.2509010136127472
0.5799633860588074 0.6384801268577576 -0.04985969141125679
0.5620074272155762 0.6465504169464111 -0.055950481444597244
0.6048821210861206 0.7398931980133057 0.0137995146214962
0.5925570726394653 0.7386325001716614 0.004734257701784372
0.7026035189628601 0.3963642120361328 0.05277702212333679
0.5959173440933228 0.6352915167808533 -0.042709119617938995
0.6239523887634277 0.4075494408607483 -0.006454864516854286
0.6280823945999146 0.38934525847435 -0.010075286030769348
0.6341314315795898 0.31030094623565674 0.04267733544111252
0.7075554132461548 0.37980780005455017 0.09361132979393005
0.629302442073822 0.3499331474304199 0.015011129900813103
0.7190638184547424 0.41943860054016113 0.08831807225942612
0.7221589088439941 0.41337382793426514 0.13899138569831848
0.551320493221283 0.7181797027587891 -0.06372559815645218
0.5721635818481445 0.7235258221626282 -0.04668760672211647
0.5852113366127014 0.7289251089096069 -0.02845759689807892
0.5733237862586975 0.6429983973503113 -0.04580036923289299
0.5983402132987976 0.7396555542945862 0.008818497881293297
0.5923380851745605 0.7451896071434021 -0.008495832793414593
0.58953458070755 0.7370952367782593 0.0038850593846291304
0.5737375020980835 0.6319680213928223 -0.08307017385959625
0.5690433979034424 0.7342407703399658 -0.021746058017015457
0.556967556476593 0.7340819835662842 -0.03456900641322136
0.5407851934432983 0.734844446182251 -0.046153176575899124
0.5503981113433838 0.8093869686126709 -0.027440771460533142
0.5515071749687195 0.7833739519119263 -0.051011331379413605
0.550485372543335 0.7675826549530029 -0.05427528917789459
0.5477610230445862 0.752977728843689 -0.04940345510840416
0.5441056489944458 0.74387127161026 -0.04567694664001465
0.5738919973373413 0.7412082552909851 -0.020901812240481377
0.5782592296600342 0.7449182271957397 -0.024995166808366776
0.5845015048980713 0.7520073056221008 -0.028302114456892014
0.5898772478103638 0.7610746622085571 -0.022844787687063217
0.6151494979858398 0.6959904432296753 -0.01645880937576294
0.7269476652145386 0.6038544774055481 0.29581665992736816
0.5807565450668335 0.7405343055725098 -0.006639962550252676
0.5863302946090698 0.741932213306427 -0.00904372613877058
0.5547621846199036 0.6571381092071533 -0.05815733224153519
0.5861920714378357 0.6497889757156372 -0.028668921440839767
0.5583464503288269 0.6523809432983398 -0.057330526411533356
0.6067066192626953 0.5625817775726318 0.007895058020949364
0.6442147493362427 0.5786538124084473 0.020439716055989265
0.5991158485412598 0.622222900390625 -0.03399178758263588
0.683314323425293 0.3309902846813202 0.0930376946926117
0.6787906885147095 0.35746094584465027 0.05278370901942253
0.6718671321868896 0.3863382041454315 0.020459797233343124
0.6010942459106445 0.7807413339614868 -0.0035974658094346523
0.572697639465332 0.3972979187965393 -0.02959826961159706
0.573752760887146 0.3505313992500305 -0.010673495940864086
0.5757238268852234 0.30094221234321594 0.00821820367127657
0.6713980436325073 0.5055776834487915 0.058344412595033646
0.7168097496032715 0.5304793119430542 0.09923773258924484
0.5772573947906494 0.49490857124328613 0.031311966478824615
0.6995148658752441 0.4641404151916504 0.0745631754398346
0.5691081285476685 0.5339793562889099 -0.014129582792520523
0.588581383228302 0.6169822812080383 -0.08067773282527924
0.736086905002594 0.546553373336792 0.12923654913902283
0.7056912779808044 0.547329306602478 0.07477977871894836
0.6801471710205078 0.5565422773361206 0.04716336354613304
0.6376562118530273 0.5521307587623596 0.030650833621621132
0.6053450107574463 0.5418654084205627 0.020199855789542198
0.5821992754936218 0.5307123064994812 0.010488305240869522
0.5412241816520691 0.5030791759490967 -0.042397063225507736
0.7346713542938232 0.5958938002586365 0.120149627327919
0.7140881419181824 0.4603756070137024 0.08952770382165909
0.5456058979034424 0.646060585975647 -0.11223459243774414
0.5848449468612671 0.573542058467865 -0.01554070319980383
0.731789231300354 0.5005927681922913 0.2840135991573334
0.5656706094741821 0.5182809233665466 0.005417515989392996
0.5982524156570435 0.6235349178314209 -0.010595176368951797
0.6895453929901123 0.4816107153892517 0.07948863506317139
0.5870766639709473 0.6008041501045227 -0.07094082981348038
0.7217609882354736 0.6608029007911682 0.28050023317337036
0.5776404738426208 0.48622292280197144 0.03851022571325302
0.5724043250083923 0.586907684803009 -0.0962921530008316
0.6858206987380981 0.7826887965202332 0.11127565801143646
0.6779671907424927 0.8087791204452515 0.15390099585056305
0.7424823045730591 0.6005706787109375 0.20879627764225006
0.7068004608154297 0.7478838562965393 0.14760586619377136
0.7304011583328247 0.4547160565853119 0.17788489162921906
0.6099072694778442 0.8717676401138306 0.022443538531661034
0.5394505262374878 0.6506603956222534 -0.08135759830474854
0.6038297414779663 0.5909690856933594 -0.005024814512580633
0.7299156188964844 0.500754714012146 0.1393522322177887
0.6518715023994446 0.49543845653533936 0.04689979925751686
0.630833089351654 0.4966402053833008 0.03834858909249306
0.5985427498817444 0.749694287776947 -0.0036676828749477863
0.7289774417877197 0.6429943442344666 0.12424809485673904
0.5668717622756958 0.9118722677230835 0.021832266822457314
0.6291729211807251 0.8692677021026611 0.08036970347166061
0.652327835559845 0.8437370657920837 0.11259865015745163
0.6112845540046692 0.49474042654037476 0.03440309688448906
0.5933449864387512 0.49056777358055115 0.03532027080655098
0.5826078653335571 0.48807841539382935 0.03920412063598633
0.7243714928627014 0.4560806155204773 0.11708365380764008
0.5966018438339233 0.4741702675819397 0.032203786075115204
0.6161048412322998 0.4692475199699402 0.03123917244374752
0.636809766292572 0.46742427349090576 0.03558634594082832
0.6579911708831787 0.46985387802124023 0.04431091994047165
0.6711397767066956 0.4748952388763428 0.05329577624797821
0.7313190698623657 0.4467587471008301 0.24699687957763672
0.6658852100372314 0.49220365285873413 0.056673042476177216
0.5978761911392212 0.6826646327972412 -0.030499085783958435
0.5822238922119141 0.6348613500595093 -0.0584060400724411
0.5571572184562683 0.674970805644989 -0.05761224776506424
0.6614744067192078 0.8163641095161438 0.08209200203418732
0.6366849541664124 0.843603789806366 0.05335579439997673
0.5714927911758423 0.8933334350585938 -0.006953503470867872
0.6948540210723877 0.7708120942115784 0.2049420326948166
0.5839287638664246 0.48129409551620483 0.036081429570913315
0.5596526861190796 0.5415457487106323 -0.05041564628481865
0.6027470231056213 0.8930971622467041 0.046955306082963943
0.7355170845985413 0.6524657607078552 0.20096725225448608
0.5614519119262695 0.7419958114624023 -0.03384193032979965
0.5660449862480164 0.7487598657608032 -0.037845395505428314
0.5706766843795776 0.7598414421081543 -0.04154089838266373
0.5742862224578857 0.7741636037826538 -0.03764128312468529
0.5795063972473145 0.7974461317062378 -0.01755579560995102
0.585185170173645 0.7371331453323364 -0.008377865888178349
0.5936872363090515 0.734687089920044 -0.00737414276227355
0.6013147830963135 0.7307937741279602 -0.006591618526726961
0.6275463700294495 0.7150729298591614 0.0022364885080605745
0.705885112285614 0.6568078398704529 0.07039888203144073
0.5549144148826599 0.517155647277832 -0.0267657358199358
0.5606576204299927 0.4701405167579651 0.016719477251172066
0.5737553238868713 0.4733940362930298 0.029814505949616432
0.578818142414093 0.7343058586120605 -0.00678019504994154
0.7037111520767212 0.7141698598861694 0.10252691805362701
0.5438570976257324 0.4695553183555603 -0.01635444350540638
0.5922963619232178 0.8203559517860413 -0.0030776315834373236
0.5454016923904419 0.5288273096084595 -0.06827366352081299
0.57652747631073 0.5792607665061951 -0.04989977180957794
0.5584726929664612 0.8361644744873047 -0.021861031651496887
0.6391241550445557 0.7714995741844177 0.02789420634508133
0.616904079914093 0.6422286629676819 -0.0022771875374019146
0.6183198690414429 0.7990763187408447 0.013321093283593655
0.666163444519043 0.6374929547309875 0.01655011810362339
0.6372648477554321 0.6656705141067505 0.003624219913035631
0.6810715198516846 0.6757471561431885 0.035893503576517105
0.5682854056358337 0.8667669892311096 -0.019060613587498665
0.58729088306427 0.5927928686141968 -0.03131880983710289
0.6576890349388123 0.7897225618362427 0.05370224639773369
0.6316462755203247 0.8190243244171143 0.03324022516608238
0.656198263168335 0.7400314807891846 0.03548762947320938
0.7213535904884338 0.6836015582084656 0.12878888845443726
0.6814056634902954 0.7428543567657471 0.06393012404441833
0.7248148918151855 0.701541006565094 0.18589705228805542
0.6510692834854126 0.6964904069900513 0.01607998088002205
0.5718222856521606 0.5572153329849243 -0.031769976019859314
0.5817559957504272 0.6278781890869141 -0.08695139735937119
0.5917092561721802 0.6329307556152344 -0.06012042984366417
0.5763606429100037 0.6121771931648254 -0.1049615740776062
0.5805346369743347 0.44732964038848877 0.0127951605245471
0.6185672283172607 0.4322079122066498 0.014800257049500942
0.6516572833061218 0.4288104772567749 0.02191772684454918
0.6776089072227478 0.4329005777835846 0.03629377484321594
0.693897008895874 0.4439532458782196 0.05387892574071884
0.700478732585907 0.4884551167488098 0.09130961447954178
0.7444311380386353 0.551181435585022 0.2070656269788742
0.6862179040908813 0.5232272148132324 0.06837278604507446
0.6638422012329102 0.5303720235824585 0.05026144161820412
0.6340352892875671 0.5295658111572266 0.03575966879725456
0.6050484776496887 0.5234507322311401 0.02611530013382435
0.5834840536117554 0.5152621269226074 0.02282034046947956
0.569053590297699 0.5076449513435364 0.01909547857940197
0.7283138036727905 0.5516037940979004 0.29869261384010315
0.5884895920753479 0.6390461325645447 -0.04852345585823059
0.5643494725227356 0.5634306073188782 -0.06999633461236954
0.5702267289161682 0.629889190196991 -0.10862299054861069
0.5544624924659729 0.6416820287704468 -0.10162852704524994
0.5670745372772217 0.633449912071228 -0.09694328904151917
0.5806167125701904 0.646382749080658 -0.042222343385219574
0.5520340204238892 0.6443281173706055 -0.10832332074642181
0.5463406443595886 0.6489594578742981 -0.08060017973184586
0.5696572065353394 0.48763465881347656 0.03262253478169441
0.5574404001235962 0.49485695362091064 0.014988023787736893
0.5526424050331116 0.49978113174438477 -0.0028322129510343075
0.6788238883018494 0.4788115620613098 0.06236313655972481
0.6896697878837585 0.46665728092193604 0.0651911050081253
