ply
format ascii 1.0
element vertex 468
property float x
property float y
property float z
end_header
0.49317339062690735 0.6341111660003662 -0.1189456433057785
0.48938408493995667 0.5404857397079468 -0.12772735953330994
0.49360963702201843 0.5850145816802979 -0.08818335831165314
0.47264575958251953 0.49014705419540405 -0.05885973200201988
0.4895596206188202 0.5178460478782654 -0.12528689205646515
0.491418719291687 0.4981096386909485 -0.10235033184289932
0.4977510869503021 0.4585287570953369 -0.0012846539029851556
0.33283448219299316 0.49631595611572266 0.10778915137052536
0.4999324381351471 0.4215715825557709 0.04098737612366676
0.5000863075256348 0.39452803134918213 0.055506907403469086
0.5054025053977966 0.31094247102737427 0.14591054618358612
0.4933551549911499 0.6463589668273926 -0.1215129867196083
0.4939787983894348 0.6614087820053101 -0.11703193932771683
0.49464619159698486 0.6727181077003479 -0.10956060886383057
0.4949251711368561 0.7181376814842224 -0.10958003997802734
0.4943138659000397 0.7289514541625977 -0.11694856733083725
0.4938829839229584 0.7437872886657715 -0.12518610060214996
0.4936627745628357 0.7609339952468872 -0.12406621128320694
0.49392345547676086 0.7901936769485474 -0.1088574081659317
0.4905089735984802 0.5576688647270203 -0.12155931442975998
0.47248607873916626 0.5680297017097473 -0.09188903868198395
0.25920581817626953 0.45799267292022705 0.28117021918296814
0.3977516293525696 0.5038003921508789 0.07076799869537354
0.37473756074905396 0.5085240602493286 0.07362595945596695
0.3524928689002991 0.510107696056366 0.0823378637433052
0.3232566714286804 0.5063978433609009 0.10689978301525116
0.4166813790798187 0.4954224228858948 0.07246909290552139
0.36851346492767334 0.44622278213500977 0.08505766838788986
0.393061101436615 0.4456820785999298 0.08433860540390015
0.34571272134780884 0.4521160125732422 0.09247512370347977
0.3298948109149933 0.46318385004997253 0.10118075460195541
0.30385321378707886 0.5232798457145691 0.11237422376871109
0.39329540729522705 0.827282190322876 -0.09698978811502457
0.3256174325942993 0.49382925033569336 0.11796675622463226
0.2422272264957428 0.5458362698554993 0.2290663719177246
0.2795684337615967 0.5166053175926208 0.14687591791152954
0.37677162885665894 0.5797685384750366 -0.003371625207364559
0.46170490980148315 0.6344485878944397 -0.11027061194181442
0.46926242113113403 0.6661988496780396 -0.11090314388275146
0.43071380257606506 0.6550963521003723 -0.09744970500469208
0.4147457480430603 0.6799314022064209 -0.08212273567914963
0.44842302799224854 0.6768792867660522 -0.09942144900560379
0.43414488434791565 0.6917274594306946 -0.08486687391996384
0.3858921229839325 0.7466574311256409 -0.06633889675140381
0.4693876802921295 0.5422437191009521 -0.12361312657594681
0.46592020988464355 0.5218327641487122 -0.12024525552988052
0.29588353633880615 0.451820969581604 0.1278579831123352
0.4239598512649536 0.5229103565216064 0.019188102334737778
0.4161827266216278 0.563972532749176 -0.061068616807460785
0.41517823934555054 0.5573098659515381 -0.04897405207157135
0.3080715239048004 0.5954921245574951 0.033566202968358994
0.4688395857810974 0.5029319524765015 -0.0930090844631195
0.3507842421531677 0.41263580322265625 0.09205038100481033
0.3182893991470337 0.4281535744667053 0.11067106574773788
0.28095218539237976 0.40769803524017334 0.25477874279022217
0.45162832736968994 0.4199570119380951 0.055596355348825455
0.4148269295692444 0.4515712857246399 0.08650916069746017
0.371865451335907 0.7229419946670532 -0.0491928905248642
0.2627965807914734 0.774168848991394 0.1571274697780609
0.43691205978393555 0.5758234262466431 -0.06043064966797829
0.4578312039375305 0.5820924639701843 -0.07257519662380219
0.401225209236145 0.7248128056526184 -0.05434996262192726
0.4152470827102661 0.7229554653167725 -0.062063876539468765
0.30648499727249146 0.4198704957962036 0.13308307528495789
0.4182001054286957 0.5803619027137756 -0.05458870157599449
0.39469826221466064 0.4089813232421875 0.07332445681095123
0.39035850763320923 0.3929362893104553 0.08041074872016907
0.3727223873138428 0.33344659209251404 0.18286438286304474
0.294098436832428 0.41198059916496277 0.18758462369441986
0.3835066854953766 0.3590266704559326 0.13236284255981445
0.2838701009750366 0.4506712257862091 0.15691272914409637
0.2715398073196411 0.4544604420661926 0.2170538753271103
0.4644162654876709 0.6503978967666626 -0.11339497566223145
0.43971043825149536 0.6663023829460144 -0.10034529864788055
0.42397651076316833 0.6854652762413025 -0.08610633760690689
0.4441941976547241 0.5818762183189392 -0.059522438794374466
0.40845975279808044 0.7245256304740906 -0.05860146880149841
0.41477304697036743 0.7283934354782104 -0.07694753259420395
0.4187297224998474 0.7210791707038879 -0.06268218904733658
0.4466572403907776 0.555321216583252 -0.08598485589027405
0.44098854064941406 0.6936063170433044 -0.08247368782758713
0.45539796352386475 0.6822386980056763 -0.093728207051754
0.4736972749233246 0.6755861639976501 -0.10374250262975693
0.45844587683677673 0.7879266142845154 -0.1059657484292984
0.45976823568344116 0.7585919499397278 -0.11879581212997437
0.46293696761131287 0.7421677112579346 -0.11806511878967285
0.4664750099182129 0.7269840240478516 -0.10938351601362228
0.4702809154987335 0.7182357311248779 -0.10238087922334671
0.43723854422569275 0.7219246625900269 -0.08121591061353683
0.4319111108779907 0.7250499725341797 -0.08727046847343445
0.4239412546157837 0.7319470643997192 -0.09345366805791855
0.41631990671157837 0.7409103512763977 -0.09191062301397324
0.3958234190940857 0.6574245691299438 -0.062401507049798965
0.2429884970188141 0.6671825051307678 0.261098712682724
0.4921756386756897 0.5708277225494385 -0.09861991554498672
0.4287487268447876 0.7236484885215759 -0.07061813771724701
0.4221418499946594 0.7247503995895386 -0.07502612471580505
0.4647396206855774 0.5914270281791687 -0.0803283154964447
0.42825213074684143 0.5983263850212097 -0.047617070376873016
0.4618365466594696 0.5868576169013977 -0.07639389485120773
0.39866721630096436 0.5399630665779114 0.021575940772891045
0.3610836863517761 0.5589569807052612 0.024316390976309776
0.412908136844635 0.5727701187133789 -0.04134991765022278
0.31710201501846313 0.3653714954853058 0.2179161012172699
0.3298507332801819 0.3791831135749817 0.15974126756191254
0.34317123889923096 0.3995611071586609 0.10945402830839157
0.402121901512146 0.7615907788276672 -0.08277755975723267
0.4447152614593506 0.39256516098976135 0.06337237358093262
0.438689649105072 0.3515489399433136 0.1122354120016098
0.4329721927642822 0.31738054752349854 0.1569182425737381
0.3335001468658447 0.5104895234107971 0.09443457424640656
0.2780502140522003 0.5425987243652344 0.11970581114292145
0.4293302595615387 0.48710423707962036 0.07740160077810287
0.3048848509788513 0.47988009452819824 0.12408997118473053
0.441314160823822 0.5049374103546143 0.016268886625766754
0.4296145737171173 0.5458025336265564 -0.07947404682636261
0.25400665402412415 0.5665799975395203 0.13808903098106384
0.29160699248313904 0.5505638122558594 0.08882857114076614
0.32005423307418823 0.5498390197753906 0.060907792299985886
0.36571669578552246 0.5399001836776733 0.04765615612268448
0.3989378809928894 0.5270148515701294 0.0440351627767086
0.42456287145614624 0.5131185054779053 0.040614403784275055
0.4742400348186493 0.4668372869491577 0.007528897374868393
0.2561468780040741 0.6104611754417419 0.10521061718463898
0.28701698780059814 0.48323240876197815 0.14066889882087708
0.4793781638145447 0.5580859780311584 -0.1187024638056755
0.42404332756996155 0.5373373031616211 -0.0028402740135788918
0.24111491441726685 0.5670720934867859 0.30803316831588745
0.4433867633342743 0.49746063351631165 0.04316696524620056
0.4124905467033386 0.5809426307678223 -0.019232621416449547
0.3157593011856079 0.495218425989151 0.12262388318777084
0.42913201451301575 0.5381877422332764 -0.06421034783124924
0.24797385931015015 0.7196760773658752 0.21654990315437317
0.4301258623600006 0.48128193616867065 0.08899737894535065
0.44859573245048523 0.517755389213562 -0.08170129358768463
0.2998456060886383 0.7951062321662903 0.011159694753587246
0.30013251304626465 0.8377689719200134 0.033739376813173294
0.23790031671524048 0.6380147337913513 0.18377922475337982
0.27775511145591736 0.7706494331359863 0.056001678109169006
0.25745347142219543 0.4980255961418152 0.23227016627788544
0.38427627086639404 0.8604013919830322 -0.0977143719792366
0.48358580470085144 0.5704911947250366 -0.09580931812524796
0.40417659282684326 0.5590894818305969 -0.0017903491389006376
0.2608841359615326 0.5280296206474304 0.17113947868347168
0.35517027974128723 0.4974566102027893 0.0896533653140068
0.37521952390670776 0.496357262134552 0.08186900615692139
0.40675824880599976 0.7332120537757874 -0.07452797889709473
0.26121222972869873 0.6567869186401367 0.0834629163146019
0.4301500916481018 0.9072273969650269 -0.11338160187005997
0.35414648056030273 0.8771495819091797 -0.04760955274105072
0.32719868421554565 0.8601912260055542 -0.01217554323375225
0.5024183392524719 0.34986358880996704 0.10029023140668869
0.4918774962425232 0.9136407971382141 -0.12691067159175873
0.39386704564094543 0.49313992261886597 0.07950559258460999
0.41153794527053833 0.4876505136489868 0.08261304348707199
0.4232707619667053 0.4841547906398773 0.08805137127637863
0.2721995711326599 0.48785775899887085 0.1691734790802002
0.41161468625068665 0.4759393632411957 0.08721529692411423
0.39227592945098877 0.4763375222682953 0.08576010167598724
0.3744391202926636 0.47725075483322144 0.08875555545091629
0.35545116662979126 0.48119452595710754 0.09474211186170578
0.3420981466770172 0.4861558973789215 0.10178858041763306
0.24713337421417236 0.5076820850372314 0.3032281994819641
0.3421286940574646 0.4970073699951172 0.09916705638170242
0.4937623143196106 0.6026727557182312 -0.0925230160355568
0.41528451442718506 0.6339307427406311 -0.06833606213331223
0.4351043999195099 0.5684204697608948 -0.06473815441131592
0.4596206545829773 0.6101654171943665 -0.08834981918334961
0.49977779388427734 0.44374099373817444 0.029498593881726265
0.3239152431488037 0.820612907409668 -0.028099974617362022
0.3517133295536041 0.8399829864501953 -0.06293321400880814
0.42949146032333374 0.8756394982337952 -0.12878932058811188
0.28108376264572144 0.8134409189224243 0.09338627755641937
0.42433759570121765 0.4783238172531128 0.0884503424167633
0.4557010531425476 0.4960252046585083 -0.017704246565699577
0.4904003143310547 0.8832029700279236 -0.14102250337600708
0.3869563341140747 0.8928993940353394 -0.0848141461610794
0.24426576495170593 0.6883351802825928 0.14944836497306824
0.45127153396606445 0.718944787979126 -0.09184667468070984
0.44582250714302063 0.7253859043121338 -0.09823308885097504
0.4392135441303253 0.7363896369934082 -0.10515060275793076
0.4334288239479065 0.7512390613555908 -0.10539907962083817
0.42525622248649597 0.7763737440109253 -0.09695285558700562
0.42344820499420166 0.7082094550132751 -0.07198993116617203
0.4136335253715515 0.7059764266014099 -0.0699162557721138
0.40475761890411377 0.7027501463890076 -0.06737345457077026
0.38123029470443726 0.6880757212638855 -0.052628859877586365
0.29279986023902893 0.6533713340759277 0.030150171369314194
0.4584425687789917 0.48417139053344727 0.013701456598937511
0.45012176036834717 0.4594523310661316 0.07637104392051697
0.43549320101737976 0.4655705690383911 0.08683210611343384
0.430259644985199 0.7054579257965088 -0.0707852765917778
0.2899220585823059 0.7209471464157104 0.032605089247226715
0.46945101022720337 0.45162829756736755 0.04639383405447006
0.40892475843429565 0.7997546792030334 -0.09466256946325302
0.49377501010894775 0.4844631552696228 -0.06782665103673935
0.4727516770362854 0.4789695739746094 -0.026670880615711212
0.49565088748931885 0.47176337242126465 -0.032714296132326126
0.4371868968009949 0.5284945964813232 -0.03431261330842972
0.49076229333877563 0.8483014106750488 -0.13861173391342163
0.49247220158576965 0.8157205581665039 -0.12265530973672867
0.447796493768692 0.8119706511497498 -0.11478426307439804
0.35825926065444946 0.7585030198097229 -0.054999787360429764
0.39481765031814575 0.6048539280891418 -0.021093567833304405
0.3792988955974579 0.7825261354446411 -0.07614092528820038
0.3419645428657532 0.6130977272987366 -0.005468669347465038
0.3736780285835266 0.6330657601356506 -0.028714563697576523
0.3242785334587097 0.6596221327781677 -0.005422906018793583
0.43588870763778687 0.8422197103500366 -0.12650741636753082
0.42350515723228455 0.5474662780761719 -0.024749625474214554
0.3342118263244629 0.7838994860649109 -0.04108273610472679
0.362015962600708 0.8072149157524109 -0.06948378682136536
0.34436747431755066 0.7280853390693665 -0.035914164036512375
0.26792076230049133 0.6988238096237183 0.06808055192232132
0.31419837474823 0.7401211261749268 -0.011828072369098663
0.2557925581932068 0.7337877154350281 0.10979390144348145
0.35723209381103516 0.6737571954727173 -0.03147497773170471
0.4403579831123352 0.5164592266082764 -0.009519511833786964
0.43793514370918274 0.5516530275344849 -0.08759331703186035
0.4242647588253021 0.5685808658599854 -0.06834308803081512
0.44663435220718384 0.5312314033508301 -0.10053124278783798
0.43278032541275024 0.44118690490722656 0.08047879487276077
0.39479851722717285 0.4305664896965027 0.08370935171842575
0.3617151975631714 0.4310986399650574 0.08748998492956161
0.33400893211364746 0.4401552081108093 0.09698278456926346
0.31471920013427734 0.45662611722946167 0.11069482564926147
0.30028003454208374 0.5050735473632812 0.1308029145002365
0.23638299107551575 0.5910241007804871 0.2083960771560669
0.31469327211380005 0.527858555316925 0.0954303964972496
0.3375489115715027 0.5278676748275757 0.07664071768522263
0.368693470954895 0.5236483216285706 0.0635892003774643
0.398782879114151 0.5152804255485535 0.059530109167099
0.4220200777053833 0.5047086477279663 0.05949540063738823
0.4383675754070282 0.4944724142551422 0.060384802520275116
0.24255335330963135 0.6185766458511353 0.2940940856933594
0.4270329177379608 0.579666256904602 -0.060386572033166885
0.45385390520095825 0.5061901211738586 -0.04616301506757736
0.4542239308357239 0.5438380837440491 -0.10879405587911606
0.47013795375823975 0.5597310662269592 -0.10802913457155228
0.4559023380279541 0.5518844127655029 -0.09924092888832092
0.43528786301612854 0.5895030498504639 -0.05772700533270836
0.4729270339012146 0.5587517023086548 -0.11537573486566544
0.4767166078090668 0.5706591606140137 -0.09367291629314423
0.4389970302581787 0.47821784019470215 0.08298876881599426
0.45160895586013794 0.47992438077926636 0.06432455033063889
0.45807892084121704 0.478260338306427 0.043832726776599884
0.33292996883392334 0.49006444215774536 0.10855686664581299
0.3176959753036499 0.4778887927532196 0.11304369568824768
0.5153012275695801 0.4891803562641144 -0.06425334513187408
0.6780458688735962 0.48861247301101685 0.07017532736063004
0.5143172144889832 0.5668919086456299 -0.09565199166536331
0.7824015617370605 0.4459420442581177 0.22613203525543213
0.6106628179550171 0.4995081424713135 0.0467514768242836
0.6341875791549683 0.5027232766151428 0.04421999678015709
0.6577151417732239 0.5036126375198364 0.04897524043917656
0.6901040077209473 0.4986565411090851 0.06743335723876953
0.5913963913917542 0.49220502376556396 0.05285722762346268
0.6379706263542175 0.44029706716537476 0.05495406314730644
0.6137552857398987 0.4413580298423767 0.060439832508563995
0.662362813949585 0.44511401653289795 0.05757538974285126
0.6797651052474976 0.4556962251663208 0.06392405927181244
0.7126442193984985 0.5152980089187622 0.06978800892829895
0.5981594324111938 0.8272802829742432 -0.11523081362247467
0.686294436454773 0.4861215353012085 0.07902070134878159
0.7947854995727539 0.5358527302742004 0.1720312535762787
0.7417305111885071 0.5077916383743286 0.09926331043243408
0.6236745715141296 0.5745905637741089 -0.028524154797196388
0.5251637101173401 0.6322567462921143 -0.11688853800296783
0.5195895433425903 0.664881706237793 -0.1166745126247406
0.5588995218276978 0.6512951254844666 -0.11071711033582687
0.578156054019928 0.6750827431678772 -0.10047395527362823
0.5430501103401184 0.6740411520004272 -0.11138767749071121
0.559670090675354 0.6882895827293396 -0.10036623477935791
0.6125449538230896 0.7426983714103699 -0.09028991311788559
0.5103273391723633 0.5410187244415283 -0.1268283724784851
0.5137541890144348 0.5205036401748657 -0.12438145279884338
0.7187761664390564 0.4438086748123169 0.08370748162269592
0.5774146318435669 0.5200226306915283 0.0032846592366695404
0.5751432776451111 0.5603637099266052 -0.07629413157701492
0.5777212381362915 0.5538210272789001 -0.06447088718414307
0.6999090909957886 0.5875106453895569 -0.008136763237416744
0.5149359107017517 0.5020194053649902 -0.09812037646770477
0.6553283333778381 0.40723544359207153 0.06042000278830528
0.6913449168205261 0.4209592938423157 0.0716220960021019
0.7517071962356567 0.3955724835395813 0.205775648355484
0.5498591065406799 0.4184407889842987 0.044772107154130936
0.5928610563278198 0.44803765416145325 0.06697563827037811
0.6279004812240601 0.7171843647956848 -0.07762881368398666
0.7770156264305115 0.7709890604019165 0.10414128005504608
0.5552341341972351 0.5726249814033508 -0.07105327397584915
0.5330319404602051 0.5801215171813965 -0.07793712615966797
0.5970419645309448 0.719373345375061 -0.07950790971517563
0.5841236114501953 0.7182063460350037 -0.08367209136486053
0.7061592936515808 0.41247183084487915 0.09213781356811523
0.5756905674934387 0.5767590999603271 -0.06922569125890732
0.6087725758552551 0.4047970771789551 0.052084069699048996
0.6130746603012085 0.3881168067455292 0.05838341638445854
0.6451861262321472 0.32472753524780273 0.1542486548423767
0.7280727624893188 0.40191641449928284 0.14311227202415466
0.6265785694122314 0.3525024950504303 0.1070956438779831
0.7353390455245972 0.4419671297073364 0.11008244007825851
0.7581353187561035 0.4439365565776825 0.16626134514808655
0.5228210091590881 0.6483932137489319 -0.11977258324623108
0.5503756999969482 0.6632570028305054 -0.11330590397119522
0.5687475204467773 0.6807495355606079 -0.10318675637245178
0.5485599637031555 0.5789908766746521 -0.06841970235109329
0.5900719165802002 0.7192909121513367 -0.08168356120586395
0.5823996067047119 0.7239519357681274 -0.09635010361671448
0.5812790989875793 0.7164964079856873 -0.08413584530353546
0.5408092141151428 0.5524042248725891 -0.09624702483415604
0.554488480091095 0.690287172794342 -0.09766609966754913
0.5374279022216797 0.6799983978271484 -0.10497456789016724
0.5168775916099548 0.6744841933250427 -0.10991879552602768
0.5305652618408203 0.787280797958374 -0.11199259012937546
0.5284176468849182 0.7577502131462097 -0.12569227814674377
0.5261159539222717 0.7410919070243835 -0.1251097023487091
0.5231322050094604 0.7254113554954529 -0.11607851088047028
0.5203750133514404 0.7170182466506958 -0.1090329959988594
0.5588294863700867 0.7184301018714905 -0.09613844007253647
0.5636921525001526 0.7217927575111389 -0.10186178982257843
0.5711891651153564 0.7287604212760925 -0.10898114740848541
0.5783385634422302 0.7379547357559204 -0.1082063615322113
0.5994833707809448 0.652580976486206 -0.08348976075649261
0.807025671005249 0.6606800556182861 0.20203427970409393
0.5693676471710205 0.7199097871780396 -0.08889172226190567
0.5753597021102905 0.720962405204773 -0.09345822781324387
0.5254984498023987 0.5899498462677002 -0.0854981541633606
0.5670504570007324 0.5952374935150146 -0.06007877737283707
0.5289819240570068 0.5852229595184326 -0.08134520798921585
0.6037218570709229 0.5360156297683716 -0.0001398840540787205
0.642890989780426 0.5531925559043884 -0.005176246166229248
0.581408679485321 0.5687528252601624 -0.05769922211766243
0.7078858017921448 0.3541680574417114 0.17781507968902588
0.6863758563995361 0.370776891708374 0.12360386550426483
0.6648679971694946 0.39342260360717773 0.07661879062652588
0.593617856502533 0.7589980363845825 -0.10220445692539215
0.5565664768218994 0.39039233326911926 0.051864851266145706
0.5679578185081482 0.34775054454803467 0.09930727630853653
0.5801941752433777 0.3122170865535736 0.14260271191596985
0.6785887479782104 0.5030121207237244 0.057532284408807755
0.7405714988708496 0.533595085144043 0.07276633381843567
0.5785211324691772 0.4846462607383728 0.06013959273695946
0.7101981043815613 0.4718974530696869 0.08094799518585205
0.5583968162536621 0.5026382207870483 0.0031700152903795242
0.558080792427063 0.5426780581474304 -0.09158720076084137
0.769380509853363 0.5573107004165649 0.08449655771255493
0.7225916981697083 0.5419593453407288 0.04429764673113823
0.6894387602806091 0.5422146916389465 0.022769786417484283
0.6407619118690491 0.5344069004058838 0.018112117424607277
0.6063281893730164 0.5230389833450317 0.021321414038538933
0.5795853137969971 0.5101721286773682 0.02425447478890419
0.5221633911132812 0.46624282002449036 0.0022731665521860123
0.7643747329711914 0.6014983057975769 0.05120638757944107
0.7322781682014465 0.47453761100769043 0.09434753656387329
0.502203643321991 0.5574928522109985 -0.1212916374206543
0.5741978883743286 0.5343433022499084 -0.01859891228377819
0.8102529048919678 0.5575618743896484 0.24807870388031006
0.5596045851707458 0.49544036388397217 0.02979857474565506
0.5852175354957581 0.5773512125015259 -0.03623293712735176
0.6982077360153198 0.4871295094490051 0.08121490478515625
0.5607973337173462 0.535215437412262 -0.07669996470212936
0.7983279228210449 0.714297354221344 0.16017360985279083
0.5788043141365051 0.4787609577178955 0.07099968194961548
0.537468433380127 0.5155895352363586 -0.09065878391265869
0.7128530144691467 0.7935118675231934 -0.02907460369169712
0.7192163467407227 0.8379313945770264 -0.006242742296308279
0.7964087724685669 0.6303087472915649 0.12618882954120636
0.7430957555770874 0.7671189904212952 0.00874444842338562
0.7777029871940613 0.4874873757362366 0.17801718413829803
0.6068985462188721 0.862031102180481 -0.11730840057134628
0.5014585256576538 0.5700399279594421 -0.09764828532934189
0.595808207988739 0.555083692073822 -0.021279187873005867
0.7654749155044556 0.5187814831733704 0.11921358853578568
0.6540198922157288 0.49082013964653015 0.05678454041481018
0.6332575678825378 0.49058598279953003 0.05263274908065796
0.5902826189994812 0.7286640405654907 -0.0953470766544342
0.7585006356239319 0.6490722298622131 0.03133465722203255
0.55619877576828 0.9086597561836243 -0.1240757405757904
0.6462328433990479 0.8792208433151245 -0.07440539449453354
0.6816969513893127 0.8617623448371887 -0.04494376853108406
0.6140114665031433 0.4884152412414551 0.054884981364011765
0.5969457626342773 0.4844948649406433 0.060706526041030884
0.5855205655097961 0.48144057393074036 0.06892576068639755
0.7522280216217041 0.4785921573638916 0.11919892579317093
0.5960032343864441 0.4721584916114807 0.06557919085025787
0.6142780780792236 0.471336305141449 0.06057136505842209
0.6317896246910095 0.471092164516449 0.05958198755979538
0.6517502665519714 0.47399139404296875 0.061307817697525024
0.6672053337097168 0.47848302125930786 0.06616897135972977
0.8007854223251343 0.4966675639152527 0.24502435326576233
0.6681486368179321 0.4896509051322937 0.06335994601249695
0.578299880027771 0.6301934123039246 -0.08422761410474777
0.5560450553894043 0.5649673342704773 -0.07509627193212509
0.5289878845214844 0.6083342432975769 -0.09498260170221329
0.6814889311790466 0.8203046917915344 -0.0605742521584034
0.6468626856803894 0.8411997556686401 -0.08887383341789246
0.5544553399085999 0.876478910446167 -0.13951155543327332
0.7490837574005127 0.8120765686035156 0.046103596687316895
0.5838162302970886 0.47559401392936707 0.06915844231843948
0.537804901599884 0.4943447709083557 -0.026262791827321053
0.6054248809814453 0.8952018022537231 -0.10469771176576614
0.7882921695709229 0.6818890571594238 0.09442003071308136
0.5423757433891296 0.7168280482292175 -0.10328762233257294
0.5469287633895874 0.7231176495552063 -0.10989856719970703
0.5523431301116943 0.7344942092895508 -0.11730267107486725
0.5575172901153564 0.7496278882026672 -0.11801289021968842
0.5669999122619629 0.7749795317649841 -0.11133851110935211
0.5731292963027954 0.7037239074707031 -0.09067635983228683
0.5822840332984924 0.7008591890335083 -0.09112758189439774
0.5909439921379089 0.6971548199653625 -0.08951826393604279
0.6162475347518921 0.6823804378509521 -0.07935742288827896
0.7180482149124146 0.645736575126648 -0.014581668190658092
0.5396813154220581 0.4827510118484497 0.0048669190146028996
0.5562903881072998 0.45807239413261414 0.06569827347993851
0.5722920298576355 0.4629994034767151 0.0705418586730957
0.5683331489562988 0.70173180103302 -0.08923935890197754
0.7241532206535339 0.7155404090881348 -0.01213459949940443
0.5325456857681274 0.45070523023605347 0.039542462676763535
0.5837600231170654 0.799117386341095 -0.11061688512563705
0.5190457105636597 0.4781424403190613 -0.031373873353004456
0.5556983351707458 0.5258830785751343 -0.045654550194740295
0.5396060943603516 0.8118360638618469 -0.12218524515628815
0.6421254873275757 0.7551599144935608 -0.08248105645179749
0.6042002439498901 0.6008063554763794 -0.04169716686010361
0.617779016494751 0.7809188365936279 -0.09800584614276886
0.6601256132125854 0.6070069074630737 -0.03820330277085304
0.6255471706390381 0.6279979348182678 -0.054523587226867676
0.68028724193573 0.6533769965171814 -0.04269900172948837
0.5486964583396912 0.8423291444778442 -0.13630147278308868
0.5728233456611633 0.5446098446846008 -0.0392489954829216
0.6687079668045044 0.7819007635116577 -0.07255546748638153
0.635404109954834 0.8066693544387817 -0.09337780624628067
0.6577569842338562 0.7229971289634705 -0.06932535767555237
0.7513765096664429 0.6923511028289795 0.018082506954669952
0.692663311958313 0.7358095645904541 -0.04998556897044182
0.7726393342018127 0.7287808060646057 0.05710454285144806
0.6431196928024292 0.6680805087089539 -0.06160622835159302
0.5559106469154358 0.5141584277153015 -0.02168847993016243
0.5490926504135132 0.5487105846405029 -0.09839363396167755
0.5668697953224182 0.5648879408836365 -0.08099499344825745
0.5366487503051758 0.5289703011512756 -0.1087302565574646
0.573546826839447 0.4387102723121643 0.06552068889141083
0.6113799810409546 0.42602548003196716 0.06120585277676582
0.6448454856872559 0.42474859952926636 0.05742904543876648
0.6742540597915649 0.4329027533531189 0.06055818498134613
0.6968738436698914 0.4487447738647461 0.07042033225297928
0.7170554399490356 0.496778279542923 0.08707020431756973
0.7992000579833984 0.5822122097015381 0.1490286886692047
0.6990805268287659 0.5199797749519348 0.055487919598817825
0.6730676889419556 0.5211881399154663 0.0416816771030426
0.6396480798721313 0.5181494951248169 0.03465079888701439
0.6083769202232361 0.5110504031181335 0.03619448095560074
0.5848179459571838 0.5017547011375427 0.04214182496070862
0.5678247213363647 0.49230748414993286 0.04611165076494217
0.8096215724945068 0.6103330850601196 0.23398180305957794
0.5656343698501587 0.5761781334877014 -0.07281067967414856
0.5359708070755005 0.504604160785675 -0.05538306012749672
0.5282343029975891 0.5418016910552979 -0.11566438525915146
0.5144047141075134 0.5583178400993347 -0.11184903234243393
0.5287147760391235 0.5496955513954163 -0.10623140633106232
0.5584576725959778 0.5867742300033569 -0.06839177757501602
0.5097376704216003 0.557721734046936 -0.11846885830163956
0.508942723274231 0.5698199272155762 -0.09666843712329865
0.5688125491142273 0.47613978385925293 0.06798890233039856
0.5540844798088074 0.4786433279514313 0.05312667787075043
0.5445693135261536 0.47694480419158936 0.03431309387087822
0.6773249506950378 0.4823853373527527 0.07127338647842407
0.6948635578155518 0.47033101320266724 0.0732409656047821
