ply
format ascii 1.0
element vertex 468
property float x
property float y
property float z
end_header
0.503892719745636 0.6983687877655029 -0.07358746230602264
0.5100077986717224 0.6207672953605652 -0.14061987400054932
0.5054337382316589 0.6478967070579529 -0.07851899415254593
0.48812341690063477 0.5373251438140869 -0.10522346198558807
0.510519802570343 0.5934342741966248 -0.14814141392707825
0.5097351670265198 0.5594981908798218 -0.13745315372943878
0.5061535239219666 0.4816781282424927 -0.06703604757785797
0.32984068989753723 0.488637775182724 0.024103913456201553
0.5050467848777771 0.4327082633972168 -0.047910843044519424
0.5052801966667175 0.4004632234573364 -0.05099249258637428
0.5038286447525024 0.2740853726863861 -0.020519878715276718
0.5034557580947876 0.7102869153022766 -0.07058548927307129
0.5029236674308777 0.717609167098999 -0.0640379786491394
0.5021616220474243 0.7182498574256897 -0.05411577597260475
0.5030062198638916 0.7618589401245117 -0.04152565076947212
0.5030583739280701 0.7707229256629944 -0.04686269164085388
0.5028669238090515 0.7822339534759521 -0.053350258618593216
0.5023651123046875 0.7967946529388428 -0.05077585577964783
0.5010576844215393 0.8254602551460266 -0.031365443021059036
0.5084613561630249 0.6357277631759644 -0.12827984988689423
0.4834892451763153 0.6344149708747864 -0.09552597254514694
0.23035573959350586 0.4071853756904602 0.13601958751678467
0.4014964699745178 0.50545734167099 0.0031024767085909843
0.37710902094841003 0.5078597068786621 0.0033343532122671604
0.3528151512145996 0.507388710975647 0.008292998187243938
0.31798213720321655 0.4982476234436035 0.02678968943655491
0.42153123021125793 0.4986969828605652 0.006921724416315556
0.36937227845191956 0.4516086280345917 -0.00698994193226099
0.3938945531845093 0.45172539353370667 -0.004125050734728575
0.3453376293182373 0.4560067057609558 -0.000877987768035382
0.328246533870697 0.4643595218658447 0.008448459208011627
0.29720747470855713 0.5137577056884766 0.03779267892241478
0.4008273482322693 0.8675699830055237 -0.004185875877737999
0.3200656771659851 0.4852389693260193 0.0314926952123642
0.21792632341384888 0.5167703032493591 0.14392589032649994
0.2684580683708191 0.5036506652832031 0.061448343098163605
0.37451452016830444 0.6017493605613708 -0.026697246357798576
0.46470677852630615 0.6938917636871338 -0.07234568893909454
0.46595239639282227 0.7162513732910156 -0.06105056032538414
0.42349594831466675 0.6988291144371033 -0.05686463788151741
0.39570266008377075 0.7059263586997986 -0.03225717693567276
0.43542784452438354 0.7160669565200806 -0.0484769232571125
0.41120976209640503 0.7171010971069336 -0.026027938351035118
0.3661288619041443 0.7574214339256287 0.012514639645814896
0.4887872040271759 0.6206262111663818 -0.1392001062631607
0.487164169549942 0.5940593481063843 -0.1463562548160553
0.28803616762161255 0.44209402799606323 0.01117595937103033
0.4308200180530548 0.5410313606262207 -0.024698356166481972
0.4250478446483612 0.6120696067810059 -0.08065199106931686
0.4236391484737396 0.5985212922096252 -0.07234256714582443
0.29596757888793945 0.6000199317932129 0.00129125255625695
0.4878860116004944 0.5627692341804504 -0.13078714907169342
0.3520349860191345 0.41355180740356445 -0.027549851685762405
0.31525349617004395 0.42332303524017334 -0.011437046341598034
0.25882455706596375 0.3586885631084442 0.09054090827703476
0.45818188786506653 0.4302460551261902 -0.043282490223646164
0.41548776626586914 0.45730701088905334 0.004685489926487207
0.34423136711120605 0.7247517704963684 0.014698188751935959
0.2317526936531067 0.7678701281547546 0.20107217133045197
0.44225752353668213 0.6267537474632263 -0.07013697177171707
0.4632683992385864 0.6353461146354675 -0.07245160639286041
0.36216413974761963 0.721345841884613 0.01766476035118103
0.3742244243621826 0.7222669720649719 0.01264446321874857
0.30019721388816833 0.40756505727767944 0.000680121942423284
0.42100703716278076 0.6217988729476929 -0.06714451313018799
0.3995911180973053 0.4144096076488495 -0.0382344014942646
0.39491814374923706 0.3930288553237915 -0.04320325702428818
0.3642221689224243 0.2910284399986267 0.003081920091062784
0.2805689871311188 0.3813241720199585 0.040601421147584915
0.3822050094604492 0.33776864409446716 -0.01995805650949478
0.2715718150138855 0.43239378929138184 0.03204066678881645
0.25124335289001465 0.42071282863616943 0.08247198164463043
0.46480318903923035 0.7080037593841553 -0.06887806206941605
0.4303998351097107 0.7098482251167297 -0.05294584482908249
0.40376347303390503 0.7117680907249451 -0.030770909041166306
0.44752076268196106 0.6309183835983276 -0.06498447805643082
0.36787018179893494 0.7212827801704407 0.01493721641600132
0.3845521807670593 0.7392812967300415 0.001963572110980749
0.378447949886322 0.7234480977058411 0.01198718510568142
0.4598217308521271 0.6210230588912964 -0.10469961911439896
0.4146708846092224 0.7147963047027588 -0.022451546043157578
0.43932443857192993 0.7152131795883179 -0.039183635264635086
0.4681442677974701 0.7170851826667786 -0.05130952596664429
0.45998698472976685 0.8240857124328613 -0.030190475285053253
0.46303537487983704 0.7938015460968018 -0.0486270934343338
0.46497806906700134 0.7786195278167725 -0.05028414726257324
0.46696990728378296 0.7673923969268799 -0.04309643432497978
0.469194620847702 0.7598565220832825 -0.038490429520606995
0.4145849645137787 0.7469288110733032 -0.012144729495048523
0.4104037880897522 0.7489626407623291 -0.016303297132253647
0.40474143624305725 0.7544553279876709 -0.019759586080908775
0.4000517427921295 0.7628957629203796 -0.01525404118001461
0.38061049580574036 0.685087263584137 -0.026029882952570915
0.20892181992530823 0.6403040289878845 0.238840714097023
0.5070304870605469 0.6418484449386597 -0.09598421305418015
0.3978971242904663 0.7394006252288818 0.003931611776351929
0.3910078704357147 0.7378963828086853 0.0014843301614746451
0.47124290466308594 0.6467368006706238 -0.07344280183315277
0.4269804060459137 0.6362440586090088 -0.048168424516916275
0.4675467908382416 0.6412662863731384 -0.07373448461294174
0.40321287512779236 0.5546078681945801 -0.018737029284238815
0.3598557710647583 0.5697798728942871 -0.015315787866711617
0.41679197549819946 0.6091914772987366 -0.058388080447912216
0.3017722964286804 0.31885969638824463 0.04353906586766243
0.3226469159126282 0.3525658845901489 0.007538740523159504
0.34295570850372314 0.39329513907432556 -0.022346295416355133
0.3900797963142395 0.7849674224853516 -0.0011776904575526714
0.4505904018878937 0.3968333303928375 -0.05183112248778343
0.44025519490242004 0.333068311214447 -0.03417477011680603
0.42910778522491455 0.2775903046131134 -0.01806529425084591
0.330962598323822 0.5048054456710815 0.01774786412715912
0.2694806456565857 0.5317304134368896 0.050092633813619614
0.4336208701133728 0.49196135997772217 0.010551589541137218
0.2983456254005432 0.4730774760246277 0.02761835791170597
0.449310302734375 0.5250394344329834 -0.0330568365752697
0.44433271884918213 0.6042444109916687 -0.10423248261213303
0.24062035977840424 0.5533965826034546 0.07515062391757965
0.28755703568458557 0.5431543588638306 0.028508108109235764
0.31995201110839844 0.5482487082481384 0.007948445156216621
0.3676791191101074 0.5449539422988892 -0.001584497862495482
0.4040389657020569 0.5358961820602417 -0.004502251278609037
0.43056079745292664 0.5244168639183044 -0.009693510830402374
0.48294010758399963 0.48974859714508057 -0.05836092680692673
0.23856127262115479 0.6025056838989258 0.06720677018165588
0.27681612968444824 0.47137781977653503 0.03803341090679169
0.49581843614578247 0.634718656539917 -0.12752847373485565
0.43155020475387573 0.5638362169265747 -0.0366651676595211
0.20598697662353516 0.5218833088874817 0.2227708101272583
0.4495733976364136 0.5106576681137085 -0.01245239470154047
0.4124664068222046 0.6108710169792175 -0.03182092681527138
0.3110286593437195 0.48769423365592957 0.03539086505770683
0.4429536759853363 0.5876998901367188 -0.0939396321773529
0.21514034271240234 0.7034118175506592 0.22580300271511078
0.4320773482322693 0.48420774936676025 0.017264749854803085
0.4657105803489685 0.5729672908782959 -0.11735906451940536
0.2883392572402954 0.81166672706604 0.08276688307523727
0.2914758324623108 0.8511394262313843 0.12009616196155548
0.21187877655029297 0.6246953010559082 0.15328632295131683
0.254086434841156 0.7811429500579834 0.10775814205408096
0.23380208015441895 0.46486252546310425 0.12017277628183365
0.39773204922676086 0.8977080583572388 0.005962126888334751
0.4970499873161316 0.6406638622283936 -0.09475897997617722
0.4068136215209961 0.5812906622886658 -0.02954261563718319
0.24568858742713928 0.5112797021865845 0.08491300791501999
0.3562934100627899 0.49252182245254517 0.010980815626680851
0.3779497444629669 0.4935409426689148 0.006090221926569939
0.37850889563560486 0.7430106401443481 0.005475357640534639
0.23613303899765015 0.6567769646644592 0.07442236691713333
0.4454750716686249 0.934796929359436 0.00923073012381792
0.3670880198478699 0.9038407802581787 0.05879724398255348
0.3326541781425476 0.8821312189102173 0.08689446747303009
0.5047706365585327 0.33313488960266113 -0.03633692488074303
0.4983415901660919 0.9379730224609375 0.004591556265950203
0.39767545461654663 0.4918985664844513 0.00625016912817955
0.4160601496696472 0.4880242943763733 0.010644820518791676
0.4269375205039978 0.48587334156036377 0.01615201309323311
0.25719499588012695 0.46811115741729736 0.06171560287475586
0.4117298126220703 0.47188878059387207 0.008082539774477482
0.39148154854774475 0.46835801005363464 0.0022783561144024134
0.3723030686378479 0.467977374792099 0.0019927993416786194
0.35146015882492065 0.47190040349960327 0.0064826649613678455
0.33677372336387634 0.4777098298072815 0.01394890621304512
0.2139841914176941 0.45820891857147217 0.18492315709590912
0.34096330404281616 0.49070292711257935 0.01773720607161522
0.504794716835022 0.6650049090385437 -0.07098180800676346
0.4099166989326477 0.6712543964385986 -0.04530659317970276
0.4432137906551361 0.623715341091156 -0.07932952046394348
0.4655707776546478 0.6657243371009827 -0.06992710381746292
0.5049535036087036 0.4570077955722809 -0.04751889407634735
0.32625821232795715 0.8448575139045715 0.06183841824531555
0.36084356904029846 0.871574878692627 0.03562638908624649
0.4445028603076935 0.9145466685295105 -0.01849064975976944
0.25910258293151855 0.8169655799865723 0.16103734076023102
0.4257243275642395 0.47862017154693604 0.013520321808755398
0.4674069285392761 0.5291604399681091 -0.06711509823799133
0.49968934059143066 0.9171377420425415 -0.02181738056242466
0.40326201915740967 0.9223670959472656 0.028628841042518616
0.21562707424163818 0.6832733750343323 0.1481582671403885
0.43981969356536865 0.754210352897644 -0.02689274214208126
0.4355684220790863 0.7595734000205994 -0.031334273517131805
0.4318279027938843 0.7684727311134338 -0.03535471856594086
0.4284849762916565 0.7818081974983215 -0.032099295407533646
0.42008399963378906 0.8082628846168518 -0.01760416477918625
0.3880341351032257 0.7180720567703247 -0.00529104471206665
0.3808213472366333 0.7153427004814148 -0.004939340520650148
0.37395158410072327 0.7116033434867859 -0.00576783949509263
0.35557758808135986 0.7016664147377014 -0.004070693626999855
0.2683718800544739 0.6622267961502075 0.026841307058930397
0.46685636043548584 0.5061327219009399 -0.04373055696487427
0.4526848793029785 0.46601933240890503 0.002044514287263155
0.43671557307243347 0.4710584580898285 0.010250032879412174
0.3938046991825104 0.7157473564147949 -0.0032940420787781477
0.26247984170913696 0.7326271533966064 0.06451945006847382
0.4741728603839874 0.46305951476097107 -0.03129744157195091
0.4100479781627655 0.8365240097045898 -0.009837773628532887
0.5085968375205994 0.5326167345046997 -0.11233732849359512
0.4853317141532898 0.51448655128479 -0.0835409015417099
0.5073807239532471 0.5079477429389954 -0.08817379921674728
0.4492712616920471 0.5677536725997925 -0.06942728161811829
0.5004724264144897 0.8882533311843872 -0.033623334020376205
0.5007227063179016 0.853858232498169 -0.032912515103816986
0.45347464084625244 0.8529927730560303 -0.028173113241791725
0.35060250759124756 0.7755202054977417 0.021833566948771477
0.390597403049469 0.6323857307434082 -0.025305749848484993
0.37790626287460327 0.8103500008583069 0.008335775695741177
0.32863849401474 0.6327628493309021 -0.018245426937937737
0.3622777760028839 0.6587620973587036 -0.017404068261384964
0.30243945121765137 0.6761979460716248 0.0038258410058915615
0.4468083381652832 0.886686384677887 -0.028873123228549957
0.43181777000427246 0.5814290046691895 -0.05277014896273613
0.3327302932739258 0.8055706024169922 0.038788069039583206
0.3668382167816162 0.8382283449172974 0.02084418572485447
0.3276714086532593 0.737880289554596 0.020627645775675774
0.2395835518836975 0.7044771313667297 0.08344512432813644
0.29684001207351685 0.7541029453277588 0.03956214711070061
0.22782781720161438 0.7366398572921753 0.13748227059841156
0.3354920446872711 0.6884917616844177 -0.0034107475075870752
0.4503058195114136 0.5467287302017212 -0.0504939928650856
0.4520803391933441 0.6163716316223145 -0.10961970686912537
0.43258175253868103 0.621065080165863 -0.08333005011081696
0.4649708867073059 0.5985082387924194 -0.12687993049621582
0.43521648645401 0.4490683078765869 -0.0056006209924817085
0.3972975015640259 0.43831658363342285 -0.012927886098623276
0.36326032876968384 0.43671220541000366 -0.014746338129043579
0.3334798216819763 0.4417196214199066 -0.006680494174361229
0.31097933650016785 0.4533381760120392 0.0075261471793055534
0.29273349046707153 0.4952329695224762 0.04451104626059532
0.21240121126174927 0.5700896978378296 0.14973141252994537
0.31208038330078125 0.5214911699295044 0.026045609265565872
0.3385668992996216 0.5259867906570435 0.012880207970738411
0.37182343006134033 0.5255265831947327 0.0046331617049872875
0.4033677875995636 0.5200569033622742 0.002435802249237895
0.4274977147579193 0.511368989944458 0.0024987999349832535
0.4433722496032715 0.5025343894958496 0.0017564658774062991
0.20689430832862854 0.5810003280639648 0.23934732377529144
0.4313712418079376 0.6264328360557556 -0.07097581028938293
0.46836888790130615 0.5503309369087219 -0.08844524621963501
0.47102823853492737 0.6175320148468018 -0.12807497382164001
0.48323071002960205 0.6308848261833191 -0.1176760196685791
0.4701175391674042 0.6224080920219421 -0.11613745242357254
0.4363641142845154 0.6332976818084717 -0.06217944994568825
0.487958163022995 0.6330922842025757 -0.12419792264699936
0.48905500769615173 0.6387314200401306 -0.09504891186952591
0.4413524866104126 0.4847947955131531 0.01387216616421938
0.4555613398551941 0.4889277517795563 -0.0005622708704322577
0.46362799406051636 0.4914121627807617 -0.019069518893957138
0.32761654257774353 0.48212796449661255 0.021286938339471817
0.31375759840011597 0.47433632612228394 0.021829670295119286
0.5282154083251953 0.5368531942367554 -0.1022980585694313
0.6700600981712341 0.48121750354766846 0.045196644961833954
0.5297139286994934 0.6341678500175476 -0.093220055103302
0.7534658908843994 0.4016345739364624 0.16817525029182434
0.6006916165351868 0.5013946294784546 0.016916727647185326
0.6244694590568542 0.503015398979187 0.019566433504223824
0.6479175090789795 0.5020966529846191 0.027052396908402443
0.6800459623336792 0.49096959829330444 0.04905092716217041
0.5814062356948853 0.49543383717536926 0.017431087791919708
0.6331883072853088 0.44572019577026367 0.010513121262192726
0.6089087724685669 0.44712671637535095 0.009758930653333664
0.6565777063369751 0.44906434416770935 0.01929221861064434
0.6725024580955505 0.45714080333709717 0.030032536014914513
0.6989921927452087 0.5076395273208618 0.061769623309373856
0.5958791971206665 0.8637611865997314 0.006366007495671511
0.6788610219955444 0.47709304094314575 0.053681232035160065
0.7647876143455505 0.5093167424201965 0.17657272517681122
0.7242096066474915 0.49660468101501465 0.08829912543296814
0.6289808750152588 0.5993379950523376 -0.012570921331644058
0.5423359274864197 0.6934144496917725 -0.068803571164608
0.5386005640029907 0.715965986251831 -0.057630255818367004
0.5806419849395752 0.6981555819511414 -0.0495922714471817
0.6051663756370544 0.7053520679473877 -0.021975422278046608
0.5668085813522339 0.7156769633293152 -0.042097169905900955
0.5889658331871033 0.7167214155197144 -0.017192073166370392
0.6294183731079102 0.7557287216186523 0.026278408244252205
0.5302348136901855 0.6201592087745667 -0.13729341328144073
0.5329036712646484 0.5936102867126465 -0.14420272409915924
0.7105268239974976 0.4336696267127991 0.03678227588534355
0.5746166706085205 0.5392811894416809 -0.015921596437692642
0.5855477452278137 0.6108329892158508 -0.07245709002017975
0.58592289686203 0.5972223281860352 -0.06399406492710114
0.7018965482711792 0.5953390002250671 0.024300409480929375
0.5307143926620483 0.562242329120636 -0.12807632982730865
0.6525246500968933 0.40630215406417847 -0.009037187322974205
0.6867419481277466 0.41504430770874023 0.011540479958057404
0.7310561537742615 0.35377463698387146 0.11950194835662842
0.5505998134613037 0.4278150796890259 -0.03675325959920883
0.5876066088676453 0.4539039134979248 0.015936540439724922
0.6511401534080505 0.7229938507080078 0.03138996660709381
0.7399953007698059 0.7583864331245422 0.23098598420619965
0.5677169561386108 0.6259464621543884 -0.0642579197883606
0.5470731258392334 0.6348634362220764 -0.06936253607273102
0.6334148645401001 0.7209731340408325 0.03184716776013374
0.6219344139099121 0.722049355506897 0.025162210687994957
0.7003808617591858 0.39906781911849976 0.024882858619093895
0.5875040888786316 0.6207584142684937 -0.05913570523262024
0.6073393225669861 0.4092983901500702 -0.025529321283102036
0.6126068830490112 0.3878530263900757 -0.030098367482423782
0.6372696161270142 0.2887120544910431 0.020127546042203903
0.7153380513191223 0.37482383847236633 0.06657524406909943
0.622946560382843 0.33429354429244995 -0.005504193715751171
0.7245723009109497 0.4242555797100067 0.05919002741575241
0.7393474578857422 0.4138915538787842 0.11168462783098221
0.5411479473114014 0.7076993584632874 -0.06526656448841095
0.5730220675468445 0.7091689109802246 -0.04617805406451225
0.5970600247383118 0.7112328410148621 -0.021386176347732544
0.5620424747467041 0.6302855014801025 -0.06007829308509827
0.6281254291534424 0.7211350202560425 0.02831031195819378
0.613099217414856 0.7389403581619263 0.012974275276064873
0.6176505088806152 0.7230808138847351 0.02429955266416073
0.5540280342102051 0.620132565498352 -0.0991574078798294
0.584465503692627 0.7143300771713257 -0.01427487377077341
0.5618283748626709 0.7149172425270081 -0.0330546610057354
0.5351951718330383 0.7168078422546387 -0.0479339063167572
0.5411572456359863 0.8231281042098999 -0.026570798829197884
0.5405884385108948 0.7930924892425537 -0.04514186084270477
0.5396633148193359 0.778168797492981 -0.04658720642328262
0.5380896925926208 0.7671036720275879 -0.039656657725572586
0.535366952419281 0.7596959471702576 -0.03512842580676079
0.5853798389434814 0.7463462352752686 -0.003895758418366313
0.589633047580719 0.7483866214752197 -0.008094231598079205
0.5950683355331421 0.7538322806358337 -0.01106590498238802
0.5991775989532471 0.7618370056152344 -0.0057943472638726234
0.6215503215789795 0.6835303902626038 -0.014292499981820583
0.7618104219436646 0.6319348216056824 0.27222496271133423
0.6000183820724487 0.739036500453949 0.014513373374938965
0.6070066094398499 0.7375825643539429 0.012149599380791187
0.538918673992157 0.6464305520057678 -0.0703798234462738
0.5800479054450989 0.6355036497116089 -0.04181183502078056
0.5427407622337341 0.6410032510757446 -0.07075224071741104
0.6006612181663513 0.5523778796195984 -0.006720018573105335
0.6424490809440613 0.5668145418167114 0.0011821554508060217
0.5911195278167725 0.6079102754592896 -0.04980669170618057
0.6937613487243652 0.3150302469730377 0.06715207546949387
0.6779735088348389 0.3470894396305084 0.02857898361980915
0.6613115668296814 0.38609427213668823 -0.002956317039206624
0.6073179244995117 0.7827776670455933 0.010191386565566063
0.5590601563453674 0.39407673478126526 -0.044915586709976196
0.5678505301475525 0.3314672112464905 -0.026457034051418304
0.5764979720115662 0.2766810953617096 -0.009663647040724754
0.6682863235473633 0.49843698740005493 0.03859785571694374
0.7242499589920044 0.5255144834518433 0.07662811875343323
0.5699107050895691 0.48897871375083923 0.020168401300907135
0.6992504596710205 0.46535980701446533 0.05208558589220047
0.5577661991119385 0.5235381126403809 -0.026049310341477394
0.5694572925567627 0.603154718875885 -0.09758352488279343
0.7492992877960205 0.5465829968452454 0.10515542328357697
0.7088165283203125 0.537868082523346 0.05352075397968292
0.6792792081832886 0.5440590977668762 0.029272327199578285
0.6339548826217651 0.5416492223739624 0.01475190557539463
0.5988033413887024 0.533354640007019 0.007793446537107229
0.5734860897064209 0.5223132967948914 -0.000613870972301811
0.5282645225524902 0.489001989364624 -0.05522815138101578
0.7514587640762329 0.5955920815467834 0.09728600084781647
0.7184992432594299 0.4637271463871002 0.06445399671792984
0.5207270979881287 0.634507954120636 -0.1259584128856659
0.5752868056297302 0.562441349029541 -0.028390437364578247
0.7677832841873169 0.5148904323577881 0.25754502415657043
0.555759608745575 0.5089371204376221 -0.005251496564596891
0.5931880474090576 0.6094660758972168 -0.02300499565899372
0.6866605281829834 0.479617714881897 0.058859534561634064
0.5693522691726685 0.5866408348083496 -0.08733172714710236
0.7553987503051758 0.6942698359489441 0.257761687040329
0.570999264717102 0.48068517446517944 0.027397554367780685
0.5501669049263 0.572161853313446 -0.11226789653301239
0.6967542171478271 0.8038058280944824 0.1057155579328537
0.6888154745101929 0.8424374461174011 0.14289617538452148
0.7688523530960083 0.6163914799690247 0.18585851788520813
0.7278732061386108 0.7724237442016602 0.1346108615398407
0.7523635625839233 0.45799216628074646 0.15155504643917084
0.5974687933921814 0.8932265043258667 0.01718892902135849
0.5166962742805481 0.6405483484268188 -0.09378115832805634
0.5980525016784668 0.5795205235481262 -0.018794430419802666
0.7437849044799805 0.5040189623832703 0.11435340344905853
0.6454450488090515 0.48667705059051514 0.029616044834256172
0.6244099140167236 0.48833167552948 0.022767823189496994
0.6185386180877686 0.7424412965774536 0.01730492152273655
0.7518375515937805 0.6494383215904236 0.10371830314397812
0.5502581000328064 0.9322823882102966 0.015375843271613121
0.622096061706543 0.8975880146026611 0.07387040555477142
0.6526948809623718 0.874545693397522 0.10570032894611359
0.6047248840332031 0.487358033657074 0.02028363198041916
0.5868066549301147 0.4841000437736511 0.02256348356604576
0.5760713815689087 0.48233240842819214 0.02703911066055298
0.7350485324859619 0.4606092572212219 0.09045511484146118
0.5909019708633423 0.4677444100379944 0.020532861351966858
0.6104738116264343 0.4633328914642334 0.016615204513072968
0.629589319229126 0.46179306507110596 0.01876518689095974
0.6500790119171143 0.46460360288619995 0.025729769840836525
0.6638755202293396 0.46992117166519165 0.03435971960425377
0.7646540403366089 0.45215511322021484 0.21887487173080444
0.6598858833312988 0.48406392335891724 0.037980157881975174
0.5952105522155762 0.6700892448425293 -0.036266326904296875
0.5679014921188354 0.6227787733078003 -0.07362689077854156
0.5430317521095276 0.6652286052703857 -0.06625133752822876
0.6622281074523926 0.8378717303276062 0.08056457340717316
0.6305727362632751 0.8656936883926392 0.05046151205897331
0.5538252592086792 0.9121909141540527 -0.012293366715312004
0.7165213823318481 0.8077294826507568 0.18776355683803558
0.5773290991783142 0.47496116161346436 0.024488540366292
0.5442186594009399 0.5282305479049683 -0.062303949147462845
0.5896302461624146 0.917607843875885 0.03969060257077217
0.7638469934463501 0.6744306087493896 0.17949633300304413
0.5626487135887146 0.7538759112358093 -0.02112290821969509
0.5670759677886963 0.7589588165283203 -0.02518664486706257
0.5705245733261108 0.7677261233329773 -0.028764577582478523
0.5732102394104004 0.7806553840637207 -0.024888182058930397
0.579171359539032 0.8065118789672852 -0.009464669041335583
0.6096996068954468 0.7177739143371582 0.005732773337513208
0.6170362234115601 0.7150026559829712 0.006982581689953804
0.6239691376686096 0.7112393975257874 0.007096659392118454
0.6429818272590637 0.700041651725769 0.011025060899555683
0.7245935201644897 0.6562641859054565 0.05187191814184189
0.5423281788825989 0.5050724148750305 -0.03881676495075226
0.552207887172699 0.4637523889541626 0.00833027996122837
0.5668944120407104 0.4681139290332794 0.019560985267162323
0.603517472743988 0.7154108285903931 0.007488816045224667
0.7251608967781067 0.7254259586334229 0.09001965820789337
0.5336800813674927 0.46180781722068787 -0.02740197256207466
0.5874618887901306 0.8336420655250549 -0.0005384410615079105
0.5285693407058716 0.5137919783592224 -0.08078398555517197
0.5613510608673096 0.5666543245315552 -0.06323765963315964
0.5466167330741882 0.851451575756073 -0.023806046694517136
0.643818199634552 0.7719478011131287 0.037674061954021454
0.6132258176803589 0.6307209730148315 -0.013859174214303493
0.6174153685569763 0.8068804144859314 0.021005088463425636
0.6717385649681091 0.6290754675865173 0.00023054804478306323
0.6394902467727661 0.656374454498291 -0.0028420439921319485
0.6937832832336426 0.6713777184486389 0.025088004767894745
0.552944540977478 0.8845146894454956 -0.02303776890039444
0.5761244297027588 0.5801819562911987 -0.04509603604674339
0.6588497757911682 0.799926221370697 0.0568363256752491
0.6268455386161804 0.8333014845848083 0.03473543003201485
0.6667055487632751 0.7342015504837036 0.03979120030999184
0.746269702911377 0.6966996192932129 0.11148346960544586
0.6937785744667053 0.7479816675186157 0.06148427724838257
0.7514894008636475 0.7275611758232117 0.16727006435394287
0.6626481413841248 0.6855204105377197 0.01422063447535038
0.5587444305419922 0.5455862283706665 -0.04390454292297363
0.5621039867401123 0.6153165698051453 -0.10355263203382492
0.5784655809402466 0.6199160218238831 -0.07638414949178696
0.5524450540542603 0.5977533459663391 -0.12211354821920395
0.5698528289794922 0.4459857940673828 0.00298131862655282
0.6070797443389893 0.4332473874092102 0.0002864184498321265
0.6403626203536987 0.4304291605949402 0.0028442316688597202
0.6690149307250977 0.4346369504928589 0.014153946191072464
0.6891868114471436 0.44570475816726685 0.030789069831371307
0.7029068470001221 0.4878106713294983 0.06929854303598404
0.7693297863006592 0.562423050403595 0.18331214785575867
0.6857383251190186 0.5157895088195801 0.0486731231212616
0.6610934138298035 0.521257221698761 0.03257736936211586
0.6292983293533325 0.5216006636619568 0.020754167810082436
0.5988125205039978 0.5167807936668396 0.015307874418795109
0.5758416652679443 0.5086871981620789 0.011997338384389877
0.5607430934906006 0.5002557039260864 0.009677642956376076
0.7643700242042542 0.573438286781311 0.2738063335418701
0.5781198740005493 0.6253898739814758 -0.06429726630449295
0.5455337762832642 0.54940265417099 -0.08364483714103699
0.5460832118988037 0.6167095303535461 -0.12415679544210434
0.5315845012664795 0.6303123831748962 -0.11548123508691788
0.5450142025947571 0.6216098070144653 -0.11210814863443375
0.5721563696861267 0.6326323747634888 -0.056470561772584915
0.5279663801193237 0.6326835751533508 -0.12236061692237854
0.524418830871582 0.6384664177894592 -0.09345266968011856
0.5624728202819824 0.48182058334350586 0.022192783653736115
0.5492888689041138 0.4869091510772705 0.005665907170623541
0.5429662466049194 0.4900473356246948 -0.013781242072582245
0.6723768711090088 0.47405996918678284 0.042811982333660126
0.6852134466171265 0.466405987739563 0.04452599585056305
