ply
format ascii 1.0
element vertex 468
property float x
property float y
property float z
end_header
0.5297257900238037 0.7146426439285278 -0.08372386544942856
0.547947883605957 0.6351073980331421 -0.1543496549129486
0.5338605642318726 0.6626120209693909 -0.0903249979019165
0.5141683220863342 0.5487255454063416 -0.11668969690799713
0.5481951832771301 0.6067899465560913 -0.16120553016662598
0.5427872538566589 0.5718403458595276 -0.147914856672287
0.5237202048301697 0.48957985639572144 -0.06761045008897781
0.3185395300388336 0.4897231459617615 -0.00042129840585403144
0.516547679901123 0.4270206093788147 -0.04088232293725014
0.515916645526886 0.39248600602149963 -0.04112847149372101
0.5035746693611145 0.28006696701049805 -0.0045374855399131775
0.5283902287483215 0.726527750492096 -0.08060389757156372
0.5261396765708923 0.7328600287437439 -0.0746510773897171
0.5232371687889099 0.7323467135429382 -0.06496147811412811
0.5240075588226318 0.8057413101196289 -0.042011428624391556
0.5252578258514404 0.8149231672286987 -0.048346612602472305
0.5258511304855347 0.8256716728210449 -0.055823441594839096
0.5253232717514038 0.8390824198722839 -0.05361658334732056
0.5221196413040161 0.8639347553253174 -0.03721265867352486
0.544381856918335 0.6508004665374756 -0.14174918830394745
0.513236403465271 0.6500979661941528 -0.11095753312110901
0.18117249011993408 0.4090544879436493 0.10841600596904755
0.4001809060573578 0.5107210874557495 -0.0135415680706501
0.3726084530353546 0.5124446153640747 -0.017195599153637886
0.3450598120689392 0.5115017294883728 -0.015337703749537468
0.3038620948791504 0.49960923194885254 0.00012765181600116193
0.42279303073883057 0.5047041177749634 -0.004921541083604097
0.362675279378891 0.4429069757461548 -0.024778811261057854
0.3918468952178955 0.4442317485809326 -0.016718503087759018
0.3337550759315491 0.4482879936695099 -0.022181609645485878
0.3134186863899231 0.4592047333717346 -0.014970595948398113
0.2792218327522278 0.5179738998413086 0.008921929635107517
0.4095381498336792 0.8985321521759033 -0.023292982950806618
0.3062456548213959 0.48485782742500305 0.006897522136569023
0.17175638675689697 0.5213085412979126 0.11016665399074554
0.24340128898620605 0.5058647990226746 0.03128310665488243
0.3758517801761627 0.6129642724990845 -0.05385256186127663
0.48325204849243164 0.71097731590271 -0.0876489207148552
0.48181086778640747 0.7318848967552185 -0.07643531262874603
0.4325641393661499 0.7152523398399353 -0.07610432058572769
0.39625290036201477 0.7210179567337036 -0.05128481984138489
0.44395121932029724 0.731839120388031 -0.06634587049484253
0.41255855560302734 0.7321837544441223 -0.043184779584407806
0.3581114113330841 0.7786750793457031 -0.00446947431191802
0.5255699753761292 0.6353191137313843 -0.1553923487663269
0.5228375196456909 0.6078567504882812 -0.1624189019203186
0.27023354172706604 0.4366760849952698 -0.01464272104203701
0.43790704011917114 0.5500764846801758 -0.039758242666721344
0.44604140520095825 0.6266405582427979 -0.10336288809776306
0.4419323801994324 0.6119085550308228 -0.0945848673582077
0.2821183204650879 0.6091680526733398 -0.035472430288791656
0.5192900896072388 0.5753803253173828 -0.1452222615480423
0.3441954553127289 0.40206286311149597 -0.04197787865996361
0.3027420938014984 0.4140792787075043 -0.03114665299654007
0.22075577080249786 0.3591826856136322 0.0682406947016716
0.4624509811401367 0.421612024307251 -0.0437752939760685
0.41654735803604126 0.453449010848999 -0.004567109979689121
0.33345121145248413 0.7404025793075562 -0.007108908612281084
0.18063029646873474 0.785713791847229 0.15872858464717865
0.46441152691841125 0.641886293888092 -0.08981862664222717
0.4869954288005829 0.6505929827690125 -0.0879492536187172
0.3490832448005676 0.7388813495635986 -3.712866237037815e-05
0.3628969192504883 0.7404372692108154 -0.002513082465156913
0.2839093804359436 0.39900460839271545 -0.020376794040203094
0.43906456232070923 0.6364378929138184 -0.08939047902822495
0.3969767987728119 0.4027051329612732 -0.04623093456029892
0.39178162813186646 0.382206529378891 -0.050922565162181854
0.35066086053848267 0.2933267652988434 -0.0028202449902892113
0.25379207730293274 0.37920892238616943 0.01917855627834797
0.3748651146888733 0.3361136019229889 -0.02672445774078369
0.24820798635482788 0.42754065990448 0.005251629743725061
0.21562856435775757 0.42056068778038025 0.056251075118780136
0.48219698667526245 0.7248303890228271 -0.08402691781520844
0.4392721951007843 0.7260280251502991 -0.07111383229494095
0.4049002528190613 0.7268313765525818 -0.048836201429367065
0.46915000677108765 0.6463270783424377 -0.08268101513385773
0.35550007224082947 0.739253044128418 -0.0009042552555911243
0.3768106698989868 0.7664152979850769 -0.010517849586904049
0.36774444580078125 0.7418522834777832 -0.0025656342040747404
0.4885293245315552 0.6366703510284424 -0.12472700327634811
0.4151514768600464 0.728901743888855 -0.03939106687903404
0.4463896155357361 0.7296536564826965 -0.05655861273407936
0.48166388273239136 0.7314695715904236 -0.06675995886325836
0.47321459650993347 0.8615779876708984 -0.040456317365169525
0.47757792472839355 0.8351129293441772 -0.056630514562129974
0.479723185300827 0.8217208981513977 -0.0577046237885952
0.4813957214355469 0.8112474679946899 -0.04961366206407547
0.48304837942123413 0.8031504154205322 -0.04415934905409813
0.41467905044555664 0.7814093232154846 -0.02200067788362503
0.4101017117500305 0.7835872769355774 -0.026372849941253662
0.4035952687263489 0.7883533835411072 -0.03071868233382702
0.3982256054878235 0.7956236600875854 -0.02702353149652481
0.38280823826789856 0.7004304528236389 -0.04711795970797539
0.14999285340309143 0.6485076546669006 0.19988477230072021
0.5395561456680298 0.6568999886512756 -0.10845119506120682
0.39270415902137756 0.7679879069328308 -0.007866064086556435
0.3843264877796173 0.7659052014350891 -0.010410375893115997
0.4956026077270508 0.662284791469574 -0.08929964900016785
0.4424014091491699 0.6511386036872864 -0.0675148069858551
0.49188265204429626 0.6567108631134033 -0.08921096473932266
0.40649810433387756 0.5634024143218994 -0.03908221796154976
0.3571973145008087 0.5785176753997803 -0.042615823447704315
0.4321083724498749 0.6227030158042908 -0.08083575963973999
0.27545613050460815 0.3191976249217987 0.02855790965259075
0.30450767278671265 0.3494862914085388 -0.007623846177011728
0.3326607346534729 0.38287749886512756 -0.037541233003139496
0.3876042068004608 0.8131696581840515 -0.016004210337996483
0.45460161566734314 0.38768601417541504 -0.051050711423158646
0.4406294822692871 0.3344281017780304 -0.03141091763973236
0.42371827363967896 0.2821863889694214 -0.01366826705634594
0.3196583390235901 0.507605791091919 -0.008251667954027653
0.2459733635187149 0.537500262260437 0.01687464863061905
0.4370631277561188 0.49814820289611816 0.001091195736080408
0.28047943115234375 0.4717324376106262 0.0012242808006703854
0.45898112654685974 0.5338335037231445 -0.04493067041039467
0.4707469344139099 0.6186370849609375 -0.12537898123264313
0.20818492770195007 0.5600298643112183 0.03772544115781784
0.2699025869369507 0.5495063066482544 -0.00552979065105319
0.3094547986984253 0.5548353791236877 -0.0229939017444849
0.36443960666656494 0.5518732666969299 -0.025442101061344147
0.40519848465919495 0.5433422327041626 -0.022356852889060974
0.43490034341812134 0.5320126414299011 -0.022722113877534866
0.49894630908966064 0.49753499031066895 -0.06318725645542145
0.20648536086082458 0.6109629273414612 0.026037834584712982
0.25466030836105347 0.4696767032146454 0.00930808112025261
0.5307461619377136 0.6501508951187134 -0.14327721297740936
0.44217827916145325 0.5741567015647888 -0.054951999336481094
0.14566421508789062 0.5256960391998291 0.18904651701450348
0.4566093683242798 0.5180665254592896 -0.02165636047720909
0.423595666885376 0.6238021850585938 -0.05304764583706856
0.29443177580833435 0.4869297742843628 0.009789743460714817
0.46620118618011475 0.60069739818573 -0.11423591524362564
0.15745580196380615 0.7154415249824524 0.18510372936725616
0.43503421545028687 0.48949044942855835 0.008516128174960613
0.4933757483959198 0.5858012437820435 -0.13496851921081543
0.26595860719680786 0.8359909057617188 0.04843563959002495
0.2624426484107971 0.8784286975860596 0.08326352387666702
0.16442427039146423 0.6339735388755798 0.11267825216054916
0.22111603617668152 0.802944540977478 0.06763210147619247
0.19164642691612244 0.46713483333587646 0.09012842923402786
0.40611910820007324 0.9307436943054199 -0.01593760959804058
0.5290852189064026 0.6558953523635864 -0.1085440069437027
0.41325247287750244 0.5917525291442871 -0.05144331231713295
0.21361380815505981 0.5144944190979004 0.05211162939667702
0.3496361970901489 0.4959946274757385 -0.011045730672776699
0.3739875555038452 0.4979235529899597 -0.01317234430462122
0.3698152005672455 0.7684544324874878 -0.008392360992729664
0.202277272939682 0.6678920388221741 0.031707968562841415
0.4590100347995758 0.9707086086273193 -0.009283562190830708
0.3615172505378723 0.9359879493713379 0.032451629638671875
0.3163745105266571 0.9119626879692078 0.0562644824385643
0.5105573534965515 0.33547624945640564 -0.023502662777900696
0.5183339715003967 0.9730964303016663 -0.005709017161279917
0.39596742391586304 0.49692314863204956 -0.00936451181769371
0.4164501130580902 0.493682324886322 -0.0018350027967244387
0.42918911576271057 0.49173498153686523 0.006198969203978777
0.22802861034870148 0.4671221375465393 0.03199285641312599
0.41096270084381104 0.47287413477897644 -0.0036206585355103016
0.3873857259750366 0.46632683277130127 -0.01166493073105812
0.36537396907806396 0.46535754203796387 -0.015592822805047035
0.3417736887931824 0.46943199634552 -0.014267774298787117
0.3255346715450287 0.4760410189628601 -0.008878672495484352
0.15708878636360168 0.4609878361225128 0.15414837002754211
0.3320552110671997 0.49284952878952026 -0.0060111889615654945
0.5313576459884644 0.6804202198982239 -0.08176874369382858
0.4196928143501282 0.6871907711029053 -0.06612662225961685
0.4672710597515106 0.6389868259429932 -0.09850037097930908
0.4863414764404297 0.6821709871292114 -0.08578077703714371
0.5174216628074646 0.458688348531723 -0.04435562342405319
0.31467336416244507 0.8716283440589905 0.03403022140264511
0.35878944396972656 0.901376485824585 0.011379261501133442
0.46230852603912354 0.9494346380233765 -0.035441696643829346
0.21864771842956543 0.8404710292816162 0.1194634661078453
0.427737295627594 0.4827427268028259 0.003606470301747322
0.4852469861507416 0.5393545627593994 -0.07816894352436066
0.5227739214897156 0.9515570402145386 -0.031019501388072968
0.40795770287513733 0.956964373588562 0.0054848687723279
0.16827324032783508 0.696168065071106 0.10552395135164261
0.44699347019195557 0.7942783832550049 -0.03534651920199394
0.4424186050891876 0.7996190786361694 -0.040185216814279556
0.4384603500366211 0.8078145384788513 -0.04538069665431976
0.43509161472320557 0.8199477791786194 -0.04255257174372673
0.42464062571525574 0.8423684239387512 -0.03095770813524723
0.38128507137298584 0.7330806851387024 -0.021720265969634056
0.3736031651496887 0.7301980257034302 -0.022246206179261208
0.36608609557151794 0.7261801958084106 -0.02388581447303295
0.35025322437286377 0.7163596749305725 -0.025518419221043587
0.24675852060317993 0.6744011044502258 -0.013329610228538513
0.47992223501205444 0.5143694877624512 -0.051755450665950775
0.4573462903499603 0.4680304527282715 -0.001910820952616632
0.43985146284103394 0.47283098101615906 0.003104270901530981
0.3873894214630127 0.7300772666931152 -0.019512521103024483
0.2357483059167862 0.7499269247055054 0.025599613785743713
0.4829540252685547 0.464324951171875 -0.03342101722955704
0.41653621196746826 0.867323100566864 -0.026135675609111786
0.5361604690551758 0.5438371896743774 -0.11965979635715485
0.5065172910690308 0.5246931910514832 -0.09090430289506912
0.5300077199935913 0.517952024936676 -0.09195103496313095
0.46757760643959045 0.5792303085327148 -0.08600413799285889
0.5241977572441101 0.922137975692749 -0.04036529362201691
0.5230955481529236 0.8890328407287598 -0.038531344383955
0.46932825446128845 0.8874799609184265 -0.03938894346356392
0.34366023540496826 0.7960559129714966 0.001315417350269854
0.3965311050415039 0.6457644104957581 -0.049276988953351974
0.3765181005001068 0.8360062837600708 -0.009718921035528183
0.32347267866134644 0.6450474858283997 -0.05110009387135506
0.3628073036670685 0.6728116869926453 -0.04346678406000137
0.29141998291015625 0.6895216107368469 -0.03072243556380272
0.4650546610355377 0.920232355594635 -0.04318937659263611
0.4463193416595459 0.5929465889930725 -0.07183537632226944
0.3242601454257965 0.8288770914077759 0.013565496541559696
0.36619147658348083 0.8652383089065552 -0.0007332959212362766
0.31751006841659546 0.7542845010757446 -0.0060422723181545734
0.20517781376838684 0.7190773487091064 0.041389819234609604
0.2801775336265564 0.7730490565299988 0.007503322325646877
0.1849631667137146 0.753991961479187 0.09404651820659637
0.3298190236091614 0.7016922235488892 -0.030731922015547752
0.46459031105041504 0.5570802092552185 -0.065217025578022
0.48055729269981384 0.6316712498664856 -0.13047601282596588
0.45530954003334045 0.6361294388771057 -0.10476403683423996
0.4967665672302246 0.6128310561180115 -0.14585165679454803
0.437607079744339 0.4448193311691284 -0.011448242701590061
0.39521247148513794 0.42981216311454773 -0.023106573149561882
0.35696130990982056 0.4277827739715576 -0.029753832146525383
0.32265594601631165 0.4344158172607422 -0.026809927076101303
0.29650208353996277 0.4487314224243164 -0.01568766124546528
0.2729322910308838 0.49661052227020264 0.01733274944126606
0.16585573554039001 0.576865553855896 0.11163020879030228
0.2976410388946533 0.5257813930511475 -0.0025899421889334917
0.3293326497077942 0.5313109159469604 -0.012961223721504211
0.3676301836967468 0.5311238765716553 -0.01657543145120144
0.40295544266700745 0.5262424945831299 -0.014256163500249386
0.4296794831752777 0.5178622007369995 -0.008905475959181786
0.44763848185539246 0.5092183351516724 -0.0070504420436918736
0.1470026969909668 0.5867401361465454 0.20298324525356293
0.4517177939414978 0.6414890885353088 -0.09182282537221909
0.4909327030181885 0.5616987347602844 -0.10296370089054108
0.5043163299560547 0.6330651640892029 -0.14632201194763184
0.5150541663169861 0.6467946171760559 -0.1338534951210022
0.5013098120689392 0.6381740570068359 -0.1343938112258911
0.45504170656204224 0.6482864022254944 -0.08104658126831055
0.5215911269187927 0.6487733721733093 -0.1401892453432083
0.5199493765830994 0.6542755365371704 -0.10957811027765274
0.446063756942749 0.4898870587348938 0.0067187040112912655
0.46138280630111694 0.4945526719093323 -0.006082626525312662
0.4721111059188843 0.49753880500793457 -0.02429336868226528
0.31519100069999695 0.48104000091552734 -0.002301844535395503
0.2976335287094116 0.4715215563774109 -0.003322173608466983
0.5550545454025269 0.547701358795166 -0.10569700598716736
0.6738196015357971 0.4810042977333069 0.08014902472496033
0.5605230331420898 0.6489406228065491 -0.1022777184844017
0.7373878955841064 0.40319809317588806 0.23225395381450653
0.6049571633338928 0.5071637630462646 0.03871774673461914
0.6303824782371521 0.5071718692779541 0.04520797356963158
0.6540650129318237 0.5047658681869507 0.05693364143371582
0.6827701926231384 0.49059098958969116 0.08568038046360016
0.5840888023376465 0.5020785331726074 0.03623669221997261
0.6385172009468079 0.4361538589000702 0.040779657661914825
0.6113778352737427 0.43990567326545715 0.035340141505002975
0.6637232303619385 0.439812570810318 0.053917430341243744
0.6794793605804443 0.4500170052051544 0.06663943082094193
0.7023587822914124 0.5090101361274719 0.10111501812934875
0.6185965538024902 0.8879921436309814 0.015870457515120506
0.6814731955528259 0.4753815829753876 0.09137074649333954
0.752682626247406 0.5093440413475037 0.23497357964515686
0.7220710515975952 0.4953600764274597 0.1343872994184494
0.6485458612442017 0.6077379584312439 4.09585700253956e-05
0.5712474584579468 0.7094753384590149 -0.07323117554187775
0.5642087459564209 0.7308350205421448 -0.06250735372304916
0.6096451282501221 0.7121716141700745 -0.04661170765757561
0.6320509314537048 0.7177284359931946 -0.010611305944621563
0.5925417542457581 0.7296916842460632 -0.03990110009908676
0.6132584810256958 0.7301384806632996 -0.00849438551813364
0.6524296402931213 0.7728862762451172 0.04795863479375839
0.567510187625885 0.6342916488647461 -0.1482805609703064
0.5693513751029968 0.6067286729812622 -0.15392446517944336
0.7120314836502075 0.42469578981399536 0.08276572823524475
0.5877044796943665 0.5472966432571411 -0.005194150842726231
0.6109151244163513 0.6235294342041016 -0.07107077538967133
0.6089836955070496 0.6088979244232178 -0.0612688884139061
0.7197141647338867 0.5998823046684265 0.052723437547683716
0.5630394220352173 0.5744023323059082 -0.13466227054595947
0.6632739305496216 0.3934375047683716 0.026368919759988785
0.69275963306427 0.4030952751636505 0.05383270978927612
0.7174933552742004 0.35583263635635376 0.1788596510887146
0.5646533966064453 0.41886401176452637 -0.020836973562836647
0.5881689786911011 0.45064985752105713 0.03734966367483139
0.6728082895278931 0.7344841957092285 0.05571867898106575
0.7338426113128662 0.7634348273277283 0.2737257182598114
0.5929356813430786 0.639552116394043 -0.06622050702571869
0.5741465091705322 0.6490795016288757 -0.07586260139942169
0.6582598686218262 0.7362774610519409 0.054611291736364365
0.6449793577194214 0.7384274005889893 0.04556579142808914
0.7033344507217407 0.3879840075969696 0.07028315216302872
0.6112152338027954 0.6335411667823792 -0.057635266333818436
0.621799111366272 0.396888792514801 0.0004907051334157586
0.6265478730201721 0.376442551612854 -0.0030703910160809755
0.6341115236282349 0.293235719203949 0.06033843010663986
0.7111023664474487 0.3719605505466461 0.11834557354450226
0.629541277885437 0.3333730697631836 0.027856167405843735
0.7227619886398315 0.4161861836910248 0.10933998972177505
0.7310519218444824 0.4120420515537262 0.1684800535440445
0.5689387917518616 0.7233406901359558 -0.06973527371883392
0.6008176803588867 0.7232911586761475 -0.04327787458896637
0.6231698393821716 0.724004328250885 -0.011340131051838398
0.587367057800293 0.6440341472625732 -0.06316716223955154
0.6525523662567139 0.7371271252632141 0.04959230124950409
0.6386151909828186 0.7637713551521301 0.032331403344869614
0.6386292576789856 0.7397266626358032 0.04429885372519493
0.5843037366867065 0.6344532370567322 -0.10290709137916565
0.6064582467079163 0.7272444367408752 -0.006155501119792461
0.5853101015090942 0.7280869483947754 -0.03128200024366379
0.5585103631019592 0.7304267287254333 -0.05276624113321304
0.5667620897293091 0.8589546084403992 -0.026679174974560738
0.5681880116462708 0.8330765962600708 -0.04155629873275757
0.5671438574790955 0.819560706615448 -0.0420868955552578
0.5643218159675598 0.8096112012863159 -0.034274231642484665
0.5599621534347534 0.8017944097518921 -0.029480235651135445
0.6091015338897705 0.778977632522583 0.011007599532604218
0.6147247552871704 0.7809075713157654 0.006754861678928137
0.6216949224472046 0.7854299545288086 0.003926327917724848
0.6266158223152161 0.7917719483375549 0.009700496681034565
0.6461166143417358 0.6955699324607849 -0.00107864779420197
0.7448267936706543 0.6313481330871582 0.32752740383148193
0.6222416758537292 0.7657206654548645 0.03318232670426369
0.6315219402313232 0.7636038661003113 0.03084249049425125
0.5670591592788696 0.6608573794364929 -0.07713973522186279
0.6038870811462402 0.6486756205558777 -0.04220452532172203
0.5704864263534546 0.6554760932922363 -0.07772523164749146
0.6145721673965454 0.5596762895584106 0.00752272829413414
0.6586167216300964 0.5728249549865723 0.020874476060271263
0.612897515296936 0.6196574568748474 -0.04627186432480812
0.68536376953125 0.3179575800895691 0.11874101310968399
0.6794352531433105 0.34426966309547424 0.0721873939037323
0.6709327101707458 0.3743511438369751 0.03442895784974098
0.6324777007102966 0.8067833781242371 0.02653619833290577
0.573333203792572 0.38498079776763916 -0.026525547727942467
0.5753927230834961 0.33326005935668945 -0.003089568577706814
0.5760654211044312 0.28250154852867126 0.01816299371421337
0.6728152632713318 0.4993944764137268 0.07221032679080963
0.727704644203186 0.5276233553886414 0.11903204768896103
0.5712066292762756 0.4958358705043793 0.037428922951221466
0.7008094787597656 0.4611470699310303 0.09449553489685059
0.570802628993988 0.5316351652145386 -0.01724066026508808
0.5987357497215271 0.6160246133804321 -0.0994015634059906
0.7513649463653564 0.5480590462684631 0.15284013748168945
0.7171316146850586 0.5406554937362671 0.0903681218624115
0.6908935308456421 0.5476855635643005 0.05914958938956261
0.6453285217285156 0.5467950105667114 0.03793329745531082
0.6086697578430176 0.5397391319274902 0.025599481537938118
0.582544207572937 0.5293209552764893 0.013277116231620312
0.5439618229866028 0.49678096175193787 -0.05125533416867256
0.7614381909370422 0.5975049734115601 0.14085881412029266
0.7172766327857971 0.4587043225765228 0.11109205335378647
0.5561503767967224 0.6495564579963684 -0.13740329444408417
0.5922051668167114 0.571398138999939 -0.021485717967152596
0.7468051314353943 0.5144003033638 0.32152560353279114
0.5645514726638794 0.5160994529724121 0.006243544165045023
0.6129651069641113 0.6206247210502625 -0.01830156333744526
0.6887648105621338 0.47713056206703186 0.0984584167599678
0.5953199863433838 0.5981373190879822 -0.0876995176076889
0.7442318201065063 0.6952826976776123 0.3070232570171356
0.5704845190048218 0.486605703830719 0.04613661393523216
0.5795347690582275 0.5838496685028076 -0.11555503308773041
0.7079915404319763 0.8159869909286499 0.13502076268196106
0.695581316947937 0.8556898832321167 0.17051054537296295
0.7676146626472473 0.6176043152809143 0.23761169612407684
0.7354544401168823 0.7819934487342834 0.16882319748401642
0.7419867515563965 0.45768430829048157 0.2102903574705124
0.6196540594100952 0.918095588684082 0.02558276057243347
0.549170970916748 0.6555488109588623 -0.10507845133543015
0.6153379082679749 0.5880463123321533 -0.010032186284661293
0.7387000918388367 0.5029553174972534 0.16532914340496063
0.6513100862503052 0.48919379711151123 0.05993058905005455
0.6299601197242737 0.4926801323890686 0.04970553517341614
0.6441715359687805 0.7651782035827637 0.03734440729022026
0.7645878791809082 0.6523529291152954 0.14336007833480835
0.5728409290313721 0.9633393287658691 0.014161698520183563
0.6395031213760376 0.9185961484909058 0.08948034793138504
0.6652864813804626 0.891288161277771 0.12740458548069
0.6083605885505676 0.4932204484939575 0.044192325323820114
0.5883937478065491 0.49078333377838135 0.04395066574215889
0.5761712193489075 0.48902428150177 0.047108836472034454
0.7304650545120239 0.4561442732810974 0.1419447362422943
0.5908955335617065 0.46872076392173767 0.043517839163541794
0.61163330078125 0.46112918853759766 0.04295693337917328
0.633266806602478 0.4580613672733307 0.04837973043322563
0.6548708081245422 0.46071892976760864 0.05863208696246147
0.6684232950210571 0.46685510873794556 0.0692623034119606
0.7468759417533875 0.4529593586921692 0.2841367721557617
0.6647983193397522 0.4851641058921814 0.07106595486402512
0.6213798522949219 0.6833375096321106 -0.03129676729440689
0.5943982005119324 0.636669933795929 -0.07582611590623856
0.5710394382476807 0.6802630424499512 -0.07115212827920914
0.6763238310813904 0.8528743982315063 0.10439494252204895
0.6481093168258667 0.8847306966781616 0.06689576059579849
0.5781831741333008 0.942578911781311 -0.012684975750744343
0.7165776491165161 0.8176005482673645 0.22266536951065063
0.5768581628799438 0.47960638999938965 0.04525620490312576
0.5640187859535217 0.5377058982849121 -0.05958113074302673
0.6114832162857056 0.9438720941543579 0.04770587384700775
0.7664441466331482 0.6772393584251404 0.225555419921875
0.5877054929733276 0.792125940322876 -0.01016291230916977
0.5935293436050415 0.7971382141113281 -0.014171258546411991
0.5985280275344849 0.8053164482116699 -0.01769360341131687
0.6019705533981323 0.8166956305503845 -0.014050685800611973
0.6060366630554199 0.837454080581665 0.0006557623273693025
0.6330937147140503 0.7312250137329102 0.021463381126523018
0.6420959234237671 0.7276536226272583 0.024526087567210197
0.6492338180541992 0.7234530448913574 0.025364575907588005
0.6661995649337769 0.7111153602600098 0.03186061233282089
0.7424709796905518 0.6613736748695374 0.0825984850525856
0.5562860369682312 0.5129634141921997 -0.032304540276527405
0.5565807223320007 0.4660111665725708 0.02219034917652607
0.5678325891494751 0.4701598882675171 0.038327157497406006
0.6244169473648071 0.7284694910049438 0.0219914298504591
0.7394410967826843 0.7331135272979736 0.12231780588626862
0.5439505577087402 0.46312403678894043 -0.018904471769928932
0.6111985445022583 0.859241247177124 0.008446317166090012
0.5500911474227905 0.5236656665802002 -0.08077407628297806
0.5831972360610962 0.5768499374389648 -0.06160752475261688
0.5712382197380066 0.8831064701080322 -0.02286450006067753
0.6634056568145752 0.7859689593315125 0.06108054891228676
0.6333122253417969 0.6412890553474426 -0.005063865799456835
0.6392353177070618 0.8263709545135498 0.03743397817015648
0.6920977830886841 0.6369292736053467 0.01847369223833084
0.6597542762756348 0.666546642780304 0.011680462397634983
0.7127594947814941 0.6787005662918091 0.04893080145120621
0.5778087377548218 0.9143843650817871 -0.02125038020312786
0.5959306955337524 0.5902568101882935 -0.04118948429822922
0.6758983731269836 0.8138808012008667 0.08092168718576431
0.6463342905044556 0.8518243432044983 0.05137051269412041
0.6855710744857788 0.744381308555603 0.06614990532398224
0.758469820022583 0.7014614939689636 0.1479957401752472
0.7107471823692322 0.7583080530166626 0.08971039950847626
0.7557547092437744 0.7334861755371094 0.208370178937912
0.6816174983978271 0.6944248676300049 0.03562277555465698
0.5766507387161255 0.5547320246696472 -0.03902352601289749
0.5923676490783691 0.6292780637741089 -0.10655311495065689
0.604634165763855 0.63323974609375 -0.07727121561765671
0.5858497023582458 0.6106755137443542 -0.1268656700849533
0.575761079788208 0.4414411783218384 0.021796762943267822
0.6149579286575317 0.42428267002105713 0.026185043156147003
0.6491621136665344 0.4204654097557068 0.035521250218153
0.6765666604042053 0.4255526661872864 0.052062295377254486
0.693719208240509 0.4385959506034851 0.07176991552114487
0.7029934525489807 0.4863947629928589 0.11156618595123291
0.7619975209236145 0.5627528429031372 0.23967933654785156
0.6916886568069458 0.5175697803497314 0.08417926728725433
0.6688533425331116 0.5244051218032837 0.0629671961069107
0.6369322538375854 0.5260552167892456 0.04561629891395569
0.6050310730934143 0.5225720405578613 0.03499409556388855
0.5809516906738281 0.515296459197998 0.028078287839889526
0.5655567049980164 0.5071470737457275 0.023042304441332817
0.7436748147010803 0.5728182792663574 0.33482059836387634
0.6028439402580261 0.6387062668800354 -0.06492943316698074
0.5704936981201172 0.5599112510681152 -0.08406221121549606
0.5806918740272522 0.6309443116188049 -0.13144031167030334
0.5646767020225525 0.6451243162155151 -0.12527798116207123
0.5775787830352783 0.6361343264579773 -0.11895934492349625
0.5969393849372864 0.6461802124977112 -0.058442480862140656
0.5624865293502808 0.6477181911468506 -0.1331212818622589
0.556159257888794 0.6532923579216003 -0.10359832644462585
0.5628175139427185 0.48765861988067627 0.03796027600765228
0.5536543726921082 0.4929605722427368 0.01737898401916027
0.5513740181922913 0.49622878432273865 -0.004488982260227203
0.6760592460632324 0.4717041552066803 0.07909007370471954
0.689176082611084 0.46169227361679077 0.08322259783744812
