ply
format ascii 1.0
element vertex 468
property float x
property float y
property float z
end_header
0.5303679704666138 0.7170435786247253 -0.06727968156337738
0.5400720238685608 0.6483039259910583 -0.13507665693759918
0.530474066734314 0.6680575013160706 -0.0693831816315651
0.5094102025032043 0.5608431696891785 -0.10935263335704803
0.5402911901473999 0.6222788095474243 -0.1442907303571701
0.5363073945045471 0.5867976546287537 -0.1355547159910202
0.5220522284507751 0.49800318479537964 -0.07340189814567566
0.31838712096214294 0.4793085753917694 -0.004651650786399841
0.516523003578186 0.42293739318847656 -0.05897905305027962
0.5159987211227417 0.38686078786849976 -0.06582104414701462
0.5081672668457031 0.2642310857772827 -0.0487181656062603
0.5297903418540955 0.727678120136261 -0.06464437395334244
0.5281887054443359 0.7363844513893127 -0.057033345103263855
0.5262091755867004 0.7398974895477295 -0.04627029225230217
0.527321994304657 0.8112667798995972 -0.01705200970172882
0.528533935546875 0.8248481750488281 -0.019620422273874283
0.5292084813117981 0.8393129706382751 -0.020639218389987946
0.5287443399429321 0.8519545197486877 -0.009489580057561398
0.5260831117630005 0.8575276732444763 0.021179867908358574
0.5376467704772949 0.660266637802124 -0.12190359830856323
0.5109800100326538 0.6575220823287964 -0.09066248685121536
0.20392143726348877 0.37268292903900146 0.0917857363820076
0.39857006072998047 0.5058389902114868 -0.021515436470508575
0.37255188822746277 0.5079687237739563 -0.022644229233264923
0.3466346561908722 0.5066466331481934 -0.01886298879981041
0.30845606327056885 0.48780983686447144 -0.002256453037261963
0.4204106330871582 0.4995167851448059 -0.014964411035180092
0.359591543674469 0.4245675802230835 -0.03424804285168648
0.3912086486816406 0.4281463623046875 -0.030611934140324593
0.33035892248153687 0.42952221632003784 -0.028896261006593704
0.31069982051849365 0.44082850217819214 -0.020718930289149284
0.28840386867523193 0.5072333216667175 0.00892779603600502
0.4308266341686249 0.8596450090408325 0.03441489860415459
0.3067358136177063 0.4697830080986023 0.0025277927052229643
0.19746479392051697 0.48516643047332764 0.10658202320337296
0.25570449233055115 0.48637324571609497 0.02955755405128002
0.39162716269493103 0.6172260642051697 -0.038269076496362686
0.49717557430267334 0.7150793075561523 -0.06827027350664139
0.50066739320755 0.7375021576881409 -0.0577719509601593
0.4625219702720642 0.7247509360313416 -0.05858606472611427
0.4413047432899475 0.7352559566497803 -0.04131922870874405
0.4767066240310669 0.7415092587471008 -0.05158528685569763
0.4583541452884674 0.7461309432983398 -0.03519146889448166
0.404828280210495 0.7837094068527222 0.009295087307691574
0.5195937156677246 0.6479250192642212 -0.1351451426744461
0.5159288644790649 0.6226357817649841 -0.1440509855747223
0.27397340536117554 0.41773274540901184 -0.018267164006829262
0.439964234828949 0.5523533225059509 -0.03984641283750534
0.45369255542755127 0.6369298100471497 -0.08379711210727692
0.4488767683506012 0.6221844553947449 -0.07737430185079575
0.3092971444129944 0.6126645803451538 -0.020238038152456284
0.5132547616958618 0.5894199013710022 -0.1314934641122818
0.34078067541122437 0.3893328309059143 -0.05134625732898712
0.30190569162368774 0.3981575071811676 -0.03695203736424446
0.23419395089149475 0.3291955292224884 0.045845843851566315
0.4587145149707794 0.4144591689109802 -0.05829128995537758
0.4169939160346985 0.4408048391342163 -0.02078424021601677
0.3885449469089508 0.7532831430435181 0.0044692037627100945
0.23974451422691345 0.713058352470398 0.18890467286109924
0.47206005454063416 0.6508855819702148 -0.07090643793344498
0.4918932020664215 0.6581742167472839 -0.067805714905262
0.41378939151763916 0.7596704959869385 0.0019795603584498167
0.4274181127548218 0.7599812150001526 -0.0032365284860134125
0.2857179343700409 0.381344199180603 -0.028411366045475006
0.45151934027671814 0.6465186476707458 -0.06931032985448837
0.39166295528411865 0.39222633838653564 -0.05923719331622124
0.38706955313682556 0.3722062110900879 -0.0662006288766861
0.3513604700565338 0.27379608154296875 -0.03643286973237991
0.2608188986778259 0.35654234886169434 0.002689012326300144
0.37298110127449036 0.3238791823387146 -0.053663220256567
0.25539374351501465 0.4056892991065979 2.8490890144894365e-06
0.22991344332695007 0.39145761728286743 0.04269326850771904
0.4986515939235687 0.7279454469680786 -0.06590025126934052
0.47020605206489563 0.7349864840507507 -0.05607154965400696
0.4496440589427948 0.7409945130348206 -0.04043431952595711
0.4775574505329132 0.6549147367477417 -0.06350166350603104
0.42064201831817627 0.7605463266372681 -0.0006815329543314874
0.43088945746421814 0.7807022929191589 -0.0057852985337376595
0.43101468682289124 0.7578825950622559 -0.002915991237387061
0.4877603054046631 0.645748496055603 -0.10471893846988678
0.46269258856773376 0.744020402431488 -0.03139355778694153
0.48080024123191833 0.7417542338371277 -0.04196806252002716
0.5019917488098145 0.7403849363327026 -0.04800957068800926
0.4878145456314087 0.8546185493469238 0.01620565727353096
0.49097195267677307 0.847580075263977 -0.014206836931407452
0.49385833740234375 0.8353461027145386 -0.022743849083781242
0.49698323011398315 0.8208532333374023 -0.021789634600281715
0.4994388818740845 0.8094155788421631 -0.019338862970471382
0.45777812600135803 0.7900301218032837 -0.010222407057881355
0.4524897038936615 0.7940134406089783 -0.012275481596589088
0.4444015920162201 0.799923300743103 -0.013900061137974262
0.4373355209827423 0.8053907155990601 -0.00928777176886797
0.4200187623500824 0.7095288038253784 -0.03656302019953728
0.1970643699169159 0.5860927104949951 0.21141721308231354
0.5344183444976807 0.6635807752609253 -0.0885988101363182
0.4455017149448395 0.778192937374115 -0.004356272518634796
0.4384503662586212 0.7798577547073364 -0.005946923978626728
0.49958285689353943 0.6684381365776062 -0.06644941866397858
0.45761704444885254 0.6603306531906128 -0.04740026220679283
0.4960055351257324 0.6635690331459045 -0.06802936643362045
0.4127412438392639 0.5663502216339111 -0.03468805178999901
0.37014245986938477 0.5834263563156128 -0.031978778541088104
0.44353824853897095 0.6323745846748352 -0.0632777288556099
0.28074759244918823 0.295348584651947 0.00038535299245268106
0.3058928847312927 0.33250895142555237 -0.02856038510799408
0.3303816318511963 0.36964261531829834 -0.050514765083789825
0.42478033900260925 0.810130774974823 0.008043165318667889
0.45065146684646606 0.38016802072525024 -0.07010220736265182
0.43968284130096436 0.3252277374267578 -0.06382843852043152
0.4249141812324524 0.2649151682853699 -0.05262412130832672
0.3228098750114441 0.5000450611114502 -0.010551122948527336
0.25987371802330017 0.5260004997253418 0.019344720989465714
0.4349125623703003 0.4926689863204956 -0.010449757799506187
0.28442108631134033 0.4530549645423889 -0.003183735767379403
0.4584789276123047 0.5363884568214417 -0.04654628783464432
0.47075167298316956 0.6293315291404724 -0.10623741149902344
0.23007747530937195 0.5407348275184631 0.04295974597334862
0.2814368009567261 0.5466678142547607 -0.0005566576728597283
0.31933486461639404 0.557926595211029 -0.018619436770677567
0.3714655339717865 0.553815484046936 -0.022725095972418785
0.4078555107116699 0.5430200695991516 -0.023789439350366592
0.4345709979534149 0.5314866900444031 -0.0273056011646986
0.4968462288379669 0.503903865814209 -0.06762722134590149
0.2398156225681305 0.5957307815551758 0.038148410618305206
0.2625052332878113 0.4492347538471222 0.005231273360550404
0.5251646637916565 0.6594839096069336 -0.1223330870270729
0.44707879424095154 0.5791624188423157 -0.04926176369190216
0.18153643608093262 0.475805401802063 0.18522998690605164
0.45508310198783875 0.5181570053100586 -0.02896738611161709
0.4379521310329437 0.6323727369308472 -0.03858879208564758
0.29719191789627075 0.4703999161720276 0.006194397807121277
0.4663833975791931 0.6111206412315369 -0.09795643389225006
0.21151003241539001 0.6467717885971069 0.20620131492614746
0.43387705087661743 0.4820405840873718 -0.005175876431167126
0.48893842101097107 0.5975778698921204 -0.11945672333240509
0.3164024353027344 0.7897507548332214 0.08463890850543976
0.31119048595428467 0.8099777102470398 0.12670281529426575
0.20517629384994507 0.592756450176239 0.12345252931118011
0.279419481754303 0.7524045705795288 0.10113607347011566
0.21173638105392456 0.434725284576416 0.08060264587402344
0.42682796716690063 0.8782723546028137 0.04852570965886116
0.5249068737030029 0.6627772450447083 -0.08810324221849442
0.4232848882675171 0.5968694090843201 -0.041596487164497375
0.23019537329673767 0.48946183919906616 0.05048635974526405
0.3480278253555298 0.49126070737838745 -0.016632145270705223
0.3714558780193329 0.4937712550163269 -0.020111598074436188
0.42308616638183594 0.7815728783607483 -0.003201399464160204
0.250019907951355 0.6455843448638916 0.05034619942307472
0.4702755808830261 0.9105981588363647 0.06394891440868378
0.3899724781513214 0.8697571754455566 0.08992063999176025
0.3540177345275879 0.844993531703949 0.10526781529188156
0.5126517415046692 0.32781100273132324 -0.06051662564277649
0.5216379165649414 0.9156380891799927 0.06593190133571625
0.393474817276001 0.49215787649154663 -0.018169963732361794
0.41418951749801636 0.48774710297584534 -0.012687770649790764
0.4277409017086029 0.48506590723991394 -0.006080141291022301
0.24012359976768494 0.4425384998321533 0.02758115343749523
0.40993431210517883 0.45881572365760803 -0.01737953908741474
0.38625386357307434 0.44771504402160645 -0.02298332378268242
0.361957848072052 0.4452112317085266 -0.0248696468770504
0.3375317454338074 0.4498831331729889 -0.02103361301124096
0.3225880265235901 0.4582865834236145 -0.014708039350807667
0.18695157766342163 0.418789267539978 0.1431548297405243
0.3309679925441742 0.4858979880809784 -0.010485994629561901
0.529549241065979 0.6831944584846497 -0.06144842132925987
0.44332805275917053 0.6954543590545654 -0.04798618704080582
0.4726065993309021 0.6478796601295471 -0.08013279736042023
0.49412110447883606 0.6873012781143188 -0.06287657469511032
0.5174480676651001 0.45933055877685547 -0.05739867314696312
0.3531675636768341 0.8232445120811462 0.07640256732702255
0.3884642720222473 0.8495545387268066 0.06469333171844482
0.47216472029685974 0.9006943106651306 0.03660223260521889
0.27478909492492676 0.7690290212631226 0.15753349661827087
0.4265785813331604 0.4737533926963806 -0.010253774002194405
0.48303279280662537 0.5469152927398682 -0.07661200314760208
0.5248139500617981 0.905726432800293 0.03983140364289284
0.42795151472091675 0.8933837413787842 0.0726160779595375
0.2190021276473999 0.648597002029419 0.12525346875190735
0.47682321071624756 0.8016261458396912 -0.01610739156603813
0.4716806709766388 0.8091904520988464 -0.018265554681420326
0.4655148386955261 0.8198051452636719 -0.01932504028081894
0.46044301986694336 0.8304647207260132 -0.013339529745280743
0.45135262608528137 0.8358941078186035 0.008077347651124
0.4406166672706604 0.7513506412506104 -0.01934858411550522
0.43200480937957764 0.7490560412406921 -0.02013179287314415
0.42399361729621887 0.7450188398361206 -0.021209949627518654
0.4013929069042206 0.7290783524513245 -0.018763713538646698
0.2932654023170471 0.6643633842468262 0.008483161218464375
0.4779333472251892 0.5184699892997742 -0.05545346438884735
0.4560961127281189 0.4625283479690552 -0.01941564492881298
0.43865257501602173 0.4648134112358093 -0.012961549684405327
0.44639116525650024 0.7475552558898926 -0.016767626628279686
0.29362374544143677 0.7221901416778564 0.053269896656274796
0.4823286235332489 0.4622358977794647 -0.04598783329129219
0.4393531084060669 0.8441083431243896 0.024153130128979683
0.5313677191734314 0.5570245385169983 -0.11391154676675797
0.5029709935188293 0.534582793712616 -0.09032565355300903
0.5268548727035522 0.5292568206787109 -0.09300234913825989
0.4676936864852905 0.5871262550354004 -0.07713452726602554
0.5260183811187744 0.8884459733963013 0.02807566523551941
0.5258393883705139 0.8698794841766357 0.02680213935673237
0.4817657470703125 0.8657134175300598 0.024903248995542526
0.3820902705192566 0.7865358591079712 0.024033766239881516
0.41558021306991577 0.6517198085784912 -0.03241821750998497
0.4066635072231293 0.8171019554138184 0.025333382189273834
0.3535592555999756 0.6480252146720886 -0.029692677780985832
0.39260461926460266 0.6772556900978088 -0.028185326606035233
0.3358241319656372 0.6866573691368103 -0.008740943856537342
0.47594642639160156 0.8835008144378662 0.025652742013335228
0.451560914516449 0.6002337336540222 -0.06107410416007042
0.36149317026138306 0.8011184930801392 0.04627157375216484
0.3948799967765808 0.8303012251853943 0.04498501867055893
0.363824725151062 0.7530905604362488 0.013821059837937355
0.2617769241333008 0.6876978278160095 0.06513215601444244
0.3303268551826477 0.7543795108795166 0.03301175311207771
0.24216845631599426 0.7014462947845459 0.12143607437610626
0.3752650022506714 0.7085303068161011 -0.015308970585465431
0.4650435149669647 0.5627772808074951 -0.06187213584780693
0.4802703261375427 0.6417179107666016 -0.11032656580209732
0.462343692779541 0.6457444429397583 -0.08439389616250992
0.4925435483455658 0.6252556443214417 -0.12659549713134766
0.4355629086494446 0.4356667399406433 -0.030332578346133232
0.3921761214733124 0.4174612760543823 -0.03875299543142319
0.3527304530143738 0.41382884979248047 -0.04041038453578949
0.3196644186973572 0.4192536473274231 -0.034101568162441254
0.29637324810028076 0.43165308237075806 -0.0218502264469862
0.2802601456642151 0.47887545824050903 0.014771687798202038
0.19772127270698547 0.5384750962257385 0.115203857421875
0.30458736419677734 0.5192924737930298 -0.0022343876771628857
0.3344631791114807 0.5287438035011292 -0.01295321062207222
0.3707239627838135 0.528681218624115 -0.018999841064214706
0.40336769819259644 0.5226658582687378 -0.020127616822719574
0.4281541109085083 0.5142359137535095 -0.017293915152549744
0.4458150267601013 0.5061997175216675 -0.017199533060193062
0.18800216913223267 0.5300595164299011 0.20582404732704163
0.4618721008300781 0.6510867476463318 -0.07172773778438568
0.48779091238975525 0.5715320110321045 -0.09508667886257172
0.5004435181617737 0.6444013714790344 -0.12633003294467926
0.5110510587692261 0.6552422046661377 -0.11357452720403671
0.49860385060310364 0.6475560665130615 -0.11452823132276535
0.4671489894390106 0.657494068145752 -0.061047542840242386
0.5167268514633179 0.6578733921051025 -0.11934738606214523
0.5167000889778137 0.6613041758537292 -0.08934338390827179
0.4443308115005493 0.4838349223136902 -0.006749868392944336
0.4599483609199524 0.4915754795074463 -0.018808258697390556
0.47075268626213074 0.49734458327293396 -0.0334414578974247
0.3138136863708496 0.46442168951034546 -0.00715317577123642
0.2983276844024658 0.45364779233932495 -0.007914602756500244
0.5506879687309265 0.5601714849472046 -0.10229163616895676
0.6788327693939209 0.4798697829246521 0.04563525691628456
0.5539960265159607 0.6561769247055054 -0.08538593351840973
0.7418503761291504 0.37279030680656433 0.17009401321411133
0.6109614968299866 0.5065768957138062 0.010557325556874275
0.635235071182251 0.5077981948852539 0.01591712236404419
0.6579278111457825 0.5052875280380249 0.025949452072381973
0.6848753094673157 0.4874749481678009 0.051449649035930634
0.5907883644104004 0.5005419850349426 0.010048613883554935
0.6455240249633789 0.4283398389816284 0.006269435398280621
0.6170789003372192 0.43154215812683105 0.0009422934963367879
0.6704064607620239 0.43306469917297363 0.01825973205268383
0.6855822205543518 0.443805992603302 0.029970059171319008
0.7019796967506409 0.504012405872345 0.06615618616342545
0.6032082438468933 0.851387083530426 0.058316897600889206
0.6862481832504272 0.47134608030319214 0.05514875426888466
0.7513142824172974 0.4800366759300232 0.18567682802677155
0.7224717140197754 0.48275068402290344 0.09429095685482025
0.6355664134025574 0.612097978591919 -0.005689121317118406
0.5594395399093628 0.712293803691864 -0.05869870260357857
0.5511406660079956 0.7351441383361816 -0.04888157173991203
0.5845783948898315 0.7187232971191406 -0.03915609046816826
0.596163809299469 0.7277297377586365 -0.015045104548335075
0.5682229399681091 0.7367849946022034 -0.03455544635653496
0.5787349343299866 0.7403992414474487 -0.012752936221659184
0.6187267899513245 0.7749579548835754 0.04176270216703415
0.5583874583244324 0.6467391848564148 -0.1306687295436859
0.5614244341850281 0.6214675307273865 -0.13863684237003326
0.7136904001235962 0.42006799578666687 0.04265996441245079
0.5876761078834534 0.5502837300300598 -0.018325425684452057
0.5973682999610901 0.6328994631767273 -0.0630807876586914
0.5971965193748474 0.6184686422348022 -0.05621112510561943
0.6996363401412964 0.6046307682991028 0.03402379900217056
0.5567880868911743 0.58858323097229 -0.12458377331495285
0.6670636534690857 0.39470112323760986 -0.01019170694053173
0.6954769492149353 0.4024614989757538 0.015130073763430119
0.725856602191925 0.33122390508651733 0.11581540107727051
0.5686430931091309 0.41645747423171997 -0.04502330347895622
0.5933954119682312 0.4432997703552246 0.004704208113253117
0.6309840679168701 0.7438520193099976 0.04292864352464676
0.7082349061965942 0.7002769708633423 0.2626776695251465
0.5807139277458191 0.6473597884178162 -0.055512577295303345
0.5640524625778198 0.6561766862869263 -0.05992327257990837
0.6089639663696289 0.7515563368797302 0.035863857716321945
0.595981240272522 0.7528514266014099 0.02688121236860752
0.70512855052948 0.38614773750305176 0.027646029368042946
0.595089852809906 0.6426786780357361 -0.04895719513297081
0.6266512870788574 0.396620512008667 -0.03089691698551178
0.6308181285858154 0.376648485660553 -0.037031084299087524
0.6458128690719604 0.27634912729263306 0.0029174385126680136
0.7160351276397705 0.35892924666404724 0.06483659148216248
0.6364552974700928 0.32703453302383423 -0.01964469440281391
0.7244166135787964 0.4075086712837219 0.06529732793569565
0.7340735793113708 0.3919372260570526 0.1135890930891037
0.5562335848808289 0.7252607941627502 -0.056368786841630936
0.5764291286468506 0.7294610142707825 -0.037656519562006
0.5884079337120056 0.7341302633285522 -0.015997281298041344
0.574634313583374 0.6518512964248657 -0.05114731937646866
0.602709174156189 0.7528311610221863 0.030674945563077927
0.5988098382949829 0.7735863924026489 0.02151815965771675
0.5915319919586182 0.7510582804679871 0.02635623887181282
0.5756717920303345 0.6426866054534912 -0.0905667245388031
0.5716307759284973 0.7390111088752747 -0.009933656081557274
0.5608984231948853 0.7379032969474792 -0.026135224848985672
0.5456479787826538 0.7384408116340637 -0.038988303393125534
0.5596743822097778 0.8517181873321533 0.024841366335749626
0.5618067383766174 0.8447020649909973 -0.004038603510707617
0.5603180527687073 0.8324199914932251 -0.012345748022198677
0.5559737682342529 0.8179723024368286 -0.01109214685857296
0.5512619614601135 0.8067660331726074 -0.009153926745057106
0.5783628821372986 0.7841596603393555 0.011563623324036598
0.5843685269355774 0.7878955602645874 0.009447920136153698
0.5927551984786987 0.7934911847114563 0.00858702789992094
0.599083423614502 0.7987006902694702 0.014403224922716618
0.6142306327819824 0.7022379636764526 -0.007222394458949566
0.7344708442687988 0.5775480270385742 0.29276344180107117
0.5840354561805725 0.7721385955810547 0.021713947877287865
0.5916956663131714 0.7731469869613647 0.02054719440639019
0.557776927947998 0.6666473150253296 -0.05877231806516647
0.586932361125946 0.6566810607910156 -0.03110555373132229
0.5608758330345154 0.6617915630340576 -0.06046420335769653
0.6114815473556519 0.5632795095443726 -0.006214719265699387
0.6498348712921143 0.5784479975700378 0.006359827239066362
0.5986725687980652 0.6285257935523987 -0.04124636948108673
0.6967126131057739 0.2981143593788147 0.05690576881170273
0.6859340071678162 0.3363823890686035 0.02107834629714489
0.6742820143699646 0.3750508427619934 -0.006550481077283621
0.6064561009407043 0.8023808002471924 0.03490721806883812
0.5766088366508484 0.3832007646560669 -0.05574357509613037
0.5805208086967468 0.3266056478023529 -0.04639256373047829
0.5852788686752319 0.26619917154312134 -0.032994695007801056
0.6757169961929321 0.49872034788131714 0.03959593549370766
0.7246601581573486 0.520394504070282 0.08344434946775436
0.5776265859603882 0.4941568970680237 0.01179206371307373
0.7038010358810425 0.4537543058395386 0.055247388780117035
0.5723719000816345 0.5350635051727295 -0.02951180934906006
0.5892274379730225 0.6261000633239746 -0.08945966511964798
0.7442467212677002 0.5334612131118774 0.1155315712094307
0.7135064601898193 0.5406385660171509 0.059468355029821396
0.6872953176498413 0.5522057414054871 0.03249762952327728
0.6434106826782227 0.5500566363334656 0.015777897089719772
0.6104073524475098 0.5407955050468445 0.005471482872962952
0.5866135358810425 0.5301927924156189 -0.005212219897657633
0.5438089966773987 0.5037652850151062 -0.060694385319948196
0.7423359155654907 0.5864538550376892 0.11055655032396317
0.7194534540176392 0.4483780860900879 0.06977933645248413
0.5488518476486206 0.6588786840438843 -0.11875703185796738
0.587073028087616 0.5766854882240295 -0.028395961970090866
0.7464948892593384 0.4717218577861786 0.2692478895187378
0.5691897869110107 0.5176635384559631 -0.012009377591311932
0.5984338521957397 0.6284217238426208 -0.01664944551885128
0.6927306652069092 0.47147464752197266 0.06139954552054405
0.5873681306838989 0.6082904934883118 -0.08099645376205444
0.7263166904449463 0.6361454129219055 0.2842405140399933
0.5759990215301514 0.4837131202220917 0.01796121895313263
0.5736575126647949 0.5956817865371704 -0.10743381083011627
0.6752219200134277 0.7755460739135742 0.1384018361568451
0.6687551736831665 0.7955217361450195 0.1816621571779251
0.7510848045349121 0.5830594301223755 0.20262911915779114
0.6986700296401978 0.7385541200637817 0.16497795283794403
0.7439558506011963 0.43251264095306396 0.15708135068416595
0.6050699949264526 0.8688850998878479 0.07458784431219101
0.5434010028839111 0.6623648405075073 -0.08589667081832886
0.6067742109298706 0.5932842493057251 -0.016141749918460846
0.7382103204727173 0.4847562909126282 0.12205583602190018
0.6566944718360901 0.491611510515213 0.027317581698298454
0.6359172463417053 0.4949318766593933 0.018723269924521446
0.6051858067512512 0.7740766406059265 0.025841092690825462
0.7332638502120972 0.6345934867858887 0.12013231217861176
0.5679882764816284 0.9053539037704468 0.07860640436410904
0.6229559183120728 0.8580412864685059 0.12605763971805573
0.6437413692474365 0.831054151058197 0.150297611951828
0.6147662997245789 0.4938161373138428 0.014588006772100925
0.5948362350463867 0.48954451084136963 0.015510344877839088
0.5819860696792603 0.4867616891860962 0.0188453309237957
0.7325589656829834 0.4410136938095093 0.09704164415597916
0.5966005325317383 0.460565984249115 0.011263408698141575
0.6176590919494629 0.4501700699329376 0.010264127515256405
0.6405959725379944 0.447618305683136 0.01457796897739172
0.6626133918762207 0.4520563781261444 0.023644601926207542
0.6750186085700989 0.4600526690483093 0.03368282690644264
0.7491000890731812 0.41700372099876404 0.22557081282138824
0.6701799035072327 0.486061155796051 0.037619076669216156
0.5986937284469604 0.6898812055587769 -0.02564738690853119
0.5831461548805237 0.6443507671356201 -0.06544987112283707
0.5610462427139282 0.684563159942627 -0.05351094529032707
0.6515170335769653 0.8097243309020996 0.11990422010421753
0.6285786628723145 0.837473452091217 0.09939344972372055
0.571307361125946 0.895257830619812 0.05085653439164162
0.6880972385406494 0.755217432975769 0.22342051565647125
0.5825511813163757 0.47511106729507446 0.01527380384504795
0.5623234510421753 0.5457798838615417 -0.06517017632722855
0.5995577573776245 0.8843305706977844 0.09902703016996384
0.7410452365875244 0.637048602104187 0.20103345811367035
0.5675609707832336 0.7970728874206543 0.0008289863471873105
0.5737553238868713 0.8043643236160278 -0.0007009789114817977
0.5807279944419861 0.8147902488708496 -0.0013078798074275255
0.5852965116500854 0.8254762291908264 0.0054767257533967495
0.5882942080497742 0.8302529454231262 0.028024528175592422
0.5880604386329651 0.7447732090950012 0.008021177724003792
0.5969623327255249 0.7415988445281982 0.009329400956630707
0.6041855216026306 0.7370339035987854 0.010107511654496193
0.6245489120483398 0.7204852104187012 0.01726284809410572
0.7072582244873047 0.6540194153785706 0.06717696785926819
0.5579426884651184 0.5178173780441284 -0.04356136545538902
0.5623746514320374 0.46367478370666504 -0.004280321300029755
0.5737895965576172 0.46628624200820923 0.008657995611429214
0.5808432102203369 0.7416361570358276 0.009556187316775322
0.6981837153434753 0.7096242308616638 0.11285202205181122
0.5467261672019958 0.46261727809906006 -0.03720558434724808
0.5956038236618042 0.8369726538658142 0.04578735679388046
0.5479013323783875 0.533993661403656 -0.08411061763763428
0.5784697532653809 0.5848535299301147 -0.06155708432197571
0.5639738440513611 0.8618696331977844 0.0349586084485054
0.6358928680419922 0.7762113809585571 0.06089486554265022
0.6166343688964844 0.6465774774551392 -0.004958047065883875
0.6185526847839355 0.8075869679450989 0.054717786610126495
0.6670734286308289 0.6402851939201355 0.012020368129014969
0.6349422931671143 0.6703510284423828 0.005962151102721691
0.6772875189781189 0.6768444180488586 0.039428725838661194
0.5696220397949219 0.8787657022476196 0.03890463709831238
0.5882723927497864 0.5973650217056274 -0.04163575544953346
0.6502723097801208 0.7886186838150024 0.08803126215934753
0.6268858313560486 0.8193472027778625 0.07724560052156448
0.6505452990531921 0.7422938942909241 0.05766816437244415
0.7205528020858765 0.6754679083824158 0.13223551213741302
0.674053966999054 0.7419602870941162 0.08337357640266418
0.7236682176589966 0.6885902881622314 0.1940891444683075
0.6451497077941895 0.6998300552368164 0.025180479511618614
0.5742175579071045 0.5607945919036865 -0.04550708457827568
0.5829505920410156 0.6384427547454834 -0.09517531841993332
0.5915388464927673 0.6417280435562134 -0.066817507147789
0.5771981477737427 0.6229081749916077 -0.1144552230834961
0.581866443157196 0.4376112222671509 -0.009826288558542728
0.6210501790046692 0.4208066463470459 -0.008502916432917118
0.6552125811576843 0.417984277009964 -0.0006838141125626862
0.6816075444221497 0.4227668046951294 0.014369131997227669
0.6977670788764954 0.4341743588447571 0.03280911594629288
0.7049435377120972 0.477660208940506 0.07365068793296814
0.7538666725158691 0.5311042666435242 0.19637182354927063
0.6921669244766235 0.5159306526184082 0.051662612706422806
0.6701676845550537 0.5250324010848999 0.033676084131002426
0.6394855380058289 0.5266318321228027 0.01927861198782921
0.6095494031906128 0.5217615365982056 0.0098494878038764
0.5871062278747559 0.5140405893325806 0.0054105003364384174
0.5717631578445435 0.5065440535545349 0.001201241509988904
0.7394143342971802 0.5237882137298584 0.28972506523132324
0.5883514285087585 0.647368848323822 -0.05438427999615669
0.566554605960846 0.5699897408485413 -0.08310674875974655
0.5717272162437439 0.6420828104019165 -0.11663204431533813
0.5577430725097656 0.653510570526123 -0.10806991159915924
0.56934654712677 0.6450697183609009 -0.10458463430404663
0.5816017985343933 0.6542481780052185 -0.04643194377422333
0.5551515221595764 0.6566494703292847 -0.1147969588637352
0.5499498844146729 0.6603034138679504 -0.0854867547750473
0.5687384009361267 0.48550915718078613 0.012429307214915752
0.559374213218689 0.49237385392189026 -0.0044866749085485935
0.5555137991905212 0.497620165348053 -0.021578185260295868
0.6816061735153198 0.4661198854446411 0.043422356247901917
0.6935073733329773 0.4555870294570923 0.045721422880887985
