ply
format ascii 1.0
element vertex 468
property float x
property float y
property float z
end_header
0.5107156038284302 0.7277642488479614 -0.07051631808280945
0.5182688236236572 0.6530000567436218 -0.14453811943531036
0.5127193927764893 0.6725963354110718 -0.07775167375802994
0.4920697510242462 0.5622817277908325 -0.1135614737868309
0.5186366438865662 0.6265959143638611 -0.1536415070295334
0.5170567631721497 0.5900852680206299 -0.14414924383163452
0.5110175013542175 0.49806469678878784 -0.07678544521331787
0.32441505789756775 0.47831225395202637 0.012591257691383362
0.5097423791885376 0.4351730942726135 -0.05934494361281395
0.510148823261261 0.40183138847351074 -0.06356444954872131
0.5081010460853577 0.27243712544441223 -0.03789707273244858
0.5099350810050964 0.7401335835456848 -0.06673472374677658
0.5090983510017395 0.7489604353904724 -0.05932524427771568
0.5081273913383484 0.7515859603881836 -0.0487777478992939
0.508734941482544 0.8193918466567993 -0.022270934656262398
0.5089119076728821 0.8330214023590088 -0.02650819532573223
0.5088157653808594 0.8479927778244019 -0.030935950577259064
0.5084555745124817 0.8623725175857544 -0.024076661095023155
0.5073819160461426 0.8739199638366699 0.00019376917043700814
0.5167734026908875 0.6652647256851196 -0.13122814893722534
0.48634397983551025 0.6609787940979004 -0.09700288623571396
0.22079437971115112 0.37614941596984863 0.11906582117080688
0.3998136520385742 0.4979264736175537 -0.006626988295465708
0.3752698302268982 0.5000842809677124 -0.007058723364025354
0.3496628403663635 0.500349223613739 -0.002805457217618823
0.31193727254867554 0.4866093695163727 0.014928425662219524
0.41952741146087646 0.49260222911834717 -0.002986733801662922
0.3615818917751312 0.4350530803203583 -0.019201433286070824
0.3900427222251892 0.43612539768218994 -0.015726035460829735
0.33498257398605347 0.43991369009017944 -0.013731238432228565
0.31711530685424805 0.4492057263851166 -0.004344065673649311
0.2897302806377411 0.5041897296905518 0.025555532425642014
0.40568509697914124 0.8803926706314087 0.02746151015162468
0.31263452768325806 0.4727201461791992 0.019266700372099876
0.20505619049072266 0.4861239790916443 0.13103267550468445
0.25849831104278564 0.4879192113876343 0.04785636439919472
0.37294524908065796 0.6129912734031677 -0.030326444655656815
0.4705478549003601 0.7232795357704163 -0.06966137140989304
0.4741033911705017 0.748371422290802 -0.057092197239398956
0.4295191466808319 0.7297492027282715 -0.05489924177527428
0.40517759323120117 0.7383900284767151 -0.031022656708955765
0.4447372853755951 0.7492092847824097 -0.04598482325673103
0.4235713481903076 0.751853883266449 -0.02438703179359436
0.3715647757053375 0.7884359359741211 0.021381322294473648
0.495339035987854 0.6519960165023804 -0.14348110556602478
0.49230825901031494 0.6262718439102173 -0.15205948054790497
0.28258466720581055 0.4326656758785248 -0.004338429309427738
0.4283069968223572 0.5487476587295532 -0.03312091901898384
0.4232940673828125 0.6348605751991272 -0.08371025323867798
0.42053043842315674 0.6195716857910156 -0.07601860165596008
0.29566457867622375 0.6040858626365662 -0.006215762346982956
0.4923342764377594 0.5921005010604858 -0.13793165981769562
0.34759148955345154 0.40884703397750854 -0.04262211173772812
0.3104284405708313 0.4168420135974884 -0.027030866593122482
0.25089341402053833 0.3354390263557434 0.0719534158706665
0.457882821559906 0.4282218813896179 -0.05527166277170181
0.41401493549346924 0.44457677006721497 -0.0061971265822649
0.35316431522369385 0.7536943554878235 0.020273398607969284
0.22776874899864197 0.7270253300666809 0.20544975996017456
0.44216692447662354 0.6498880386352539 -0.0717393234372139
0.46406984329223633 0.6593641042709351 -0.07327236980199814
0.3748655915260315 0.7612062692642212 0.02014009654521942
0.3898547887802124 0.7625477313995361 0.014522719196975231
0.2964785397052765 0.4011276066303253 -0.015290060080587864
0.4198707342147827 0.6438795328140259 -0.06924645602703094
0.39599132537841797 0.4098800718784332 -0.05214129015803337
0.3915427625179291 0.3907131552696228 -0.05782246217131615
0.3592023253440857 0.28241318464279175 -0.015624752268195152
0.2748178541660309 0.3681339919567108 0.02361137419939041
0.3786846399307251 0.33547261357307434 -0.037118930369615555
0.26599764823913574 0.42005154490470886 0.01621929556131363
0.24355921149253845 0.39978766441345215 0.06632883101701736
0.47176602482795715 0.7380571961402893 -0.06567687541246414
0.4377385377883911 0.741861879825592 -0.050949376076459885
0.4140784740447998 0.745421290397644 -0.02952665090560913
0.4476717710494995 0.6543900966644287 -0.06648366153240204
0.3819735646247864 0.7624508738517761 0.01700993999838829
0.39477211236953735 0.785443127155304 0.007991056889295578
0.3947480022907257 0.7614539265632629 0.013985558412969112
0.46089649200439453 0.647163450717926 -0.10822658240795135
0.429150253534317 0.7496621012687683 -0.020575955510139465
0.4500608444213867 0.7493543028831482 -0.036117080599069595
0.47651219367980957 0.7504297494888306 -0.04681434854865074
0.4640435576438904 0.8697347640991211 -0.000531741592567414
0.4652537405490875 0.8570036888122559 -0.02407684735953808
0.46814870834350586 0.8428909182548523 -0.02914399653673172
0.4718722105026245 0.8275481462478638 -0.02435951679944992
0.4752052128314972 0.8160773515701294 -0.02088307961821556
0.426171213388443 0.7956076860427856 -0.0018134498968720436
0.42018041014671326 0.7995546460151672 -0.004825318232178688
0.4112080931663513 0.806149959564209 -0.006935428828001022
0.4039219617843628 0.8125327825546265 -0.0023682843893766403
0.3869383931159973 0.7099459171295166 -0.027016138657927513
0.19865387678146362 0.593134343624115 0.2344861775636673
0.5149537324905396 0.6684965491294861 -0.09675636142492294
0.41221705079078674 0.783267617225647 0.009194680489599705
0.4033719301223755 0.7841408848762512 0.007711770012974739
0.4735966920852661 0.6710209250450134 -0.07262049615383148
0.42622077465057373 0.6584095358848572 -0.04850367456674576
0.4688408672809601 0.6655339598655701 -0.07406243681907654
0.400861918926239 0.5610732436180115 -0.02642008848488331
0.3582046329975128 0.5763570666313171 -0.02290847711265087
0.4142937958240509 0.6292921304702759 -0.06114836782217026
0.2945265769958496 0.3033399283885956 0.024351399391889572
0.3177303075790405 0.34577447175979614 -0.009421911090612411
0.33858469128608704 0.3898383378982544 -0.037941720336675644
0.39438140392303467 0.8183996677398682 0.013404643163084984
0.4506185054779053 0.39618057012557983 -0.06519356369972229
0.4399397373199463 0.33401888608932495 -0.05048103630542755
0.4278278946876526 0.2731544077396393 -0.03608108311891556
0.3263222575187683 0.4958224892616272 0.006045743823051453
0.2596037983894348 0.5212575793266296 0.03800279274582863
0.4321558475494385 0.4868965148925781 0.0012238441267982125
0.29013192653656006 0.4599449038505554 0.013716043904423714
0.44769760966300964 0.5342352390289307 -0.042165763676166534
0.4434143304824829 0.629506528377533 -0.10860740393400192
0.22900930047035217 0.5369380116462708 0.06328756362199783
0.27924272418022156 0.5389774441719055 0.01720442995429039
0.3142000436782837 0.5491382479667664 -0.0026302903424948454
0.3651108741760254 0.5465393662452698 -0.011307814158499241
0.40136292576789856 0.5373085141181946 -0.013586413115262985
0.4276188611984253 0.5270830988883972 -0.018959244713187218
0.48556870222091675 0.5036889910697937 -0.06833803653717041
0.23144906759262085 0.5901415348052979 0.057861506938934326
0.26837432384490967 0.45708104968070984 0.023083919659256935
0.5022326111793518 0.6642367839813232 -0.13071177899837494
0.429047554731369 0.576357901096344 -0.04351433366537094
0.19413131475448608 0.478401780128479 0.21085307002067566
0.44763532280921936 0.5152493715286255 -0.021979087963700294
0.40996289253234863 0.6285184621810913 -0.03386662155389786
0.3021940588951111 0.4727998971939087 0.022960050031542778
0.4406924843788147 0.6104738116264343 -0.09893447160720825
0.20648127794265747 0.6568742990493774 0.2256794422864914
0.4301612377166748 0.47774577140808105 0.008012563921511173
0.4665202796459198 0.5989806652069092 -0.12358669191598892
0.29280805587768555 0.8015108704566956 0.09671580046415329
0.29142677783966064 0.8296765685081482 0.13476169109344482
0.20098599791526794 0.5941616892814636 0.14631448686122894
0.25810086727142334 0.7623419761657715 0.11608105897903442
0.22297486662864685 0.4382544755935669 0.10523343086242676
0.4012032449245453 0.90480637550354 0.040124017745256424
0.5031163692474365 0.6674266457557678 -0.09554900974035263
0.40412530303001404 0.5929851531982422 -0.034588899463415146
0.2340574413537979 0.49097806215286255 0.07143503427505493
0.35383620858192444 0.48440319299697876 0.00032006704714149237
0.3762841820716858 0.4851950407028198 -0.004197956528514624
0.38663336634635925 0.7864303588867188 0.011215253733098507
0.23474954068660736 0.6429707407951355 0.06984388083219528
0.4483451545238495 0.9450950622558594 0.04831612855195999
0.36661195755004883 0.8980851769447327 0.0871802419424057
0.3318858742713928 0.869036853313446 0.10856006294488907
0.5092916488647461 0.3365219235420227 -0.05158040672540665
0.5054534077644348 0.9520304203033447 0.045910127460956573
0.3960232138633728 0.48354941606521606 -0.003676308086141944
0.41457599401474 0.48013758659362793 0.0007577862706966698
0.4255993664264679 0.47871285676956177 0.006574338302016258
0.2478356510400772 0.4500938057899475 0.046886883676052094
0.40891242027282715 0.4638546109199524 -0.002394672017544508
0.3874342143535614 0.4584590196609497 -0.008867272175848484
0.36595749855041504 0.4578612148761749 -0.009563345462083817
0.3436824679374695 0.4615459442138672 -0.005400992464274168
0.32896801829338074 0.4669826030731201 0.0018617878668010235
0.2024839222431183 0.42074644565582275 0.1700299084186554
0.3372493386268616 0.4818941354751587 0.006501593627035618
0.5117461681365967 0.690201997756958 -0.06902656704187393
0.4113357663154602 0.6960668563842773 -0.04576592892408371
0.44312968850135803 0.6473723649978638 -0.08203662186861038
0.469084233045578 0.6917373538017273 -0.06802818179130554
0.5094120502471924 0.46444129943847656 -0.05797206982970238
0.3286273777484894 0.840056836605072 0.08289223164319992
0.36329859495162964 0.8715752363204956 0.06373853981494904
0.44912171363830566 0.9295909404754639 0.0209979098290205
0.2580035924911499 0.7859735488891602 0.1693822294473648
0.4232444763183594 0.4725230932235718 0.0033476969692856073
0.4684898257255554 0.5468303561210632 -0.07592404633760452
0.5070317387580872 0.9365411996841431 0.01978076808154583
0.40389284491539 0.9253239631652832 0.06316566467285156
0.20830842852592468 0.6530782580375671 0.14576449990272522
0.448201447725296 0.8076385259628296 -0.012782188132405281
0.44239744544029236 0.8154767751693726 -0.015713801607489586
0.4355897903442383 0.8268790245056152 -0.017872929573059082
0.43033698201179504 0.8390825390815735 -0.013559662736952305
0.42322152853012085 0.8479956388473511 0.0036965692415833473
0.40357840061187744 0.7550262212753296 -0.004464341793209314
0.3940645456314087 0.7519797682762146 -0.004420573823153973
0.38573387265205383 0.7468385696411133 -0.005342129617929459
0.3661239743232727 0.728969156742096 -0.0033211868721991777
0.27350640296936035 0.6600982546806335 0.024453304708003998
0.46725815534591675 0.5176579356193542 -0.053284771740436554
0.45219454169273376 0.46316230297088623 -0.008305170573294163
0.43524229526519775 0.4635552763938904 -0.00032901574741117656
0.41087520122528076 0.7515747547149658 -0.0019329965580254793
0.27007174491882324 0.7246869206428528 0.06941717863082886
0.475617378950119 0.46628645062446594 -0.04138088598847389
0.4142288863658905 0.8595671057701111 0.017331192269921303
0.5148220062255859 0.5589417219161987 -0.12047584354877472
0.48855531215667725 0.534730851650238 -0.09286815673112869
0.5129731893539429 0.5299845337867737 -0.0972629114985466
0.44766682386398315 0.586294949054718 -0.07591114938259125
0.5075454711914062 0.9132723808288574 0.007523572538048029
0.50730961561203 0.8893194198608398 0.0058347005397081375
0.45908015966415405 0.8840498924255371 0.008431590162217617
0.35371828079223633 0.7925443053245544 0.03463840112090111
0.38867348432540894 0.6485851407051086 -0.02675306238234043
0.37987229228019714 0.8284663558006287 0.02793932892382145
0.3327321410179138 0.6432859301567078 -0.019653737545013428
0.36620646715164185 0.6750099658966064 -0.01869179867208004
0.3115861415863037 0.6833592057228088 0.005462850444018841
0.4527628421783447 0.9069383144378662 0.009953581728041172
0.4288133978843689 0.5977462530136108 -0.05768034607172012
0.3354538679122925 0.8112329244613647 0.0553324893116951
0.36914893984794617 0.8462848663330078 0.04594660922884941
0.3343880772590637 0.7542793154716492 0.028514832258224487
0.24223332107067108 0.6891927719116211 0.08389878273010254
0.3037368059158325 0.7576143741607666 0.04788290336728096
0.22580885887145996 0.7092692255973816 0.13961845636367798
0.3458855152130127 0.7059601545333862 -0.002181262243539095
0.4490140676498413 0.5615415573120117 -0.05853792652487755
0.4526589810848236 0.6426992416381836 -0.11370974034070969
0.4318665862083435 0.6444340348243713 -0.08595887571573257
0.4669421911239624 0.6275367736816406 -0.1324426531791687
0.4341246783733368 0.4415416419506073 -0.017143258824944496
0.39343830943107605 0.4275800287723541 -0.025950096547603607
0.35634154081344604 0.4257963001728058 -0.028141150251030922
0.325020432472229 0.4312599301338196 -0.020736729726195335
0.30265113711357117 0.44234800338745117 -0.006939780432730913
0.28409308195114136 0.48104339838027954 0.031343284994363785
0.19980081915855408 0.539106547832489 0.13925746083259583
0.30554524064064026 0.514460027217865 0.014454287476837635
0.33370012044906616 0.5221423506736755 0.001615838729776442
0.36906179785728455 0.5216987133026123 -0.006041047628968954
0.4010489284992218 0.5161651372909546 -0.007068602833896875
0.4247257709503174 0.508768618106842 -0.007385078351944685
0.44127705693244934 0.5019712448120117 -0.007637115195393562
0.19574549794197083 0.5344856381416321 0.23084764182567596
0.43076881766319275 0.6493440866470337 -0.07297845929861069
0.4697355031967163 0.5721985697746277 -0.09629842638969421
0.47434255480766296 0.6473269462585449 -0.13256192207336426
0.48665621876716614 0.6589500308036804 -0.12077994644641876
0.4727420210838318 0.6502666473388672 -0.11976101994514465
0.4361908733844757 0.6562507152557373 -0.063118115067482
0.49283239245414734 0.6621842980384827 -0.12713468074798584
0.4931538701057434 0.6654260754585266 -0.09624649584293365
0.44025227427482605 0.4795711040496826 0.004760126117616892
0.45449405908584595 0.4889889657497406 -0.010039268061518669
0.4632323980331421 0.4962262511253357 -0.02874060533940792
0.3198773264884949 0.47067439556121826 0.009213312529027462
0.3043343424797058 0.45972371101379395 0.009027859196066856
0.5361376404762268 0.5623764991760254 -0.10984375327825546
0.6770129799842834 0.48008984327316284 0.038359686732292175
0.5418809056282043 0.6607509255409241 -0.09426287561655045
0.7602704763412476 0.3797173500061035 0.15887704491615295
0.6056984066963196 0.4995296895503998 0.009918572381138802
0.6294307112693787 0.5014280080795288 0.012789693661034107
0.6538844108581543 0.5016064047813416 0.0202690027654171
0.6873143911361694 0.48850899934768677 0.04214846342802048
0.5866381525993347 0.4941822588443756 0.010054309852421284
0.6449391841888428 0.4371284246444702 0.0017364653758704662
0.6173911094665527 0.4380302429199219 0.0007734655519016087
0.6698666214942932 0.44236883521080017 0.010447447188198566
0.6855146884918213 0.4517826437950134 0.021716292947530746
0.7074722051620483 0.5057016015052795 0.05490853264927864
0.6026684045791626 0.8784440755844116 0.03989896923303604
0.6872837543487549 0.4749041795730591 0.046514905989170074
0.7733137607574463 0.4880661368370056 0.17113035917282104
0.7341290712356567 0.48941999673843384 0.0809711143374443
0.6373875737190247 0.6130520105361938 -0.013113969005644321
0.5491788983345032 0.7225366830825806 -0.06483634561300278
0.5420277714729309 0.7478241324424744 -0.0526251457631588
0.5856612324714661 0.7283532619476318 -0.04510460048913956
0.6049106121063232 0.7367772459983826 -0.01770646497607231
0.5681027770042419 0.7481018900871277 -0.0374206006526947
0.5856213569641113 0.7506548762321472 -0.012934625148773193
0.6317242980003357 0.7868156433105469 0.03849209100008011
0.5399187207221985 0.6518725156784058 -0.14115536212921143
0.5433725118637085 0.6261155009269714 -0.14919033646583557
0.7186540961265564 0.4347802400588989 0.027063798159360886
0.5839429497718811 0.5492421388626099 -0.02220635674893856
0.5988997220993042 0.6343650221824646 -0.07329276204109192
0.5993956327438354 0.6191425323486328 -0.06519392132759094
0.7059078216552734 0.604240357875824 0.022234713658690453
0.5402673482894897 0.592151939868927 -0.13433167338371277
0.6636642217636108 0.4111146330833435 -0.020626209676265717
0.6963135600090027 0.41935211420059204 0.0003496281278785318
0.7393690347671509 0.33934304118156433 0.10769307613372803
0.559645414352417 0.4292479157447815 -0.04762169346213341
0.593708872795105 0.44617968797683716 0.00713367247954011
0.6490801572799683 0.7522091269493103 0.040887750685214996
0.7431145906448364 0.7250012159347534 0.2429656982421875
0.5804046988487244 0.6492297649383545 -0.0641874223947525
0.5597107410430908 0.6591838002204895 -0.06933753192424774
0.6280307769775391 0.7597185373306274 0.03784875199198723
0.6133484244346619 0.7611721158027649 0.030420923605561256
0.7081932425498962 0.4035418927669525 0.013763184659183025
0.5999491810798645 0.6434203386306763 -0.05893858149647713
0.6189700961112976 0.41178643703460693 -0.036875151097774506
0.6240319609642029 0.39252838492393494 -0.04236742854118347
0.6486871838569641 0.2852168679237366 0.00476745143532753
0.7232213020324707 0.37097835540771484 0.05535952374339104
0.6339534521102905 0.33763688802719116 -0.019623974338173866
0.731844961643219 0.42239654064178467 0.0494878888130188
0.7463717460632324 0.40252119302749634 0.10215561836957932
0.5464868545532227 0.7373998165130615 -0.06106152385473251
0.5765223503112793 0.7404522895812988 -0.04162832349538803
0.5958904027938843 0.7440008521080017 -0.01712842285633087
0.5744798183441162 0.6539555788040161 -0.06016329675912857
0.6211168766021729 0.7609144449234009 0.03349943831562996
0.610893726348877 0.7838689684867859 0.022167835384607315
0.60831618309021 0.7600054740905762 0.029453065246343613
0.5670766830444336 0.646395206451416 -0.1010897308588028
0.5787249207496643 0.7485038042068481 -0.009775910526514053
0.5611421465873718 0.7484508752822876 -0.028282467275857925
0.5374351143836975 0.7499815821647644 -0.042443402111530304
0.5487978458404541 0.8690952658653259 0.003950066864490509
0.5496214628219604 0.8564793467521667 -0.01939178816974163
0.5476445555686951 0.8423895239830017 -0.024097172543406487
0.5441843867301941 0.8269849419593811 -0.019398925825953484
0.5403262972831726 0.8155782222747803 -0.01598745957016945
0.5827901363372803 0.7940418124198914 0.009242676198482513
0.5889261364936829 0.7981746792793274 0.006207979284226894
0.5977363586425781 0.8046948909759521 0.004345477558672428
0.6044102907180786 0.8111921548843384 0.009853031486272812
0.6240437626838684 0.7087271809577942 -0.011702789925038815
0.7674950361251831 0.593726634979248 0.2757169008255005
0.5937597751617432 0.7819534540176392 0.022915750741958618
0.602787971496582 0.7826595306396484 0.021265875548124313
0.5506789088249207 0.6707981824874878 -0.06875795871019363
0.5921581387519836 0.6580350995063782 -0.04021960496902466
0.5550168752670288 0.6654081344604492 -0.07020200043916702
0.6092262864112854 0.561475932598114 -0.01147150807082653
0.6492916345596313 0.5768755674362183 -0.002829986624419689
0.6035575270652771 0.62899249792099 -0.05013914778828621
0.7046353220939636 0.30683279037475586 0.05324115976691246
0.6879178285598755 0.3486042320728302 0.016173386946320534
0.6720116138458252 0.39215242862701416 -0.0148240365087986
0.611899733543396 0.8168187141418457 0.02755097672343254
0.568289041519165 0.3974791467189789 -0.05736557021737099
0.576675295829773 0.3352952003479004 -0.04128978028893471
0.5857462882995605 0.2748563289642334 -0.025971733033657074
0.6748042702674866 0.4972367286682129 0.03176673874258995
0.7342371940612793 0.5225237011909485 0.0708000510931015
0.5751162767410278 0.4882736802101135 0.012726162560284138
0.7088020443916321 0.46228134632110596 0.04365565627813339
0.56654292345047 0.5346287488937378 -0.03336406499147415
0.583291232585907 0.6290642023086548 -0.09996639937162399
0.7593539953231812 0.5381584763526917 0.10046631842851639
0.7183730006217957 0.5400593280792236 0.048020005226135254
0.6881334185600281 0.5501286387443542 0.02377920225262642
0.6408780813217163 0.5474593043327332 0.008831427432596684
0.6065702438354492 0.537947952747345 0.0015779302921146154
0.5820631384849548 0.5277501940727234 -0.007713118102401495
0.534695565700531 0.5038788318634033 -0.06455260515213013
0.758337140083313 0.5904098153114319 0.09523455798625946
0.7279662489891052 0.45908981561660767 0.055926620960235596
0.5305294394493103 0.6640337109565735 -0.12881052494049072
0.5856813788414001 0.5765129923820496 -0.0327451154589653
0.7736709117889404 0.48073291778564453 0.2541608214378357
0.5640572905540466 0.5158546566963196 -0.013217978179454803
0.6048898696899414 0.6281087398529053 -0.022665580734610558
0.6963562369346619 0.47522956132888794 0.051303379237651825
0.5831964612007141 0.6102682948112488 -0.09038560092449188
0.7611669301986694 0.6561611890792847 0.26556023955345154
0.5763475894927979 0.4791092872619629 0.019830796867609024
0.5619996786117554 0.5989801287651062 -0.11735723912715912
0.6977577209472656 0.7985630631446838 0.12485731393098831
0.6935341954231262 0.8263603448867798 0.16322076320648193
0.7770023345947266 0.5945396423339844 0.1864742785692215
0.7267786264419556 0.7598947882652283 0.14918355643749237
0.7607167959213257 0.4406994879245758 0.1438664346933365
0.6062678694725037 0.9025108218193054 0.053629204630851746
0.5265488028526306 0.6672976613044739 -0.09445614367723465
0.6082006096839905 0.5930313467979431 -0.021385135129094124
0.7537884712219238 0.49260658025741577 0.10791617631912231
0.6506536602973938 0.48595839738845825 0.02305394783616066
0.6289626359939575 0.4868394732475281 0.016017742455005646
0.6183796525001526 0.7849242091178894 0.026235787197947502
0.7541985511779785 0.6424702405929565 0.1060444563627243
0.5608223676681519 0.9437410831451416 0.05582677572965622
0.6326099634170532 0.8953211307525635 0.10560566186904907
0.6608983874320984 0.8655210137367249 0.13149377703666687
0.6093909740447998 0.4852985739707947 0.013209417462348938
0.5913614630699158 0.48189735412597656 0.015320118516683578
0.580660879611969 0.48027461767196655 0.019492242485284805
0.7441858649253845 0.4519309103488922 0.0822560042142868
0.5966758131980896 0.4653974175453186 0.012361564673483372
0.6172600984573364 0.460263192653656 0.008156628347933292
0.6385483145713806 0.45968279242515564 0.010763087309896946
0.6598696708679199 0.4634542167186737 0.01770777255296707
0.6733304262161255 0.469007670879364 0.026638979092240334
0.7714581489562988 0.4238160252571106 0.21207213401794434
0.6656979918479919 0.48346447944641113 0.03132522851228714
0.6042732000350952 0.6951643824577332 -0.03412581607699394
0.5809025764465332 0.646724283695221 -0.0746026337146759
0.5526987314224243 0.6912409067153931 -0.06329256296157837
0.66759192943573 0.8370561599731445 0.10544519871473312
0.6380245089530945 0.8687953948974609 0.0815904513001442
0.5627762079238892 0.9283344745635986 0.028346171602606773
0.7191162109375 0.783254861831665 0.20318984985351562
0.5830914974212646 0.4738560914993286 0.016691014170646667
0.5528126955032349 0.5470147728919983 -0.07004662603139877
0.6011437177658081 0.9230079054832458 0.07678373903036118
0.7700819969177246 0.6524284482002258 0.1845318228006363
0.5644075870513916 0.8065275549888611 -0.004426180385053158
0.5703914165496826 0.8144576549530029 -0.007142250891774893
0.5769206285476685 0.8259171843528748 -0.009110651910305023
0.5817570686340332 0.8379823565483093 -0.004113202448934317
0.5863133668899536 0.8467962145805359 0.014028028585016727
0.6019120216369629 0.7536660432815552 0.009653840214014053
0.6115391850471497 0.7504202127456665 0.010791572742164135
0.6196831464767456 0.7454579472541809 0.011038891039788723
0.6399810314178467 0.7274672389030457 0.015587065368890762
0.7229186296463013 0.6593130230903625 0.05527527630329132
0.5499982833862305 0.5180392265319824 -0.0472387969493866
0.5586271286010742 0.464202344417572 -0.0005274422583170235
0.5727526545524597 0.46471843123435974 0.011105174198746681
0.593976616859436 0.7503303289413452 0.011601818725466728
0.7213789820671082 0.7229342460632324 0.10061280429363251
0.5401949882507324 0.4667664170265198 -0.036670953035354614
0.5938695073127747 0.8579543232917786 0.028728194534778595
0.5358381867408752 0.5349375009536743 -0.08955522626638412
0.5727919340133667 0.5863831639289856 -0.06799259781837463
0.5533260107040405 0.8831311464309692 0.013494044542312622
0.6479541063308716 0.7907681465148926 0.05420534685254097
0.6236871480941772 0.6483120322227478 -0.012402454391121864
0.6243739724159241 0.8266305327415466 0.04351120442152023
0.6733042597770691 0.642863392829895 0.002602997235953808
0.6427116394042969 0.6742987036705017 -0.0005629863007925451
0.6898903846740723 0.682269275188446 0.031179821118712425
0.5600128173828125 0.9058129191398621 0.016750818118453026
0.5882890820503235 0.5977286696434021 -0.04792987182736397
0.6636735200881958 0.8088177442550659 0.07732943445444107
0.6341034173965454 0.8440493941307068 0.06298159807920456
0.666350245475769 0.7523812651634216 0.05185636878013611
0.7454978227615356 0.687908947467804 0.1184249073266983
0.6927531361579895 0.7553526759147644 0.07448159903287888
0.7540761232376099 0.7077247500419617 0.1769936978816986
0.6584169864654541 0.7048635482788086 0.019441260024905205
0.5687008500099182 0.5616097450256348 -0.05001722648739815
0.575374186038971 0.6420010328292847 -0.10596336424350739
0.5914213061332703 0.6438217759132385 -0.07700853049755096
0.5648161172866821 0.6271752715110779 -0.12631046772003174
0.5773116946220398 0.44274193048477173 -0.006502063013613224
0.6172221302986145 0.4291302561759949 -0.010122686624526978
0.652749240398407 0.42805609107017517 -0.007236062549054623
0.6814968585968018 0.4338991641998291 0.004324173554778099
0.7000172138214111 0.44502007961273193 0.021357286721467972
0.712202250957489 0.4829351305961609 0.06140328198671341
0.7777539491653442 0.5404762625694275 0.1807745099067688
0.6940622329711914 0.5158907175064087 0.04238170012831688
0.6688244342803955 0.5231706500053406 0.02583950385451317
0.6357343196868896 0.5228907465934753 0.013859123922884464
0.6053540706634521 0.517217218875885 0.008576631546020508
0.5829599499702454 0.5099478363990784 0.004376081749796867
0.5676541924476624 0.5029746890068054 0.0020560554694384336
0.7697532773017883 0.5362321138381958 0.27376994490623474
0.5906738042831421 0.6487618684768677 -0.0642542615532875
0.5553194880485535 0.5722977519035339 -0.0900612473487854
0.5581350326538086 0.6468145847320557 -0.12756270170211792
0.5435638427734375 0.6584925651550293 -0.11792207509279251
0.5574800372123718 0.6497064828872681 -0.11494158208370209
0.5842856168746948 0.6560027599334717 -0.05570435896515846
0.5389455556869507 0.6618458032608032 -0.12496566027402878
0.535687267780304 0.6652235984802246 -0.09428160637617111
0.5675381422042847 0.48091375827789307 0.014690440148115158
0.5556429624557495 0.48986148834228516 -0.002429231535643339
0.5500524640083313 0.49683335423469543 -0.022484486922621727
0.6814113259315491 0.47281360626220703 0.035078082233667374
0.6958855390548706 0.4622015357017517 0.03667498752474785
