ply
format ascii 1.0
element vertex 468
property float x
property float y
property float z
end_header
0.5764023065567017 0.7118080258369446 -0.05296218767762184
0.6206095218658447 0.6236044764518738 -0.10143575817346573
0.5779824256896973 0.6523561477661133 -0.054268065840005875
0.5761306285858154 0.5419796705245972 -0.09181515872478485
0.6236188411712646 0.5971887707710266 -0.10796201974153519
0.6112582683563232 0.5643246173858643 -0.10049493610858917
0.567887544631958 0.4847317636013031 -0.051579058170318604
0.3615402579307556 0.4769633412361145 -0.08511348813772202
0.5550104379653931 0.42730677127838135 -0.039053045213222504
0.5574229955673218 0.39414137601852417 -0.04246123135089874
0.5381989479064941 0.26271486282348633 -0.0214491356164217
0.5737462639808655 0.7251372933387756 -0.050048667937517166
0.5675307512283325 0.735232949256897 -0.04387557506561279
0.5598368048667908 0.7393832206726074 -0.03527536243200302
0.5607858300209045 0.7473609447479248 -0.03375167027115822
0.5640984177589417 0.7582469582557678 -0.03656574711203575
0.565113365650177 0.7717182040214539 -0.04082496464252472
0.5619872212409973 0.7871288657188416 -0.038760289549827576
0.546731173992157 0.8104010224342346 -0.022564107552170753
0.6087450981140137 0.6379492878913879 -0.09186525642871857
0.570104718208313 0.6398197412490845 -0.0780501589179039
0.18246611952781677 0.3695608675479889 -0.05797179788351059
0.43483421206474304 0.4964808523654938 -0.06328972429037094
0.4125756621360779 0.49929648637771606 -0.07667137682437897
0.3868440091609955 0.4994713366031647 -0.08551645278930664
0.34299319982528687 0.4856375455856323 -0.08889971673488617
0.4528125822544098 0.48962104320526123 -0.04704083129763603
0.4085843563079834 0.43261027336120605 -0.09058548510074615
0.4327888488769531 0.4336276650428772 -0.07091815024614334
0.38200387358665466 0.4360847473144531 -0.09881319105625153
0.3606182038784027 0.4445009231567383 -0.09952975064516068
0.3164524435997009 0.5040491819381714 -0.08838244527578354
0.44451820850372314 0.862389326095581 -0.05009867995977402
0.34725838899612427 0.47065651416778564 -0.08446124941110611
0.17446719110012054 0.49067413806915283 -0.05231750011444092
0.2740580439567566 0.4872077703475952 -0.08601494133472443
0.4320112466812134 0.6077290177345276 -0.08266478031873703
0.5476561784744263 0.7091655731201172 -0.06854052096605301
0.5406274199485779 0.7365077137947083 -0.05662981793284416
0.5067242980003357 0.719115138053894 -0.07553994655609131
0.47434091567993164 0.7295832633972168 -0.07378756999969482
0.5098986625671387 0.7390472888946533 -0.06398481875658035
0.4830179810523987 0.7415010333061218 -0.06056524068117142
0.420030802488327 0.7738576531410217 -0.05882706120610237
0.6010613441467285 0.6239805817604065 -0.10976453125476837
0.6004967093467712 0.5984516143798828 -0.11738724261522293
0.3195089101791382 0.4236595034599304 -0.11830983310937881
0.477141410112381 0.5403136610984802 -0.060882505029439926
0.5049317479133606 0.6205500364303589 -0.09595642238855362
0.49641337990760803 0.6057968735694885 -0.09142078459262848
0.34094732999801636 0.6075380444526672 -0.10614309459924698
0.5896496176719666 0.5675778388977051 -0.10927025973796844
0.40671244263648987 0.3970562815666199 -0.11112632602453232
0.36100155115127563 0.40528595447540283 -0.1203017309308052
0.24209333956241608 0.3225771486759186 -0.07814022898674011
0.5119850635528564 0.4200913906097412 -0.06355652958154678
0.45125317573547363 0.4409104585647583 -0.051159996539354324
0.40170231461524963 0.7493007183074951 -0.06949354708194733
0.14601024985313416 0.752890944480896 0.013421577401459217
0.5189382433891296 0.6359670758247375 -0.07781562954187393
0.5395982265472412 0.6437714695930481 -0.06453821063041687
0.42753294110298157 0.7468510866165161 -0.058565206825733185
0.4368090331554413 0.7453218698501587 -0.05462285503745079
0.3406241536140442 0.3877999186515808 -0.11857196688652039
0.493243545293808 0.6320100426673889 -0.0844995453953743
0.45741909742355347 0.400798499584198 -0.0921361967921257
0.45556941628456116 0.379133403301239 -0.09795372188091278
0.39815157651901245 0.26632311940193176 -0.08571534603834152
0.2954198718070984 0.3549153506755829 -0.10148613154888153
0.433250367641449 0.3203062117099762 -0.09180446714162827
0.2914870083332062 0.411793053150177 -0.11128965765237808
0.240044504404068 0.39243412017822266 -0.08518063277006149
0.5452189445495605 0.7252216935157776 -0.06526495516300201
0.5108944773674011 0.7311238646507263 -0.07054432481527328
0.48056530952453613 0.7359678745269775 -0.0680081844329834
0.5218374133110046 0.6410775184631348 -0.06889232248067856
0.4331437051296234 0.7462468147277832 -0.05611759424209595
0.45043516159057617 0.7510457634925842 -0.057323381304740906
0.4377416670322418 0.7444920539855957 -0.05361662805080414
0.5516384243965149 0.6272625923156738 -0.1016065776348114
0.48055776953697205 0.7394903898239136 -0.055119745433330536
0.5067895650863647 0.7397534251213074 -0.054344478994607925
0.5343243479728699 0.7395374774932861 -0.04907810315489769
0.5151090621948242 0.8129929304122925 -0.03707820177078247
0.5313543081283569 0.7871638536453247 -0.05449504032731056
0.535959780216217 0.7710651755332947 -0.056333545595407486
0.5364773273468018 0.7569596767425537 -0.05183554068207741
0.5347563028335571 0.7478505373001099 -0.04752553999423981
0.4779830574989319 0.7467953562736511 -0.05406885966658592
0.47683635354042053 0.750003457069397 -0.057174623012542725
0.47311753034591675 0.7573205828666687 -0.06077840179204941
0.4676874279975891 0.7669470310211182 -0.06089070066809654
0.4542055130004883 0.7016191482543945 -0.07636915892362595
0.10977792739868164 0.6127276420593262 0.021632114425301552
0.5939140319824219 0.6444838047027588 -0.06781279295682907
0.45788341760635376 0.7463789582252502 -0.05335744097828865
0.4556823968887329 0.7477882504463196 -0.0556739866733551
0.5475499629974365 0.6549233794212341 -0.06479546427726746
0.49396640062332153 0.6481631994247437 -0.062392450869083405
0.5442315340042114 0.6496862769126892 -0.06513310968875885
0.4493671655654907 0.5551508069038391 -0.0700138583779335
0.4108033776283264 0.5741140842437744 -0.08746103197336197
0.48442819714546204 0.6174691915512085 -0.08202186971902847
0.31368720531463623 0.28724509477615356 -0.0888008251786232
0.35863417387008667 0.32977378368377686 -0.1023484617471695
0.39651113748550415 0.37585651874542236 -0.11267857253551483
0.44779884815216064 0.7908625602722168 -0.056871891021728516
0.5102384090423584 0.3861609697341919 -0.07444660365581512
0.493799090385437 0.3208833336830139 -0.06815875321626663
0.47029048204421997 0.2592942714691162 -0.06139405444264412
0.36038559675216675 0.4951774477958679 -0.08953777700662613
0.2815116345882416 0.5237891674041748 -0.09183508902788162
0.4647233188152313 0.4827704131603241 -0.03879566490650177
0.3215089738368988 0.4549658000469208 -0.10071930289268494
0.49861979484558105 0.5239983797073364 -0.059150658547878265
0.535778820514679 0.6103019714355469 -0.10651130974292755
0.23612572252750397 0.5428143739700317 -0.08986285328865051
0.31240952014923096 0.5420525670051575 -0.10010778903961182
0.35755231976509094 0.5506925582885742 -0.09681475162506104
0.40983957052230835 0.5447200536727905 -0.07929065078496933
0.44285279512405396 0.5326736569404602 -0.06251519173383713
0.4683046340942383 0.5206114649772644 -0.05230094864964485
0.5445361137390137 0.4910662770271301 -0.05970041826367378
0.2423345297574997 0.6002686619758606 -0.09385178238153458
0.2923247516155243 0.4526579678058624 -0.10412054508924484
0.5972739458084106 0.6377667188644409 -0.0987594947218895
0.48605459928512573 0.565886914730072 -0.06661571562290192
0.11561048030853271 0.48606735467910767 0.0006444507162086666
0.48945313692092896 0.5073831081390381 -0.044664885848760605
0.4712761640548706 0.61915123462677 -0.06190008297562599
0.33265575766563416 0.47054994106292725 -0.0870542824268341
0.5251153111457825 0.5928959250450134 -0.09990662336349487
0.11894747614860535 0.6811867952346802 0.020392384380102158
0.4608325958251953 0.4746333956718445 -0.03666118532419205
0.5596742033958435 0.5774465799331665 -0.10929333418607712
0.28243595361709595 0.8167529702186584 -0.045467592775821686
0.2535233199596405 0.8501523733139038 -0.015133875422179699
0.16796447336673737 0.6091150641441345 -0.04084789380431175
0.22971729934215546 0.7811695337295532 -0.04292953759431839
0.20293210446834564 0.4367630183696747 -0.06485041230916977
0.4327780604362488 0.8913933038711548 -0.04418249800801277
0.5848308205604553 0.6437051892280579 -0.07097607105970383
0.45966994762420654 0.5855499505996704 -0.07002247869968414
0.23658433556556702 0.4923858642578125 -0.08125095069408417
0.39425259828567505 0.4835507273674011 -0.08175521343946457
0.4161156713962555 0.48477163910865784 -0.07509241998195648
0.4431116580963135 0.7565691471099854 -0.05811567232012749
0.23864641785621643 0.6564149260520935 -0.08119308948516846
0.47314465045928955 0.9207633137702942 -0.015496400184929371
0.37091439962387085 0.9009925723075867 -0.02305007167160511
0.3183354139328003 0.8819196820259094 -0.020730169489979744
0.551004946231842 0.32613998651504517 -0.032838769257068634
0.5213127732276917 0.9166563749313354 0.009502546861767769
0.43268632888793945 0.48263484239578247 -0.06344300508499146
0.44748058915138245 0.47805875539779663 -0.05070572718977928
0.4564354121685028 0.475785493850708 -0.04118810221552849
0.2581828236579895 0.4468103051185608 -0.09611880779266357
0.4444643259048462 0.4621083736419678 -0.0554487444460392
0.4259057343006134 0.4578738808631897 -0.06934057176113129
0.4076661467552185 0.45768874883651733 -0.08090176433324814
0.38595879077911377 0.4606884717941284 -0.08833160996437073
0.37000343203544617 0.46496665477752686 -0.08930957317352295
0.14243516325950623 0.4206434190273285 -0.026845190674066544
0.3764115869998932 0.48064932227134705 -0.08483386784791946
0.574937105178833 0.6716541051864624 -0.04917411506175995
0.48353493213653564 0.6855635046958923 -0.07401721924543381
0.5250492095947266 0.6317421197891235 -0.08317286521196365
0.5435575246810913 0.6760973930358887 -0.06599520891904831
0.5540105700492859 0.45483678579330444 -0.03772072121500969
0.333496630191803 0.8490232825279236 -0.0415923148393631
0.3804929554462433 0.8724124431610107 -0.041332218796014786
0.4874444305896759 0.9016883373260498 -0.038394492119550705
0.19459478557109833 0.8101136684417725 -0.0016304702730849385
0.45638352632522583 0.46980535984039307 -0.04477057605981827
0.5364989042282104 0.5315014123916626 -0.07325486093759537
0.5373982191085815 0.8974456787109375 -0.012987922877073288
0.42395779490470886 0.9142646789550781 -0.02623521350324154
0.17105862498283386 0.6714306473731995 -0.03651726618409157
0.5065485239028931 0.7472546100616455 -0.053386420011520386
0.5055145025253296 0.753994882106781 -0.05761048570275307
0.5033704042434692 0.7650298476219177 -0.06200791522860527
0.4994145631790161 0.7794873118400574 -0.06134336441755295
0.47946494817733765 0.804375171661377 -0.05277879536151886
0.4551739990711212 0.7432966232299805 -0.0589904822409153
0.450990229845047 0.7410771250724792 -0.06424077600240707
0.44481027126312256 0.7373510003089905 -0.06872548162937164
0.42452096939086914 0.7231355905532837 -0.07684867829084396
0.30017656087875366 0.6687793731689453 -0.0956617221236229
0.5221457481384277 0.5059550404548645 -0.05777490511536598
0.4885745942592621 0.45690715312957764 -0.03123355656862259
0.46845072507858276 0.4589594602584839 -0.03854655474424362
0.45637524127960205 0.7401630878448486 -0.05467236787080765
0.273101806640625 0.7378093004226685 -0.06960362941026688
0.5208567380905151 0.4576525092124939 -0.043427370488643646
0.4589604139328003 0.8333112001419067 -0.049220822751522064
0.5958829522132874 0.5374491214752197 -0.08355052024126053
0.5606468915939331 0.5179856419563293 -0.07557123899459839
0.5821130275726318 0.5123218894004822 -0.06653599441051483
0.5194282531738281 0.5712201595306396 -0.07998044788837433
0.5447560548782349 0.8700919151306152 -0.02378828451037407
0.5451585054397583 0.8378074765205383 -0.023266145959496498
0.5046388506889343 0.8419246077537537 -0.039893459528684616
0.39126354455947876 0.7899906635284424 -0.06034672260284424
0.44875872135162354 0.6417311429977417 -0.06936463713645935
0.4208238124847412 0.8162743449211121 -0.054089609533548355
0.3883594274520874 0.6412068605422974 -0.09601646661758423
0.4252060055732727 0.6697391867637634 -0.07999810576438904
0.35205623507499695 0.6869195699691772 -0.09278851002454758
0.49705880880355835 0.8744349479675293 -0.04648888111114502
0.49318912625312805 0.585537850856781 -0.07434957474470139
0.35891082882881165 0.8149627447128296 -0.056332629173994064
0.39993569254875183 0.8417900800704956 -0.049017541110515594
0.3722294270992279 0.7569910287857056 -0.07517045736312866
0.23643334209918976 0.7049036026000977 -0.06838206201791763
0.3239949643611908 0.7660567164421082 -0.07228583097457886
0.1864679455757141 0.7292426824569702 -0.036462318152189255
0.3960975706577301 0.7059946656227112 -0.08379646390676498
0.5110821723937988 0.5483629703521729 -0.069369375705719
0.546248197555542 0.6229298114776611 -0.1077326089143753
0.5145916938781738 0.629768967628479 -0.09171360731124878
0.5695371031761169 0.6036117672920227 -0.11592505127191544
0.47628384828567505 0.4359849691390991 -0.04995278641581535
0.4435177445411682 0.42283669114112854 -0.0766204446554184
0.4107036292552948 0.41937074065208435 -0.09708839654922485
0.37668663263320923 0.4230010509490967 -0.10849885642528534
0.345791757106781 0.43438419699668884 -0.1098281517624855
0.3077905476093292 0.47898775339126587 -0.08802568167448044
0.16839127242565155 0.5490906238555908 -0.04903415963053703
0.33805978298187256 0.5147312879562378 -0.08966819941997528
0.3716874420642853 0.5216764807701111 -0.08605588972568512
0.40795469284057617 0.5202716588973999 -0.07533670216798782
0.43773922324180603 0.5131615400314331 -0.05943034589290619
0.4597095251083374 0.5041502714157104 -0.04504838585853577
0.4762701988220215 0.49634501338005066 -0.03683653846383095
0.10863947868347168 0.5488017797470093 0.01599212735891342
0.5066431760787964 0.6363956332206726 -0.08132781088352203
0.549670934677124 0.5540012717247009 -0.0885290578007698
0.5769366025924683 0.6229207515716553 -0.11115801334381104
0.578499972820282 0.6358131170272827 -0.09534767270088196
0.5676865577697754 0.6281076073646545 -0.10261299461126328
0.5078555941581726 0.6444715857505798 -0.06921078264713287
0.58746337890625 0.6369450688362122 -0.09827031195163727
0.576518177986145 0.643061101436615 -0.07458615303039551
0.47223716974258423 0.47518759965896606 -0.030583644285798073
0.4897095561027527 0.4824666380882263 -0.03081972524523735
0.5056505799293518 0.48772627115249634 -0.0400407612323761
0.3584492802619934 0.46822214126586914 -0.08806399255990982
0.3404676020145416 0.45521312952041626 -0.09527213126420975
0.6079175472259521 0.5409068465232849 -0.06172865629196167
0.6247410774230957 0.4723479747772217 0.1369171142578125
0.6080844402313232 0.6368533968925476 -0.05493348464369774
0.6112145185470581 0.38881832361221313 0.2839934527873993
0.58567875623703 0.49474653601646423 0.07876276969909668
0.6009208559989929 0.49674972891807556 0.09410630166530609
0.6142539978027344 0.4961225092411041 0.11207911372184753
0.6223230361938477 0.481661856174469 0.1458987146615982
0.5748357772827148 0.488238126039505 0.06420477479696274
0.6144629120826721 0.4369736909866333 0.08822382986545563
0.597054123878479 0.4390336871147156 0.06950606405735016
0.6272851824760437 0.4396364688873291 0.10826987773180008
0.6319692134857178 0.44690921902656555 0.12507249414920807
0.6290243864059448 0.5003979206085205 0.1633930653333664
0.5875867605209351 0.8412193059921265 0.05343826115131378
0.6256227493286133 0.4671964645385742 0.14778006076812744
0.6063267588615417 0.4905880391597748 0.2965310513973236
0.627450704574585 0.4844290018081665 0.19824551045894623
0.6258878707885742 0.602293074131012 0.05952762812376022
0.5958920121192932 0.7070974111557007 -0.0328185074031353
0.5824916362762451 0.7347298860549927 -0.024198314175009727
0.6082714200019836 0.7136332392692566 -0.0016157682985067368
0.6100338697433472 0.7245649099349976 0.02872224524617195
0.5910096168518066 0.7352455258369446 0.00013389809464570135
0.5952969789505005 0.7379220128059387 0.02550722472369671
0.6044506430625916 0.7632168531417847 0.07437688112258911
0.6326403617858887 0.6222057938575745 -0.09000322967767715
0.6366225481033325 0.5972335934638977 -0.09407176822423935
0.6481776237487793 0.42692530155181885 0.14895816147327423
0.5921905040740967 0.5382214188575745 0.030920719727873802
0.6334165334701538 0.6150146126747131 -0.00946703553199768
0.6273608207702637 0.6010928750038147 -0.002238562097772956
0.6504589319229126 0.5981045365333557 0.13079454004764557
0.6241546869277954 0.5665721297264099 -0.0798381045460701
0.6385753750801086 0.4029493033885956 0.07478141039609909
0.6492165327072144 0.4103291630744934 0.11289768666028976
0.6221866011619568 0.3450627326965332 0.22836841642856598
0.5842888355255127 0.4225168526172638 -0.0028023766353726387
0.5810704827308655 0.44545048475265503 0.06233958899974823
0.6163530349731445 0.7392498254776001 0.09291041642427444
0.5597323179244995 0.7192758321762085 0.33156511187553406
0.6193867325782776 0.6304908990859985 -0.01266284566372633
0.6053934097290039 0.6403689980506897 -0.032439518719911575
0.6040471792221069 0.7428500056266785 0.08062051236629486
0.5963714122772217 0.741738498210907 0.06732647120952606
0.6502208709716797 0.3950745463371277 0.12993133068084717
0.6248900890350342 0.6267299652099609 9.220698848366737e-05
0.6180553436279297 0.40562698245048523 0.03546725586056709
0.6227678060531616 0.3852669596672058 0.03329305350780487
0.6106094121932983 0.28387853503227234 0.09066895395517349
0.6379262208938599 0.369353324174881 0.17291511595249176
0.6180306077003479 0.3317013084888458 0.06080617755651474
0.6460365056991577 0.4172373414039612 0.1749773919582367
0.6309317946434021 0.404812753200531 0.2257544994354248
0.5907689332962036 0.7230976223945618 -0.029809851199388504
0.6004197597503662 0.7265196442604065 -0.0010591020109131932
0.6038513779640198 0.7314637899398804 0.02482948638498783
0.612035870552063 0.6360193490982056 -0.01579955965280533
0.6006712913513184 0.7427830100059509 0.07304748892784119
0.5993143320083618 0.7466895580291748 0.050223853439092636
0.5926817655563354 0.7401729822158813 0.06482581794261932
0.628953754901886 0.6211838126182556 -0.0422237329185009
0.5861996412277222 0.7369456887245178 0.02654484286904335
0.5810297131538391 0.7372395396232605 0.0054865931160748005
0.572870671749115 0.7386071681976318 -0.01576896756887436
0.5682244896888733 0.8075806498527527 -0.0043198768980801105
0.5816333293914795 0.7830007076263428 -0.01925261691212654
0.5834159255027771 0.7675684690475464 -0.020613083615899086
0.5807382464408875 0.7545640468597412 -0.016120752319693565
0.5754889845848083 0.7458679676055908 -0.013821239583194256
0.5891950130462646 0.7433252930641174 0.02773444354534149
0.5932337045669556 0.7459989786148071 0.024317460134625435
0.5976932048797607 0.7521941661834717 0.02357330359518528
0.5997414588928223 0.7603857517242432 0.03081163391470909
0.6224931478500366 0.6947564482688904 0.04265199229121208
0.5588482022285461 0.5979329943656921 0.37852028012275696
0.5902280807495117 0.7427583932876587 0.04942946508526802
0.5954979658126831 0.7438608407974243 0.047960471361875534
0.5983152389526367 0.6520759463310242 -0.03336093947291374
0.6122869253158569 0.6436722278594971 0.0049358271062374115
0.6022368669509888 0.6466889977455139 -0.0338219478726387
0.6035364866256714 0.5525901317596436 0.05346366763114929
0.6260510087013245 0.5695995092391968 0.08058856427669525
0.6223495006561279 0.6127066612243652 0.009964300319552422
0.6226389408111572 0.30935171246528625 0.16084030270576477
0.6330108046531677 0.34364816546440125 0.11903226375579834
0.6414675712585449 0.38327062129974365 0.08401699364185333
0.5955690145492554 0.7790594100952148 0.052532266825437546
0.5937937498092651 0.3912597894668579 -0.0072645568288862705
0.5916178226470947 0.32767778635025024 0.011226014234125614
0.5842577815055847 0.2696667015552521 0.027771342545747757
0.6211379766464233 0.490875244140625 0.13148126006126404
0.6353614330291748 0.5189031362533569 0.18848802149295807
0.5691412091255188 0.48164722323417664 0.060725100338459015
0.6344114542007446 0.45428720116615295 0.15668921172618866
0.5861419439315796 0.522473931312561 0.014617077074944973
0.6374088525772095 0.6053770780563354 -0.036302804946899414
0.6362429261207581 0.5358972549438477 0.22872719168663025
0.6419780254364014 0.5365970134735107 0.16292481124401093
0.6374351978302002 0.5459591150283813 0.12524092197418213
0.614330530166626 0.5415709614753723 0.08980788290500641
0.5947278738021851 0.5303788781166077 0.06511973589658737
0.5823903679847717 0.5186424255371094 0.04359491541981697
0.5798305869102478 0.4907880425453186 -0.028127091005444527
0.646323561668396 0.587236762046814 0.22313883900642395
0.6369180679321289 0.45285236835479736 0.1774892359972
0.6165095567703247 0.6365504264831543 -0.08319611847400665
0.601375937461853 0.5633680820465088 0.022021085023880005
0.5703295469284058 0.4898129403591156 0.36870357394218445
0.5749927759170532 0.5060287117958069 0.030174752697348595
0.6128889322280884 0.6146833896636963 0.029156580567359924
0.6253808736801147 0.4679841995239258 0.15688157081604004
0.6289637088775635 0.5887970328330994 -0.028447933495044708
0.5593852400779724 0.6564094424247742 0.3619768023490906
0.5667663812637329 0.47302258014678955 0.06790071725845337
0.6282894611358643 0.5749832391738892 -0.05690011754631996
0.5998586416244507 0.7801398038864136 0.19127479195594788
0.5715956687927246 0.8084231615066528 0.22539424896240234
0.61141037940979 0.5939819812774658 0.3063700795173645
0.6029424667358398 0.7453708052635193 0.23565366864204407
0.6176570653915405 0.4444306492805481 0.268032044172287
0.5833678245544434 0.8655372858047485 0.06787876039743423
0.6009217500686646 0.6430538892745972 -0.061547961086034775
0.6085458397865295 0.5820968747138977 0.03963442146778107
0.623882532119751 0.48961320519447327 0.23209039866924286
0.6160861849784851 0.48029959201812744 0.11257623881101608
0.6030397415161133 0.48266875743865967 0.09657763689756393
0.6015020608901978 0.7512356042861938 0.05803465470671654
0.6407192945480347 0.6370843052864075 0.2234320044517517
0.5540521144866943 0.9048864841461182 0.04644692689180374
0.5709983110427856 0.8660006523132324 0.1322382390499115
0.5712416172027588 0.8421170115470886 0.17478342354297638
0.589092493057251 0.48121997714042664 0.08298620581626892
0.5771345496177673 0.4768020510673523 0.07480622828006744
0.5700925588607788 0.47439274191856384 0.07187806069850922
0.6327499151229858 0.44948554039001465 0.20735615491867065
0.5777709484100342 0.4614992141723633 0.07370293885469437
0.5903440713882446 0.4579010009765625 0.08042397350072861
0.6056817173957825 0.45623070001602173 0.09358873963356018
0.6185864806175232 0.45796775817871094 0.11010445654392242
0.6239960193634033 0.4619588851928711 0.12343213707208633
0.5933253765106201 0.43418294191360474 0.33286914229393005
0.6221380233764648 0.4763757586479187 0.12677812576293945
0.6169195175170898 0.6795672178268433 0.016272975131869316
0.6251692175865173 0.6260076761245728 -0.02237793058156967
0.5977628231048584 0.6729059219360352 -0.029149716719985008
0.5930063724517822 0.8129478693008423 0.14984235167503357
0.5872200727462769 0.8392419815063477 0.10955461859703064
0.5697304606437683 0.8870142698287964 0.022707706317305565
0.5651111602783203 0.7706146836280823 0.2828345000743866
0.5710533857345581 0.4678269624710083 0.07009522616863251
0.5981518626213074 0.5302639007568359 -0.02325136587023735
0.5679209232330322 0.8873500227928162 0.08868196606636047
0.6076152324676514 0.6476755738258362 0.2960520386695862
0.5849833488464355 0.7443184852600098 0.007515560369938612
0.5896742939949036 0.7501843571662903 0.004859916865825653
0.593281090259552 0.7600785493850708 0.0036618111189454794
0.5940417647361755 0.7733300924301147 0.008151206187903881
0.5846354365348816 0.794644832611084 0.025754587724804878
0.5966018438339233 0.7399526238441467 0.04939822852611542
0.6032633185386658 0.7375296950340271 0.05469384416937828
0.608471691608429 0.7333921194076538 0.058407943695783615
0.6233169436454773 0.7154648900032043 0.07245386391878128
0.6465262174606323 0.6514748930931091 0.16132985055446625
0.5824812650680542 0.5051593780517578 -0.00559522770345211
0.5646071434020996 0.45706868171691895 0.034968964755535126
0.5676461458206177 0.45977783203125 0.056934356689453125
0.589387834072113 0.7371613383293152 0.04898618534207344
0.6262372732162476 0.7109287977218628 0.192006453871727
0.5667579174041748 0.45810845494270325 -0.0046361880376935005
0.5833580493927002 0.8169986605644226 0.03917354345321655
0.5949521064758301 0.5173484086990356 -0.04867097735404968
0.6113442182540894 0.5683525800704956 -0.014725876040756702
0.569360613822937 0.8330881595611572 0.002684280276298523
0.6083472967147827 0.7703201174736023 0.0950094684958458
0.6204426884651184 0.6359819769859314 0.04583760350942612
0.5949261784553528 0.7966741323471069 0.06898181885480881
0.6428767442703247 0.6314007043838501 0.08781644701957703
0.6304693222045898 0.6615006327629089 0.06521899998188019
0.642898440361023 0.6717523336410522 0.11765529960393906
0.5744469165802002 0.8625087141990662 0.010916627943515778
0.6106479167938232 0.5821096301078796 0.0076038711704313755
0.6067697405815125 0.7860861420631409 0.12376520037651062
0.5940955877304077 0.8145605325698853 0.08948399126529694
0.6223216652870178 0.7396945953369141 0.11332914978265762
0.6301597356796265 0.6798450946807861 0.2239220291376114
0.622763991355896 0.7397921085357666 0.14671652019023895
0.6035971641540527 0.6981030106544495 0.2789333164691925
0.632442831993103 0.6953029632568359 0.08862002938985825
0.598994255065918 0.5463035106658936 0.0007366370991803706
0.6354843378067017 0.6166543364524841 -0.04364524781703949
0.6311994791030884 0.623790442943573 -0.018533669412136078
0.6396759748458862 0.599663496017456 -0.06348934769630432
0.5794039964675903 0.4375815689563751 0.04223237186670303
0.6049660444259644 0.42610931396484375 0.05915301665663719
0.6256375312805176 0.4240049719810486 0.08079195767641068
0.638904333114624 0.4278920888900757 0.1079331487417221
0.6414279937744141 0.43751847743988037 0.13256417214870453
0.6263545751571655 0.47620654106140137 0.17240451276302338
0.6099749803543091 0.541826069355011 0.30670908093452454
0.6297820806503296 0.5107705593109131 0.14644959568977356
0.6229087710380554 0.5182768106460571 0.11975086480379105
0.6062359809875488 0.5175819396972656 0.09369754046201706
0.5879701375961304 0.5112181901931763 0.07290174067020416
0.5759454965591431 0.5026575326919556 0.05481123924255371
0.568850040435791 0.4949008524417877 0.04392214119434357
0.5592262744903564 0.5433817505836487 0.38187140226364136
0.6233089566230774 0.6309964060783386 -0.009831763803958893
0.6121121644973755 0.5521109700202942 -0.037238217890262604
0.6370671987533569 0.6179343461990356 -0.06988352537155151
0.6178295612335205 0.631939709186554 -0.07145433127880096
0.6287580132484436 0.6223378777503967 -0.06045498698949814
0.6137468814849854 0.6398356556892395 -0.009462563320994377
0.6190722584724426 0.6346004605293274 -0.07872747629880905
0.6053036451339722 0.6409653425216675 -0.05835482478141785
0.5646857023239136 0.47441405057907104 0.05559660494327545
0.5627300143241882 0.4817810654640198 0.03247793763875961
0.568618893623352 0.48716866970062256 0.012947003357112408
0.6257908940315247 0.4650784432888031 0.1346464604139328
0.6311692595481873 0.45505136251449585 0.14253634214401245
