ply
format ascii 1.0
element vertex 468
property float x
property float y
property float z
end_header
0.50406414270401 0.7353202104568481 -0.04209147393703461
0.5093032121658325 0.6738917231559753 -0.10789526998996735
0.5064888000488281 0.6876155138015747 -0.05274626612663269
0.4901467263698578 0.5888621211051941 -0.09120546281337738
0.509535014629364 0.6509742140769958 -0.1171170026063919
0.5088609457015991 0.616577684879303 -0.11284481734037399
0.5059469938278198 0.5251202583312988 -0.06905120611190796
0.35758519172668457 0.5046160817146301 0.001888972707092762
0.5037478804588318 0.4484519958496094 -0.06124133989214897
0.5030378103256226 0.4150567054748535 -0.06899425387382507
0.5006263852119446 0.31669068336486816 -0.06831525266170502
0.5037058591842651 0.745451033115387 -0.037928540259599686
0.5033864974975586 0.7522464990615845 -0.031045900657773018
0.5033243894577026 0.7535809874534607 -0.022226594388484955
0.5049099922180176 0.8039535284042358 -0.00026097751106135547
0.5048813223838806 0.8156664967536926 -0.0019478327594697475
0.5047547221183777 0.828263521194458 -0.0036980118602514267
0.5048065781593323 0.8389834761619568 0.003309395629912615
0.5050728917121887 0.8440797328948975 0.02421634830534458
0.5087463855743408 0.6834369897842407 -0.09644930809736252
0.48627981543540955 0.6782447695732117 -0.06873159855604172
0.2718616724014282 0.4043833017349243 0.07806148380041122
0.4218336343765259 0.5254765748977661 -0.015418527647852898
0.4007089138031006 0.5276227593421936 -0.013894886709749699
0.3792369067668915 0.5269248485565186 -0.008772801607847214
0.3495367765426636 0.5106856822967529 0.0061304266564548016
0.43839702010154724 0.5197489261627197 -0.012897325679659843
0.38336482644081116 0.45630523562431335 -0.02725292183458805
0.4081527292728424 0.45803940296173096 -0.02693227306008339
0.36179715394973755 0.4617999196052551 -0.02049490064382553
0.3483310639858246 0.4722130596637726 -0.01230706088244915
0.33249443769454956 0.5263440012931824 0.0173792727291584
0.4299688935279846 0.8456960916519165 0.05363333597779274
0.3479086756706238 0.4969380497932434 0.007834300398826599
0.26409482955932617 0.5021249055862427 0.10167588293552399
0.30674290657043457 0.5065191388130188 0.03472302109003067
0.39986592531204224 0.6290670037269592 -0.019648442044854164
0.4733315706253052 0.7317090034484863 -0.04013752192258835
0.4774293899536133 0.7514195442199707 -0.0280288178473711
0.4432182013988495 0.7359758615493774 -0.026534294709563255
0.42671990394592285 0.7407866716384888 -0.0074176243506371975
0.45604780316352844 0.7513095140457153 -0.01868310756981373
0.4412791132926941 0.751814067363739 -0.0020416215993463993
0.4020075798034668 0.7756811380386353 0.03852647542953491
0.49166324734687805 0.6730830669403076 -0.10628372430801392
0.4888787269592285 0.650829553604126 -0.11496856063604355
0.3190240263938904 0.44879475235939026 -0.0102632325142622
0.4430059492588043 0.5704211592674255 -0.029052941128611565
0.43979412317276 0.6550703644752502 -0.058867234736680984
0.4378363788127899 0.6402961611747742 -0.05447172373533249
0.3391014337539673 0.6186565160751343 0.002497653476893902
0.4895780682563782 0.6184914112091064 -0.10696998983621597
0.36248281598091125 0.42279958724975586 -0.04453524202108383
0.33682769536972046 0.43180331587791443 -0.029201442375779152
0.2922801375389099 0.3698127269744873 0.03507164120674133
0.45450663566589355 0.4416128993034363 -0.057835813611745834
0.42977744340896606 0.4679027199745178 -0.020635226741433144
0.3879847526550293 0.7485843896865845 0.035708166658878326
0.2971211075782776 0.7021684646606445 0.1905699223279953
0.4544471800327301 0.6677711606025696 -0.04964516684412956
0.47052210569381714 0.6759108304977417 -0.048928167670965195
0.40532803535461426 0.7560995817184448 0.033590640872716904
0.41741102933883667 0.7575092911720276 0.02832251414656639
0.32479599118232727 0.41675126552581787 -0.022802922874689102
0.4381474256515503 0.6619080901145935 -0.04656019061803818
0.3995932340621948 0.42293399572372437 -0.054592814296483994
0.39491286873817444 0.4061047434806824 -0.06163250654935837
0.3759151101112366 0.3267553448677063 -0.0445689894258976
0.3079761862754822 0.39528897404670715 0.0019006074871867895
0.3876533806324005 0.36950165033340454 -0.054549071937799454
0.30540934205055237 0.43665173649787903 0.00420826580375433
0.28815758228302 0.4234555959701538 0.03902319446206093
0.47476309537887573 0.7437071204185486 -0.03598839044570923
0.4499800503253937 0.7457824945449829 -0.02289906144142151
0.4336552321910858 0.7468581199645996 -0.006086910609155893
0.4587255120277405 0.6714192032814026 -0.04442970082163811
0.4112033247947693 0.7573679089546204 0.030627693980932236
0.4199645221233368 0.7760707139968872 0.024727679789066315
0.42118439078330994 0.7562984228134155 0.02796712890267372
0.46727001667022705 0.6667320132255554 -0.07854492962360382
0.44623684883117676 0.7494612336158752 0.0009990877006202936
0.46096596121788025 0.7506130337715149 -0.011081580072641373
0.48026561737060547 0.7523584961891174 -0.019622011110186577
0.47258299589157104 0.8414273858070374 0.024699164554476738
0.47179102897644043 0.8350328207015991 0.0042310054413974285
0.47336265444755554 0.8242959976196289 -0.001069858786650002
0.47634926438331604 0.8116768598556519 0.000636918528471142
0.47932085394859314 0.8015979528427124 0.001991679659113288
0.443042129278183 0.784111738204956 0.01608429290354252
0.43818292021751404 0.7878307104110718 0.014570547267794609
0.4311979413032532 0.7933782339096069 0.013715098612010479
0.4256141185760498 0.7981005907058716 0.018022876232862473
0.4128154218196869 0.7159639000892639 -0.006335171405225992
0.2689577341079712 0.5870509743690491 0.19793255627155304
0.5077193379402161 0.6850173473358154 -0.06866195052862167
0.4334486424922943 0.7738814949989319 0.024258511140942574
0.4265255630016327 0.7751221060752869 0.023604681715369225
0.4774414896965027 0.6861676573753357 -0.0473935566842556
0.44301706552505493 0.6739107966423035 -0.029578901827335358
0.4740455448627472 0.6813320517539978 -0.04886877164244652
0.4220017194747925 0.5814263224601746 -0.021256906911730766
0.38769257068634033 0.5954478979110718 -0.014750594273209572
0.433980792760849 0.6479247808456421 -0.04196637123823166
0.32401376962661743 0.34294769167900085 -0.007643458899110556
0.33837032318115234 0.37589317560195923 -0.028713183477520943
0.35363641381263733 0.4056928753852844 -0.04494895413517952
0.4193122982978821 0.8002458214759827 0.03336957097053528
0.44693130254745483 0.4122925400733948 -0.0688287764787674
0.440804660320282 0.370962530374527 -0.06817416846752167
0.4327464699745178 0.3194156289100647 -0.06477866321802139
0.36071088910102844 0.5211606621742249 -0.0006887124618515372
0.30856505036354065 0.5414390563964844 0.02972998470067978
0.4486564099788666 0.5139475464820862 -0.010721877217292786
0.3294997811317444 0.48094937205314636 0.003939266316592693
0.45756077766418457 0.5575757026672363 -0.03748563304543495
0.4534403681755066 0.6514462232589722 -0.0796566903591156
0.2852284908294678 0.5532762408256531 0.05357730761170387
0.3244381844997406 0.5595870614051819 0.01449689269065857
0.35226553678512573 0.5702569484710693 -0.002369188005104661
0.39313212037086487 0.5678706169128418 -0.009783172979950905
0.42244622111320496 0.5591081380844116 -0.014337122440338135
0.4427265226840973 0.5496683120727539 -0.020160898566246033
0.4862520098686218 0.5304766893386841 -0.06151561811566353
0.289620965719223 0.600824773311615 0.055207546800374985
0.3112582564353943 0.47466975450515747 0.012148607522249222
0.49748915433883667 0.6826329827308655 -0.09541451930999756
0.4441302716732025 0.5968992114067078 -0.03491803631186485
0.2572726607322693 0.4894515872001648 0.1645505279302597
0.45819008350372314 0.5391518473625183 -0.024840116500854492
0.4311850368976593 0.6455188393592834 -0.022190647199749947
0.34089744091033936 0.49600750207901 0.01169555727392435
0.45196276903152466 0.6329399347305298 -0.07398716360330582
0.2776542901992798 0.6419923901557922 0.19894446432590485
0.44715166091918945 0.5054371356964111 -0.007397455163300037
0.47042331099510193 0.6238142848014832 -0.09470241516828537
0.3459375500679016 0.7756372690200806 0.10498453676700592
0.34716302156448364 0.7941184639930725 0.1412118524312973
0.26723533868789673 0.597050666809082 0.12687598168849945
0.3195783793926239 0.7408973574638367 0.11882930994033813
0.2746364176273346 0.45907872915267944 0.07503963261842728
0.42673274874687195 0.8636846542358398 0.06851830333471298
0.4988836348056793 0.6841275691986084 -0.06740028411149979
0.42517465353012085 0.6114447116851807 -0.025875551626086235
0.2871156930923462 0.5081068277359009 0.05411094054579735
0.38174113631248474 0.5143619775772095 -0.008775762282311916
0.40099477767944336 0.5160362124443054 -0.013051717542111874
0.41358682513237 0.776408851146698 0.02783219888806343
0.2952670454978943 0.6450961232185364 0.07046271115541458
0.4628257155418396 0.8953025341033936 0.07848603278398514
0.40273281931877136 0.8540979027748108 0.10692707449197769
0.3773886561393738 0.82861328125 0.12195437401533127
0.5019049644470215 0.37091612815856934 -0.07122532278299332
0.5065100193023682 0.9005168080329895 0.07499784231185913
0.41846543550491333 0.5138289332389832 -0.013557937927544117
0.4345070719718933 0.5094572305679321 -0.011133463121950626
0.44378042221069336 0.5071008801460266 -0.007302966900169849
0.29453110694885254 0.4670819044113159 0.030869165435433388
0.42732083797454834 0.4875524044036865 -0.01623743772506714
0.4075661897659302 0.4800453186035156 -0.01966388151049614
0.3881014287471771 0.47950780391693115 -0.019276084378361702
0.36948487162590027 0.48380643129348755 -0.014309856109321117
0.35846468806266785 0.49013620615005493 -0.007996175438165665
0.25989511609077454 0.4417588412761688 0.12488345801830292
0.36799225211143494 0.5100820064544678 -0.002953174291178584
0.5057327747344971 0.7019913196563721 -0.044505100697278976
0.4307331442832947 0.7061394453048706 -0.022265387699007988
0.4548115134239197 0.6661588549613953 -0.05822645500302315
0.47336819767951965 0.7040438055992126 -0.04168471321463585
0.5047829747200012 0.4854641258716583 -0.05854178965091705
0.3730323910713196 0.8084574937820435 0.09731408208608627
0.3989158272743225 0.8351621031761169 0.08497601747512817
0.4625384509563446 0.8855491280555725 0.054317720234394073
0.3218771815299988 0.7543354630470276 0.16707488894462585
0.44064339995384216 0.4991181790828705 -0.011229326017200947
0.4725695550441742 0.5717629194259644 -0.06373193114995956
0.5062422156333923 0.8906345963478088 0.0519392304122448
0.42978689074516296 0.8781751394271851 0.08955998718738556
0.2762490510940552 0.6469829082489014 0.1330193728208542
0.4589383006095886 0.7943496704101562 0.008251041173934937
0.45428287982940674 0.801293134689331 0.007020050659775734
0.44895684719085693 0.8108295202255249 0.006106033455580473
0.4452257752418518 0.8202469944953918 0.010646563023328781
0.44129279255867004 0.8243928551673889 0.027313100174069405
0.4273686408996582 0.7528379559516907 0.013881202787160873
0.4197354018688202 0.7502646446228027 0.01419120654463768
0.4129815995693207 0.7456504106521606 0.01327701099216938
0.39772507548332214 0.7300815582275391 0.013650489039719105
0.3249417245388031 0.6635989546775818 0.033822886645793915
0.4722049832344055 0.5429808497428894 -0.048276305198669434
0.46036309003829956 0.48753687739372253 -0.02216022089123726
0.44889435172080994 0.4894901514053345 -0.015035063028335571
0.4332737922668457 0.7496155500411987 0.015533990226686
0.3260403275489807 0.7143749594688416 0.07618998736143112
0.47732117772102356 0.48830118775367737 -0.04636601358652115
0.43603840470314026 0.8307918906211853 0.04128393530845642
0.5078960657119751 0.5858546495437622 -0.09758379310369492
0.4877417981624603 0.561707079410553 -0.0784861296415329
0.5069380402565002 0.5571706295013428 -0.08288831263780594
0.45776644349098206 0.6085659265518188 -0.059534039348363876
0.50605708360672 0.8730665445327759 0.03917267918586731
0.5055498480796814 0.8549132347106934 0.03339890390634537
0.47001370787620544 0.8511782884597778 0.03631086274981499
0.38861095905303955 0.7767389416694641 0.051205482333898544
0.4137864410877228 0.6619744896888733 -0.013575708493590355
0.40902793407440186 0.8052548170089722 0.04819339141249657
0.3687766194343567 0.6545078158378601 -0.0067398566752672195
0.3963342010974884 0.6837303042411804 -0.003837136086076498
0.3540174961090088 0.6865860819816589 0.01728934422135353
0.46532687544822693 0.8685830235481262 0.04227803647518158
0.4444015324115753 0.6178499460220337 -0.043604776263237
0.375704288482666 0.7887282371520996 0.07136278599500656
0.4018438458442688 0.8171151876449585 0.06649177521467209
0.37344181537628174 0.7460989356040955 0.04391442984342575
0.30377769470214844 0.6827100515365601 0.08585841208696365
0.3505737781524658 0.7450417876243591 0.06025693938136101
0.29297637939453125 0.6944451928138733 0.1345348060131073
0.3816988468170166 0.7084417939186096 0.013586752116680145
0.45867377519607544 0.584183394908905 -0.04823906719684601
0.46060603857040405 0.6633824110031128 -0.08305079489946365
0.4462850093841553 0.6637496948242188 -0.06016433611512184
0.4700435400009155 0.6509434580802917 -0.09787366539239883
0.44150397181510925 0.4619346261024475 -0.0304641705006361
0.40541890263557434 0.44667160511016846 -0.035156264901161194
0.3751833736896515 0.44523394107818604 -0.033760566264390945
0.35182011127471924 0.4513128399848938 -0.02518797293305397
0.33709287643432617 0.4630771577358246 -0.012911485508084297
0.3270941376686096 0.5020089149475098 0.020239586010575294
0.2632516920566559 0.5492449402809143 0.11483359336853027
0.3452538251876831 0.5370842218399048 0.008504272438585758
0.3674998879432678 0.5455144047737122 -0.0018076372798532248
0.3963862955570221 0.545577347278595 -0.008836036548018456
0.4226161539554596 0.5401936769485474 -0.013136341236531734
0.44155964255332947 0.533176600933075 -0.013734794221818447
0.4545111060142517 0.5268517136573792 -0.015857279300689697
0.26315534114837646 0.5368306636810303 0.18731635808944702
0.4461217522621155 0.6672365665435791 -0.04958071559667587
0.4733376204967499 0.5971649289131165 -0.07671964168548584
0.4759366512298584 0.6684003472328186 -0.09766773134469986
0.48608556389808655 0.6772552728652954 -0.08761781454086304
0.47553786635398865 0.6700155138969421 -0.08779129385948181
0.4503426253795624 0.6728255748748779 -0.0415022112429142
0.4904613196849823 0.6805724501609802 -0.09261517226696014
0.49139684438705444 0.6822802424430847 -0.06799152493476868
0.4545102119445801 0.5068612098693848 -0.00968423392623663
0.4645419716835022 0.514459490776062 -0.02013411372900009
0.4701467752456665 0.5211326479911804 -0.03195517510175705
0.35232698917388916 0.4943006634712219 -0.001153118209913373
0.3406746983528137 0.4825933575630188 -0.0007659619441255927
0.5252387523651123 0.5875205993652344 -0.09064663201570511
0.649263322353363 0.4915943741798401 0.0068098148331046104
0.5290515422821045 0.6770063638687134 -0.0686301589012146
0.7208920121192932 0.38783499598503113 0.0852469950914383
0.5862718224525452 0.5187273621559143 -0.01244030799716711
0.6070059537887573 0.519374668598175 -0.01025669276714325
0.6278960108757019 0.5171217918395996 -0.004629457835108042
0.6561375856399536 0.49713587760925293 0.011150303296744823
0.5699592232704163 0.5144328474998474 -0.010143717750906944
0.6213396787643433 0.44367659091949463 -0.02332576923072338
0.5964792370796204 0.4482600688934326 -0.023985348641872406
0.6436052918434143 0.44683587551116943 -0.01580100506544113
0.6574535965919495 0.45652586221694946 -0.007529204245656729
0.6718487739562988 0.5128740668296814 0.02318047359585762
0.5816296339035034 0.8392659425735474 0.05595877394080162
0.6581488847732544 0.48200327157974243 0.012760240584611893
0.7304130792617798 0.48408132791519165 0.10850406438112259
0.6946871876716614 0.4901309609413147 0.04099380224943161
0.608350932598114 0.6225565671920776 -0.01649346575140953
0.5343816876411438 0.7299957275390625 -0.039624445140361786
0.5290043354034424 0.7501122951507568 -0.027794377878308296
0.5628882050514221 0.7329827547073364 -0.025769086554646492
0.5774974226951599 0.7372443675994873 -0.00598167022690177
0.5492047667503357 0.749042809009552 -0.0178773682564497
0.562792956829071 0.7491165995597839 -0.000738391827326268
0.602746307849884 0.7699409127235413 0.04141697660088539
0.5266420841217041 0.6719412803649902 -0.10607777535915375
0.5295465588569641 0.6494080424308777 -0.11453110724687576
0.6848858594894409 0.42865416407585144 -0.004254001658409834
0.5660305619239807 0.5663018822669983 -0.027436932548880577
0.5734146237373352 0.6509491801261902 -0.058079205453395844
0.574317991733551 0.6358888745307922 -0.05366399884223938
0.6658494472503662 0.6077518463134766 0.008848736062645912
0.5278021693229675 0.6171548366546631 -0.10654569417238235
0.6426375508308411 0.4055681824684143 -0.039267539978027344
0.6679564118385315 0.41230863332748413 -0.023055268451571465
0.7032326459884644 0.3542815148830414 0.04153428226709366
0.5521936416625977 0.4356301724910736 -0.055234603583812714
0.5758104920387268 0.46108484268188477 -0.018313106149435043
0.6160150766372681 0.7424341440200806 0.039856571704149246
0.7010295987129211 0.6850508451461792 0.19657619297504425
0.5588304400444031 0.6647098064422607 -0.049633610993623734
0.5428755879402161 0.6740304827690125 -0.0488101989030838
0.5970903635025024 0.7516028881072998 0.03691741079092026
0.5858264565467834 0.7538111805915833 0.031045541167259216
0.6788354516029358 0.3959944546222687 -0.016603553667664528
0.5742679238319397 0.6580828428268433 -0.04582217335700989
0.6057873964309692 0.41021978855133057 -0.05112210661172867
0.6097426414489746 0.39276039600372314 -0.05818957835435867
0.6229797005653381 0.317322701215744 -0.040689803659915924
0.6915135383605957 0.3773946762084961 0.007908043451607227
0.6144084930419922 0.3586343228816986 -0.05130816251039505
0.6963326930999756 0.4161229729652405 0.010224273428320885
0.7089262008666992 0.40507015585899353 0.0452662892639637
0.532239556312561 0.7422015070915222 -0.03569318354129791
0.5556986331939697 0.7432664632797241 -0.022258663550019264
0.5705373883247375 0.74374920129776 -0.004589329939335585
0.5543364882469177 0.6687629818916321 -0.044075410813093185
0.5914860367774963 0.7532143592834473 0.033673033118247986
0.5841413140296936 0.7715357542037964 0.0265139602124691
0.5827180743217468 0.7525367736816406 0.030957337468862534
0.5481896996498108 0.6641994714736938 -0.07780617475509644
0.5578299164772034 0.7470737099647522 0.002242752816528082
0.5441560745239258 0.7487245798110962 -0.010356486774981022
0.525904655456543 0.7512070536613464 -0.019168850034475327
0.5379980206489563 0.8389373421669006 0.025440135970711708
0.5376330614089966 0.8326900005340576 0.004605975933372974
0.5357758402824402 0.8221808671951294 -0.0008463156991638243
0.5330243110656738 0.8097186088562012 0.0008574487292207778
0.5301488041877747 0.8000898361206055 0.002357965800911188
0.5631923079490662 0.7807155251502991 0.017249509692192078
0.5679358839988708 0.783945620059967 0.015706393867731094
0.5745771527290344 0.7887897491455078 0.014917068183422089
0.5800929665565491 0.7930722236633301 0.01972050778567791
0.5946197509765625 0.7109026312828064 -0.004527379292994738
0.7236928939819336 0.5693067312240601 0.20456235110759735
0.5716208219528198 0.7704629302024841 0.02619764395058155
0.5780503749847412 0.7711568474769592 0.025612737983465195
0.5356613993644714 0.6847956776618958 -0.046988826245069504
0.5686437487602234 0.6707262396812439 -0.02889973483979702
0.5392302870750427 0.6798933148384094 -0.04857821390032768
0.5861267447471619 0.5760911703109741 -0.018377862870693207
0.6191654205322266 0.5880112648010254 -0.010465508326888084
0.5776389241218567 0.643561065196991 -0.040998805314302444
0.6733480095863342 0.32945889234542847 -0.002235833555459976
0.6631298065185547 0.3600367307662964 -0.023799162358045578
0.6506812572479248 0.38773438334465027 -0.039842359721660614
0.5876792669296265 0.7945235967636108 0.03584560006856918
0.5585612058639526 0.4051477313041687 -0.0665334016084671
0.5620097517967224 0.3656127452850342 -0.06651405245065689
0.5671002864837646 0.31450140476226807 -0.06271740794181824
0.645885705947876 0.5093966722488403 0.0035692413803189993
0.6939045190811157 0.5270946025848389 0.03600321337580681
0.5601274967193604 0.5093975067138672 -0.008488963358104229
0.6748807430267334 0.4638237953186035 0.009649851359426975
0.5522744655609131 0.5541859865188599 -0.036112986505031586
0.5614669919013977 0.6479030251502991 -0.07882598042488098
0.7151139974594116 0.5372095704078674 0.06066771224141121
0.6796063780784607 0.5471946597099304 0.020179830491542816
0.6531204581260681 0.5602564215660095 0.0029673452954739332
0.6134999394416809 0.5605291128158569 -0.005539491772651672
0.5853253602981567 0.5534678101539612 -0.01126929372549057
0.5656330585479736 0.5454227924346924 -0.01834271103143692
0.5251784324645996 0.5288312435150146 -0.060845375061035156
0.7117365598678589 0.5855042338371277 0.062226489186286926
0.6908481121063232 0.45668336749076843 0.017898807302117348
0.519666850566864 0.6819906830787659 -0.09518691152334213
0.5658096671104431 0.5929600596427917 -0.03361840173602104
0.7324447631835938 0.47207748889923096 0.17244265973567963
0.55078125 0.5358484387397766 -0.02318042330443859
0.5791651606559753 0.6411769390106201 -0.020900707691907883
0.6644742488861084 0.48059457540512085 0.017039181664586067
0.5618286728858948 0.6293326020240784 -0.07335109263658524
0.717457115650177 0.6240081787109375 0.20530790090560913
0.5613707304000854 0.5002793073654175 -0.0051882341504096985
0.5453283786773682 0.6211941242218018 -0.09389818459749222
0.6600571870803833 0.7625296115875244 0.11004485934972763
0.6585291624069214 0.7800197601318359 0.14563414454460144
0.729873776435852 0.5788244009017944 0.13336411118507385
0.6837031245231628 0.72580486536026 0.12455397844314575
0.7204263210296631 0.44139689207077026 0.08162669092416763
0.5852574110031128 0.856443464756012 0.07084831595420837
0.5167029500007629 0.683623194694519 -0.06731068342924118
0.5838838815689087 0.6064528226852417 -0.023932935670018196
0.7118669748306274 0.4908754527568817 0.06057216599583626
0.626409113407135 0.5041664242744446 -0.0044225356541574
0.6074932217597961 0.5074711441993713 -0.009101125411689281
0.5902692079544067 0.7715924978256226 0.0300513356924057
0.7066135406494141 0.6297656893730164 0.07692906260490417
0.5504545569419861 0.8913772702217102 0.07964735478162766
0.6082558035850525 0.8443927764892578 0.10961271077394485
0.631391704082489 0.8167620897293091 0.12558388710021973
0.5897244215011597 0.5067363977432251 -0.010197355411946774
0.5737823247909546 0.5035971999168396 -0.008063516579568386
0.5645893812179565 0.5018418431282043 -0.004909905139356852
0.7049860954284668 0.4483857750892639 0.03697576746344566
0.5795682668685913 0.48020750284194946 -0.013721015304327011
0.5983336567878723 0.470380961894989 -0.016785016283392906
0.6178777813911438 0.46740642189979553 -0.0155989620834589
0.6368729472160339 0.46980834007263184 -0.010099058039486408
0.6480705738067627 0.47538822889328003 -0.0034134332090616226
0.7310608625411987 0.4249342083930969 0.13254962861537933
0.6396596431732178 0.4985072612762451 0.0014842459931969643
0.5790264010429382 0.7021525502204895 -0.02097589522600174
0.5591522455215454 0.6629420518875122 -0.05770132690668106
0.5377260446548462 0.7021961212158203 -0.04122477397322655
0.635581374168396 0.7972667217254639 0.10111082345247269
0.6110578179359436 0.8255956172943115 0.08775866031646729
0.5509659051895142 0.8816081881523132 0.05578792467713356
0.6800545454025269 0.7387092709541321 0.17216691374778748
0.5671692490577698 0.49331754446029663 -0.008633947931230068
0.5397381782531738 0.5694299340248108 -0.06296761333942413
0.5825549960136414 0.8709932565689087 0.09145872294902802
0.7222619652748108 0.6290338635444641 0.1391083151102066
0.5490169525146484 0.7916182279586792 0.008762302808463573
0.5535855293273926 0.7982007265090942 0.007559194229543209
0.5587695837020874 0.8070396184921265 0.006533243227750063
0.5626050233840942 0.8159239888191223 0.011659893207252026
0.5675565600395203 0.8195918798446655 0.02891644276678562
0.5756931304931641 0.7496316432952881 0.015688225626945496
0.5831098556518555 0.7466257810592651 0.01610749401152134
0.5894440412521362 0.741966962814331 0.015651967376470566
0.607344388961792 0.7245716452598572 0.016919316723942757
0.6788692474365234 0.6510846614837646 0.03993929550051689
0.5384325981140137 0.5404874682426453 -0.047312356531620026
0.5473644137382507 0.483524888753891 -0.021244393661618233
0.5585458874702454 0.4844443202018738 -0.012865000404417515
0.5699900984764099 0.746680498123169 0.01756184734404087
0.6779244542121887 0.7010532021522522 0.08190813660621643
0.5314151048660278 0.4856261610984802 -0.045571982860565186
0.5740178227424622 0.82530277967453 0.0434454008936882
0.5257790088653564 0.560271143913269 -0.07790584862232208
0.5546810030937195 0.6052911877632141 -0.05877799540758133
0.5416171550750732 0.8482028245925903 0.037271276116371155
0.6181337833404541 0.7690545320510864 0.055255718529224396
0.5955712795257568 0.656868040561676 -0.011566746979951859
0.599244236946106 0.7982974052429199 0.05106751620769501
0.6376454830169678 0.6456652283668518 -0.002190534258261323
0.6116126775741577 0.6772979497909546 -0.0010400828905403614
0.6512416005134583 0.6765838861465454 0.022645752876996994
0.5475658178329468 0.8651003837585449 0.04354376345872879
0.5664620399475098 0.6141122579574585 -0.042858000844717026
0.6321746706962585 0.7789563536643982 0.07573994249105453
0.6074090600013733 0.8087606430053711 0.0697263702750206
0.632072389125824 0.7378115057945251 0.048374928534030914
0.6985224485397339 0.6676951050758362 0.09179344028234482
0.654823362827301 0.7338719964027405 0.06533900648355484
0.7074857950210571 0.6775211691856384 0.14032351970672607
0.6241743564605713 0.7014093399047852 0.017329582944512367
0.5524903535842896 0.5809788703918457 -0.04724828526377678
0.554816484451294 0.660292387008667 -0.0823853462934494
0.5673713088035583 0.6600645184516907 -0.05946074053645134
0.5469080805778503 0.6483221650123596 -0.09759194403886795
0.5649285912513733 0.4554528594017029 -0.029125411063432693
0.5995069742202759 0.43556439876556396 -0.03204122185707092
0.6296578049659729 0.4310668408870697 -0.02876312844455242
0.6534167528152466 0.4349658787250519 -0.02002815529704094
0.6681352257728577 0.44548162817955017 -0.007458190433681011
0.6767419576644897 0.48620474338531494 0.026013541966676712
0.7325583696365356 0.5311912298202515 0.12222348153591156
0.6603850722312927 0.525016725063324 0.013763885013759136
0.6385202407836914 0.5356205701828003 0.0028958115726709366
0.6105039119720459 0.5378022193908691 -0.004768074490129948
0.5851095914840698 0.534121572971344 -0.010200630873441696
0.5667737126350403 0.5285427570343018 -0.011524089612066746
0.554132878780365 0.5231255888938904 -0.014056728221476078
0.7276115417480469 0.5193402171134949 0.19468703866004944
0.5668947696685791 0.6637477278709412 -0.048920679837465286
0.5408937335014343 0.5946897268295288 -0.0760345384478569
0.5412389636039734 0.6664141416549683 -0.09721028059720993
0.5301607251167297 0.6758962273597717 -0.08750880509614944
0.5408357977867126 0.6678447723388672 -0.08723429590463638
0.5621504187583923 0.6699014902114868 -0.040839001536369324
0.526288628578186 0.6796127557754517 -0.09242125600576401
0.5239772796630859 0.6813443303108215 -0.06791282445192337
0.5538647174835205 0.5025018453598022 -0.00791627075523138
0.5440860390663147 0.5111731290817261 -0.01858706586062908
0.5388748645782471 0.5183944702148438 -0.03061548061668873
0.6540783047676086 0.47937560081481934 0.0037928035017102957
0.6648389101028442 0.4663030207157135 0.004440662916749716
