ply
format ascii 1.0
element vertex 468
property float x
property float y
property float z
end_header
0.5058188438415527 0.704966127872467 -0.06377339363098145
0.5073056817054749 0.6260677576065063 -0.12813614308834076
0.5054178237915039 0.6501417756080627 -0.06368310004472733
0.4858134686946869 0.5451611280441284 -0.10085593909025192
0.5073026418685913 0.6012420654296875 -0.13762587308883667
0.5065668225288391 0.5684117078781128 -0.12955932319164276
0.5043182373046875 0.4888553321361542 -0.0689704641699791
0.32768189907073975 0.4818072021007538 0.018809881061315536
0.5031560659408569 0.4268190264701843 -0.05731428042054176
0.5031541585922241 0.3935418128967285 -0.06539454311132431
0.5013386011123657 0.2826063632965088 -0.04858410730957985
0.5058627724647522 0.7166299819946289 -0.060515858232975006
0.505817174911499 0.724928617477417 -0.0519111268222332
0.505621075630188 0.7280150055885315 -0.040658604353666306
0.5067797303199768 0.7388905882835388 -0.037354350090026855
0.5071013569831848 0.7495607137680054 -0.04044407978653908
0.5073446035385132 0.7627882957458496 -0.04326726868748665
0.5074273943901062 0.7767804265022278 -0.0367804653942585
0.507059633731842 0.7997313737869263 -0.007644575089216232
0.5067402720451355 0.6384051442146301 -0.114902563393116
0.4873625636100769 0.6354807019233704 -0.08203767240047455
0.23325175046920776 0.3916672468185425 0.12522876262664795
0.3991811275482178 0.5061056017875671 -0.003931852988898754
0.374210387468338 0.5079904794692993 -0.002742031356319785
0.3508746027946472 0.5058889389038086 0.0035139983519911766
0.31995269656181335 0.4910285472869873 0.023352598771452904
0.42022645473480225 0.4995410442352295 -0.000360691687092185
0.36630743741989136 0.44144564867019653 -0.016414016485214233
0.39259177446365356 0.443418025970459 -0.016068464145064354
0.3420635759830475 0.4450993835926056 -0.00839365553110838
0.3256217837333679 0.4536359906196594 0.0016658834647387266
0.3006598651409149 0.507262110710144 0.036641888320446014
0.41845056414604187 0.8340023159980774 0.01906440034508705
0.31925565004348755 0.47459882497787476 0.026605883613228798
0.2273646593093872 0.4952540397644043 0.14269964396953583
0.272599458694458 0.4897999167442322 0.059749018400907516
0.3868682384490967 0.6049168705940247 -0.019011441618204117
0.4780808389186859 0.700863242149353 -0.06140198931097984
0.4820934534072876 0.724067211151123 -0.049580127000808716
0.4501247704029083 0.7067490816116333 -0.04817595332860947
0.431841105222702 0.7151710391044617 -0.03141965717077255
0.462136447429657 0.7246368527412415 -0.04124019294977188
0.44623294472694397 0.7261548042297363 -0.02514507807791233
0.40190228819847107 0.7514418959617615 0.009264228865504265
0.4882943332195282 0.625080406665802 -0.12645937502384186
0.48527923226356506 0.6015348434448242 -0.13541483879089355
0.2840873897075653 0.4252404570579529 0.008021324872970581
0.43356895446777344 0.5442684888839722 -0.02523517794907093
0.4370959401130676 0.6179598569869995 -0.06901244819164276
0.43494364619255066 0.6050220727920532 -0.06255239993333817
0.31254443526268005 0.6021688580513 0.009526648558676243
0.48569536209106445 0.5710510611534119 -0.1225665882229805
0.3411385416984558 0.39814090728759766 -0.0341593436896801
0.30729395151138306 0.40659260749816895 -0.015214633196592331
0.2564876675605774 0.34800270199775696 0.07407836616039276
0.4503744840621948 0.4204308092594147 -0.05177384987473488
0.4157482981681824 0.45202529430389404 -0.008194864727556705
0.384583443403244 0.7279784679412842 0.011548892594873905
0.261141836643219 0.7180035710334778 0.22661234438419342
0.45426884293556213 0.6306658983230591 -0.058150261640548706
0.4727536737918854 0.6383739113807678 -0.05835108086466789
0.41123464703559875 0.728308379650116 0.008615733124315739
0.4222482442855835 0.7273023724555969 0.0023069048766046762
0.2919216752052307 0.3901183605194092 -0.005586717277765274
0.4369143843650818 0.6281991600990295 -0.0547659769654274
0.38783836364746094 0.40081343054771423 -0.04719884693622589
0.3826432228088379 0.38063734769821167 -0.05411437526345253
0.3575955033302307 0.29250964522361755 -0.021578684449195862
0.274284303188324 0.36873218417167664 0.027729500085115433
0.37223583459854126 0.3359180688858032 -0.040241219103336334
0.26825660467147827 0.41443461179733276 0.02768026478588581
0.2507556676864624 0.40448665618896484 0.07254167646169662
0.47974321246147156 0.7146649956703186 -0.05843885615468025
0.45698416233062744 0.7177240252494812 -0.045965537428855896
0.4392392635345459 0.721136748790741 -0.03051341511309147
0.4603017270565033 0.6348934173583984 -0.05228222906589508
0.4170633554458618 0.7281397581100464 0.005339954514056444
0.4261890947818756 0.7344775795936584 -0.007656686007976532
0.42451149225234985 0.7260264754295349 0.0015896608820185065
0.46542105078697205 0.6229825019836426 -0.09262265264987946
0.45054134726524353 0.7246739864349365 -0.021201713010668755
0.4665099084377289 0.7255370020866394 -0.03140660375356674
0.4848136901855469 0.7269169092178345 -0.03900371491909027
0.47553470730781555 0.7977244853973389 -0.00807543657720089
0.478083074092865 0.7736916542053223 -0.036444343626499176
0.4795897901058197 0.7592675089836121 -0.04199032485485077
0.48145028948783875 0.7463940382003784 -0.03855537623167038
0.48350027203559875 0.7376407384872437 -0.035279590636491776
0.446546733379364 0.7326974272727966 -0.017439916729927063
0.4429643452167511 0.7357611060142517 -0.02104412578046322
0.43796852231025696 0.7420005798339844 -0.023632366210222244
0.4333307445049286 0.7501407265663147 -0.018479781225323677
0.41108769178390503 0.6895908117294312 -0.02411363273859024
0.23053953051567078 0.6005690693855286 0.2524760365486145
0.5060633420944214 0.6430355906486511 -0.08192149549722672
0.4360584616661072 0.7308671474456787 -0.005739178974181414
0.43159225583076477 0.7318043112754822 -0.008218055590987206
0.47974324226379395 0.6495290398597717 -0.058224357664585114
0.44498777389526367 0.642755925655365 -0.03508652001619339
0.47652703523635864 0.6441931128501892 -0.0588664747774601
0.40829649567604065 0.5586000680923462 -0.016496727243065834
0.3681676387786865 0.5746446251869202 -0.009105585515499115
0.4313790798187256 0.6155363917350769 -0.048073749989271164
0.2954908609390259 0.3138847351074219 0.022139783948659897
0.3122340440750122 0.3442871868610382 -0.00918435025960207
0.3310021162033081 0.3781995177268982 -0.03257288038730621
0.4201105237007141 0.7697260975837708 0.0007360234740190208
0.44195935130119324 0.3877449929714203 -0.06416227668523788
0.4338241517543793 0.3365335464477539 -0.05707796663045883
0.4242304563522339 0.2835652530193329 -0.04533941298723221
0.33090734481811523 0.5006968975067139 0.014088720083236694
0.2752515375614166 0.5249367356300354 0.05033724755048752
0.43378525972366333 0.4926166236400604 0.002666536485776305
0.2980033755302429 0.4598364233970642 0.02308032661676407
0.45000597834587097 0.5282089114189148 -0.03414624184370041
0.45027732849121094 0.6091455221176147 -0.09305465966463089
0.25042858719825745 0.5412601828575134 0.0780773013830185
0.2926476299762726 0.5424609184265137 0.029657233506441116
0.32456934452056885 0.5518122315406799 0.00853312760591507
0.3709677755832672 0.5483046174049377 -0.0009974864078685641
0.405590295791626 0.5383066534996033 -0.006129322573542595
0.43113023042678833 0.5266993045806885 -0.01288764551281929
0.4816160798072815 0.49532240629196167 -0.060263361781835556
0.2569006085395813 0.5922850966453552 0.07455135136842728
0.2770159840583801 0.45522117614746094 0.03394804894924164
0.495872437953949 0.637029230594635 -0.11391497403383255
0.438154399394989 0.567871630191803 -0.03407580405473709
0.21864160895347595 0.49395260214805603 0.22488714754581451
0.44977113604545593 0.5130569338798523 -0.016820574179291725
0.42869409918785095 0.6169241666793823 -0.023711657151579857
0.31222158670425415 0.4769139885902405 0.031665388494729996
0.4489156901836395 0.5936618447303772 -0.08478567004203796
0.24109801650047302 0.65826416015625 0.24618248641490936
0.43359994888305664 0.4827943444252014 0.007782177533954382
0.46629637479782104 0.5797163248062134 -0.10833293199539185
0.3159492015838623 0.7756563425064087 0.10034746676683426
0.3168865442276001 0.8013447523117065 0.1479908525943756
0.23349055647850037 0.5973655581474304 0.1627139151096344
0.2860807776451111 0.7429253458976746 0.1277868151664734
0.23837792873382568 0.44658586382865906 0.11409404128789902
0.4134449064731598 0.858430802822113 0.03538677468895912
0.4979524612426758 0.641754686832428 -0.08052712678909302
0.41677331924438477 0.5855891704559326 -0.024562716484069824
0.2517209053039551 0.4943539798259735 0.08361118286848068
0.3517266511917114 0.4916036128997803 0.0047431993298232555
0.37309545278549194 0.49452242255210876 -0.0009273102623410523
0.420288622379303 0.7387071847915649 -0.003543222788721323
0.26396825909614563 0.639916718006134 0.08571948856115341
0.45679643750190735 0.8925626277923584 0.046793945133686066
0.384476900100708 0.8567307591438293 0.08920059353113174
0.3532615303993225 0.8337468504905701 0.11449028551578522
0.5023901462554932 0.33862340450286865 -0.060028545558452606
0.506957471370697 0.8978318572044373 0.04190082848072052
0.3944074809551239 0.493182897567749 -0.0011942790588364005
0.4144313335418701 0.4888789653778076 0.0024704269599169493
0.42731577157974243 0.4858875274658203 0.007496500387787819
0.25869041681289673 0.4502667188644409 0.05811695754528046
0.4115343987941742 0.46248888969421387 -0.0030460564885288477
0.38999229669570923 0.45419663190841675 -0.007675274275243282
0.36819636821746826 0.452234148979187 -0.0070805540308356285
0.34640073776245117 0.4564458727836609 -0.0010978118516504765
0.33308500051498413 0.46396803855895996 0.0069013554602861404
0.22146889567375183 0.43739157915115356 0.18035848438739777
0.33747366070747375 0.486802875995636 0.01229446567595005
0.5054989457130432 0.6674975156784058 -0.05696938559412956
0.43309471011161804 0.676483154296875 -0.035536061972379684
0.45350921154022217 0.6269828677177429 -0.06772329658269882
0.4757198095321655 0.6693128347396851 -0.05583164840936661
0.5034070014953613 0.45756471157073975 -0.05386923998594284
0.3482469916343689 0.8075024485588074 0.0805588811635971
0.37965089082717896 0.8327978253364563 0.059471968561410904
0.4557853937149048 0.8767101764678955 0.014978648163378239
0.2878018617630005 0.7656912207603455 0.18990421295166016
0.4269624352455139 0.47453784942626953 0.003187622409313917
0.46698564291000366 0.5344527959823608 -0.06640441715717316
0.5076210498809814 0.8818830847740173 0.011420591734349728
0.4178900718688965 0.8775365948677063 0.06311319023370743
0.2441466748714447 0.6499825119972229 0.16319869458675385
0.46329784393310547 0.7350316047668457 -0.0273292176425457
0.4596952497959137 0.7410728335380554 -0.03138614073395729
0.4561551511287689 0.7509029507637024 -0.03401109203696251
0.452985018491745 0.7639291286468506 -0.028918113559484482
0.44449976086616516 0.7858450412750244 -0.006860647350549698
0.4321814477443695 0.7264525890350342 -0.010667924769222736
0.425204873085022 0.7245548963546753 -0.011418814770877361
0.4180918037891388 0.7210423350334167 -0.011974467895925045
0.3933010697364807 0.7068893909454346 -0.00792296789586544
0.29684191942214966 0.6531478762626648 0.03777625039219856
0.46619337797164917 0.5101271867752075 -0.04545648396015167
0.45207810401916504 0.4647120237350464 -0.009850080125033855
0.437375009059906 0.46924924850463867 -0.0012622622307389975
0.4369507431983948 0.7235814929008484 -0.008233550935983658
0.29587826132774353 0.7097293138504028 0.07825320214033127
0.4726496934890747 0.46196669340133667 -0.03889492154121399
0.43065351247787476 0.8091611862182617 0.00828488077968359
0.5059394240379333 0.5412807464599609 -0.10820028930902481
0.48331740498542786 0.5215034484863281 -0.0830111876130104
0.5050804018974304 0.5161087512969971 -0.08805222064256668
0.4531690776348114 0.5728309154510498 -0.06455012410879135
0.5077720284461975 0.8571926355361938 -0.0039153010584414005
0.5074225664138794 0.8263503313064575 -0.005615567788481712
0.4677025377750397 0.8235073089599609 -0.0022584539838135242
0.37739771604537964 0.7619649171829224 0.024525979533791542
0.4081566631793976 0.636413037776947 -0.016993988305330276
0.401398241519928 0.788791835308075 0.017650188878178596
0.34872207045555115 0.632940948009491 -0.008381211198866367
0.3844064474105835 0.6599453091621399 -0.01211736910045147
0.3300289511680603 0.6708979606628418 0.011798376217484474
0.4594181776046753 0.8527020215988159 0.0006151793641038239
0.4405035972595215 0.5863679647445679 -0.04683024808764458
0.3559160828590393 0.7810184955596924 0.04929294437170029
0.3871692419052124 0.8087378144264221 0.03788607940077782
0.3585682511329651 0.7318717241287231 0.02324303425848484
0.27223119139671326 0.6803358197212219 0.0976470336318016
0.32723599672317505 0.7361707091331482 0.047581568360328674
0.25939375162124634 0.6984139084815979 0.1566976010799408
0.3658723831176758 0.6898853778839111 -0.0005087617901153862
0.45302101969718933 0.5508822202682495 -0.049086011946201324
0.4579498767852783 0.6194342374801636 -0.09779263287782669
0.4442031979560852 0.6255655288696289 -0.07091980427503586
0.46659305691719055 0.6039472818374634 -0.11498495936393738
0.43179988861083984 0.4432734251022339 -0.01964426040649414
0.3917520046234131 0.4292796552181244 -0.02489258535206318
0.3572130799293518 0.4264327883720398 -0.023216737434267998
0.32850128412246704 0.4300376772880554 -0.013383926823735237
0.30828404426574707 0.44063130021095276 0.002042800886556506
0.2948969006538391 0.48320186138153076 0.04200727492570877
0.2269759178161621 0.545910120010376 0.1536257117986679
0.3142951726913452 0.5179952383041382 0.024799777194857597
0.3395189046859741 0.5256952047348022 0.011133015155792236
0.3718373775482178 0.5261470079421997 0.001891936524771154
0.4029349386692047 0.5208895802497864 -0.002809454221278429
0.42705169320106506 0.5122562050819397 -0.0030425137374550104
0.44336390495300293 0.5037687420845032 -0.004985945299267769
0.2240576148033142 0.5470001697540283 0.24665874242782593
0.44525858759880066 0.631628155708313 -0.05826565623283386
0.4681784212589264 0.5564706325531006 -0.08395706862211227
0.4731822907924652 0.6208542585372925 -0.11571987718343735
0.4856410026550293 0.6322718858718872 -0.10447176545858383
0.4737718999385834 0.6242908239364624 -0.10373006016016006
0.45208004117012024 0.6387518644332886 -0.049036819487810135
0.48932814598083496 0.6350363492965698 -0.1106833666563034
0.4915284216403961 0.639681339263916 -0.08109918981790543
0.4423987865447998 0.4846540093421936 0.004869234282523394
0.45615044236183167 0.4899647831916809 -0.008715126663446426
0.463801771402359 0.49345529079437256 -0.023975906893610954
0.3252321779727936 0.46961280703544617 0.015571552328765392
0.3131961226463318 0.4627334773540497 0.016305599361658096
0.5253667235374451 0.5454122424125671 -0.09906627982854843
0.6734858155250549 0.4844687581062317 0.03106926754117012
0.5241550803184509 0.6359028816223145 -0.08063560724258423
0.7569641470909119 0.3962564766407013 0.14454804360866547
0.6037964224815369 0.5077416896820068 0.0037884186021983624
0.6286177635192871 0.5098050236701965 0.006563187576830387
0.6514362692832947 0.5078525543212891 0.014451876282691956
0.6803159117698669 0.4934200644493103 0.036145683377981186
0.5828178524971008 0.5007451772689819 0.005647545214742422
0.6360343098640442 0.44430720806121826 -0.006496416870504618
0.6101061701774597 0.44559580087661743 -0.008336758241057396
0.6594325304031372 0.44827038049697876 0.0032787600066512823
0.6751093864440918 0.4567691683769226 0.014003501273691654
0.6984419226646423 0.5095504522323608 0.05049658566713333
0.5934284329414368 0.8341938257217407 0.0252109095454216
0.6811915636062622 0.4774434566497803 0.03940689191222191
0.7638459205627441 0.49838489294052124 0.16214872896671295
0.7242832779884338 0.4923809766769409 0.07553140819072723
0.6188733577728271 0.6057395935058594 -0.01114775612950325
0.5332155227661133 0.701107382774353 -0.05927276238799095
0.5290961861610413 0.7242821455001831 -0.04743369668722153
0.5602131485939026 0.7074045538902283 -0.043784577399492264
0.5778412222862244 0.7160520553588867 -0.025453513488173485
0.5480878353118896 0.7252013683319092 -0.03750959038734436
0.5633330345153809 0.7269364595413208 -0.020328912883996964
0.6073059439659119 0.7526727914810181 0.017008306458592415
0.5257633328437805 0.625272274017334 -0.12521259486675262
0.5288398265838623 0.6017584800720215 -0.13400399684906006
0.7142223715782166 0.42908990383148193 0.02298356592655182
0.5721636414527893 0.5449204444885254 -0.02001640573143959
0.5719720125198364 0.6187995076179504 -0.06378476321697235
0.5733537673950195 0.6058655977249146 -0.05725410208106041
0.6897664070129395 0.6033669114112854 0.02261333167552948
0.5271677374839783 0.5712462663650513 -0.12077657133340836
0.6608306169509888 0.40178680419921875 -0.02377266436815262
0.6927846670150757 0.4106147289276123 -0.0022493673022836447
0.7363874912261963 0.35259178280830383 0.09146090596914291
0.5552840232849121 0.42150115966796875 -0.04813883826136589
0.5872483253479004 0.453660786151886 -0.0017258776351809502
0.6234763264656067 0.7292775511741638 0.020949548110365868
0.7295143008232117 0.7188999652862549 0.24507515132427216
0.555152177810669 0.6315546035766602 -0.054646264761686325
0.5371032357215881 0.6390404105186462 -0.056346774101257324
0.59779953956604 0.7297893762588501 0.016594750806689262
0.5868945717811584 0.7286304235458374 0.009047886356711388
0.7068718671798706 0.3946208953857422 0.008443045429885387
0.5714352130889893 0.6291825175285339 -0.04960053414106369
0.6162737011909485 0.40357130765914917 -0.03990563005208969
0.6212668418884277 0.38343459367752075 -0.04652119427919388
0.6413776874542236 0.29537728428840637 -0.011396556161344051
0.7218682765960693 0.3728848397731781 0.042899589985609055
0.6294865608215332 0.3386281728744507 -0.031463272869586945
0.7286548018455505 0.4184873700141907 0.04393145442008972
0.743127703666687 0.40871337056159973 0.08994966000318527
0.5316652655601501 0.7149734497070312 -0.05623474344611168
0.5535937547683716 0.7183095216751099 -0.04189523309469223
0.5707976222038269 0.7217696905136108 -0.024997925385832787
0.5490553379058838 0.6358298063278198 -0.049094755202531815
0.5920464992523193 0.7294610142707825 0.012465321458876133
0.584162712097168 0.7357520461082458 -0.0015368096064776182
0.584233820438385 0.7273167967796326 0.00832249317318201
0.545838475227356 0.6236720085144043 -0.08882889151573181
0.558594822883606 0.7254177331924438 -0.016567958518862724
0.5433408617973328 0.7261753082275391 -0.02794043719768524
0.525859534740448 0.7270640134811401 -0.03710804879665375
0.5378307700157166 0.7979932427406311 -0.00608466612175107
0.5359160900115967 0.7740083932876587 -0.034326616674661636
0.5343405604362488 0.7595391273498535 -0.03985348343849182
0.531997799873352 0.7466820478439331 -0.03646723926067352
0.5294190049171448 0.7380409836769104 -0.033223606646060944
0.5642769932746887 0.7334631681442261 -0.012755801901221275
0.5681968927383423 0.7366130352020264 -0.016372334212064743
0.5734207630157471 0.7429713010787964 -0.018723664805293083
0.5782721042633057 0.7511096000671387 -0.013029743917286396
0.5974265336990356 0.6902357935905457 -0.017326373606920242
0.7559200525283813 0.6027309894561768 0.27268874645233154
0.5738186836242676 0.731886625289917 -8.194048859877512e-05
0.5785647630691528 0.7329525947570801 -0.0022889291867613792
0.530647337436676 0.6500436663627625 -0.05627965182065964
0.5632777214050293 0.6437362432479858 -0.03105512447655201
0.5335124731063843 0.6447638869285583 -0.05711854249238968
0.596886396408081 0.5594815611839294 -0.00965153705328703
0.6363475322723389 0.5756884813308716 0.00022583884128835052
0.5762432217597961 0.6163806915283203 -0.04261072352528572
0.7000159621238708 0.31795641779899597 0.036283642053604126
0.6862524151802063 0.3481289744377136 0.003362488467246294
0.6702873110771179 0.3819991648197174 -0.021396487951278687
0.5906972885131836 0.7703525424003601 0.006881203036755323
0.563690721988678 0.3892728090286255 -0.060109518468379974
0.5699877738952637 0.33794164657592773 -0.052215877920389175
0.5772772431373596 0.2852241098880768 -0.04010530561208725
0.6701633930206299 0.502970814704895 0.02603798545897007
0.7225782871246338 0.5271353721618652 0.06599228829145432
0.569372296333313 0.493740439414978 0.008083922788500786
0.7007542848587036 0.46298253536224365 0.03734690323472023
0.5563902854919434 0.5287186503410339 -0.030045513063669205
0.5606114268302917 0.6098721623420715 -0.08881262689828873
0.7452178001403809 0.5434556603431702 0.09570649266242981
0.707183837890625 0.5442982912063599 0.044239193201065063
0.677539587020874 0.5531988739967346 0.02064487896859646
0.6328290700912476 0.5493634939193726 0.008294623345136642
0.5987734198570251 0.5393228530883789 0.0008361220243386924
0.5736051797866821 0.5274554491043091 -0.0075009348802268505
0.5263717770576477 0.49563121795654297 -0.05855719745159149
0.7399274706840515 0.5939413905143738 0.0921207144856453
0.7204580903053284 0.45836812257766724 0.04977982118725777
0.5174809694290161 0.6373217701911926 -0.11294195801019669
0.5685381889343262 0.5686244964599609 -0.029005534946918488
0.7681018114089966 0.4974365234375 0.2455800473690033
0.5553361773490906 0.5137240290641785 -0.012678203172981739
0.5778467655181885 0.6178023219108582 -0.01816931739449501
0.6875334978103638 0.4797896146774292 0.04515889286994934
0.560736894607544 0.5943678617477417 -0.08051857352256775
0.7468549013137817 0.6599463820457458 0.2658565640449524
0.5690617561340332 0.4840114712715149 0.013547597452998161
0.5452372431755066 0.5800662636756897 -0.10518913716077805
0.6863760352134705 0.7764252424240112 0.11399577558040619
0.6830211281776428 0.8019057512283325 0.16186316311359406
0.7580283880233765 0.599263072013855 0.18223623931407928
0.7125424146652222 0.743815004825592 0.14378821849822998
0.7542093992233276 0.4502379596233368 0.1329682320356369
0.5984166860580444 0.858391523361206 0.042155712842941284
0.5141041278839111 0.641949474811554 -0.07998713850975037
0.589073121547699 0.5865122079849243 -0.0183674655854702
0.7434666156768799 0.4972061514854431 0.10118257254362106
0.6505638957023621 0.494010865688324 0.015390995889902115
0.6295486092567444 0.4967503547668457 0.008515991270542145
0.5898772478103638 0.7399031519889832 0.0030567580834031105
0.7332842946052551 0.6412131190299988 0.10279946029186249
0.5562308430671692 0.892494797706604 0.0506753996014595
0.6234270334243774 0.8568947911262512 0.09842944890260696
0.6515316963195801 0.8340878486633301 0.12607036530971527
0.6082910299301147 0.49504417181015015 0.00668147299438715
0.5882532000541687 0.4903068542480469 0.00923494528979063
0.575407087802887 0.487183153629303 0.013555705547332764
0.7371857166290283 0.4536857306957245 0.07515744119882584
0.5911829471588135 0.46405351161956787 0.003900120733305812
0.6125788688659668 0.45613014698028564 0.0005000532837584615
0.6342154741287231 0.45453161001205444 0.0025823479518294334
0.6555385589599609 0.4590911567211151 0.009829297661781311
0.6683521866798401 0.46665048599243164 0.01879218779504299
0.766964316368103 0.44162774085998535 0.20066678524017334
0.6644066572189331 0.4893644452095032 0.0239243283867836
0.5757847428321838 0.6771202087402344 -0.030330639332532883
0.5563656091690063 0.6278064250946045 -0.06403657793998718
0.5349355340003967 0.6696885824203491 -0.05359211564064026
0.6576444506645203 0.8080620169639587 0.09156926721334457
0.6291285157203674 0.8331660032272339 0.06845245510339737
0.5581562519073486 0.8766354918479919 0.018739616498351097
0.7071355581283569 0.7664549350738525 0.20638908445835114
0.5758727788925171 0.47586962580680847 0.009321063756942749
0.5418580770492554 0.5348105430603027 -0.06367435306310654
0.5930795669555664 0.8774573802947998 0.06974556297063828
0.7483996152877808 0.6513875722885132 0.18192286789417267
0.5487764477729797 0.7356153726577759 -0.02402106486260891
0.5526072978973389 0.7416268587112427 -0.027590764686465263
0.5565460920333862 0.751534104347229 -0.030120905488729477
0.5600838661193848 0.7645606398582458 -0.024929229170084
0.5676307082176208 0.7863818407058716 -0.0024766947608441114
0.5769143104553223 0.7275546193122864 -0.004653304815292358
0.5841463804244995 0.7257596850395203 -0.0045830849558115005
0.5909042954444885 0.7223589420318604 -0.004681033547967672
0.6146702766418457 0.7078725695610046 0.0004977217759005725
0.70420902967453 0.6541808843612671 0.05190897732973099
0.5411368012428284 0.5106099843978882 -0.0426347479224205
0.5518366694450378 0.4656553268432617 -0.006240959744900465
0.5656248331069946 0.47037115693092346 0.00399222644045949
0.5718985795974731 0.7246750593185425 -0.002395524410530925
0.7048453092575073 0.710536003112793 0.09301085025072098
0.5331375002861023 0.46253538131713867 -0.03681217506527901
0.5811746120452881 0.8094466328620911 0.013532564975321293
0.5264956951141357 0.5217518210411072 -0.08139213919639587
0.5554994344711304 0.5733063220977783 -0.060681961476802826
0.5460814237594604 0.8236566185951233 0.0001894174492917955
0.6305854320526123 0.7628509402275085 0.03352618217468262
0.598298192024231 0.6371908187866211 -0.010316358879208565
0.6083841919898987 0.7894541621208191 0.024928241968154907
0.6562044620513916 0.6339017748832703 0.0017275518039241433
0.6221840381622314 0.6607352495193481 -0.0037880258169025183
0.6741494536399841 0.671616792678833 0.023420637473464012
0.5548062324523926 0.8526840209960938 0.004009711090475321
0.566966712474823 0.5871540307998657 -0.042073555290699005
0.6510204076766968 0.781560480594635 0.059918757528066635
0.6224538087844849 0.809144139289856 0.04581631347537041
0.6479373574256897 0.7327465415000916 0.033869508653879166
0.7257300615310669 0.6814422607421875 0.1140858456492424
0.6769233345985413 0.7369867563247681 0.060068074613809586
0.7352837920188904 0.6995173692703247 0.17461417615413666
0.6404358148574829 0.6907323598861694 0.0091977184638381
0.5547031760215759 0.5514442324638367 -0.04508766904473305
0.553363025188446 0.6201560497283936 -0.09380237013101578
0.56550133228302 0.6263883709907532 -0.06638996303081512
0.5461942553520203 0.6044477224349976 -0.11207756400108337
0.5721354484558105 0.4446546137332916 -0.014671859331429005
0.6116575598716736 0.43163159489631653 -0.017288614064455032
0.6454106569290161 0.4294916093349457 -0.013285634107887745
0.6728556752204895 0.43338391184806824 -0.0012293674517422915
0.6917134523391724 0.4440534710884094 0.015561944805085659
0.7034461498260498 0.4859924912452698 0.05623555928468704
0.7641729712486267 0.5485199093818665 0.1737959086894989
0.686115562915802 0.5199897885322571 0.03753743693232536
0.6624845266342163 0.5272639393806458 0.022285204380750656
0.6312000751495361 0.5276212096214294 0.010908426716923714
0.6004433631896973 0.5220091342926025 0.00451477337628603
0.5768101215362549 0.5132749080657959 0.0024699049536138773
0.5606520175933838 0.504571795463562 -0.00043556676246225834
0.762046217918396 0.5499323010444641 0.26755490899086
0.5635752081871033 0.6326314210891724 -0.053962718695402145
0.5420919060707092 0.5568317770957947 -0.08110164850950241
0.5399455428123474 0.6212376356124878 -0.11327003687620163
0.5265845060348511 0.6326280832290649 -0.10315818339586258
0.5384214520454407 0.6247063875198364 -0.10119166970252991
0.5566888451576233 0.6397860050201416 -0.0454915314912796
0.5237285494804382 0.6351919770240784 -0.10942009091377258
0.5203105211257935 0.6399585604667664 -0.0803225040435791
0.5608334541320801 0.48581549525260925 0.009461496956646442
0.5480386018753052 0.4907671809196472 -0.005114274565130472
0.5417836904525757 0.49411913752555847 -0.021045498549938202
0.6756973266601562 0.4723736345767975 0.02795443870127201
0.6866898536682129 0.4657784402370453 0.029190609231591225
