ply
format ascii 1.0
element vertex 468
property float x
property float y
property float z
end_header
0.4877031445503235 0.7386205196380615 -0.029552554711699486
0.4782801568508148 0.6700421571731567 -0.10849535465240479
0.48738938570022583 0.6813223958015442 -0.04344601929187775
0.46384838223457336 0.5837691426277161 -0.0986664816737175
0.47678351402282715 0.6489100456237793 -0.1219085082411766
0.47861289978027344 0.6144013404846191 -0.12196964770555496
0.48743394017219543 0.517240583896637 -0.09094329178333282
0.34747809171676636 0.47640448808670044 0.01960182562470436
0.4891507029533386 0.44724395871162415 -0.09474365413188934
0.4873235821723938 0.41450804471969604 -0.11025819927453995
0.48885834217071533 0.2812844216823578 -0.12696275115013123
0.4883098602294922 0.7494893074035645 -0.023334108293056488
0.4898011386394501 0.756447970867157 -0.013136179186403751
0.4917011260986328 0.7579834461212158 -0.001353511936031282
0.4901798963546753 0.7695688009262085 0.01068645529448986
0.4895130693912506 0.7814673781394958 0.010399687103927135
0.4894319176673889 0.7946583032608032 0.010582974180579185
0.49064385890960693 0.805473804473877 0.01979411393404007
0.4953877031803131 0.8105219602584839 0.04874200001358986
0.4809885025024414 0.6771330833435059 -0.09427664428949356
0.4642191231250763 0.6689741015434265 -0.05995110794901848
0.28791871666908264 0.35356131196022034 0.10036963224411011
0.4135908782482147 0.5002081394195557 -0.007291831541806459
0.3921447992324829 0.5021708011627197 -0.0016645750729367137
0.37072697281837463 0.5010044574737549 0.00729203037917614
0.34305107593536377 0.48188045620918274 0.027046168223023415
0.4295395314693451 0.4957525134086609 -0.01043282076716423
0.3719002604484558 0.440295934677124 -0.024409117177128792
0.39704251289367676 0.4426521062850952 -0.030352555215358734
0.3510419726371765 0.44275081157684326 -0.012844462879002094
0.33904486894607544 0.44946736097335815 -0.0004090715083293617
0.3288384675979614 0.4957631826400757 0.04351123049855232
0.4280053377151489 0.8146235346794128 0.10029513388872147
0.33912426233291626 0.4676223397254944 0.02599598839879036
0.2849965989589691 0.4552904963493347 0.14543689787387848
0.30744707584381104 0.4723418354988098 0.06315931677818298
0.3922950029373169 0.6122954487800598 0.00633159838616848
0.4624669849872589 0.733163595199585 -0.022748833522200584
0.4701293408870697 0.7544584274291992 -0.006100295577198267
0.44042545557022095 0.735423743724823 -0.0031986029352992773
0.4300946593284607 0.7398302555084229 0.01754726655781269
0.4546765685081482 0.7525643110275269 0.005992848426103592
0.4442148208618164 0.7518131732940674 0.023635216057300568
0.40957674384117126 0.7598395943641663 0.07081995159387589
0.4612203538417816 0.6673704385757446 -0.10420543700456619
0.4563094675540924 0.6474414467811584 -0.11616770923137665
0.30904918909072876 0.42720192670822144 0.000487654993776232
0.4315858781337738 0.552415668964386 -0.023136451840400696
0.4211406707763672 0.643250048160553 -0.042560137808322906
0.4213836193084717 0.6280336380004883 -0.038763269782066345
0.3366740942001343 0.5970124006271362 0.04211951047182083
0.4592958986759186 0.6146671772003174 -0.11113279312849045
0.3473742604255676 0.41522425413131714 -0.0539991594851017
0.3226286470890045 0.41743719577789307 -0.02946086972951889
0.2965143024921417 0.32317984104156494 0.040376678109169006
0.44065696001052856 0.4403911232948303 -0.0822746679186821
0.41947197914123535 0.45122942328453064 -0.02563994564116001
0.39528724551200867 0.739619255065918 0.07168194651603699
0.3327152729034424 0.6459051370620728 0.28122711181640625
0.4369659125804901 0.656168520450592 -0.033710408955812454
0.45366179943084717 0.6667373180389404 -0.03674375265836716
0.41754114627838135 0.7495368123054504 0.06391795724630356
0.428164005279541 0.7505291700363159 0.05498361214995384
0.31281447410583496 0.39889466762542725 -0.022641589865088463
0.42374804615974426 0.6502543687820435 -0.02770105004310608
0.38488292694091797 0.4206906259059906 -0.07218703627586365
0.3791004419326782 0.4015205502510071 -0.08252281695604324
0.3622559905052185 0.28763818740844727 -0.07345488667488098
0.30416396260261536 0.3614497184753418 0.0038425081875175238
0.3722309172153473 0.34571459889411926 -0.08062952756881714
0.29903990030288696 0.41096097230911255 0.017164569348096848
0.29279956221580505 0.38412004709243774 0.05501599982380867
0.46536409854888916 0.7460733652114868 -0.016711171716451645
0.44758084416389465 0.7463538646697998 0.0007291237125173211
0.43651536107063293 0.746587872505188 0.0189222265034914
0.44274649024009705 0.6607805490493774 -0.02988312765955925
0.4228987991809845 0.7509129047393799 0.05886358395218849
0.4278375804424286 0.7580391764640808 0.04739253595471382
0.43085557222366333 0.7483221292495728 0.05382341146469116
0.4428268373012543 0.6555929183959961 -0.06801225244998932
0.45040810108184814 0.7498884201049805 0.02730230614542961
0.4612444043159485 0.7525671720504761 0.01543383952230215
0.47528594732284546 0.7556943893432617 0.004992692265659571
0.4690339267253876 0.806793749332428 0.05286143720149994
0.4646461009979248 0.8007073998451233 0.02390560880303383
0.46503907442092896 0.7896500825881958 0.01620166003704071
0.46756792068481445 0.7767596244812012 0.01620674319565296
0.47066187858581543 0.7670832276344299 0.0165456160902977
0.44477617740631104 0.7581339478492737 0.03453073650598526
0.4405418038368225 0.7614596486091614 0.03332371264696121
0.43457645177841187 0.7670819759368896 0.034141141921281815
0.4300839304924011 0.772182822227478 0.04091053083539009
0.4111730456352234 0.708102285861969 0.019217053428292274
0.30783575773239136 0.530678927898407 0.27398741245269775
0.4841223955154419 0.6775451302528381 -0.06199149787425995
0.43889641761779785 0.7543865442276001 0.045647989958524704
0.433415025472641 0.7564479112625122 0.04538485035300255
0.46100425720214844 0.6786615252494812 -0.03311530500650406
0.432079941034317 0.663641631603241 -0.009761599823832512
0.45734256505966187 0.6731294393539429 -0.036042917519807816
0.4134581685066223 0.5622925162315369 -0.0067571899853646755
0.38068854808807373 0.5765195488929749 0.00906139612197876
0.4211919605731964 0.6351523995399475 -0.023293040692806244
0.3184097111225128 0.30055806040763855 -0.019573016092181206
0.32833749055862427 0.34744125604629517 -0.040282540023326874
0.33918052911758423 0.3945944309234619 -0.055332250893116
0.4247911274433136 0.7758294343948364 0.0641532689332962
0.4304598569869995 0.41050776839256287 -0.09975504130125046
0.4237247109413147 0.34827059507369995 -0.10668275505304337
0.4173698425292969 0.28188395500183105 -0.1091582328081131
0.3527528643608093 0.49400830268859863 0.018407180905342102
0.30910801887512207 0.5091527104377747 0.0637422576546669
0.43887239694595337 0.49168387055397034 -0.010797279886901379
0.32206255197525024 0.45282596349716187 0.021241001784801483
0.4437512457370758 0.5414516925811768 -0.0377790629863739
0.42907434701919556 0.6413092613220215 -0.06917156279087067
0.2930493652820587 0.5162168741226196 0.09801379591226578
0.3208622634410858 0.5325669646263123 0.04805898666381836
0.3460276126861572 0.5478212237358093 0.0259220153093338
0.386243999004364 0.5464804172515869 0.009083154611289501
0.41440990567207336 0.5372804999351501 -0.0032509781885892153
0.4327651858329773 0.5293145179748535 -0.016808336600661278
0.467650443315506 0.5206413269042969 -0.0770672932267189
0.29819104075431824 0.5671188235282898 0.10814204066991806
0.30693548917770386 0.44594472646713257 0.031989023089408875
0.47030606865882874 0.6754798889160156 -0.09082754701375961
0.4320753216743469 0.5816718339920044 -0.02392333187162876
0.29275473952293396 0.43430784344673157 0.2181224673986435
0.4466208815574646 0.5212625861167908 -0.027127742767333984
0.4227980375289917 0.6316843628883362 -0.001361524686217308
0.3344821333885193 0.46665146946907043 0.031680960208177567
0.4301612973213196 0.6227154731750488 -0.06485112756490707
0.3166409134864807 0.5850723385810852 0.28366369009017944
0.4377194344997406 0.48257601261138916 -0.008276320993900299
0.443347305059433 0.6168956756591797 -0.09255842864513397
0.3589850962162018 0.7369346618652344 0.17449751496315002
0.3681958317756653 0.7463655471801758 0.22380536794662476
0.29206031560897827 0.5502718091011047 0.19206880033016205
0.337937593460083 0.6974055171012878 0.19579192996025085
0.28813520073890686 0.4153398871421814 0.10512661188840866
0.4266936182975769 0.8291916847229004 0.12400037050247192
0.475447416305542 0.6761741042137146 -0.05930350348353386
0.4169948697090149 0.5951013565063477 -0.007529643829911947
0.2943921387195587 0.4702279269695282 0.08890710026025772
0.37062159180641174 0.4879472255706787 0.005596632603555918
0.3905617594718933 0.4899001121520996 -0.0023076049983501434
0.422386109828949 0.7594282031059265 0.053521428257226944
0.30798953771591187 0.6103167533874512 0.1317324936389923
0.4634529948234558 0.8596668839454651 0.13598451018333435
0.41244399547576904 0.8130433559417725 0.1748102605342865
0.3923335075378418 0.7850879430770874 0.19592899084091187
0.48720496892929077 0.3500153124332428 -0.12170686572790146
0.5059955716133118 0.8691862225532532 0.12430936098098755
0.40910255908966064 0.48770707845687866 -0.007245062384754419
0.4254172444343567 0.48389166593551636 -0.008119981735944748
0.43464967608451843 0.4829665422439575 -0.006703412625938654
0.2956826388835907 0.43436843156814575 0.05450422689318657
0.4184873700141907 0.463543564081192 -0.0166416447609663
0.3986743092536926 0.45513397455215454 -0.018952788785099983
0.3771105408668518 0.4535255432128906 -0.014387700706720352
0.3576510548591614 0.4568071961402893 -0.00503543158993125
0.34735333919525146 0.46228528022766113 0.004908466711640358
0.2864217162132263 0.3885897696018219 0.16261224448680878
0.35705238580703735 0.4828696548938751 0.013543490320444107
0.4881751239299774 0.6983649730682373 -0.0338207446038723
0.4242727756500244 0.6981682777404785 0.0008087966125458479
0.4347769021987915 0.6543563008308411 -0.04494722932577133
0.4593130946159363 0.6989381909370422 -0.02605350688099861
0.4902588725090027 0.47794580459594727 -0.08497501909732819
0.3818338215351105 0.771823525428772 0.16027267277240753
0.4032992720603943 0.7997117638587952 0.1441553384065628
0.45783764123916626 0.8535876274108887 0.10349719971418381
0.35010674595832825 0.7014064788818359 0.25669920444488525
0.43123647570610046 0.4757689833641052 -0.012186792679131031
0.45247867703437805 0.5615386366844177 -0.0686158537864685
0.5012782216072083 0.863264799118042 0.09292780607938766
0.4346751868724823 0.8395711779594421 0.1528894603252411
0.30243000388145447 0.5991452932357788 0.2063484787940979
0.45561376214027405 0.7629205584526062 0.024929104372859
0.4514142572879791 0.7695364356040955 0.024195699021220207
0.4468936622142792 0.7786422967910767 0.024728035554289818
0.4442165493965149 0.7884030938148499 0.031707510352134705
0.4436938762664795 0.7927871942520142 0.056325048208236694
0.43560242652893066 0.7507408857345581 0.03980989754199982
0.42816492915153503 0.7481141686439514 0.04046220704913139
0.4218212962150574 0.7432255148887634 0.04036653786897659
0.4011503756046295 0.7229992747306824 0.0435122512280941
0.3302128314971924 0.6371266841888428 0.08561889082193375
0.45577946305274963 0.53003990650177 -0.05648326873779297
0.4498743414878845 0.47170889377593994 -0.03305616229772568
0.4389200210571289 0.4703408181667328 -0.020955368876457214
0.44140157103538513 0.7476843595504761 0.04201657325029373
0.3380284905433655 0.6814114451408386 0.13952863216400146
0.4638592600822449 0.47783368825912476 -0.06402377039194107
0.4358319640159607 0.8013027310371399 0.07975045591592789
0.48156794905662537 0.5822066068649292 -0.11070513725280762
0.4651428461074829 0.5543518662452698 -0.09146450459957123
0.4844762980937958 0.5515563488006592 -0.10078801214694977
0.4387965202331543 0.5973697304725647 -0.053954824805259705
0.4984762668609619 0.847143292427063 0.07269003242254257
0.49712780117988586 0.8261691331863403 0.06233856454491615
0.4648556709289551 0.8200021386146545 0.07055525481700897
0.39259105920791626 0.7568037509918213 0.09147025644779205
0.4070117473602295 0.6477727890014648 0.011639547534286976
0.41212910413742065 0.7800891399383545 0.08737853169441223
0.3639852702617645 0.6361863017082214 0.028991518542170525
0.391218900680542 0.6698281168937683 0.02573520503938198
0.3540225625038147 0.6665060520172119 0.06179288774728775
0.4589807689189911 0.8387229442596436 0.08358602225780487
0.4307295083999634 0.6044840812683105 -0.03119511529803276
0.38027268648147583 0.760461688041687 0.1230827197432518
0.4037182033061981 0.7877505421638489 0.11631685495376587
0.37676602602005005 0.7302722334861755 0.08691877871751785
0.3191567063331604 0.6460504531860352 0.1527332365512848
0.3574560284614563 0.7184721827507019 0.11382780969142914
0.31681060791015625 0.646785318851471 0.2136710286140442
0.38126373291015625 0.6970700025558472 0.04865284264087677
0.4421745836734772 0.5709190368652344 -0.04483797773718834
0.43563759326934814 0.6525154709815979 -0.07295448333024979
0.4267621636390686 0.6520693302154541 -0.04473710432648659
0.44098901748657227 0.6438480615615845 -0.09343037754297256
0.43015798926353455 0.45130571722984314 -0.04255809262394905
0.392497181892395 0.4374810457229614 -0.044518936425447464
0.3614957332611084 0.43385133147239685 -0.037173960357904434
0.3386240601539612 0.43499043583869934 -0.02180873416364193
0.32563403248786926 0.4409683346748352 -0.0031081403139978647
0.32330143451690674 0.47027575969696045 0.04287823289632797
0.2862071692943573 0.5022989511489868 0.17066000401973724
0.3393997848033905 0.5096132755279541 0.03389359638094902
0.3604387938976288 0.5205649733543396 0.018640194088220596
0.3890168368816376 0.5216553211212158 0.00581698352470994
0.41494446992874146 0.5163559913635254 -0.0036559642758220434
0.43270546197891235 0.5107746720314026 -0.011438354849815369
0.4445766806602478 0.5064684748649597 -0.017168063670396805
0.3017708957195282 0.48070958256721497 0.25280898809432983
0.4298376441001892 0.655856192111969 -0.03267741575837135
0.449440062046051 0.589020311832428 -0.07753603160381317
0.44746750593185425 0.6600885987281799 -0.09228546172380447
0.4610913097858429 0.6683987975120544 -0.08191513270139694
0.44961610436439514 0.6598947048187256 -0.08066287636756897
0.4365861415863037 0.6625394821166992 -0.024402275681495667
0.4641597270965576 0.672576367855072 -0.08748447895050049
0.4688238203525543 0.6734551787376404 -0.05963580310344696
0.44426706433296204 0.48611775040626526 -0.012711592018604279
0.45397114753723145 0.4961824417114258 -0.02698965184390545
0.4576245844364166 0.5057703256607056 -0.04156474396586418
0.34222912788391113 0.46569234132766724 0.014080680906772614
0.33245325088500977 0.45586663484573364 0.015458358451724052
0.5018435120582581 0.5842817425727844 -0.10661644488573074
0.6662673950195312 0.4778597056865692 -0.037650130689144135
0.5063513517379761 0.6703395247459412 -0.06608942896127701
0.7706736922264099 0.3527010977268219 0.012211457826197147
0.5935054421424866 0.5010963678359985 -0.04420645907521248
0.616521954536438 0.5034170746803284 -0.04587089270353317
0.6407127380371094 0.5029786825180054 -0.04396425932645798
0.6757742166519165 0.48389098048210144 -0.033646512776613235
0.5752056241035461 0.49632546305656433 -0.03956851363182068
0.6336809992790222 0.4389798641204834 -0.0712788999080658
0.6065981984138489 0.44117307662963867 -0.06717145442962646
0.6578327417373657 0.4419024884700775 -0.0668221116065979
0.6737426519393921 0.44933101534843445 -0.058796897530555725
0.695827305316925 0.49926164746284485 -0.021464508026838303
0.5825128555297852 0.8219574689865112 0.07465025037527084
0.6779336333274841 0.4688548743724823 -0.03403307497501373
0.7797118425369263 0.4590345323085785 0.056069161742925644
0.7271153926849365 0.4759340286254883 -0.009952056221663952
0.6079144477844238 0.6158013343811035 -0.030129211023449898
0.5152430534362793 0.7345971465110779 -0.03202272951602936
0.5123553276062012 0.7557791471481323 -0.014386038295924664
0.544079065322876 0.7386239767074585 -0.022637106478214264
0.5616917014122009 0.7433460354804993 -0.008882656693458557
0.5329387784004211 0.754933774471283 -0.0106692248955369
0.5486012101173401 0.7543054819107056 0.0016738438280299306
0.5965473055839539 0.7655633687973022 0.03727148473262787
0.4970468282699585 0.6684746742248535 -0.10938025265932083
0.4993648827075958 0.6483073830604553 -0.12244816869497299
0.7078787088394165 0.4264480173587799 -0.0684499591588974
0.564356803894043 0.5540035963058472 -0.04750274121761322
0.5593199729919434 0.6460211277008057 -0.06561432033777237
0.5623091459274292 0.630479097366333 -0.06253189593553543
0.679489016532898 0.602789580821991 -0.017962859943509102
0.5003232359886169 0.6154096126556396 -0.11892306059598923
0.6477980613708496 0.4115225374698639 -0.10129033029079437
0.6828204989433289 0.414850652217865 -0.08909931778907776
0.7422842979431152 0.320573091506958 -0.03869442641735077
0.5410959124565125 0.43925073742866516 -0.09758520871400833
0.5833436250686646 0.4503380060195923 -0.05554848164319992
0.6114718317985535 0.7455273270606995 0.031231218948960304
0.7575176954269409 0.6571670174598694 0.2001020610332489
0.5434151291847229 0.6587556600570679 -0.050976697355508804
0.5244269967079163 0.6681472659111023 -0.04517628252506256
0.5838990211486816 0.7532308101654053 0.029084889218211174
0.5731346607208252 0.7534155249595642 0.024558478966355324
0.6965361833572388 0.39594125747680664 -0.08641347289085388
0.5615460276603699 0.6526525616645813 -0.05013325437903404
0.6015426516532898 0.41780149936676025 -0.10491881519556046
0.6047675609588623 0.39825743436813354 -0.11654238402843475
0.6340301632881165 0.2849029302597046 -0.11911992728710175
0.7181732058525085 0.35921621322631836 -0.06709066778421402
0.6154103875160217 0.34304314851760864 -0.12018431723117828
0.7247285842895508 0.4101181924343109 -0.05690482258796692
0.7472633123397827 0.3835708796977997 -0.025321364402770996
0.5139804482460022 0.7475870847702026 -0.026048937812447548
0.5377386212348938 0.7493048310279846 -0.017374010756611824
0.5549545288085938 0.7496534585952759 -0.005096211563795805
0.5381955504417419 0.6627774238586426 -0.04375207796692848
0.5779716968536377 0.7540640234947205 0.026614146307110786
0.5691937804222107 0.761350154876709 0.020296165719628334
0.5717862248420715 0.7512786984443665 0.024328041821718216
0.5278196334838867 0.6581664681434631 -0.0836615264415741
0.5450572371482849 0.7515015006065369 0.006389322225004435
0.5295931100845337 0.7541572451591492 0.00014625511539634317
0.5111063122749329 0.756646990776062 -0.0034465016797184944
0.5251942276954651 0.8089049458503723 0.04494861140847206
0.5194442868232727 0.8030180335044861 0.015355565585196018
0.5166482925415039 0.7917571663856506 0.0072534698992967606
0.5140220522880554 0.7785284519195557 0.007230868563055992
0.5123105049133301 0.7685495018959045 0.008155065588653088
0.5485110282897949 0.7606839537620544 0.013921670615673065
0.5519638657569885 0.7644896507263184 0.012783915735781193
0.5580251216888428 0.7706410884857178 0.012852161191403866
0.5639126300811768 0.7762969732284546 0.01807376742362976
0.5827623605728149 0.712220311164856 -0.011330555193126202
0.7879133224487305 0.5378595590591431 0.18351642787456512
0.5591150522232056 0.7569039463996887 0.019789498299360275
0.5632973909378052 0.7592810392379761 0.019466809928417206
0.5165671110153198 0.6796343922615051 -0.041470468044281006
0.5553628206253052 0.6657230257987976 -0.027475235983729362
0.5203384160995483 0.674220621585846 -0.0442781075835228
0.5870778560638428 0.56442791223526 -0.03895604610443115
0.6239080429077148 0.5800785422325134 -0.03393808379769325
0.5669662952423096 0.6375481486320496 -0.04751651734113693
0.6990664005279541 0.29706549644470215 -0.08435024321079254
0.6763591766357422 0.3441014289855957 -0.09753848612308502
0.6562832593917847 0.39068159461021423 -0.1056944727897644
0.577839732170105 0.7811700105667114 0.037178702652454376
0.5468067526817322 0.40836286544799805 -0.11653832346200943
0.5542518496513367 0.3470901846885681 -0.1275322139263153
0.5661948919296265 0.280466765165329 -0.13209885358810425
0.6628810167312622 0.4962667226791382 -0.0387963205575943
0.7229960560798645 0.5141040682792664 -0.00852246955037117
0.5640212893486023 0.49220454692840576 -0.03672483190894127
0.6987098455429077 0.45386821031570435 -0.04552335664629936
0.5474235415458679 0.5426933169364929 -0.05725722387433052
0.5427270531654358 0.6440587043762207 -0.08769887685775757
0.7512922286987305 0.5222786664962769 0.016284354031085968
0.7027426958084106 0.5376973748207092 -0.01950830966234207
0.6682422757148743 0.5521371364593506 -0.03161179646849632
0.6210596561431885 0.549338698387146 -0.03465183451771736
0.5893173813819885 0.5391088128089905 -0.036511242389678955
0.5671254396438599 0.5306589603424072 -0.04189615324139595
0.510878324508667 0.5208898186683655 -0.08533433079719543
0.7439703345298767 0.5744413137435913 0.02729922905564308
0.7200578451156616 0.44745534658432007 -0.041144028306007385
0.49251052737236023 0.6761787533760071 -0.0949731096625328
0.5600117444992065 0.5833680629730225 -0.047652654349803925
0.7944620251655579 0.4374038875102997 0.12480276823043823
0.5489544868469238 0.5220984816551208 -0.046822335571050644
0.5707584023475647 0.6339215636253357 -0.02526102587580681
0.6859304904937744 0.4679192900657654 -0.03123290464282036
0.5458364486694336 0.6249316334724426 -0.08377576619386673
0.7786191701889038 0.5947594046592712 0.19689905643463135
0.5664425492286682 0.4832042157649994 -0.035234615206718445
0.5232605934143066 0.6183981895446777 -0.10612829029560089
0.6876163482666016 0.748301088809967 0.11458106338977814
0.6946264505386353 0.7582033276557922 0.16209985315799713
0.7774078249931335 0.5583213567733765 0.10348028689622879
0.7205725908279419 0.7084835767745972 0.12481305003166199
0.7653931379318237 0.41677945852279663 0.019264113157987595
0.5896826982498169 0.8374494314193726 0.09570831805467606
0.49329784512519836 0.6765191555023193 -0.061836179345846176
0.5804728865623474 0.5973992347717285 -0.0364207923412323
0.7504525184631348 0.474113792181015 0.00803321786224842
0.6379456520080566 0.4892851710319519 -0.04467674344778061
0.6163692474365234 0.49067988991737366 -0.04668600857257843
0.5761905908584595 0.763264000415802 0.024279579520225525
0.7374303936958313 0.6188052296638489 0.05433535575866699
0.5522128343582153 0.864716649055481 0.12066568434238434
0.623489499092102 0.8235948085784912 0.1351766139268875
0.6557421088218689 0.796839714050293 0.14576758444309235
0.5974090695381165 0.4880821704864502 -0.04481501877307892
0.5799592733383179 0.48427867889404297 -0.040551237761974335
0.5699331760406494 0.4834515452384949 -0.03590769320726395
0.7403749227523804 0.43586304783821106 -0.02386741153895855
0.5878224968910217 0.46372342109680176 -0.0501372367143631
0.6096410751342773 0.45494577288627625 -0.057764679193496704
0.6316248178482056 0.45375341176986694 -0.059717029333114624
0.6526287198066711 0.4573856592178345 -0.05664949119091034
0.6650710105895996 0.46305400133132935 -0.050200898200273514
0.7871333360671997 0.38963228464126587 0.07073966413736343
0.6540460586547852 0.4844118058681488 -0.0410555936396122
0.564121425151825 0.7011925578117371 -0.022664040327072144
0.543004035949707 0.6569885611534119 -0.061260223388671875
0.5191222429275513 0.7003753185272217 -0.035857461392879486
0.6552981734275818 0.783410370349884 0.11153003573417664
0.6238223314285278 0.8100362420082092 0.10582973808050156
0.5490301251411438 0.8585996031761169 0.08842004835605621
0.7277608513832092 0.7132585048675537 0.1837545931339264
0.5730235576629639 0.4763588309288025 -0.042094238102436066
0.5257197618484497 0.5623686909675598 -0.08189844340085983
0.589525043964386 0.8477674722671509 0.12373707443475723
0.7682925462722778 0.6088579893112183 0.12149743735790253
0.5318526029586792 0.7651501893997192 0.0096873939037323
0.5355220437049866 0.7721219062805176 0.008344441652297974
0.5398967266082764 0.7819221019744873 0.008338874205946922
0.5440931916236877 0.7919793128967285 0.014579377137124538
0.5545948147773743 0.7969944477081299 0.037393681704998016
0.5624203681945801 0.7531790137290955 0.012539753690361977
0.569255530834198 0.751134991645813 0.010531401261687279
0.5763130187988281 0.7467533349990845 0.008525614626705647
0.5990622639656067 0.7277653813362122 0.00593486288562417
0.697970449924469 0.6444869041442871 0.020924873650074005
0.529014527797699 0.5307072401046753 -0.07008031755685806
0.5462405681610107 0.4717559814453125 -0.051126036792993546
0.5625090003013611 0.47044050693511963 -0.046268679201602936
0.5583272576332092 0.7498171329498291 0.016017327085137367
0.7027586698532104 0.6904085278511047 0.07370027899742126
0.5226883292198181 0.4777534604072571 -0.07465201616287231
0.5699871778488159 0.8070980310440063 0.05785905197262764
0.5066712498664856 0.5548509955406189 -0.09848423302173615
0.5423093438148499 0.5988741517066956 -0.07153917104005814
0.5338117480278015 0.8233002424240112 0.06017925590276718
0.6220607161521912 0.7650660872459412 0.05291343107819557
0.5902318358421326 0.6509355902671814 -0.018398698419332504
0.5996171832084656 0.7876439094543457 0.057144682854413986
0.6425336003303528 0.6414860486984253 -0.017388196662068367
0.6093668937683105 0.6743479371070862 -0.011298141442239285
0.6619040369987488 0.6731700897216797 0.008963684551417828
0.5427436232566833 0.8427597880363464 0.06953807175159454
0.5579794645309448 0.6062650084495544 -0.053117893636226654
0.6449224352836609 0.7708138227462769 0.07815351337194443
0.6147547364234924 0.797074556350708 0.08157864212989807
0.6378476619720459 0.7380791902542114 0.04021243378520012
0.7297807931900024 0.6553333401679993 0.07887528091669083
0.670753002166748 0.7276685833930969 0.05880647897720337
0.7518049478530884 0.6577398777008057 0.13307923078536987
0.6251823306083679 0.7027743458747864 0.005335225723683834
0.543336808681488 0.5722818374633789 -0.06375352293252945
0.5346659421920776 0.6553203463554382 -0.09008809924125671
0.5522257089614868 0.6549992561340332 -0.06424511969089508
0.5219891667366028 0.6460009813308716 -0.10721347481012344
0.5644208788871765 0.4507649540901184 -0.06706621497869492
0.6033923625946045 0.43596309423446655 -0.07987511157989502
0.6379809379577637 0.4317992925643921 -0.08307119458913803
0.6665815114974976 0.4333631992340088 -0.07746284455060959
0.6871547698974609 0.44026121497154236 -0.0657622292637825
0.7032871842384338 0.47258275747299194 -0.02412107214331627
0.7819424271583557 0.508385956287384 0.07974964380264282
0.6804925203323364 0.51297527551651 -0.027273213490843773
0.653371274471283 0.5236929655075073 -0.034587662667036057
0.6201707124710083 0.5236507058143616 -0.037899088114500046
0.5912853479385376 0.5177651047706604 -0.03831527754664421
0.5706599950790405 0.5118213891983032 -0.0377294197678566
0.5556144118309021 0.5072835087776184 -0.03863311558961868
0.7920553088188171 0.485724538564682 0.15994039177894592
0.5525797605514526 0.6584203243255615 -0.05177038162946701
0.5227567553520203 0.5901262760162354 -0.09101090580224991
0.5152424573898315 0.6622475981712341 -0.10300450026988983
0.5054773688316345 0.6698349118232727 -0.08801914006471634
0.5172157287597656 0.6622201800346375 -0.09155985713005066
0.5472081899642944 0.6646366119384766 -0.040367476642131805
0.5001681447029114 0.673793375492096 -0.09262769669294357
0.5010830163955688 0.6744457483291626 -0.06383847445249557
0.5572296380996704 0.4865530729293823 -0.03562793880701065
0.5434772372245789 0.49667251110076904 -0.04398857429623604
0.5343167781829834 0.5061160922050476 -0.055502306669950485
0.6722540259361267 0.46672382950782776 -0.04339791089296341
0.6848381161689758 0.45627638697624207 -0.046204470098018646
