ply
format ascii 1.0
element vertex 468
property float x
property float y
property float z
end_header
0.47137317061424255 0.7029804587364197 -0.08344430476427078
0.46610456705093384 0.6114490032196045 -0.12405609339475632
0.4748084545135498 0.6428766250610352 -0.07055310159921646
0.45374029874801636 0.5363181233406067 -0.07859785109758377
0.46499717235565186 0.5861833095550537 -0.12934790551662445
0.46808305382728577 0.5557827353477478 -0.11623542010784149
0.479422926902771 0.48351621627807617 -0.04253990948200226
0.33356577157974243 0.4874779284000397 0.08414234220981598
0.48246529698371887 0.4178614616394043 -0.0186444278806448
0.4812726378440857 0.3831438720226288 -0.018979361280798912
0.4846772253513336 0.2678077518939972 0.02313155122101307
0.47147300839424133 0.7160854339599609 -0.08164049685001373
0.47311609983444214 0.7274113297462463 -0.0742046907544136
0.475614458322525 0.7336265444755554 -0.06430219858884811
0.47520536184310913 0.7422547340393066 -0.06396002322435379
0.4741343855857849 0.7535327076911926 -0.06837780028581619
0.4737476706504822 0.7678142786026001 -0.0733032301068306
0.47519010305404663 0.7823055386543274 -0.06985055655241013
0.4810396432876587 0.8000154495239258 -0.04738808423280716
0.4692077338695526 0.6255768537521362 -0.11359930038452148
0.4560091197490692 0.6277261972427368 -0.07899722456932068
0.28340771794319153 0.39992451667785645 0.22942964732646942
0.395041823387146 0.5088977217674255 0.04443490877747536
0.372927188873291 0.51153963804245 0.05080109089612961
0.35272932052612305 0.5103074312210083 0.061947766691446304
0.3285365402698517 0.4967363476753235 0.08861900866031647
0.4137882590293884 0.5014419555664062 0.042918018996715546
0.3660638928413391 0.4383845329284668 0.048352502286434174
0.39031994342803955 0.44059011340141296 0.04213310033082962
0.3439178466796875 0.44271320104599 0.060353755950927734
0.33018049597740173 0.4530470371246338 0.0721002146601677
0.31363338232040405 0.5137020945549011 0.10184994339942932
0.40864866971969604 0.8295602202415466 -0.01070940587669611
0.32764875888824463 0.4809655547142029 0.09447646141052246
0.2758289575576782 0.5046825408935547 0.22293047606945038
0.29611825942993164 0.49595534801483154 0.13343431055545807
0.3767968416213989 0.6072916984558105 0.007631965912878513
0.44754403829574585 0.7001551985740662 -0.0733320489525795
0.45372095704078674 0.7282905578613281 -0.06570307910442352
0.4248601794242859 0.71161288022995 -0.054740455001592636
0.41113153100013733 0.7254543900489807 -0.036056723445653915
0.4381971061229706 0.7321045398712158 -0.05256573110818863
0.4260209798812866 0.7373828887939453 -0.03510832041501999
0.38894057273864746 0.7661926746368408 -0.002522871596738696
0.44948601722717285 0.611676812171936 -0.11862369626760483
0.44490721821784973 0.5881549715995789 -0.12262807041406631
0.30139070749282837 0.4278164803981781 0.09253942966461182
0.42002376914024353 0.5440249443054199 0.00539387995377183
0.41181737184524536 0.6146165132522583 -0.050318215042352676
0.41120463609695435 0.6026611328125 -0.04179764539003372
0.3170590400695801 0.6097356081008911 0.05367804318666458
0.44862663745880127 0.5595323443412781 -0.1041390672326088
0.34304454922676086 0.39685702323913574 0.0414891354739666
0.3170850872993469 0.407010018825531 0.06706132739782333
0.29486024379730225 0.35321736335754395 0.18346567451953888
0.4341297149658203 0.41421031951904297 -0.0015217448817566037
0.41166698932647705 0.4500533640384674 0.04356033354997635
0.3745519518852234 0.7444943189620972 0.010064397938549519
0.3161439001560211 0.7277548313140869 0.24601075053215027
0.42911362648010254 0.6279870867729187 -0.04727743938565254
0.4464305341243744 0.6349384784698486 -0.056345947086811066
0.3977673053741455 0.746414303779602 0.0023015476763248444
0.4088897705078125 0.744178831577301 -0.007367921993136406
0.3080456256866455 0.39187154173851013 0.08269445598125458
0.4148254990577698 0.6276049613952637 -0.03970745950937271
0.38004061579704285 0.3971976637840271 0.017489315941929817
0.3756837546825409 0.37726694345474243 0.016520213335752487
0.36321234703063965 0.28810980916023254 0.07904862612485886
0.3006995916366577 0.37181371450424194 0.12594321370124817
0.3706917464733124 0.33163079619407654 0.045943643897771835
0.29226741194725037 0.41849666833877563 0.11759357899427414
0.287063330411911 0.410366952419281 0.16944028437137604
0.44949063658714294 0.715662956237793 -0.07240980118513107
0.4313051104545593 0.7235637903213501 -0.05526287481188774
0.4177408814430237 0.7315112352371216 -0.03796001896262169
0.43578648567199707 0.6330317854881287 -0.044704023748636246
0.40327686071395874 0.745992124080658 -0.0029904311522841454
0.4088653326034546 0.7485207915306091 -0.021367713809013367
0.41200101375579834 0.742023229598999 -0.008500266820192337
0.4341762363910675 0.6149949431419373 -0.0778796598315239
0.43270087242126465 0.736762523651123 -0.03257577121257782
0.44505661725997925 0.7348123788833618 -0.044837020337581635
0.45915213227272034 0.7337541580200195 -0.05648660659790039
0.45316097140312195 0.7999470829963684 -0.042108166962862015
0.44886553287506104 0.7805014848709106 -0.0631270483136177
0.4490359425544739 0.765464723110199 -0.06546904891729355
0.4518173038959503 0.7512713670730591 -0.0600568912923336
0.45507317781448364 0.7419210076332092 -0.05602211877703667
0.426715612411499 0.7424123883247375 -0.03216186910867691
0.4225964844226837 0.745857298374176 -0.03653021156787872
0.4166756272315979 0.7527251243591309 -0.04046918451786041
0.41203081607818604 0.7612882852554321 -0.03588688001036644
0.3951059877872467 0.6962774395942688 -0.021948127076029778
0.2943025529384613 0.6118233799934387 0.30390480160713196
0.47248953580856323 0.6326054930686951 -0.08502304553985596
0.4199705719947815 0.7431186437606812 -0.018610777333378792
0.4145728051662445 0.7451426982879639 -0.02144540287554264
0.4517456591129303 0.6453664302825928 -0.0597541481256485
0.42428267002105713 0.6436666250228882 -0.028372986242175102
0.4492299556732178 0.6403732299804688 -0.05834886431694031
0.39811357855796814 0.5598833560943604 0.016359539702534676
0.3628387451171875 0.5782983899116516 0.028718696907162666
0.41070157289505005 0.6151579022407532 -0.029882144182920456
0.3193245232105255 0.3153568208217621 0.1295909583568573
0.3269163966178894 0.3446333408355713 0.08529222756624222
0.33602869510650635 0.37787193059921265 0.04990454018115997
0.40545642375946045 0.7787784337997437 -0.01766783744096756
0.4254951477050781 0.3810160756111145 -0.005823287647217512
0.421061635017395 0.32801640033721924 0.01748909242451191
0.4166213274002075 0.2739253044128418 0.04229404032230377
0.3368409276008606 0.5060099363327026 0.07621217519044876
0.2937391400337219 0.5324386358261108 0.11731801182031631
0.42621102929115295 0.4937784671783447 0.04515239968895912
0.31187623739242554 0.46285080909729004 0.09820935875177383
0.43394485116004944 0.5265471339225769 -0.00397217134013772
0.41970521211624146 0.6018863916397095 -0.07430225610733032
0.2770364582538605 0.5496817231178284 0.14652033150196075
0.30294162034988403 0.5501872897148132 0.09032415598630905
0.32685190439224243 0.5583333969116211 0.06055177375674248
0.36709535121917725 0.5520491600036621 0.04197879880666733
0.3975943922996521 0.5402113795280457 0.03102356754243374
0.4204602837562561 0.5271880626678467 0.02128683030605316
0.459359347820282 0.49097156524658203 -0.029275760054588318
0.2792039215564728 0.6017796993255615 0.1321643590927124
0.29779887199401855 0.4595210552215576 0.11503060162067413
0.45939764380455017 0.625076174736023 -0.10977024585008621
0.4210485816001892 0.5668690204620361 -0.008508487604558468
0.2844252288341522 0.5056272149085999 0.3042098581790924
0.4367772340774536 0.5125492215156555 0.016561275348067284
0.41167017817497253 0.6185307502746582 -0.0077398610301315784
0.32220885157585144 0.4817645251750946 0.10077879577875137
0.42046040296554565 0.5876782536506653 -0.06362788379192352
0.30210328102111816 0.668656587600708 0.28251543641090393
0.428040474653244 0.48421818017959595 0.053065795451402664
0.4331752359867096 0.5706157088279724 -0.08767523616552353
0.33780574798583984 0.7825449705123901 0.09993559867143631
0.3495218753814697 0.8064551949501038 0.14033479988574982
0.27612781524658203 0.6070094704627991 0.2196824550628662
0.31684213876724243 0.7519397735595703 0.14085157215595245
0.28113362193107605 0.45457524061203003 0.204152449965477
0.40921300649642944 0.8490817546844482 0.0013307806802913547
0.4649199843406677 0.632043182849884 -0.08180951327085495
0.4035961925983429 0.5868439674377441 0.0007266637403517962
0.2834102511405945 0.5016458630561829 0.16107237339019775
0.3527718186378479 0.49609261751174927 0.06487635523080826
0.37183284759521484 0.4982226490974426 0.05540057271718979
0.40338850021362305 0.7536926865577698 -0.016194505617022514
0.2881426513195038 0.649850070476532 0.12950393557548523
0.449857234954834 0.8786990642547607 -0.003811547299847007
0.39611929655075073 0.8500238060951233 0.06075196713209152
0.3744462728500366 0.8330116868019104 0.09547539055347443
0.4817892909049988 0.32609716057777405 5.884654456167482e-05
0.49359872937202454 0.8847825527191162 -0.021021980792284012
0.3909733295440674 0.4962702989578247 0.0504232794046402
0.4092464745044708 0.49129775166511536 0.05066665634512901
0.4215431213378906 0.4875815510749817 0.053727757185697556
0.28748422861099243 0.4561571776866913 0.14308500289916992
0.40946608781814575 0.4675893783569336 0.049283530563116074
0.3905031085014343 0.4609788656234741 0.049826815724372864
0.3702762722969055 0.4595409631729126 0.0550500750541687
0.3506394624710083 0.46374112367630005 0.0643806904554367
0.33887049555778503 0.47068360447883606 0.07393259555101395
0.28025752305984497 0.4479773938655853 0.2738591432571411
0.34094661474227905 0.49196019768714905 0.07563527673482895
0.47448021173477173 0.6623784303665161 -0.06914083659648895
0.4125429689884186 0.6793954372406006 -0.034560106694698334
0.42695286870002747 0.6227887868881226 -0.05487942695617676
0.44724345207214355 0.6671191453933716 -0.061832062900066376
0.4831450581550598 0.4513850808143616 -0.021695416420698166
0.36132103204727173 0.8095425963401794 0.06601376831531525
0.38443148136138916 0.828698992729187 0.0347132608294487
0.442111074924469 0.8657796382904053 -0.03039718046784401
0.33187639713287354 0.774272620677948 0.19557853043079376
0.4223122000694275 0.4773058593273163 0.05175179988145828
0.443051278591156 0.5293946862220764 -0.03965163230895996
0.4876154661178589 0.8704135417938232 -0.04646621644496918
0.41954925656318665 0.8657597303390503 0.024542121216654778
0.2853242754936218 0.659456729888916 0.20567671954631805
0.43884992599487305 0.741662859916687 -0.04412330314517021
0.43438810110092163 0.7482266426086426 -0.04881511628627777
0.4299265146255493 0.7589285373687744 -0.052966225892305374
0.42748674750328064 0.7721799612045288 -0.050100117921829224
0.4264066219329834 0.7906638383865356 -0.03224695473909378
0.41591471433639526 0.7415328025817871 -0.019610388204455376
0.4080301821231842 0.7396650910377502 -0.01803726702928543
0.40135085582733154 0.7362253665924072 -0.01593712344765663
0.3812341094017029 0.7192308306694031 -0.004838300868868828
0.30904117226600647 0.6624136567115784 0.07229064404964447
0.4470508098602295 0.5070321559906006 -0.01499923039227724
0.4416058361530304 0.4628458321094513 0.031969960778951645
0.43060845136642456 0.4685302674770355 0.045568764209747314
0.42220231890678406 0.7386446595191956 -0.01835723966360092
0.3160363435745239 0.7198107838630676 0.09828486293554306
0.45643869042396545 0.457855224609375 -0.0009094555862247944
0.4165307283401489 0.8103035688400269 -0.01977778971195221
0.47201627492904663 0.5314750075340271 -0.09105025976896286
0.45574116706848145 0.5151544213294983 -0.05639064684510231
0.4756205677986145 0.508666455745697 -0.06574584543704987
0.4285932183265686 0.5683578252792358 -0.04162241518497467
0.48403435945510864 0.8494598269462585 -0.05534813925623894
0.48234081268310547 0.8232945799827576 -0.05118290334939957
0.44696545600891113 0.8220353126525879 -0.03990207239985466
0.3716069459915161 0.7732316851615906 0.014475144445896149
0.3939580023288727 0.6395919322967529 -0.0015577600570395589
0.3921152949333191 0.7947230339050293 -0.0024124388583004475
0.3454645276069641 0.638331949710846 0.01876596175134182
0.37387919425964355 0.6654891967773438 0.0016958765918388963
0.33298537135124207 0.6795300245285034 0.03446824848651886
0.4413713216781616 0.8465074896812439 -0.03972453624010086
0.4197996258735657 0.584484338760376 -0.02498704381287098
0.359599232673645 0.7873258590698242 0.03970508277416229
0.38398855924606323 0.8091139793395996 0.016034040600061417
0.35505664348602295 0.7453063130378723 0.025672396644949913
0.29856181144714355 0.6905137896537781 0.12894295156002045
0.33605968952178955 0.7464714050292969 0.055274829268455505
0.2980305254459381 0.7079389095306396 0.18459053337574005
0.36028844118118286 0.7010606527328491 0.011313427239656448
0.43240469694137573 0.5478391647338867 -0.02268369123339653
0.42667335271835327 0.6112755537033081 -0.08101791143417358
0.4181234836578369 0.6216495633125305 -0.056142088025808334
0.43081074953079224 0.5930684208869934 -0.0983007475733757
0.4224843680858612 0.43920713663101196 0.03103005141019821
0.3863576650619507 0.4252017140388489 0.0358535535633564
0.35575753450393677 0.4232160747051239 0.04509444534778595
0.3316580355167389 0.4284730553627014 0.06051972135901451
0.3170219361782074 0.44137319922447205 0.07852746546268463
0.3111695647239685 0.4884510636329651 0.11296772956848145
0.27262985706329346 0.5553887486457825 0.22360707819461823
0.32201290130615234 0.5242636203765869 0.08536679297685623
0.3416706621646881 0.530716598033905 0.06524954736232758
0.36951982975006104 0.5298852324485779 0.049344226717948914
0.3970649242401123 0.5231155753135681 0.039337486028671265
0.4189010560512543 0.5135141611099243 0.034991007298231125
0.43351781368255615 0.5041534900665283 0.031277403235435486
0.29057347774505615 0.5584971308708191 0.3127310574054718
0.4214901924133301 0.6299057006835938 -0.045779984444379807
0.43924248218536377 0.5493642091751099 -0.06034570187330246
0.43740737438201904 0.6094745993614197 -0.10328532755374908
0.452164888381958 0.62242591381073 -0.09859977662563324
0.4403756856918335 0.6143987774848938 -0.09239891171455383
0.4293213486671448 0.63818359375 -0.041177548468112946
0.4541383981704712 0.6239601969718933 -0.10580211132764816
0.4596050977706909 0.6310017704963684 -0.08042610436677933
0.43494874238967896 0.48488664627075195 0.04623781889677048
0.44523391127586365 0.48936229944229126 0.028065774589776993
0.44919681549072266 0.4918157458305359 0.009462874382734299
0.33235734701156616 0.4759170114994049 0.08328889310359955
0.3217144012451172 0.46488890051841736 0.08690536767244339
0.4928302764892578 0.5355440974235535 -0.08856162428855896
0.6710166931152344 0.4775380492210388 0.012632889673113823
0.4925684928894043 0.6271498799324036 -0.08671272546052933
0.7757015228271484 0.38339000940322876 0.11942611634731293
0.5991573333740234 0.5028745532035828 -0.0018296805210411549
0.6236284971237183 0.5045060515403748 -0.00462724082171917
0.6474549174308777 0.5030224323272705 -0.0021490296348929405
0.6811211705207825 0.4869301915168762 0.012645497918128967
0.5781105756759644 0.4963599443435669 0.006479725707322359
0.6264165639877319 0.4267158508300781 -0.00941317155957222
0.5997217893600464 0.4308326244354248 -0.0032978877425193787
0.6529102921485901 0.4300544857978821 -0.006467907223850489
0.6716869473457336 0.4400981366634369 -0.0004322959575802088
0.7014801502227783 0.5049949884414673 0.02005619741976261
0.5759556889533997 0.8344208598136902 -0.04317484423518181
0.6801357269287109 0.4695156216621399 0.01959417015314102
0.787124514579773 0.4937790334224701 0.11007926613092422
0.7306404709815979 0.4855344891548157 0.04111677035689354
0.6039431095123291 0.6051767468452454 -0.03767385706305504
0.4979085922241211 0.6994962692260742 -0.08530333638191223
0.4950776696205139 0.7279590368270874 -0.07630613446235657
0.5277113318443298 0.7114835977554321 -0.07934781163930893
0.5477493405342102 0.7252616286277771 -0.06923501193523407
0.516494631767273 0.7321751713752747 -0.07334090024232864
0.5342525243759155 0.7372028231620789 -0.06273592263460159
0.5871750116348267 0.7679096460342407 -0.043612346053123474
0.4852336049079895 0.610910952091217 -0.12509186565876007
0.4877913296222687 0.5872769355773926 -0.13016074895858765
0.708832859992981 0.41281360387802124 0.0061432430520653725
0.559005081653595 0.5414957404136658 -0.024904198944568634
0.5470210313796997 0.6131267547607422 -0.07920703291893005
0.5515336990356445 0.6012239456176758 -0.0716504156589508
0.6836977601051331 0.6060203313827515 -0.022280143573880196
0.49008703231811523 0.5588039755821228 -0.11392128467559814
0.6432996392250061 0.3826513886451721 -0.017328444868326187
0.6803637742996216 0.39183586835861206 -0.006965657230466604
0.7425855398178101 0.33547109365463257 0.08504293113946915
0.5352486371994019 0.4093509912490845 -0.02035115845501423
0.5777997970581055 0.44241225719451904 0.006591268349438906
0.6032660007476807 0.7452002763748169 -0.040163807570934296
0.7716163396835327 0.7292993664741516 0.1428307294845581
0.5298206210136414 0.6268913745880127 -0.06835509836673737
0.5100651383399963 0.6346175670623779 -0.0668310672044754
0.5726015567779541 0.7465857267379761 -0.040963299572467804
0.5627831220626831 0.7442323565483093 -0.04516373202204704
0.695086658000946 0.3753995895385742 0.0037305071018636227
0.5490475296974182 0.6269615888595581 -0.0677175521850586
0.5958218574523926 0.3865756392478943 -0.022403398528695107
0.5988869667053223 0.3658493161201477 -0.02517644874751568
0.6277509331703186 0.275174081325531 0.022834355011582375
0.7176743745803833 0.3551408648490906 0.03776966780424118
0.6094815135002136 0.319637656211853 -0.002357902703806758
0.7262493968009949 0.4029258191585541 0.025074360892176628
0.7504215240478516 0.3946499824523926 0.06917712092399597
0.49634599685668945 0.7152873277664185 -0.08392816036939621
0.5207836627960205 0.7235498428344727 -0.07802209258079529
0.5404641628265381 0.7313513159751892 -0.06818874925374985
0.5239364504814148 0.6323931813240051 -0.062117308378219604
0.5668759346008301 0.7460231184959412 -0.042971592396497726
0.5574901700019836 0.7487430572509766 -0.05496475473046303
0.561545729637146 0.7421931028366089 -0.04523966833949089
0.5151338577270508 0.6133228540420532 -0.09775064140558243
0.5313628911972046 0.7365159392356873 -0.05851573869585991
0.5138058066368103 0.7346951365470886 -0.06410437822341919
0.49455657601356506 0.733361005783081 -0.06723793596029282
0.5118628144264221 0.8008409738540649 -0.05170397460460663
0.5039149522781372 0.7809568047523499 -0.0740949809551239
0.5008936524391174 0.7655510306358337 -0.07664044201374054
0.4985603094100952 0.751448392868042 -0.07148468494415283
0.4973823130130768 0.7419931292533875 -0.06681089848279953
0.5366925001144409 0.7426061034202576 -0.05812004581093788
0.5396437048912048 0.7460106611251831 -0.06266328692436218
0.5449429750442505 0.7531941533088684 -0.06716244667768478
0.5506513118743896 0.762033998966217 -0.06464534252882004
0.5724745988845825 0.6960225701332092 -0.06030188128352165
0.8031610250473022 0.6068368554115295 0.18894009292125702
0.5487320423126221 0.743301510810852 -0.050657711923122406
0.5522092580795288 0.7452857494354248 -0.053902722895145416
0.5023624897003174 0.6453043222427368 -0.06994705647230148
0.5420266389846802 0.6438696384429932 -0.05058400332927704
0.5058463215827942 0.6402188539505005 -0.06854058057069778
0.5854392051696777 0.5570938587188721 -0.02390100061893463
0.6249710917472839 0.5748316049575806 -0.025369413197040558
0.55632084608078 0.6143104434013367 -0.060439396649599075
0.6948496699333191 0.29843848943710327 0.04940833896398544
0.6729656457901001 0.3287258446216583 0.014747229404747486
0.6517437100410461 0.3623634874820709 -0.012723026797175407
0.5677416324615479 0.7809707522392273 -0.05160084366798401
0.5407181978225708 0.375093936920166 -0.026673048734664917
0.548244833946228 0.32176288962364197 -0.007649722043424845
0.5597791075706482 0.2667792737483978 0.014086095616221428
0.6688885688781738 0.49746057391166687 0.004961306229233742
0.7287560105323792 0.5244165658950806 0.0260919276624918
0.5642309784889221 0.48930037021636963 0.012570053339004517
0.7004992365837097 0.4504496157169342 0.014743607491254807
0.5407117009162903 0.5243515372276306 -0.028166258707642555
0.5309669971466064 0.600031316280365 -0.09772363305091858
0.758689820766449 0.5420029163360596 0.04320104420185089
0.7090624570846558 0.5434696674346924 0.004841056652367115
0.6734846234321594 0.5529573559761047 -0.011892677284777164
0.6246540546417236 0.5478640198707581 -0.013034106232225895
0.5904257297515869 0.5364492535591125 -0.010549470782279968
0.5641399025917053 0.5240190625190735 -0.01026197336614132
0.5034496188163757 0.48972564935684204 -0.03946478292346001
0.7526262402534485 0.59681236743927 0.029465150088071823
0.7219714522361755 0.4468315839767456 0.023436425253748894
0.47999200224876404 0.6245986819267273 -0.11474420875310898
0.5526643991470337 0.5649628639221191 -0.03778094798326492
0.8061313033103943 0.4945058226585388 0.18590083718299866
0.5439593195915222 0.5096285939216614 -0.007890964858233929
0.561477780342102 0.6177778840065002 -0.03807706758379936
0.6893396973609924 0.4703039526939392 0.021949704736471176
0.5353360772132874 0.5861691832542419 -0.08765565603971481
0.7933916449546814 0.6668668389320374 0.1721588373184204
0.5645884275436401 0.4794401526451111 0.019102953374385834
0.5128237009048462 0.5693472623825073 -0.10490871220827103
0.6920857429504395 0.7870742678642273 0.02422012947499752
0.701359748840332 0.8127946853637695 0.06195101514458656
0.7886407375335693 0.6017358303070068 0.10725165158510208
0.7292236089706421 0.754412829875946 0.05120661109685898
0.7705178260803223 0.44121748208999634 0.096450075507164
0.5831617712974548 0.8547106981277466 -0.03463529422879219
0.480584979057312 0.6317499876022339 -0.08500192314386368
0.5748416185379028 0.5849050879478455 -0.035066261887550354
0.7549960017204285 0.49110791087150574 0.05927498638629913
0.6454269886016846 0.48746955394744873 0.0021312653552740812
0.6238058805465698 0.49023258686065674 -0.00023616674297954887
0.564221978187561 0.7540649175643921 -0.05260681360960007
0.7463644742965698 0.646881639957428 0.030976520851254463
0.5419884920120239 0.8824408650398254 -0.023613814264535904
0.620797872543335 0.858027458190918 0.010079111903905869
0.6570373177528381 0.8408855199813843 0.03172975033521652
0.6032069325447083 0.4891166090965271 0.003027099184691906
0.5839662551879883 0.48535841703414917 0.010088583454489708
0.5712298154830933 0.4826296865940094 0.017385993152856827
0.743247926235199 0.4428797960281372 0.04456261917948723
0.5840831995010376 0.46073445677757263 0.007974770851433277
0.6046979427337646 0.45226359367370605 0.0017982330173254013
0.6256904602050781 0.4495800733566284 -0.0010123300598934293
0.6480146050453186 0.4526791572570801 0.0006260909140110016
0.6628592610359192 0.459298312664032 0.005114955827593803
0.7957719564437866 0.43378743529319763 0.15808458626270294
0.6604007482528687 0.4828260540962219 0.0073409066535532475
0.5510467290878296 0.679489016532898 -0.06359115988016129
0.5296341776847839 0.621173083782196 -0.0750984475016594
0.5046349167823792 0.6667498350143433 -0.07388024032115936
0.6553577184677124 0.816143274307251 0.004756062291562557
0.6208707690238953 0.8357162475585938 -0.013868176378309727
0.5384630560874939 0.8693177700042725 -0.04962797835469246
0.7391080260276794 0.778457522392273 0.10326842963695526
0.5700080990791321 0.4721479117870331 0.014582931064069271
0.5176641941070557 0.5280976295471191 -0.056301895529031754
0.5827220678329468 0.8722972273826599 -0.012411237694323063
0.7798894643783569 0.6569535136222839 0.0979137122631073
0.5182483792304993 0.7418854236602783 -0.06372565031051636
0.5215312242507935 0.7485218644142151 -0.0687679648399353
0.5254896283149719 0.7594322562217712 -0.07407095283269882
0.5295871496200562 0.772982120513916 -0.07187618315219879
0.5427573323249817 0.7923785448074341 -0.056183651089668274
0.5507543683052063 0.7413412928581238 -0.05344393476843834
0.5569892525672913 0.7394639253616333 -0.05536571517586708
0.5640018582344055 0.7360495328903198 -0.056009650230407715
0.5905593633651733 0.7191978096961975 -0.05207492411136627
0.7035545110702515 0.6601108312606812 -0.009220370091497898
0.5219514966011047 0.5051802396774292 -0.03201635554432869
0.5417769551277161 0.458801805973053 0.010299772024154663
0.5583123564720154 0.4632311463356018 0.014181896112859249
0.5469470620155334 0.7384243011474609 -0.050667669624090195
0.7084962129592896 0.7199658751487732 0.015150528401136398
0.5162115097045898 0.45563286542892456 -0.013504335656762123
0.5616201758384705 0.8137056827545166 -0.04723019897937775
0.49816855788230896 0.514315128326416 -0.06526406854391098
0.5332894325256348 0.566806972026825 -0.06345167011022568
0.5226916074752808 0.8241148591041565 -0.05327080562710762
0.6162277460098267 0.7763937711715698 -0.03382740169763565
0.5822756886482239 0.6388612985610962 -0.0390014685690403
0.5920707583427429 0.7987065315246582 -0.04074060916900635
0.641822338104248 0.6361116766929626 -0.038999300450086594
0.6038805246353149 0.6645963191986084 -0.0443667508661747
0.6631470322608948 0.6782675981521606 -0.03146529570221901
0.5323694348335266 0.8491758108139038 -0.05767861753702164
0.5491538643836975 0.5830830335617065 -0.05215901881456375
0.6422951221466064 0.7918204665184021 -0.017282260581851006
0.6098047494888306 0.8146499991416931 -0.027664601802825928
0.6341338753700256 0.7467790246009827 -0.032387763261795044
0.7383924126625061 0.6892877221107483 0.035048481076955795
0.6712874174118042 0.7482854127883911 -0.013724131509661674
0.763232409954071 0.7081089019775391 0.08265957981348038
0.6214723587036133 0.7008252143859863 -0.042515866458415985
0.5351607203483582 0.5460211634635925 -0.04620977118611336
0.5222459435462952 0.609619140625 -0.10231441259384155
0.5391198992729187 0.6201790571212769 -0.08053235709667206
0.5103446841239929 0.5917105078697205 -0.1151989996433258
0.5595842599868774 0.43343305587768555 0.001312840380705893
0.5978663563728333 0.4154539108276367 -0.00746199581772089
0.6327877044677734 0.4106425344944 -0.011954830959439278
0.6634939312934875 0.41498374938964844 -0.009002947248518467
0.6867961287498474 0.4275292754173279 0.00016333270468749106
0.7071400284767151 0.47780415415763855 0.028492126613855362
0.7916836738586426 0.547374963760376 0.10842151194810867
0.6869285702705383 0.5164851546287537 0.008736081421375275
0.6595767140388489 0.5244339108467102 -0.001278841751627624
0.6259030699729919 0.5242773294448853 -0.005393186584115028
0.5948209166526794 0.5182201266288757 -0.003896421752870083
0.5706579685211182 0.5095583200454712 0.002113554859533906
0.5533492565155029 0.5005933046340942 0.004355121403932571
0.8061423301696777 0.5505141019821167 0.19490334391593933
0.5392872095108032 0.629129946231842 -0.06963587552309036
0.5137935876846313 0.5482133030891418 -0.07728483527898788
0.5029814839363098 0.608267068862915 -0.11685808002948761
0.4922618567943573 0.6216035485267639 -0.1066020056605339
0.5047158002853394 0.6131488680839539 -0.10624771565198898
0.5332480072975159 0.6381363272666931 -0.06111915782094002
0.48740074038505554 0.6232174038887024 -0.11231924593448639
0.4876677393913269 0.6305552124977112 -0.0858350619673729
0.5547728538513184 0.4805390536785126 0.01793358102440834
0.5391068458557129 0.48608827590942383 0.006860579364001751
0.52854984998703 0.48918041586875916 -0.007727389223873615
0.6719793677330017 0.46444982290267944 0.011428660713136196
0.68613600730896 0.4524862468242645 0.010190400294959545
