ply
format ascii 1.0
element vertex 468
property float x
property float y
property float z
end_header
0.44789770245552063 0.692581057548523 -0.0802718847990036
0.43667709827423096 0.6075677275657654 -0.10718835890293121
0.45633620023727417 0.6372149586677551 -0.06429333984851837
0.43858852982521057 0.5375497937202454 -0.05923408642411232
0.4358147382736206 0.5834142565727234 -0.11007146537303925
0.4440631866455078 0.5555065274238586 -0.09684739261865616
0.4714345335960388 0.4881289005279541 -0.029012957587838173
0.36634427309036255 0.4899909794330597 0.10782118141651154
0.4804583787918091 0.42799898982048035 -0.004403564613312483
0.4798355996608734 0.39647629857063293 -0.001296287402510643
0.4901770055294037 0.28333014249801636 0.044736843556165695
0.44820255041122437 0.705330491065979 -0.08027026057243347
0.45133793354034424 0.7181705832481384 -0.0751335397362709
0.45624035596847534 0.7266538739204407 -0.06734570115804672
0.4569453001022339 0.7645567655563354 -0.0595959909260273
0.45423761010169983 0.7782602310180664 -0.0632949024438858
0.453067421913147 0.795131504535675 -0.06632325798273087
0.4552837014198303 0.811206579208374 -0.06080475449562073
0.4651709198951721 0.8269900679588318 -0.03941036015748978
0.44298237562179565 0.6215982437133789 -0.09949929267168045
0.43635138869285583 0.623784065246582 -0.0675320029258728
0.3485095500946045 0.4087173342704773 0.2530030608177185
0.41449037194252014 0.5073052048683167 0.06268960237503052
0.3964617848396301 0.5105426907539368 0.07148896157741547
0.3800020217895508 0.5105050802230835 0.08428321778774261
0.362668514251709 0.4979868233203888 0.11185596138238907
0.4293239414691925 0.5001635551452637 0.05734929069876671
0.3898126482963562 0.43973493576049805 0.0748380646109581
0.410580039024353 0.44151395559310913 0.0642983689904213
0.3713698387145996 0.44463562965393066 0.08803350478410721
0.3607470393180847 0.4553404450416565 0.0997736006975174
0.351068913936615 0.5153041481971741 0.12296999990940094
0.4136981964111328 0.8398457765579224 -0.0008629710646346211
0.3621440827846527 0.4841146469116211 0.1179586872458458
0.3392440378665924 0.5069996118545532 0.2392950803041458
0.3428220748901367 0.5001968145370483 0.15513551235198975
0.38483044505119324 0.603651225566864 0.02373749390244484
0.4286917448043823 0.6896779537200928 -0.06620534509420395
0.4369017779827118 0.7194565534591675 -0.06346134096384048
0.41346490383148193 0.7010605335235596 -0.04598347470164299
0.4074006676673889 0.7166226506233215 -0.026604002341628075
0.4274740219116211 0.7238578200340271 -0.047796495258808136
0.4223898649215698 0.7308309674263 -0.0298566035926342
0.3980327546596527 0.7681507468223572 0.006699967663735151
0.42355111241340637 0.6078063249588013 -0.09993945807218552
0.41992342472076416 0.5850679874420166 -0.10135863721370697
0.3461022973060608 0.4404737651348114 0.12248008698225021
0.4240188002586365 0.5432430505752563 0.019185563549399376
0.4050077199935913 0.6083342432975769 -0.03309781849384308
0.40636563301086426 0.5974462032318115 -0.024719251319766045
0.34213095903396606 0.6070712804794312 0.07288585603237152
0.4282001256942749 0.5586878061294556 -0.08279947936534882
0.3767615556716919 0.4131857752799988 0.06994863599538803
0.3567284941673279 0.4223519563674927 0.09730632603168488
0.35441410541534424 0.3663080036640167 0.21405434608459473
0.4442349076271057 0.4260820746421814 0.017438091337680817
0.42873555421829224 0.45035624504089355 0.0617775022983551
0.38903695344924927 0.7417009472846985 0.019480209797620773
0.3759154677391052 0.7277688980102539 0.23227661848068237
0.4201588034629822 0.621734619140625 -0.0336901992559433
0.4333329200744629 0.6290767788887024 -0.04745941981673241
0.4071720242500305 0.7463246583938599 0.009503733366727829
0.4190232753753662 0.7450375556945801 -0.0007047973922453821
0.35356709361076355 0.4101799726486206 0.11428958922624588
0.41064172983169556 0.6203396320343018 -0.02489282563328743
0.4044526219367981 0.41224318742752075 0.04306730255484581
0.40152305364608765 0.39584842324256897 0.044932812452316284
0.3983614444732666 0.30544334650039673 0.1139632910490036
0.3529682159423828 0.38753417134284973 0.1583329439163208
0.40027350187301636 0.34949442744255066 0.07844042032957077
0.3422399163246155 0.4325910210609436 0.14795702695846558
0.3440922498703003 0.4219549298286438 0.1974674016237259
0.4309861660003662 0.7051277160644531 -0.0671553909778595
0.41931647062301636 0.7137348651885986 -0.048406556248664856
0.41348880529403687 0.7236422896385193 -0.03040299564599991
0.42629945278167725 0.6265928745269775 -0.034040581434965134
0.4128832221031189 0.7464848160743713 0.0036983471363782883
0.4129239618778229 0.7560986876487732 -0.011751861311495304
0.42295581102371216 0.7427363395690918 -0.001905356184579432
0.4178735315799713 0.6107940077781677 -0.06000843644142151
0.43079161643981934 0.731241762638092 -0.028819063678383827
0.4359416365623474 0.727852463722229 -0.0427662618458271
0.44402188062667847 0.7267574667930603 -0.05627356097102165
0.44057130813598633 0.8228379487991333 -0.03125966712832451
0.4318732023239136 0.8057718276977539 -0.04999570921063423
0.4314744472503662 0.7901163697242737 -0.05361408367753029
0.4358903169631958 0.7728943824768066 -0.05016958713531494
0.44110724329948425 0.7620974183082581 -0.0473342165350914
0.4271562695503235 0.7549147605895996 -0.02174406684935093
0.42170071601867676 0.7592742443084717 -0.02508620172739029
0.4141831398010254 0.76667720079422 -0.02749577723443508
0.40907028317451477 0.7746749520301819 -0.022439973428845406
0.3963247537612915 0.689250111579895 -0.01079931017011404
0.36574268341064453 0.6104903221130371 0.2963944971561432
0.45024973154067993 0.6285896301269531 -0.07619189471006393
0.42581743001937866 0.7512296438217163 -0.009840487502515316
0.4191429615020752 0.7531001567840576 -0.011866206303238869
0.43738114833831787 0.6384952664375305 -0.050901398062705994
0.4197656214237213 0.6357377171516418 -0.018757928162813187
0.43540507555007935 0.6340683698654175 -0.04947782680392265
0.40639638900756836 0.5577606558799744 0.03099110722541809
0.37722793221473694 0.5757375955581665 0.045523203909397125
0.40821075439453125 0.6094077229499817 -0.015036080032587051
0.36978280544281006 0.33144906163215637 0.16412046551704407
0.3714444041252136 0.36311963200569153 0.11866360157728195
0.3734005093574524 0.39742156863212585 0.08101525157690048
0.4071127772331238 0.7879241704940796 -0.005888526327908039
0.43784216046333313 0.39763420820236206 0.0177523922175169
0.4358672499656677 0.34333521127700806 0.04559165984392166
0.4361690878868103 0.2906803786754608 0.07283054292201996
0.3679617643356323 0.5066846609115601 0.09940962493419647
0.33635592460632324 0.5330960154533386 0.13888856768608093
0.43911638855934143 0.4926973581314087 0.05836079269647598
0.3510042726993561 0.46863651275634766 0.12485922873020172
0.4355414807796478 0.5272971391677856 0.009729831479489803
0.4069201648235321 0.5973793864250183 -0.054885029792785645
0.3254847228527069 0.5500393509864807 0.16633673012256622
0.3380180299282074 0.5493453145027161 0.11295459419488907
0.35290050506591797 0.5569057464599609 0.08157937973737717
0.3849755525588989 0.5504350066184998 0.059132352471351624
0.41034364700317383 0.5386573076248169 0.04544186592102051
0.42857590317726135 0.526522696018219 0.0341782383620739
0.45518314838409424 0.4947512745857239 -0.014203045517206192
0.3211284279823303 0.5995762348175049 0.14982376992702484
0.3435510993003845 0.46780380606651306 0.14230868220329285
0.43464967608451843 0.6212724447250366 -0.09420221298933029
0.420500248670578 0.5648600459098816 0.005518089048564434
0.3584781587123871 0.5071483254432678 0.3086436986923218
0.44155609607696533 0.5132627487182617 0.028741495683789253
0.4114307165145874 0.6126387119293213 0.003650978207588196
0.35772258043289185 0.4841400682926178 0.12424135208129883
0.4104388952255249 0.584101676940918 -0.044917717576026917
0.3685253858566284 0.6671648025512695 0.2710413336753845
0.4415706992149353 0.4839822053909302 0.06694385409355164
0.4177352786064148 0.5686728358268738 -0.06656116247177124
0.371471107006073 0.7852780818939209 0.10190737992525101
0.3873564600944519 0.8110262155532837 0.13130363821983337
0.3323215842247009 0.6058744788169861 0.22651050984859467
0.35969090461730957 0.7530794143676758 0.1413324922323227
0.34119412302970886 0.46137484908103943 0.22584298253059387
0.414625346660614 0.861455500125885 0.00712228287011385
0.4436045289039612 0.627956748008728 -0.07205984741449356
0.4070424437522888 0.5834806561470032 0.014765861444175243
0.3363475203514099 0.5056480169296265 0.18245238065719604
0.38088732957839966 0.4968777894973755 0.08773655444383621
0.39641451835632324 0.4977145791053772 0.07676208764314651
0.40758606791496277 0.7595099210739136 -0.007047861814498901
0.328486829996109 0.6469843983650208 0.14172600209712982
0.44559746980667114 0.8995374441146851 -0.00638333335518837
0.4106326103210449 0.8605841398239136 0.05792982876300812
0.39906007051467896 0.8400418758392334 0.09026588499546051
0.4827421009540558 0.3396933674812317 0.020618271082639694
0.4843607544898987 0.9102989435195923 -0.028752868995070457
0.4119260013103485 0.4953422248363495 0.06908375024795532
0.4264988899230957 0.49017757177352905 0.06694066524505615
0.4363838732242584 0.4867055416107178 0.06812312453985214
0.33959025144577026 0.4652591943740845 0.16963545978069305
0.42748600244522095 0.4707644581794739 0.06829006969928741
0.4122147560119629 0.4654961824417114 0.07177087664604187
0.3952904939651489 0.4642554521560669 0.07952219992876053
0.37903332710266113 0.46833229064941406 0.08996941894292831
0.3699950575828552 0.4748907685279846 0.09920711070299149
0.3499230146408081 0.4530918598175049 0.2879353165626526
0.37190937995910645 0.49380791187286377 0.0992155447602272
0.455272376537323 0.6555028557777405 -0.06397157907485962
0.4072164297103882 0.6714484095573425 -0.023631831631064415
0.41647374629974365 0.6169695258140564 -0.040605589747428894
0.43220585584640503 0.659341037273407 -0.05226709693670273
0.4802439510822296 0.4578736424446106 -0.008718490600585938
0.3857518434524536 0.813886284828186 0.06876710057258606
0.40065115690231323 0.8363971710205078 0.03878115862607956
0.4369719326496124 0.8831844329833984 -0.024987919256091118
0.38206470012664795 0.7769412994384766 0.18298578262329102
0.4368706941604614 0.47867637872695923 0.0677487775683403
0.43656593561172485 0.5311853289604187 -0.023409036919474602
0.47473782300949097 0.8934518694877625 -0.04573915898799896
0.4238688349723816 0.8812301158905029 0.024043448269367218
0.33786433935165405 0.6580535769462585 0.20757032930850983
0.43177151679992676 0.758645236492157 -0.03375249728560448
0.4261241555213928 0.7665066123008728 -0.036689113825559616
0.4197283089160919 0.778566837310791 -0.03883036598563194
0.41665148735046387 0.7926567792892456 -0.03540222719311714
0.4200965166091919 0.8074358105659485 -0.01944611966609955
0.42034226655960083 0.7375312447547913 -0.013236886821687222
0.4120051860809326 0.7348281145095825 -0.010368476621806622
0.40564966201782227 0.7305004596710205 -0.007256100885570049
0.39035868644714355 0.7134528756141663 0.006342301610857248
0.33993691205978394 0.6591910719871521 0.0878167375922203
0.44579964876174927 0.5096387267112732 -0.0008536019595339894
0.45145800709724426 0.4655807614326477 0.045067306607961655
0.44368624687194824 0.4683568775653839 0.06012434512376785
0.4276565909385681 0.7347595691680908 -0.013256381265819073
0.35169926285743713 0.7182669639587402 0.10645794123411179
0.4596996009349823 0.46319085359573364 0.013367444276809692
0.41770756244659424 0.8216261267662048 -0.008054369129240513
0.4534919559955597 0.5331549048423767 -0.07358165830373764
0.44605112075805664 0.5177946090698242 -0.03936968371272087
0.4620878994464874 0.5121233463287354 -0.0502474308013916
0.42121994495391846 0.5666642189025879 -0.025502415373921394
0.46976104378700256 0.8707351684570312 -0.05004218965768814
0.4677897095680237 0.8463513851165771 -0.04356285184621811
0.43936610221862793 0.8396645784378052 -0.0290304496884346
0.38718587160110474 0.7736147046089172 0.023828960955142975
0.39766764640808105 0.6333932280540466 0.011280576698482037
0.40068644285202026 0.7996435165405273 0.008083073422312737
0.3618201017379761 0.6352732181549072 0.036579132080078125
0.38296347856521606 0.6602093577384949 0.01565587893128395
0.35681745409965515 0.6760020852088928 0.050384774804115295
0.4357091188430786 0.8619163632392883 -0.029918018728494644
0.4164868891239166 0.5811286568641663 -0.010171754285693169
0.3805462718009949 0.7895264625549316 0.04691276326775551
0.3974228501319885 0.8149948716163635 0.02364278957247734
0.37565377354621887 0.7426149249076843 0.036906879395246506
0.3387533128261566 0.6881805658340454 0.1369618922472
0.3636351227760315 0.7459338307380676 0.06527934968471527
0.347522109746933 0.7075839638710022 0.18385550379753113
0.37662315368652344 0.6956914663314819 0.024834342300891876
0.4289116859436035 0.5477553606033325 -0.007853823713958263
0.4115371108055115 0.6069187521934509 -0.06203113868832588
0.40949463844299316 0.6153502464294434 -0.040248289704322815
0.41179317235946655 0.5898537039756775 -0.07714250683784485
0.4370644986629486 0.4431653916835785 0.04915181174874306
0.40811482071876526 0.4302169382572174 0.05853309854865074
0.3828837275505066 0.429149866104126 0.07149091362953186
0.3634815216064453 0.43558529019355774 0.08918635547161102
0.35289835929870605 0.4488740563392639 0.10708708316087723
0.35186290740966797 0.49208736419677734 0.1359272450208664
0.3331015706062317 0.5558125972747803 0.23582077026367188
0.35450127720832825 0.5245645046234131 0.10698504000902176
0.36812740564346313 0.5306527614593506 0.08585713803768158
0.39062508940696716 0.5288479924201965 0.06768959015607834
0.41359442472457886 0.5216608047485352 0.05496989190578461
0.4308725893497467 0.5126073360443115 0.04773303121328354
0.4423576593399048 0.5040777325630188 0.042807046324014664
0.36508411169052124 0.5582194328308105 0.31086233258247375
0.41474783420562744 0.6230754852294922 -0.03208284452557564
0.4279903173446655 0.5495803952217102 -0.04208618029952049
0.4159901738166809 0.6059099435806274 -0.08397266268730164
0.43045955896377563 0.6189184188842773 -0.08352283388376236
0.4207800030708313 0.6112459301948547 -0.07500088959932327
0.42247945070266724 0.6310251951217651 -0.030089473351836205
0.4309002757072449 0.6205195784568787 -0.09015912562608719
0.43901485204696655 0.6271282434463501 -0.0700821578502655
0.44661563634872437 0.4841195046901703 0.05849572271108627
0.4524202346801758 0.490234911441803 0.03874955326318741
0.45262736082077026 0.493948370218277 0.02100997418165207
0.3651884198188782 0.4798542261123657 0.10786452144384384
0.3560165762901306 0.4682096242904663 0.11315187066793442
0.47268348932266235 0.5369585752487183 -0.07557043433189392
0.6613024473190308 0.47514957189559937 -0.01124541461467743
0.47055521607398987 0.6242746710777283 -0.07991313189268112
0.7912353277206421 0.38133469223976135 0.06895104795694351
0.5910821557044983 0.4991018772125244 -0.01408310979604721
0.6133561730384827 0.5007919073104858 -0.020417263731360435
0.6369389295578003 0.5001362562179565 -0.022243261337280273
0.6746641993522644 0.48362404108047485 -0.014840555377304554
0.5728292465209961 0.49320629239082336 -0.002781361574307084
0.6164114475250244 0.4200934171676636 -0.019993240013718605
0.5906069278717041 0.42515134811401367 -0.009655204601585865
0.6438170671463013 0.4231085777282715 -0.022431500256061554
0.6640582084655762 0.43373146653175354 -0.020368045195937157
0.6956623196601868 0.502839982509613 -0.012780262157320976
0.5648789405822754 0.8514803647994995 -0.055377714335918427
0.6725226044654846 0.4668619632720947 -0.006594714242964983
0.8024200201034546 0.49116867780685425 0.04972098767757416
0.7289990186691284 0.48480260372161865 0.0013101178919896483
0.5884999632835388 0.6028948426246643 -0.051768917590379715
0.4743878245353699 0.6908261775970459 -0.0858548954129219
0.4729309380054474 0.7211349606513977 -0.0812331959605217
0.5061894655227661 0.7063900828361511 -0.0867992639541626
0.5271718502044678 0.7228771448135376 -0.08226724714040756
0.4952353835105896 0.7281403541564941 -0.08287375420331955
0.5133005976676941 0.7360835075378418 -0.07656396925449371
0.5738926529884338 0.7769395709037781 -0.06263643503189087
0.4547942876815796 0.607463002204895 -0.11082018911838531
0.45737820863723755 0.584777295589447 -0.1138581931591034
0.6982157826423645 0.41473716497421265 -0.0204110536724329
0.5486829280853271 0.5408236980438232 -0.03064684197306633
0.5237309336662292 0.60965895652771 -0.08072173595428467
0.5309821367263794 0.5983318090438843 -0.07376112043857574
0.6695560216903687 0.6043785214424133 -0.05425426736474037
0.4646490216255188 0.5584056973457336 -0.09891986101865768
0.6261532306671143 0.38773155212402344 -0.026944223791360855
0.6655989289283752 0.39546722173690796 -0.025224696844816208
0.7474862337112427 0.3372678756713867 0.04927182197570801
0.5257075428962708 0.4173438847064972 -0.013246743008494377
0.5711736083030701 0.43766599893569946 0.0013332818634808064
0.5882206559181213 0.7497506141662598 -0.06380637735128403
0.802884578704834 0.7361552715301514 0.058913376182317734
0.5078780055046082 0.623478353023529 -0.06981751322746277
0.4902951121330261 0.6308127641677856 -0.06496570259332657
0.5564997792243958 0.754413366317749 -0.06285221129655838
0.5449184775352478 0.7527526617050171 -0.06409282982349396
0.6810764074325562 0.38100868463516235 -0.01678275316953659
0.528468132019043 0.6230263113975525 -0.07163237780332565
0.5799311995506287 0.3934345841407776 -0.023266036063432693
0.5822906494140625 0.37527036666870117 -0.0239875391125679
0.6222099661827087 0.285236656665802 0.020249737426638603
0.7119144201278687 0.35957539081573486 0.011292651295661926
0.5973045825958252 0.32939255237579346 -0.0022777803242206573
0.7192028760910034 0.4058581590652466 -0.005941953510046005
0.7537247538566589 0.3951604962348938 0.029990049079060555
0.472915917634964 0.7069704532623291 -0.08656147122383118
0.49919965863227844 0.7185071110725403 -0.08647740632295609
0.5195385217666626 0.7295040488243103 -0.08120553195476532
0.5037988424301147 0.6288323998451233 -0.06302810460329056
0.5499522089958191 0.7543330192565918 -0.06341750919818878
0.5405557155609131 0.7630579471588135 -0.06873363256454468
0.5434452891349792 0.7503737211227417 -0.06372614949941635
0.49000322818756104 0.611012876033783 -0.09265320003032684
0.5117474794387817 0.736135721206665 -0.07284601032733917
0.494171679019928 0.7315347194671631 -0.07511775940656662
0.47493067383766174 0.7279937267303467 -0.07457315921783447
0.4980090856552124 0.8261780738830566 -0.04833635687828064
0.4864046275615692 0.8089906573295593 -0.06991752237081528
0.48183584213256836 0.7927863597869873 -0.07416778057813644
0.4793112874031067 0.7756284475326538 -0.07106373459100723
0.4786980152130127 0.764555037021637 -0.06691231578588486
0.5175650119781494 0.7603003978729248 -0.06654714047908783
0.5211207270622253 0.7648976445198059 -0.0697292685508728
0.5277378559112549 0.7728204131126404 -0.07368224114179611
0.5350654125213623 0.7814579606056213 -0.07231307029724121
0.5543866157531738 0.6942043304443359 -0.07480636239051819
0.838074803352356 0.6050064563751221 0.10191236436367035
0.5303126573562622 0.75751131772995 -0.06424540281295776
0.5341646075248718 0.7600851058959961 -0.06714259088039398
0.4834170937538147 0.6405342221260071 -0.06787975132465363
0.524760365486145 0.6397748589515686 -0.05573258921504021
0.4866030216217041 0.6357854604721069 -0.06655341386795044
0.573704719543457 0.5549665093421936 -0.03529839590191841
0.6104232668876648 0.5724252462387085 -0.044393252581357956
0.5376179218292236 0.6111952066421509 -0.06573492288589478
0.6923133134841919 0.3044445812702179 0.030535267665982246
0.6613719463348389 0.3361971080303192 0.0011867284774780273
0.6345876455307007 0.3703359365463257 -0.02258007600903511
0.5559169054031372 0.7963452339172363 -0.06418430805206299
0.5301924347877502 0.3861386775970459 -0.016632091253995895
0.5406855940818787 0.33311301469802856 0.0037504923529922962
0.5573269724845886 0.2796918451786041 0.025598952546715736
0.660193681716919 0.4944254755973816 -0.01945505291223526
0.7244842052459717 0.5222828388214111 -0.01329275406897068
0.5605106949806213 0.48624277114868164 0.004591998644173145
0.69419264793396 0.4486812353134155 -0.013770475052297115
0.530613899230957 0.5250706672668457 -0.030072500929236412
0.5051007270812988 0.5975000262260437 -0.09352067857980728
0.7602155208587646 0.5398125648498535 -0.006229911930859089
0.7002866268157959 0.5408361554145813 -0.02979069948196411
0.6613067984580994 0.550444483757019 -0.038513295352458954
0.6125044226646423 0.5452365279197693 -0.031747277826070786
0.5806001424789429 0.5342788696289062 -0.023194901645183563
0.5564649701118469 0.5229108929634094 -0.01750451698899269
0.49354302883148193 0.4933495819568634 -0.030721109360456467
0.7518031597137451 0.5949775576591492 -0.022154802456498146
0.7166733741760254 0.4474697709083557 -0.009868365712463856
0.45346519351005554 0.6210015416145325 -0.10243130475282669
0.5400275588035583 0.5637779235839844 -0.04274451732635498
0.8379026651382446 0.49050647020339966 0.10933464020490646
0.5374619364738464 0.5099389553070068 -0.011535133235156536
0.5461286306381226 0.6146260499954224 -0.04649259150028229
0.6846408843994141 0.4662421941757202 -0.007128823082894087
0.5128443837165833 0.5838271379470825 -0.0838986486196518
0.8284854888916016 0.6681165099143982 0.08494328707456589
0.5623687505722046 0.47712433338165283 0.010694842785596848
0.4883561134338379 0.5682090520858765 -0.09506247937679291
0.6972523927688599 0.8003224730491638 -0.02397715486586094
0.7186533212661743 0.8294349312782288 0.0016135666519403458
0.8066504001617432 0.6003491878509521 0.03694456070661545
0.7396932244300842 0.7647222280502319 -0.00865858979523182
0.7808996438980103 0.4395383894443512 0.04556051641702652
0.5749054551124573 0.8756563067436218 -0.052211448550224304
0.45809268951416016 0.628045380115509 -0.07725518196821213
0.5616414546966553 0.5826784372329712 -0.04434383660554886
0.7581570148468018 0.4901428818702698 0.012381109409034252
0.6333768367767334 0.4845442771911621 -0.016797779127955437
0.612680196762085 0.48651862144470215 -0.01582120545208454
0.5488653182983398 0.7669222354888916 -0.06854663044214249
0.7475250959396362 0.6469202041625977 -0.023362278938293457
0.5347179174423218 0.9086079597473145 -0.03964623063802719
0.6247476935386658 0.8796683549880981 -0.02539764530956745
0.6672472953796387 0.8600590229034424 -0.01474300678819418
0.5947338938713074 0.4856131970882416 -0.009293794631958008
0.5785584449768066 0.4821965992450714 -0.0005782447406090796
0.567892849445343 0.479647696018219 0.007455551531165838
0.7425395250320435 0.4437354505062103 0.0051307096146047115
0.5788677930831909 0.46050769090652466 -0.00040652320603840053
0.59657883644104 0.4523558020591736 -0.008115299046039581
0.6158444285392761 0.4491981267929077 -0.013706539757549763
0.6376330852508545 0.45170605182647705 -0.015881258994340897
0.6529499888420105 0.4575556516647339 -0.014658073894679546
0.8203299045562744 0.42987334728240967 0.09374827146530151
0.6490644216537476 0.48051393032073975 -0.014680813997983932
0.5334477424621582 0.6762678027153015 -0.07246515899896622
0.5059204697608948 0.6179968118667603 -0.07419688999652863
0.4844253957271576 0.6611105799674988 -0.07241908460855484
0.6561911702156067 0.8310699462890625 -0.03239929676055908
0.618303656578064 0.8540066480636597 -0.04144122824072838
0.525780439376831 0.8914451599121094 -0.057115450501441956
0.7634533643722534 0.7912490963935852 0.02878529764711857
0.5669419765472412 0.47118520736694336 0.0059933229349553585
0.5023688077926636 0.5297530889511108 -0.05046618729829788
0.5804017186164856 0.8966448903083801 -0.03749445453286171
0.7993441224098206 0.6586012840270996 0.026848262175917625
0.49901360273361206 0.7625985145568848 -0.06831853836774826
0.5022464394569397 0.7707533836364746 -0.07213546335697174
0.5074418187141418 0.7835791110992432 -0.07585107535123825
0.51335209608078 0.7978717684745789 -0.07370737940073013
0.5306423306465149 0.8137943744659424 -0.061606265604496
0.5309149026870728 0.744317889213562 -0.07051369547843933
0.5373064875602722 0.7419720888137817 -0.07319381833076477
0.5449689626693726 0.7379956841468811 -0.07425550371408463
0.5722808837890625 0.7199125289916992 -0.07209515571594238
0.6939876675605774 0.6603448390960693 -0.04935849830508232
0.5119397640228271 0.5075640678405762 -0.028727510944008827
0.5381526350975037 0.4595058560371399 0.009550580754876137
0.55494624376297 0.46041610836982727 0.00945071317255497
0.5275076627731323 0.7413761019706726 -0.06759054213762283
0.7067346572875977 0.7251894474029541 -0.03284590318799019
0.5111324787139893 0.45984363555908203 -0.006689136382192373
0.5509107708930969 0.8310287594795227 -0.055125944316387177
0.48293769359588623 0.5169559717178345 -0.05357259884476662
0.5155986547470093 0.5658239126205444 -0.06136651709675789
0.508825421333313 0.8451310992240906 -0.05171661078929901
0.6055185198783875 0.7839908599853516 -0.05686318874359131
0.566605269908905 0.6359689831733704 -0.05116104334592819
0.5830928683280945 0.8111538887023926 -0.05621672794222832
0.6235870718955994 0.6353606581687927 -0.0597466304898262
0.5855517387390137 0.6631160378456116 -0.06097092479467392
0.6460829973220825 0.6789109706878662 -0.05943651869893074
0.5175231099128723 0.8683270812034607 -0.059696782380342484
0.5335049033164978 0.5809503793716431 -0.05524575710296631
0.6356549859046936 0.8028134703636169 -0.04763253405690193
0.6029341220855713 0.8291447162628174 -0.04866079241037369
0.6209456920623779 0.7509100437164307 -0.06060457602143288
0.7417099475860596 0.6922492980957031 -0.020965423434972763
0.6641173362731934 0.7556469440460205 -0.04985370114445686
0.7801110148429871 0.7138702869415283 0.013236909173429012
0.6026394367218018 0.7004236578941345 -0.06475082039833069
0.5214062929153442 0.5462654232978821 -0.046148378401994705
0.4957989454269409 0.6070619225502014 -0.09674078226089478
0.514960527420044 0.6167231798171997 -0.08063089102506638
0.48154905438423157 0.589496910572052 -0.10578273981809616
0.5520772337913513 0.43317192792892456 0.0001669546909397468
0.586308479309082 0.413491427898407 -0.012811589986085892
0.6199524998664856 0.40779781341552734 -0.02197822369635105
0.6518055200576782 0.4123391807079315 -0.02597271464765072
0.6775487065315247 0.42555004358291626 -0.02265748754143715
0.7032305598258972 0.47564804553985596 -0.005054207518696785
0.8080078363418579 0.544849157333374 0.04197810962796211
0.678925633430481 0.5137025117874146 -0.020388470962643623
0.6491215825080872 0.5219144821166992 -0.025145642459392548
0.6154239177703857 0.5213817358016968 -0.02304171398282051
0.5866655111312866 0.5153834223747253 -0.016198763623833656
0.5650160908699036 0.5074095726013184 -0.006268229801207781
0.5491400361061096 0.4997115135192871 -0.000978007330559194
0.840478777885437 0.5472868084907532 0.11170095950365067
0.5175029039382935 0.6252233386039734 -0.0715733990073204
0.49399954080581665 0.5485748648643494 -0.070026695728302
0.4740312099456787 0.605764627456665 -0.10630682110786438
0.46777114272117615 0.6190691590309143 -0.09626032412052155
0.47838467359542847 0.6111479997634888 -0.09796922653913498
0.5142109990119934 0.6341937184333801 -0.0631776824593544
0.46136656403541565 0.6203103065490723 -0.10072843730449677
0.46542149782180786 0.6275025606155396 -0.0786571055650711
0.5518482327461243 0.47771018743515015 0.011919024400413036
0.53611820936203 0.48589131236076355 0.0049828519113361835
0.5232592225074768 0.49077388644218445 -0.00692432327196002
0.6629951000213623 0.46241462230682373 -0.01175072230398655
0.6798607707023621 0.4479374885559082 -0.014710628427565098
