ply
format ascii 1.0
element vertex 468
property float x
property float y
property float z
end_header
0.5007023215293884 0.6978008151054382 -0.05921771004796028
0.4966459572315216 0.6320813894271851 -0.11724827438592911
0.499738872051239 0.6515466570854187 -0.05675603449344635
0.4788767397403717 0.5530462861061096 -0.09141306579113007
0.4958852231502533 0.6085333824157715 -0.12652815878391266
0.4963986873626709 0.5764888525009155 -0.11907663196325302
0.4993055760860443 0.49533993005752563 -0.0642404556274414
0.3305944502353668 0.47892624139785767 0.02911548689007759
0.499616801738739 0.42342251539230347 -0.053739141672849655
0.4990011155605316 0.38738662004470825 -0.06215309351682663
0.4975086450576782 0.255950003862381 -0.04916256666183472
0.5009865164756775 0.7078234553337097 -0.05617447942495346
0.5017449855804443 0.7157328724861145 -0.047789208590984344
0.502642035484314 0.7195395827293396 -0.037174660712480545
0.5039620399475098 0.7287712097167969 -0.030433999374508858
0.5040280222892761 0.737980842590332 -0.03258681669831276
0.5044301152229309 0.7495293021202087 -0.03472249582409859
0.5051434636116028 0.760431170463562 -0.027507418766617775
0.5071240663528442 0.7760189771652222 -3.07979789795354e-05
0.4976087808609009 0.6430246829986572 -0.10468827933073044
0.4830697476863861 0.641111433506012 -0.07287423312664032
0.23427745699882507 0.3670036196708679 0.1369381844997406
0.40054985880851746 0.5080785751342773 0.0016634006751701236
0.37587255239486694 0.5092536211013794 0.004967872053384781
0.3528876006603241 0.5058345794677734 0.013022190891206264
0.32374483346939087 0.48633548617362976 0.03416023775935173
0.4208890497684479 0.501640260219574 0.004202014766633511
0.366612046957016 0.4303933382034302 -0.007178025785833597
0.3938851058483124 0.43405869603157043 -0.009598270989954472
0.34197455644607544 0.43404287099838257 0.0025981462094932795
0.32593852281570435 0.4435001611709595 0.012896806932985783
0.30444225668907166 0.5023610591888428 0.048038460314273834
0.434295117855072 0.8057199120521545 0.02542632818222046
0.3225904107093811 0.4695838689804077 0.03736768290400505
0.23482531309127808 0.47763559222221375 0.15475064516067505
0.27785730361938477 0.4803959131240845 0.07179411500692368
0.39079371094703674 0.6074166893959045 -0.010759305208921432
0.4785880744457245 0.6960334181785583 -0.05492067709565163
0.4840565621852875 0.71641606092453 -0.04411879554390907
0.4574028551578522 0.7050158381462097 -0.04186096414923668
0.4442794620990753 0.7149749994277954 -0.027617909014225006
0.4695422649383545 0.7197825908660889 -0.03665409982204437
0.45794880390167236 0.7232415676116943 -0.02317684143781662
0.42011967301368713 0.7467972636222839 0.010347247123718262
0.4802296459674835 0.6317298412322998 -0.11482904106378555
0.4764169752597809 0.6090614199638367 -0.12311352789402008
0.2878824770450592 0.41509920358657837 0.022143959999084473
0.4337195158004761 0.5469542145729065 -0.019375551491975784
0.44064176082611084 0.6249188184738159 -0.057676829397678375
0.43856894969940186 0.6116670370101929 -0.051948703825473785
0.31832513213157654 0.6041821241378784 0.020391026511788368
0.4772898256778717 0.5790432095527649 -0.11103913187980652
0.34205830097198486 0.3896695375442505 -0.022338788956403732
0.3099517226219177 0.3971400260925293 -0.0010403440101072192
0.25555798411369324 0.32390207052230835 0.08545311540365219
0.4466433525085449 0.41619873046875 -0.04573819786310196
0.41726648807525635 0.44564104080200195 -0.003762283129617572
0.40334397554397583 0.7286853790283203 0.014152828603982925
0.284542977809906 0.6951460242271423 0.23393388092517853
0.45753538608551025 0.6374931335449219 -0.04902336746454239
0.4735455811023712 0.6433463096618652 -0.05007612332701683
0.43199485540390015 0.7289004325866699 0.00778458546847105
0.4418426752090454 0.7268486022949219 0.0003805553133133799
0.2950233817100525 0.3789314329624176 0.008592000231146812
0.4425569772720337 0.6343299746513367 -0.044318754225969315
0.3862447738647461 0.3941081166267395 -0.03796841576695442
0.38092905282974243 0.3728664517402649 -0.044241052120923996
0.35267189145088196 0.268593966960907 -0.014338205568492413
0.27490752935409546 0.3516088128089905 0.03958256542682648
0.3690662980079651 0.3207539916038513 -0.03268544003367424
0.27171027660369873 0.4019641876220703 0.042094986885786057
0.25222688913345337 0.38627707958221436 0.08423420786857605
0.4806842505931854 0.7077721953392029 -0.05265854299068451
0.46383851766586304 0.7142000198364258 -0.04069580137729645
0.45089414715766907 0.7195733189582825 -0.02771458402276039
0.46332210302352905 0.6411204934120178 -0.043388064950704575
0.4373750686645508 0.7285515069961548 0.0039017547387629747
0.44346532225608826 0.7312594652175903 -0.008546068333089352
0.44343996047973633 0.7247164845466614 -0.00023856265761423856
0.46293777227401733 0.6307048797607422 -0.08092810958623886
0.46255773305892944 0.7215743660926819 -0.019520223140716553
0.47432005405426025 0.7203124761581421 -0.02780870720744133
0.48760682344436646 0.7197996377944946 -0.03450692072510719
0.4821833074092865 0.7763683199882507 0.0001999207743210718
0.4825874865055084 0.759308934211731 -0.026577454060316086
0.4828413724899292 0.7474091053009033 -0.03247256949543953
0.48426011204719543 0.7364550828933716 -0.03035098873078823
0.486097127199173 0.7287504076957703 -0.02774954028427601
0.45910313725471497 0.727415919303894 -0.015158107504248619
0.4559495151042938 0.7301788926124573 -0.01824289746582508
0.45137858390808105 0.7357019186019897 -0.020786086097359657
0.4473608732223511 0.7426893711090088 -0.01628229394555092
0.4216131865978241 0.6907662749290466 -0.019727356731891632
0.24753165245056152 0.5770331621170044 0.26146450638771057
0.4987660050392151 0.6462993025779724 -0.07397688925266266
0.4517371356487274 0.7267923355102539 -0.0070512923412024975
0.44809281826019287 0.7284726500511169 -0.008999694138765335
0.47890499234199524 0.6520798206329346 -0.049797821789979935
0.4503948390483856 0.6472074389457703 -0.02677065320312977
0.47638148069381714 0.6479783058166504 -0.05040574446320534
0.4103037118911743 0.5607054233551025 -0.009760945104062557
0.37116187810897827 0.5769459009170532 3.1319010304287076e-05
0.43665552139282227 0.6212791800498962 -0.03821760043501854
0.29303115606307983 0.2904816269874573 0.03221455588936806
0.31179726123809814 0.32818660140037537 0.0011921063996851444
0.33205389976501465 0.3684214949607849 -0.02081512100994587
0.43571019172668457 0.7587710618972778 0.0030375616624951363
0.43787920475006104 0.3817973732948303 -0.057514965534210205
0.42893409729003906 0.32183539867401123 -0.05301375314593315
0.41852474212646484 0.2585917115211487 -0.04186934232711792
0.33415693044662476 0.4985142648220062 0.024378709495067596
0.27933239936828613 0.5198360681533813 0.06241155043244362
0.43430987000465393 0.4947739243507385 0.006668158806860447
0.30135291814804077 0.4507398009300232 0.03486170619726181
0.44853588938713074 0.531511127948761 -0.02849431522190571
0.44891756772994995 0.6168656349182129 -0.08094854652881622
0.25616586208343506 0.5336677432060242 0.09111928194761276
0.2955141067504883 0.5411809086799622 0.0411519855260849
0.3268094062805176 0.5530685186386108 0.01805237866938114
0.37335336208343506 0.5497519373893738 0.007004338316619396
0.40680763125419617 0.5398779511451721 -0.00019297213293612003
0.4308514893054962 0.5284112691879272 -0.007850414142012596
0.47759997844696045 0.5009762048721313 -0.05460725724697113
0.26430875062942505 0.5878983736038208 0.08728663623332977
0.28098148107528687 0.44493454694747925 0.046467315405607224
0.48818567395210266 0.6422227621078491 -0.10324446856975555
0.4391772747039795 0.5717486143112183 -0.027439486235380173
0.22848933935165405 0.4684869050979614 0.23534177243709564
0.44828927516937256 0.5154197216033936 -0.012518754228949547
0.434855192899704 0.6217709183692932 -0.01618383266031742
0.31530025601387024 0.46966254711151123 0.042792800813913345
0.44800588488578796 0.600593090057373 -0.07356949895620346
0.2619702219963074 0.6352671384811401 0.25452959537506104
0.43512818217277527 0.4843100905418396 0.011420506052672863
0.46100711822509766 0.5871355533599854 -0.09655825048685074
0.33827516436576843 0.7592960596084595 0.10549984872341156
0.3410697877407074 0.7769409418106079 0.1531767100095749
0.24527812004089355 0.5834186673164368 0.17414522171020508
0.3060382604598999 0.7288443446159363 0.1349145919084549
0.241693377494812 0.4285103976726532 0.1260576993227005
0.4316543638706207 0.8219028115272522 0.042592816054821014
0.4917786419391632 0.6455064415931702 -0.07215641438961029
0.4202343821525574 0.5888952612876892 -0.017401285469532013
0.2573840618133545 0.4827349781990051 0.09608326107263565
0.3536146879196167 0.49242690205574036 0.013578195124864578
0.3745734691619873 0.49663612246513367 0.007005736697465181
0.4381905496120453 0.7355048060417175 -0.004387655761092901
0.27539825439453125 0.6347737312316895 0.09661847352981567
0.47014179825782776 0.8461998701095581 0.052744898945093155
0.40819644927978516 0.819547712802887 0.0949903205037117
0.37836170196533203 0.8029961585998535 0.11934533715248108
0.49790680408477783 0.3229990005493164 -0.0597146600484848
0.5120691657066345 0.8505398631095886 0.0451604425907135
0.39554351568222046 0.49554643034935 0.005252426955848932
0.41560471057891846 0.4912800192832947 0.007758535910397768
0.4288068115711212 0.48790162801742554 0.011975431814789772
0.26257264614105225 0.43754106760025024 0.0708809643983841
0.4140407145023346 0.46091651916503906 0.0020763175562024117
0.3926991820335388 0.4501475691795349 6.071924144634977e-05
0.37003764510154724 0.4471440315246582 0.002024798421189189
0.3481183648109436 0.4510413706302643 0.00936929788440466
0.3354233503341675 0.4583841860294342 0.017552215605974197
0.2258002758026123 0.4126102924346924 0.19160118699073792
0.33988821506500244 0.4859445095062256 0.022333024069666862
0.5003441572189331 0.6658153533935547 -0.051072943955659866
0.43984857201576233 0.6781186461448669 -0.028825802728533745
0.45565107464790344 0.6343744397163391 -0.05790885165333748
0.47551530599594116 0.669367253780365 -0.04828706756234169
0.5000870823860168 0.4584910273551941 -0.05074740946292877
0.3715386390686035 0.7848145961761475 0.08483650535345078
0.40144431591033936 0.8029052019119263 0.06493116170167923
0.46717655658721924 0.8375452756881714 0.022455867379903793
0.31110185384750366 0.7433890700340271 0.19676494598388672
0.42877089977264404 0.47549736499786377 0.007528257090598345
0.46342939138412476 0.540389358997345 -0.059315286576747894
0.5107467174530029 0.8403311371803284 0.015772799029946327
0.43763720989227295 0.8346315026283264 0.06980189681053162
0.25879326462745667 0.6359303593635559 0.17321406304836273
0.4710555970668793 0.7278439998626709 -0.021971765905618668
0.4680368900299072 0.7330988645553589 -0.025255143642425537
0.46489065885543823 0.7415919303894043 -0.02788180112838745
0.46296238899230957 0.7523552179336548 -0.023313526064157486
0.4568096697330475 0.7693034410476685 -0.001895480789244175
0.4484792947769165 0.7258972525596619 -0.010959139093756676
0.44169193506240845 0.7249010801315308 -0.01093198824673891
0.43508532643318176 0.7221810817718506 -0.010879031382501125
0.40874984860420227 0.7087317705154419 -0.004974657204002142
0.3073843717575073 0.652119517326355 0.0479479618370533
0.46314436197280884 0.5144637227058411 -0.04003514349460602
0.4505959153175354 0.4636375308036804 -0.007495654746890068
0.43770015239715576 0.46781840920448303 0.002435356145724654
0.45262789726257324 0.7224584817886353 -0.008745120838284492
0.313434898853302 0.7028276324272156 0.08617735654115677
0.469810426235199 0.46200358867645264 -0.035795342177152634
0.4438980519771576 0.7881196737289429 0.013772308826446533
0.4974525570869446 0.5495320558547974 -0.09998460114002228
0.4779546856880188 0.5288829207420349 -0.07581178098917007
0.498257040977478 0.5239196419715881 -0.08185045421123505
0.45141321420669556 0.5784872174263 -0.056070782244205475
0.5094820857048035 0.8229012489318848 0.001961460569873452
0.508373498916626 0.7987512946128845 0.0015753995394334197
0.4753580093383789 0.7986345291137695 0.005679899360984564
0.3953513503074646 0.7541831731796265 0.02735717222094536
0.4146186411380768 0.6392802000045776 -0.009454162791371346
0.41808947920799255 0.77359539270401 0.021070290356874466
0.35561883449554443 0.6352195739746094 0.0009431435028091073
0.3926672637462616 0.6619294285774231 -0.005867213010787964
0.3414406180381775 0.6714433431625366 0.01979384385049343
0.46902996301651 0.8213369846343994 0.008561941795051098
0.44225290417671204 0.5914239883422852 -0.038705918937921524
0.3765917420387268 0.7663827538490295 0.05359593778848648
0.4058866500854492 0.7865256071090698 0.04258890822529793
0.3760165572166443 0.7299719452857971 0.028114978224039078
0.28759610652923584 0.6730221509933472 0.10682482272386551
0.34581685066223145 0.7296241521835327 0.053687047213315964
0.2769937515258789 0.6841378211975098 0.1655590832233429
0.3794909715652466 0.6922243237495422 0.005627328064292669
0.4514424204826355 0.5555272102355957 -0.042293377220630646
0.45617467164993286 0.6274130344390869 -0.0856318548321724
0.4473128318786621 0.6326088309288025 -0.05992667004466057
0.46119096875190735 0.6118016839027405 -0.10219340771436691
0.43043169379234314 0.4380560517311096 -0.016214650124311447
0.39130064845085144 0.4209235906600952 -0.01818004995584488
0.3570947051048279 0.4171866774559021 -0.013510878197848797
0.3292321562767029 0.4209301173686981 -0.0015083892503753304
0.31044191122055054 0.43148916959762573 0.014087030664086342
0.29921555519104004 0.47511598467826843 0.053581275045871735
0.23659494519233704 0.5306178331375122 0.16605405509471893
0.3173666000366211 0.5155012011528015 0.03524281829595566
0.3416387438774109 0.5254665017127991 0.0204645786434412
0.3738405704498291 0.5272238254547119 0.009561543352901936
0.4040393531322479 0.522157609462738 0.0026285385247319937
0.42702218890190125 0.5139848589897156 0.0013459387701004744
0.44263821840286255 0.5057438015937805 -0.001392242731526494
0.23776516318321228 0.5219816565513611 0.25634196400642395
0.4498794376850128 0.6381146907806396 -0.0481455959379673
0.46327751874923706 0.5632976293563843 -0.07483380287885666
0.46771642565727234 0.6285650134086609 -0.10351642221212387
0.4801085889339447 0.6382800936698914 -0.09391874819993973
0.4691772162914276 0.6316731572151184 -0.09230270981788635
0.45634135603904724 0.644183874130249 -0.03998938575387001
0.48261985182762146 0.6407129764556885 -0.09982434660196304
0.48645299673080444 0.6442942023277283 -0.07245057076215744
0.4429335594177246 0.48597627878189087 0.008133201859891415
0.45483729243278503 0.4914385676383972 -0.005614608526229858
0.46145087480545044 0.49586328864097595 -0.02002168446779251
0.32827699184417725 0.4642307758331299 0.02649874798953533
0.31524893641471863 0.45392847061157227 0.027440819889307022
0.5167859196662903 0.5526347756385803 -0.09295404702425003
0.6787518858909607 0.47602635622024536 0.017278127372264862
0.5152450203895569 0.6408354043960571 -0.073951855301857
0.7804487943649292 0.3594004511833191 0.11919225007295609
0.6073946952819824 0.5059219598770142 -0.005988545715808868
0.6325212717056274 0.506453275680542 -0.0041036359034478664
0.6560917496681213 0.5026905536651611 0.002373462077230215
0.6866880059242249 0.4830854535102844 0.021626489236950874
0.5863906741142273 0.5001281499862671 -0.0018403143621981144
0.6383567452430725 0.4286482036113739 -0.01665431633591652
0.6109005808830261 0.4327232837677002 -0.016934650018811226
0.6637576222419739 0.43185025453567505 -0.00833144225180149
0.6809102296829224 0.44084256887435913 0.0009232002776116133
0.7072019577026367 0.4979251027107239 0.034437406808137894
0.5883247256278992 0.8050347566604614 0.020391521975398064
0.6871737837791443 0.46654969453811646 0.025144260376691818
0.7862099409103394 0.4709432125091553 0.13641409575939178
0.7357218265533447 0.4754257798194885 0.056781407445669174
0.616405725479126 0.6045687794685364 -0.018153633922338486
0.5236271619796753 0.6954225301742554 -0.056592896580696106
0.5206323862075806 0.7158521413803101 -0.045964792370796204
0.5480843782424927 0.7041929364204407 -0.045621272176504135
0.5647314786911011 0.7134972810745239 -0.03313765302300453
0.5374191999435425 0.7190641164779663 -0.040293145924806595
0.5516548752784729 0.7222033143043518 -0.027941767126321793
0.5979440212249756 0.7451026439666748 0.0034174725878983736
0.51361483335495 0.6313193440437317 -0.1156967356801033
0.5164406895637512 0.6086353063583374 -0.12428776174783707
0.718706488609314 0.411680668592453 0.008144866675138474
0.5709047317504883 0.5453943610191345 -0.024131564423441887
0.5602642297744751 0.6239318251609802 -0.06192729249596596
0.5629709959030151 0.6105608344078064 -0.05644970387220383
0.6940621733665466 0.5993169546127319 0.007800028193742037
0.5164282321929932 0.5786556005477905 -0.11257268488407135
0.6597130298614502 0.3886408805847168 -0.031862128525972366
0.6937267780303955 0.3950651288032532 -0.013295027427375317
0.7533973455429077 0.31742027401924133 0.06954081356525421
0.5534689426422119 0.4163051247596741 -0.04872491955757141
0.5879154205322266 0.4445599615573883 -0.009634863585233688
0.6134569048881531 0.726432740688324 0.005814561154693365
0.7532676458358765 0.6909446716308594 0.21772660315036774
0.5438264608383179 0.6369277834892273 -0.052247460931539536
0.5274772047996521 0.6431395411491394 -0.05152646452188492
0.5836725234985352 0.7272909879684448 0.0006172611028887331
0.5735799074172974 0.7253124713897705 -0.006219686008989811
0.708666205406189 0.37649545073509216 -0.004177415743470192
0.5601781010627747 0.6333649158477783 -0.04853948578238487
0.6144230365753174 0.3935672640800476 -0.044673092663288116
0.6186256408691406 0.3722819983959198 -0.05101616308093071
0.6463878154754639 0.2647809386253357 -0.023457229137420654
0.7308260202407837 0.34701231122016907 0.025355644524097443
0.6294769048690796 0.31858810782432556 -0.040414076298475266
0.7359668016433716 0.39787042140960693 0.027063196524977684
0.7586147785186768 0.3803532123565674 0.06832566857337952
0.5224147439002991 0.7073175311088562 -0.05439373105764389
0.5421059727668762 0.713375449180603 -0.04449381306767464
0.5580930113792419 0.7183024883270264 -0.03279634192585945
0.5384907126426697 0.6407052278518677 -0.045950379222631454
0.5778802037239075 0.7267375588417053 -0.002977029886096716
0.5710781812667847 0.7297124266624451 -0.01434008777141571
0.5720052123069763 0.723434329032898 -0.006530490703880787
0.5352358222007751 0.6300922632217407 -0.08379918336868286
0.5477853417396545 0.7206201553344727 -0.024213457480072975
0.5336975455284119 0.7197751998901367 -0.031054941937327385
0.5186169147491455 0.7193140983581543 -0.03625577315688133
0.533058226108551 0.776001513004303 -0.0015598040772601962
0.5286604762077332 0.7590570449829102 -0.028602097183465958
0.5269097685813904 0.7470809817314148 -0.03448856621980667
0.5246848464012146 0.7362369298934937 -0.03239617869257927
0.5227322578430176 0.7284729480743408 -0.02972852997481823
0.5537276268005371 0.7262718677520752 -0.019680827856063843
0.5568525195121765 0.7290253043174744 -0.022868230938911438
0.5616379380226135 0.7344269752502441 -0.0253815446048975
0.5666515231132507 0.7414239645004272 -0.021102488040924072
0.5876868963241577 0.6888419389724731 -0.025907324627041817
0.785595178604126 0.5704675912857056 0.2429535984992981
0.562477707862854 0.725482165813446 -0.012544111348688602
0.5661749243736267 0.7271327972412109 -0.014645077288150787
0.5219793915748596 0.6519285440444946 -0.05138774961233139
0.553758978843689 0.6465493440628052 -0.03016701713204384
0.5243797302246094 0.6476795673370361 -0.05189967527985573
0.5959787368774414 0.5584217309951782 -0.01623827964067459
0.6368727684020996 0.5734796524047852 -0.008868142031133175
0.5664593577384949 0.6199836730957031 -0.04292909801006317
0.7108398675918579 0.28508251905441284 0.01924270950257778
0.6900339126586914 0.32495856285095215 -0.010083100758492947
0.669212818145752 0.3671414256095886 -0.030920295044779778
0.5817158818244934 0.7574838399887085 -0.002892222721129656
0.5607345104217529 0.3819507360458374 -0.06080729514360428
0.5678192377090454 0.3206219971179962 -0.05684874579310417
0.5777859687805176 0.2564356327056885 -0.04621091112494469
0.6759231686592102 0.49517303705215454 0.012568718753755093
0.7344446182250977 0.514400064945221 0.04750780761241913
0.5724388360977173 0.49373024702072144 0.0013737007975578308
0.7075515389442444 0.44723203778266907 0.02118551917374134
0.554840624332428 0.5304128527641296 -0.03226681426167488
0.5493624806404114 0.6160495281219482 -0.08444098383188248
0.7611846923828125 0.5274419188499451 0.07420613616704941
0.716634213924408 0.5358776450157166 0.027250520884990692
0.6832303404808044 0.5483254790306091 0.006113696843385696
0.6348252296447754 0.5464075207710266 -0.0019764781463891268
0.6002385020256042 0.5374626517295837 -0.0069367168471217155
0.5750207304954529 0.5268563628196716 -0.012984461151063442
0.5221531391143799 0.50065678358078 -0.05626791715621948
0.7544134259223938 0.5817831158638 0.07056988030672073
0.7291703224182129 0.44061946868896484 0.03169674426317215
0.5075397491455078 0.641958475112915 -0.1039571687579155
0.56435227394104 0.5704236030578613 -0.032029710710048676
0.7978065609931946 0.461076021194458 0.21645472943782806
0.5562392473220825 0.5143959522247314 -0.016438959166407585
0.5699703693389893 0.6204147338867188 -0.02080138400197029
0.6949774026870728 0.46645888686180115 0.02967282384634018
0.5511330962181091 0.5997922420501709 -0.07725740224123001
0.7738432884216309 0.6297751069068909 0.23704855144023895
0.5719013214111328 0.4834776520729065 0.005942833609879017
0.5351633429527283 0.5864518880844116 -0.09914744645357132
0.6919323205947876 0.7570413947105408 0.09343834966421127
0.6942356824874878 0.7750564813613892 0.14104050397872925
0.7809827327728271 0.5771573185920715 0.1562228500843048
0.7254273891448975 0.7253404855728149 0.12097146362066269
0.7743865251541138 0.4217490553855896 0.108802430331707
0.5933731198310852 0.8215698003768921 0.03697653114795685
0.5059166550636292 0.6453327536582947 -0.07264199107885361
0.5851960182189941 0.586884617805481 -0.022925283759832382
0.7586323618888855 0.47680720686912537 0.07967190444469452
0.6547287106513977 0.48962128162384033 0.00329958344809711
0.6333019733428955 0.4940314292907715 -0.0021763688419014215
0.577010452747345 0.7338598966598511 -0.010660886764526367
0.7467510104179382 0.6291888952255249 0.08078355342149734
0.5551481246948242 0.8461328744888306 0.04973283410072327
0.6221168041229248 0.819251537322998 0.08732409030199051
0.6543542146682739 0.8022278547286987 0.10948549211025238
0.6119177937507629 0.49347639083862305 -0.0026847487315535545
0.5917769074440002 0.4895225167274475 0.000787388242315501
0.5784928798675537 0.4866824746131897 0.0057937330566346645
0.749544620513916 0.4320520758628845 0.05502467602491379
0.5929991602897644 0.4598098397254944 -0.0048961341381073
0.614392101764679 0.4486360549926758 -0.007986951619386673
0.636806070804596 0.4453722834587097 -0.0070787654258310795
0.6592435836791992 0.4488803744316101 -0.0012225941754877567
0.6727417707443237 0.45592981576919556 0.006262287497520447
0.7946062088012695 0.4048253297805786 0.17298567295074463
0.6689739227294922 0.4829786419868469 0.01099130604416132
0.5665748119354248 0.6768012642860413 -0.03349051624536514
0.544808566570282 0.6336681842803955 -0.06082843616604805
0.5265081524848938 0.6689174175262451 -0.05024675652384758
0.6571123600006104 0.7834609150886536 0.07519443333148956
0.6260194182395935 0.8021541237831116 0.057325709611177444
0.5553895831108093 0.8372906446456909 0.01914973556995392
0.7262051105499268 0.7405357956886292 0.18241213262081146
0.5782124400138855 0.47466418147087097 0.0012972671538591385
0.5360867977142334 0.5396846532821655 -0.06200343370437622
0.5899033546447754 0.8345311284065247 0.06401897966861725
0.7705682516098022 0.630343496799469 0.15629951655864716
0.5395724773406982 0.7270493507385254 -0.025385094806551933
0.5428206920623779 0.7323801517486572 -0.02878413535654545
0.5464462041854858 0.7408647537231445 -0.03175768256187439
0.5497840046882629 0.7517021894454956 -0.02730669267475605
0.5597414970397949 0.7684444189071655 -0.00629499601200223
0.564410924911499 0.7244800925254822 -0.016704265028238297
0.5706647038459778 0.7234637141227722 -0.01724368892610073
0.577351450920105 0.7205047607421875 -0.01751827262341976
0.6041331887245178 0.706500768661499 -0.012786914594471455
0.7108577489852905 0.6472902894020081 0.03443748876452446
0.5383493304252625 0.5137752294540405 -0.04274445027112961
0.5535867214202881 0.46330147981643677 -0.010902631096541882
0.5679946541786194 0.46709144115448 -0.002677587326616049
0.5601763129234314 0.7212418913841248 -0.014321103692054749
0.7114754915237427 0.6988667845726013 0.0728285163640976
0.5317920446395874 0.4619287848472595 -0.037810347974300385
0.5761663317680359 0.7873809337615967 0.009204717352986336
0.5195644497871399 0.5285689234733582 -0.07732021063566208
0.5488858222961426 0.5775175094604492 -0.05938632786273956
0.542722225189209 0.7982240915298462 0.0035125003196299076
0.625079333782196 0.7522590160369873 0.01935337297618389
0.5922606587409973 0.6373279094696045 -0.015505308285355568
0.6028908491134644 0.7724233865737915 0.014648224227130413
0.6550664901733398 0.6315408945083618 -0.008701224811375141
0.6167552471160889 0.659286618232727 -0.01338905468583107
0.673876166343689 0.6676023006439209 0.008761649951338768
0.5512121319770813 0.8209993839263916 0.005708875134587288
0.5602981448173523 0.5903582572937012 -0.04281598702073097
0.6477479338645935 0.7645727396011353 0.04433632269501686
0.6182449460029602 0.7854613661766052 0.03538751229643822
0.6430262923240662 0.7272434830665588 0.01832536980509758
0.7377263903617859 0.6681768298149109 0.09168772399425507
0.6771306991577148 0.7267001867294312 0.042228348553180695
0.754753589630127 0.6792692542076111 0.1494593471288681
0.634197473526001 0.6891104578971863 -0.003201214363798499
0.5501506924629211 0.5546656250953674 -0.0457930825650692
0.5418291687965393 0.6266520619392395 -0.08882565796375275
0.5533446073532104 0.6318606734275818 -0.06357091665267944
0.5340418219566345 0.6110943555831909 -0.10477050393819809
0.572929322719574 0.43781334161758423 -0.020809220150113106
0.6118422746658325 0.4202088713645935 -0.025197632610797882
0.6463167071342468 0.4157037138938904 -0.02283833920955658
0.6753425002098083 0.4186849594116211 -0.012890230864286423
0.6961296200752258 0.4286254644393921 0.0013546607224270701
0.7123130559921265 0.47100669145584106 0.03965286538004875
0.7869510650634766 0.5239852070808411 0.1474713832139969
0.6935501098632812 0.5110280513763428 0.022609436884522438
0.6680457592010498 0.5214848518371582 0.009431390091776848
0.6346794962882996 0.5240275859832764 0.0005559496348723769
0.603539764881134 0.5198425650596619 -0.004575417842715979
0.5798131823539734 0.5124211311340332 -0.0037367932964116335
0.5634249448776245 0.5044519305229187 -0.0058592031709849834
0.79228675365448 0.5148940086364746 0.23738829791545868
0.5520346164703369 0.63737952709198 -0.051736898720264435
0.5343910455703735 0.5625103116035461 -0.07759318500757217
0.527843177318573 0.6280114650726318 -0.10553862899541855
0.5171446204185486 0.638011634349823 -0.09506523609161377
0.5277408361434937 0.6311788558959961 -0.09433852136135101
0.5465515851974487 0.6437498331069946 -0.043138422071933746
0.5138255953788757 0.6403498649597168 -0.10087317228317261
0.5116705894470215 0.6440846920013428 -0.07333766669034958
0.5634158849716187 0.485287606716156 0.0034805042669177055
0.5501641631126404 0.4908362627029419 -0.00905414205044508
0.5420650243759155 0.4952270984649658 -0.022862669080495834
0.6805785298347473 0.46149542927742004 0.014755940064787865
0.6932761669158936 0.4508706331253052 0.015002181753516197
