ply
format ascii 1.0
element vertex 468
property float x
property float y
property float z
end_header
0.48034173250198364 0.7151320576667786 -0.06620464473962784
0.4684506058692932 0.6444156169891357 -0.135156512260437
0.4782300591468811 0.6702376008033752 -0.07352279871702194
0.4603305459022522 0.551744282245636 -0.09768585115671158
0.4685870110988617 0.6152536273002625 -0.14349164068698883
0.47296690940856934 0.5777341723442078 -0.13353826105594635
0.48804736137390137 0.48914003372192383 -0.06663069128990173
0.3396809697151184 0.4793323278427124 0.061855725944042206
0.4934244751930237 0.4207143783569336 -0.0469466857612133
0.4939844310283661 0.3833213150501251 -0.05088046193122864
0.5026438236236572 0.24984151124954224 -0.02659660391509533
0.48123306035995483 0.7264601588249207 -0.06313302367925644
0.4832172393798828 0.7332198023796082 -0.05655967816710472
0.48569172620773315 0.733462393283844 -0.04687868803739548
0.48541784286499023 0.76321941614151 -0.04175291955471039
0.48422423005104065 0.7712666988372803 -0.04654787480831146
0.48352575302124023 0.7819617986679077 -0.052894655615091324
0.4835735261440277 0.7958251237869263 -0.05190303549170494
0.4851705729961395 0.8241678476333618 -0.03367580473423004
0.47058653831481934 0.659585177898407 -0.12283177673816681
0.45511534810066223 0.6559763550758362 -0.08657719194889069
0.27908578515052795 0.3823257088661194 0.19239166378974915
0.40495431423187256 0.5038124918937683 0.02627035789191723
0.3814126253128052 0.5046302080154419 0.032005179673433304
0.35943230986595154 0.5025496482849121 0.042408332228660583
0.331257164478302 0.48872992396354675 0.06760300695896149
0.42419713735580444 0.4985828995704651 0.0248235035687685
0.3752501606941223 0.43714475631713867 0.023334024474024773
0.3992175757884979 0.4401001036167145 0.01849297247827053
0.35279661417007446 0.440501868724823 0.03524680808186531
0.3379453122615814 0.44970786571502686 0.047481585294008255
0.3123742938041687 0.5050574541091919 0.08271916955709457
0.4018245041370392 0.8643017411231995 0.014266925863921642
0.3324229121208191 0.4739440679550171 0.07148966938257217
0.2629263699054718 0.49840912222862244 0.2035595327615738
0.29281890392303467 0.489601731300354 0.11152247339487076
0.36932361125946045 0.6086987853050232 -6.945028871996328e-05
0.44671857357025146 0.7090553045272827 -0.05798398703336716
0.4516475796699524 0.7298611998558044 -0.04669104889035225
0.4143301248550415 0.7095353603363037 -0.035483941435813904
0.3943326771259308 0.7123254537582397 -0.007463580928742886
0.4276523292064667 0.7265726923942566 -0.02868315391242504
0.4095778465270996 0.7245833873748779 -0.003343513933941722
0.3761492371559143 0.7547576427459717 0.039150919765233994
0.45023348927497864 0.6430624723434448 -0.13021397590637207
0.4483761191368103 0.6147511005401611 -0.137335866689682
0.30607879161834717 0.4213109612464905 0.06047457829117775
0.42474889755249023 0.5470981597900391 -0.007892490364611149
0.408826619386673 0.6282917857170105 -0.061153654009103775
0.4103013277053833 0.6129779815673828 -0.05321882292628288
0.2987850308418274 0.600551187992096 0.046067897230386734
0.45365846157073975 0.580182671546936 -0.12203951179981232
0.3543030619621277 0.39195722341537476 0.0076078446581959724
0.32552093267440796 0.4008851945400238 0.0330752395093441
0.29787105321884155 0.3328017294406891 0.14043542742729187
0.44721823930740356 0.4156144857406616 -0.031401634216308594
0.42022138833999634 0.4495479464530945 0.021730728447437286
0.3559979200363159 0.7235637903213501 0.04640534147620201
0.28655555844306946 0.7517870664596558 0.2608792781829834
0.4248766303062439 0.6446294188499451 -0.05485399067401886
0.4431840479373932 0.6547235250473022 -0.06190786883234978
0.3726457357406616 0.7196575403213501 0.04570251330733299
0.3839039206504822 0.7219046950340271 0.0380454882979393
0.31526315212249756 0.38300877809524536 0.04671524092555046
0.40904712677001953 0.6372897624969482 -0.047927238047122955
0.39346474409103394 0.3949011564254761 -0.014492504298686981
0.38930001854896545 0.37207385897636414 -0.019388535991311073
0.3759765028953552 0.26598426699638367 0.028949202969670296
0.30615949630737305 0.357301265001297 0.08759456872940063
0.3840905427932739 0.316792368888855 0.0035778169985860586
0.29490554332733154 0.40974700450897217 0.08369272947311401
0.2861514985561371 0.3975588381290436 0.13496455550193787
0.44815340638160706 0.7220010757446289 -0.05418163537979126
0.4214719235897064 0.7201730012893677 -0.032371651381254196
0.4018288850784302 0.7184667587280273 -0.0069183604791760445
0.4305878281593323 0.6489365696907043 -0.051635634154081345
0.3778061866760254 0.7200367450714111 0.04161061719059944
0.39040443301200867 0.7365826368331909 0.024272529408335686
0.38871848583221436 0.7235790491104126 0.036866068840026855
0.43255287408828735 0.6410744190216064 -0.08953532576560974
0.41520583629608154 0.7224085927009583 -0.000913193158339709
0.4336315095424652 0.7258768677711487 -0.0203463863581419
0.4563753306865692 0.7305128574371338 -0.03698445111513138
0.45049768686294556 0.8214349150657654 -0.024972153827548027
0.45099931955337524 0.7911282777786255 -0.04143373295664787
0.4513491690158844 0.7765993475914001 -0.04186515137553215
0.4530724883079529 0.7665414810180664 -0.034939538687467575
0.45624521374702454 0.7597470283508301 -0.030696768313646317
0.41366463899612427 0.7448297739028931 0.004748249892145395
0.4098248779773712 0.7464399933815002 0.0006256602937355638
0.4051576554775238 0.7510044574737549 -0.0025457870215177536
0.40185391902923584 0.7591350674629211 0.003012476023286581
0.3785461187362671 0.692582368850708 0.0008613879908807576
0.27025988698005676 0.6200776100158691 0.3009171187877655
0.4739936590194702 0.6652491092681885 -0.09094181656837463
0.40230652689933777 0.7377510666847229 0.025119977071881294
0.3957931399345398 0.7358449697494507 0.022927366197109222
0.4502817988395691 0.6668393611907959 -0.06274186819791794
0.416196346282959 0.651624858379364 -0.032282717525959015
0.446816623210907 0.6613138914108276 -0.0631723701953888
0.3992196321487427 0.5598447322845459 0.00434246426448226
0.35730093717575073 0.5734605193138123 0.01678192988038063
0.4071049690246582 0.6227719187736511 -0.03874604403972626
0.32764920592308044 0.2930666506290436 0.08317390829324722
0.3370041847229004 0.32893383502960205 0.044207632541656494
0.34738820791244507 0.36991122364997864 0.013132378458976746
0.39460280537605286 0.7819212675094604 0.020168757066130638
0.43951451778411865 0.3788074254989624 -0.039800189435482025
0.4356529712677002 0.3146784007549286 -0.0241561196744442
0.4320887327194214 0.2531822621822357 -0.008577910251915455
0.34095385670661926 0.49745333194732666 0.0560324490070343
0.2878747284412384 0.5230457186698914 0.09996624290943146
0.4361201822757721 0.4922741651535034 0.026122214272618294
0.3154584765434265 0.4578869938850403 0.072935551404953
0.44076818227767944 0.5310974717140198 -0.01953430473804474
0.41954517364501953 0.6222509145736694 -0.08748694509267807
0.265587717294693 0.5425828695297241 0.13210631906986237
0.2987143397331238 0.5384595394134521 0.07548119872808456
0.3246925473213196 0.5468804240226746 0.047934312373399734
0.36840495467185974 0.5459316968917847 0.02925579622387886
0.40303707122802734 0.5383360385894775 0.01827092096209526
0.42765113711357117 0.5276668071746826 0.007104208692908287
0.46795618534088135 0.49632328748703003 -0.05238817259669304
0.258350670337677 0.5949289202690125 0.12499174475669861
0.2988852858543396 0.45394769310951233 0.08775601536035538
0.4598272740840912 0.6577723026275635 -0.11924972385168076
0.4228717088699341 0.5731282234191895 -0.02019590139389038
0.2670751214027405 0.49887093901634216 0.2847084701061249
0.44489169120788574 0.5142048001289368 0.00014755368465557694
0.40630683302879333 0.6230449080467224 -0.013858548365533352
0.32617896795272827 0.47557708621025085 0.07795820385217667
0.42223215103149414 0.6033615469932556 -0.07788991183042526
0.2747489809989929 0.6851652264595032 0.2872171401977539
0.43694934248924255 0.4827614426612854 0.03282913193106651
0.43747860193252563 0.589349627494812 -0.10431858897209167
0.31677359342575073 0.8035457730293274 0.12536126375198364
0.3291706442832947 0.8394138216972351 0.16590616106987
0.2522808611392975 0.610313892364502 0.21516293287277222
0.2873389720916748 0.771442174911499 0.15904219448566437
0.2739642560482025 0.444484144449234 0.1766081005334854
0.4018555283546448 0.891478419303894 0.026712818071246147
0.4654563069343567 0.6637243628501892 -0.0880022644996643
0.40114152431488037 0.589745044708252 -0.008931677788496017
0.2764259874820709 0.4955640435218811 0.13961520791053772
0.36155134439468384 0.4868508279323578 0.04352131858468056
0.38174161314964294 0.48964691162109375 0.03461603820323944
0.3859283924102783 0.7400695085525513 0.029260169714689255
0.2577655613422394 0.6496843695640564 0.13093964755535126
0.4431850016117096 0.9279066324234009 0.02182750031352043
0.38644081354141235 0.8939083814620972 0.08885244280099869
0.3618732690811157 0.8715890645980835 0.12432002276182175
0.49761390686035156 0.3153303563594818 -0.04057391732931137
0.487073689699173 0.9353580474853516 0.0049968590028584
0.40153753757476807 0.48939841985702515 0.030191250145435333
0.42008164525032043 0.48647549748420715 0.03083939477801323
0.43160325288772583 0.48472222685813904 0.03376303240656853
0.2855745255947113 0.4487287998199463 0.11524027585983276
0.41756007075309753 0.46547913551330566 0.027649495750665665
0.398063063621521 0.45830124616622925 0.026935581117868423
0.37805742025375366 0.45591843128204346 0.03129814192652702
0.3580399751663208 0.45907437801361084 0.0405118428170681
0.34512078762054443 0.46547210216522217 0.05014884099364281
0.26901379227638245 0.43454664945602417 0.2446342259645462
0.34837350249290466 0.48311376571655273 0.053485166281461716
0.48014160990715027 0.6849159598350525 -0.06539003551006317
0.40191370248794556 0.6830244064331055 -0.02294589765369892
0.42333129048347473 0.6421381235122681 -0.0646897554397583
0.4466361403465271 0.6830823421478271 -0.057068437337875366
0.492748498916626 0.4543635845184326 -0.04783934727311134
0.3496064245700836 0.8370206952095032 0.09675825387239456
0.37614327669143677 0.8640516996383667 0.06376582384109497
0.4375418424606323 0.9111009836196899 -0.006990295369178057
0.30526015162467957 0.8034045100212097 0.2162732481956482
0.4307783842086792 0.4756418764591217 0.03105618618428707
0.4497724771499634 0.5394065380096436 -0.05754902586340904
0.48381370306015015 0.9168902039527893 -0.022128527984023094
0.4115011692047119 0.9134538173675537 0.050999123603105545
0.2559756636619568 0.6699055433273315 0.20844678580760956
0.43239521980285645 0.7528809309005737 -0.013890828005969524
0.42817655205726624 0.7573184370994568 -0.01807396300137043
0.42533135414123535 0.7653401494026184 -0.021769938990473747
0.4234776198863983 0.778172492980957 -0.0183402132242918
0.41834890842437744 0.80488520860672 -0.00222959672100842
0.3930342197418213 0.7215374708175659 0.019936688244342804
0.3856532573699951 0.7181597352027893 0.021772969514131546
0.3792217969894409 0.7140159606933594 0.022060994058847427
0.36007627844810486 0.704596996307373 0.026575177907943726
0.27811509370803833 0.6604992151260376 0.07544776797294617
0.4551079571247101 0.5123717784881592 -0.0341852605342865
0.45131736993789673 0.4623503088951111 0.010879680514335632
0.4395984709262848 0.4677232503890991 0.024436065927147865
0.4000317454338074 0.7200083136558533 0.02082286775112152
0.2839615046977997 0.7270953059196472 0.11277826130390167
0.46605902910232544 0.459566593170166 -0.02556028589606285
0.40980425477027893 0.83424973487854 0.006245902273803949
0.4783112704753876 0.5479303002357483 -0.11016922444105148
0.4636436700820923 0.5258287787437439 -0.07787829637527466
0.48315227031707764 0.5201655626296997 -0.08738047629594803
0.43214958906173706 0.5802608132362366 -0.056252408772706985
0.4830065667629242 0.8898830413818359 -0.034398265182971954
0.48411962389945984 0.8549388647079468 -0.034541063010692596
0.44400686025619507 0.8521702289581299 -0.021379198879003525
0.363372266292572 0.7728571891784668 0.051591306924819946
0.3866654932498932 0.6422911882400513 -0.0021413106005638838
0.38564619421958923 0.8074229955673218 0.03140588477253914
0.3266107439994812 0.6369224786758423 0.016035031527280807
0.3607449233531952 0.6654224991798401 0.011125508695840836
0.30711519718170166 0.6772496104240417 0.04242638126015663
0.43745920062065125 0.8859114050865173 -0.018775563687086105
0.420816034078598 0.593328058719635 -0.036430321633815765
0.35028696060180664 0.8006007075309753 0.07236563414335251
0.37757229804992676 0.8335080742835999 0.04604808986186981
0.34053513407707214 0.7363275289535522 0.05626358091831207
0.2651800811290741 0.6969035267829895 0.13763101398944855
0.31471842527389526 0.749984860420227 0.07976700365543365
0.26699137687683105 0.7247104644775391 0.19588710367679596
0.3402043581008911 0.6912347078323364 0.03055947832763195
0.43721073865890503 0.556475818157196 -0.037348758429288864
0.4252490997314453 0.6358290314674377 -0.09369692206382751
0.4143916368484497 0.6384187936782837 -0.0657978355884552
0.4323839247226715 0.6178972125053406 -0.11263201385736465
0.43322500586509705 0.43967410922050476 0.007817568257451057
0.397270530462265 0.4244956970214844 0.009867620654404163
0.36632341146469116 0.42070916295051575 0.017193976789712906
0.34074732661247253 0.42455461621284485 0.03254321962594986
0.3235222101211548 0.4365463852882385 0.051073215901851654
0.3119969367980957 0.4823278784751892 0.09047460556030273
0.255069762468338 0.5537360310554504 0.2120184600353241
0.3228492736816406 0.5149739384651184 0.06823963671922684
0.3453739881515503 0.5222210884094238 0.049685098230838776
0.37563467025756836 0.5238297581672668 0.034498006105422974
0.4053572118282318 0.5200217962265015 0.024587197229266167
0.42791658639907837 0.5124661922454834 0.019182907417416573
0.44244176149368286 0.5041260719299316 0.014516039751470089
0.26957622170448303 0.5591558218002319 0.3017408847808838
0.41629502177238464 0.6431035399436951 -0.053983986377716064
0.44492191076278687 0.5636988878250122 -0.0775722861289978
0.43736129999160767 0.6387714147567749 -0.1157960519194603
0.4514977037906647 0.6525959968566895 -0.10835897922515869
0.4395066201686859 0.6431041359901428 -0.1039431169629097
0.4222799837589264 0.6500115990638733 -0.04733862355351448
0.453869491815567 0.6555151343345642 -0.11526136845350266
0.45916667580604553 0.660811722278595 -0.08729357272386551
0.44396135210990906 0.4843035936355591 0.026413019746541977
0.453956663608551 0.4897175431251526 0.008816150948405266
0.4577585458755493 0.4936321973800659 -0.010473480448126793
0.33774349093437195 0.47009676694869995 0.05968353897333145
0.32724595069885254 0.4604267179965973 0.06283839046955109
0.4987644553184509 0.55247962474823 -0.10611426830291748
0.6808394193649292 0.48280662298202515 0.001417693099938333
0.4973618984222412 0.6582861542701721 -0.09323061257600784
0.8020455837249756 0.38371196389198303 0.09929772466421127
0.6045821309089661 0.5056599974632263 -0.013086114078760147
0.6303731799125671 0.507232129573822 -0.014854209497570992
0.6556903123855591 0.5059331059455872 -0.01219653058797121
0.6935614347457886 0.49272844195365906 0.0035194549709558487
0.5832321643829346 0.4997267723083496 -0.005784325767308474
0.638187825679779 0.4361766278743744 -0.025610215961933136
0.6112499833106995 0.43867602944374084 -0.020313657820224762
0.6647340655326843 0.44046634435653687 -0.021305019035935402
0.68375164270401 0.45073211193084717 -0.013935424387454987
0.7164347171783447 0.5100343227386475 0.013836008496582508
0.5828776359558105 0.8747024536132812 -0.014548464678227901
0.6918376684188843 0.47709786891937256 0.008414268493652344
0.8116517066955566 0.5048590898513794 0.10938186198472977
0.7487989664077759 0.4944140315055847 0.03422851115465164
0.6228213906288147 0.6145067811012268 -0.04053594917058945
0.5188781023025513 0.7122187614440918 -0.06988169997930527
0.520710289478302 0.732854962348938 -0.0578853115439415
0.5619503855705261 0.7165861129760742 -0.05970003455877304
0.5933809876441956 0.7211407423019409 -0.03985259681940079
0.5526469349861145 0.732482373714447 -0.050186462700366974
0.5800138115882874 0.7315992712974548 -0.03169136121869087
0.6261100769042969 0.7654356360435486 -0.001020320225507021
0.48899605870246887 0.6444447040557861 -0.13568410277366638
0.4917129874229431 0.6157389879226685 -0.14360281825065613
0.726520299911499 0.42122459411621094 -0.012176601216197014
0.567243218421936 0.5494801998138428 -0.03455393761396408
0.5578484535217285 0.6330046653747559 -0.08612629771232605
0.5613623261451721 0.6173220872879028 -0.07908142358064651
0.7117927074432373 0.6093857884407043 -0.02004372328519821
0.4948079288005829 0.581102728843689 -0.13028909265995026
0.6570442318916321 0.3879226744174957 -0.04117957502603531
0.6966524124145508 0.39869993925094604 -0.02875789999961853
0.7676377296447754 0.33122873306274414 0.057167038321495056
0.5448746681213379 0.4135989546775818 -0.046830520033836365
0.5886446237564087 0.4485928416252136 -0.009554000571370125
0.6508706212043762 0.7349799871444702 -0.0010251806816086173
0.7912636995315552 0.7696583271026611 0.17441445589065552
0.5406778454780579 0.6489847898483276 -0.07387100905179977
0.5190161466598511 0.6577112674713135 -0.07134635746479034
0.6324906945228577 0.7300493717193604 0.0035716514103114605
0.6217119097709656 0.7310737371444702 0.00010842247138498351
0.7140777111053467 0.3801954984664917 -0.019865335896611214
0.5625963807106018 0.6423681378364563 -0.07252021878957748
0.6068479418754578 0.391110897064209 -0.04807000234723091
0.6115529537200928 0.3676947057247162 -0.05402669683098793
0.6484572291374207 0.26271283626556396 -0.017908761277794838
0.7395347952842712 0.3552306890487671 0.013175997883081436
0.6262779235839844 0.313032329082489 -0.03683800995349884
0.7465795278549194 0.4098730981349945 0.005728933960199356
0.7736603617668152 0.3986256718635559 0.0503135547041893
0.5200196504592896 0.7254344820976257 -0.06588923186063766
0.5562504529953003 0.7266455888748169 -0.05540584400296211
0.5862905979156494 0.7265137434005737 -0.03732376545667648
0.5355095267295837 0.6531367897987366 -0.06673431396484375
0.6273418664932251 0.7299683094024658 0.0020596664398908615
0.6083102226257324 0.7452898025512695 -0.009960094466805458
0.6181882619857788 0.732329249382019 2.226097194579779e-06
0.5215629935264587 0.6447051763534546 -0.1065676361322403
0.5778604745864868 0.7286073565483093 -0.02772507630288601
0.5504696369171143 0.7307857275009155 -0.040529195219278336
0.5207434892654419 0.7330213785171509 -0.04853677749633789
0.5248422026634216 0.825060248374939 -0.035923391580581665
0.521393358707428 0.7943670153617859 -0.054000865668058395
0.5205844640731812 0.7798126339912415 -0.05519510433077812
0.5202624797821045 0.7699776887893677 -0.04807994142174721
0.5193234086036682 0.7629793882369995 -0.04338682070374489
0.578618049621582 0.751742422580719 -0.02254534140229225
0.5815637707710266 0.7534126043319702 -0.02667517401278019
0.5854071974754333 0.7584651112556458 -0.030553488060832024
0.5886320471763611 0.7669636011123657 -0.02652302011847496
0.6099625825881958 0.7004731893539429 -0.03525186702609062
0.8251302242279053 0.632375180721283 0.2050773650407791
0.5972502827644348 0.7455437183380127 -0.007647337857633829
0.6028565764427185 0.7440295219421387 -0.0101984404027462
0.5107380747795105 0.6693271994590759 -0.07176702469587326
0.5579028129577637 0.6565638184547424 -0.05195499584078789
0.5143594145774841 0.6639388799667358 -0.07224762439727783
0.5960926413536072 0.5633455514907837 -0.030961258336901665
0.6424276232719421 0.5787417888641357 -0.03047920949757099
0.5688762664794922 0.6276114583015442 -0.06549341976642609
0.7178726196289062 0.2897445857524872 0.015568705275654793
0.6927341222763062 0.32515498995780945 -0.01511584222316742
0.6674690246582031 0.36530226469039917 -0.03948391228914261
0.5991356372833252 0.791049599647522 -0.013315905816853046
0.5523573756217957 0.3757438361644745 -0.05654184892773628
0.5641442537307739 0.3127312660217285 -0.044853389263153076
0.5791487097740173 0.25134745240211487 -0.03224336728453636
0.6792641282081604 0.5014393329620361 -0.0046882727183401585
0.7470198273658752 0.5296810865402222 0.023434441536664963
0.569949746131897 0.4931492805480957 -0.001100017107091844
0.7152713537216187 0.4602411389350891 0.0031018774025142193
0.5480846166610718 0.5327298641204834 -0.04064490646123886
0.5377311110496521 0.6259180307388306 -0.10765881091356277
0.7802284955978394 0.5510265827178955 0.045626383274793625
0.7256646752357483 0.5451247096061707 0.0033108904026448727
0.6885855197906494 0.552780032157898 -0.01405691634863615
0.6365894079208374 0.5501958131790161 -0.017954153940081596
0.5983364582061768 0.5412400364875793 -0.017853477969765663
0.5709591507911682 0.5297579765319824 -0.020260760560631752
0.5116425156593323 0.4965265989303589 -0.061088837683200836
0.7794901132583618 0.6059244871139526 0.03854436054825783
0.739436149597168 0.45631468296051025 0.010892455466091633
0.48289787769317627 0.6588318347930908 -0.12346754223108292
0.562079131603241 0.5760248899459839 -0.046342894434928894
0.8319673538208008 0.5056908130645752 0.18511563539505005
0.5508033633232117 0.515430212020874 -0.020678766071796417
0.5758303999900818 0.6279040575027466 -0.040548525750637054
0.7017973065376282 0.4788352847099304 0.011944767087697983
0.5416206121444702 0.6066349744796753 -0.09852471947669983
0.8138861060142517 0.7006887793540955 0.19540348649024963
0.5716426968574524 0.4836810827255249 0.00455191545188427
0.517962634563446 0.5912864804267883 -0.11903455853462219
0.7134644389152527 0.8219525814056396 0.06131269037723541
0.7134401202201843 0.8593717813491821 0.1006939709186554
0.8139086365699768 0.6226543188095093 0.12095823884010315
0.7568167448043823 0.789986252784729 0.08354499191045761
0.7943602800369263 0.44814738631248474 0.08624014258384705
0.5841216444969177 0.9032672643661499 -0.003926298581063747
0.4831981658935547 0.6643125414848328 -0.09069935977458954
0.5877165198326111 0.5937871932983398 -0.0407605804502964
0.7757147550582886 0.5014889240264893 0.054461877793073654
0.6522794365882874 0.4898691773414612 -0.00941159576177597
0.6296820640563965 0.49185067415237427 -0.012090988457202911
0.613885223865509 0.7493780255317688 -0.006953665055334568
0.779453456401825 0.6632987260818481 0.047046054154634476
0.5357502698898315 0.9349119663238525 0.004368324298411608
0.6196832656860352 0.909645140171051 0.04619986191391945
0.6614434719085693 0.88990318775177 0.07107456773519516
0.6087675094604492 0.49067574739456177 -0.009668287821114063
0.5893222093582153 0.4874287247657776 -0.0032299847807735205
0.5771539807319641 0.485653281211853 0.0033089262433350086
0.7635360956192017 0.45160824060440063 0.03217829391360283
0.5939291715621948 0.46599704027175903 -0.0076012881472706795
0.6157954931259155 0.45871543884277344 -0.014259114861488342
0.6364904046058655 0.45686617493629456 -0.016797268763184547
0.6585648059844971 0.460628867149353 -0.013938170857727528
0.6739258766174316 0.46761488914489746 -0.008111467584967613
0.8223403692245483 0.4384520351886749 0.1473366767168045
0.6687776446342468 0.486525297164917 -0.004036608152091503
0.576485276222229 0.6892958283424377 -0.05044206976890564
0.5393989682197571 0.6464974880218506 -0.08217780292034149
0.5180053114891052 0.6859997510910034 -0.06874778121709824
0.6664684414863586 0.8542761206626892 0.04447774216532707
0.6259675621986389 0.879491925239563 0.022148266434669495
0.5357208251953125 0.9178357124328613 -0.023865515366196632
0.7556615471839905 0.8226096630096436 0.13846257328987122
0.5782284140586853 0.47676408290863037 -0.0004199102404527366
0.524640679359436 0.5407796502113342 -0.07181306183338165
0.5787041783332825 0.9252232313156128 0.019581492990255356
0.8067513704299927 0.6851177215576172 0.11810089647769928
0.550848662853241 0.758456826210022 -0.03521675616502762
0.553528368473053 0.7629766464233398 -0.039921410381793976
0.5553252696990967 0.7710943222045898 -0.044680122286081314
0.5567298531532288 0.7839384078979492 -0.0416908897459507
0.5655788779258728 0.8119399547576904 -0.027514968067407608
0.606791615486145 0.7301152348518372 -0.014800445176661015
0.6129980683326721 0.7274778485298157 -0.01548672839999199
0.6194857954978943 0.7238597273826599 -0.016968682408332825
0.6387380957603455 0.7142503261566162 -0.01779509149491787
0.7409709095954895 0.67280113697052 0.003283377503976226
0.52921062707901 0.5131484866142273 -0.049095090478658676
0.5501546859741211 0.46195000410079956 -0.0078081004321575165
0.5667715072631836 0.46771788597106934 -0.001650064019486308
0.6020413637161255 0.7275482416152954 -0.012354962527751923
0.7456251382827759 0.7428541779518127 0.040622010827064514
0.5254657864570618 0.459231972694397 -0.036626845598220825
0.5757424831390381 0.8430247902870178 -0.020003627985715866
0.5051859617233276 0.5264041423797607 -0.08535720407962799
0.5401825904846191 0.5826870799064636 -0.07515745609998703
0.5302480459213257 0.8570241332054138 -0.03407852351665497
0.6420662999153137 0.7852635383605957 0.0064476714469492435
0.600878119468689 0.6483049392700195 -0.036210522055625916
0.6108254790306091 0.8187004327774048 -0.004720821976661682
0.672344446182251 0.6454833745956421 -0.03589830920100212
0.6330417990684509 0.6732103228569031 -0.031027648597955704
0.7004446983337402 0.6885532736778259 -0.016851557418704033
0.5347101092338562 0.8917295932769775 -0.03450961410999298
0.5579994916915894 0.5967382192611694 -0.06037542596459389
0.6595989465713501 0.8155479431152344 0.021858980879187584
0.6210173964500427 0.8470100164413452 0.007401115261018276
0.6688464879989624 0.7487562894821167 0.001902556512504816
0.7740510106086731 0.7124975919723511 0.05709347128868103
0.7030354738235474 0.7649921178817749 0.018306560814380646
0.7903384566307068 0.7418718338012695 0.1096285730600357
0.662757158279419 0.7009876370429993 -0.020102588459849358
0.5427201390266418 0.5584731698036194 -0.057733576744794846
0.5289759039878845 0.6398324966430664 -0.11189090460538864
0.549720287322998 0.6432496905326843 -0.08707927912473679
0.5152282118797302 0.6207193732261658 -0.12732744216918945
0.5691189169883728 0.43863779306411743 -0.017737701535224915
0.6085963249206543 0.422559916973114 -0.026716740801930428
0.6445127725601196 0.41878873109817505 -0.03017498552799225
0.6765485405921936 0.4241011440753937 -0.025257235392928123
0.7009787559509277 0.4371524453163147 -0.014073604717850685
0.7218977212905884 0.48623454570770264 0.01988922245800495
0.8158812522888184 0.5635350942611694 0.115831658244133
0.6995913982391357 0.5199373364448547 0.002827199874445796
0.6700177192687988 0.5267253518104553 -0.007223368156701326
0.6341350078582764 0.5271957516670227 -0.012337802909314632
0.6011892557144165 0.5222645401954651 -0.0124745424836874
0.5763832926750183 0.5140049457550049 -0.00861404649913311
0.5595744252204895 0.5050820112228394 -0.008033758960664272
0.8299801349639893 0.5685696601867676 0.20273560285568237
0.5516559481620789 0.6480150818824768 -0.07473807781934738
0.5199494361877441 0.5652567148208618 -0.09222879260778427
0.50786292552948 0.6416270732879639 -0.12729640305042267
0.49660441279411316 0.6547883152961731 -0.11495082080364227
0.5101075172424316 0.6462971568107605 -0.1156112551689148
0.5472710728645325 0.6546918153762817 -0.06487280130386353
0.4911433160305023 0.6572437286376953 -0.12069852650165558
0.4915504455566406 0.6624817848205566 -0.09187252819538116
0.5617417693138123 0.48486340045928955 0.0029208394698798656
0.5465880036354065 0.4900349974632263 -0.009007432498037815
0.5363507270812988 0.493963360786438 -0.024780258536338806
0.6836181879043579 0.47282111644744873 -0.0009733460610732436
0.6988992691040039 0.4624180793762207 -0.0016084372764453292
