ply
format ascii 1.0
element vertex 468
property float x
property float y
property float z
end_header
0.5200645923614502 0.694690465927124 -0.08566012233495712
0.5229897499084473 0.602837860584259 -0.12979024648666382
0.5188096165657043 0.6343734264373779 -0.07311920821666718
0.4985355734825134 0.5294998288154602 -0.09008917212486267
0.5235036611557007 0.5780124664306641 -0.13535599410533905
0.5218157768249512 0.5485012531280518 -0.12203430384397507
0.5158395767211914 0.4808998703956604 -0.04524235427379608
0.33023762702941895 0.4826955795288086 0.032489314675331116
0.513876736164093 0.4229094982147217 -0.02171138860285282
0.5143440365791321 0.39143723249435425 -0.02216285653412342
0.5117332935333252 0.2983751893043518 0.020524002611637115
0.5198885202407837 0.7075408101081848 -0.0838518887758255
0.5189730525016785 0.7183018922805786 -0.07606755942106247
0.5173365473747253 0.7239601016044617 -0.0655946284532547
0.5168306827545166 0.7337804436683655 -0.06584098190069199
0.5172949433326721 0.744759202003479 -0.07050598412752151
0.5172584652900696 0.7589108347892761 -0.0754120796918869
0.5161922574043274 0.7738842964172363 -0.07139670848846436
0.512651801109314 0.7974694967269897 -0.04714254289865494
0.521328330039978 0.6168063282966614 -0.11852582544088364
0.49936968088150024 0.6181166172027588 -0.0880785658955574
0.2362205982208252 0.4087803363800049 0.15496475994586945
0.40153440833091736 0.5037181377410889 0.010372922755777836
0.37688595056533813 0.50599604845047 0.010373983532190323
0.3533288240432739 0.5050949454307556 0.015512214973568916
0.3211609721183777 0.4923918843269348 0.0342479944229126
0.42261257767677307 0.4967900216579437 0.01626739278435707
0.37207043170928955 0.43930795788764954 0.005191883072257042
0.39778202772140503 0.44156163930892944 0.008012001402676105
0.3472290635108948 0.4428326487541199 0.010736141353845596
0.3298553228378296 0.45211121439933777 0.019061779603362083
0.30148375034332275 0.5100065469741821 0.043466340750455856
0.4135650098323822 0.8337002396583557 -0.03205368295311928
0.3215990364551544 0.4763873517513275 0.04056108370423317
0.22362932562828064 0.5069783926010132 0.1473730057477951
0.2733764052391052 0.4940335750579834 0.06850171089172363
0.39159417152404785 0.6004906892776489 -0.025291170924901962
0.4917559027671814 0.6914041638374329 -0.08391845226287842
0.49552997946739197 0.7187933921813965 -0.074956014752388
0.46204912662506104 0.7026835680007935 -0.07352112978696823
0.4422222077846527 0.7162647247314453 -0.06010192260146141
0.47448641061782837 0.7227152585983276 -0.06846904754638672
0.45708349347114563 0.7278770208358765 -0.054865509271621704
0.4035700857639313 0.7589295506477356 -0.03056172840297222
0.5030471086502075 0.6022645831108093 -0.1288786083459854
0.4997001886367798 0.5790742039680481 -0.13415195047855377
0.29113245010375977 0.42471766471862793 0.029593124985694885
0.43853673338890076 0.5391635298728943 -0.017182186245918274
0.44481173157691956 0.6057438850402832 -0.0742202177643776
0.4413679242134094 0.5945777297019958 -0.06609135866165161
0.3152187764644623 0.6023287773132324 -0.00034050087560899556
0.4994197487831116 0.5516363382339478 -0.11656220257282257
0.3510324954986572 0.39343518018722534 -0.0034689109306782484
0.3164359927177429 0.40396928787231445 0.012030255980789661
0.264143705368042 0.36401188373565674 0.11483372002840042
0.4601655602455139 0.41486436128616333 -0.01819411851465702
0.4202044606208801 0.45026493072509766 0.01584169827401638
0.38721489906311035 0.736262857913971 -0.0243399478495121
0.2379482388496399 0.7330242395401001 0.18222150206565857
0.4628984034061432 0.6187170743942261 -0.0649276077747345
0.4826272130012512 0.6257319450378418 -0.06620898097753525
0.4187889099121094 0.7379478216171265 -0.02696223556995392
0.4297381043434143 0.7357454895973206 -0.033205531537532806
0.3016871511936188 0.3897247314453125 0.0244890209287405
0.4437829256057739 0.6192508339881897 -0.062305841594934464
0.39775294065475464 0.3951416313648224 -0.01402021199464798
0.3937000632286072 0.37661001086235046 -0.0167248398065567
0.37036776542663574 0.3072051405906677 0.03669373318552971
0.283223956823349 0.3766125440597534 0.06264203786849976
0.3846149444580078 0.3411980867385864 0.008706550113856792
0.2751859426498413 0.41700148582458496 0.05090995132923126
0.25581082701683044 0.4142051339149475 0.09937850385904312
0.4935944974422455 0.7068907022476196 -0.08264105767011642
0.4693908989429474 0.7144913673400879 -0.07266849279403687
0.4501245617866516 0.7223463654518127 -0.05990016087889671
0.46913421154022217 0.6239340305328369 -0.05926763638854027
0.42494282126426697 0.7374537587165833 -0.030064783990383148
0.4335828423500061 0.7401069402694702 -0.04483937472105026
0.43148940801620483 0.7337963581085205 -0.0336458645761013
0.4763384759426117 0.6049254536628723 -0.09634056687355042
0.4609909653663635 0.7276039719581604 -0.05096723884344101
0.4781322479248047 0.7253856658935547 -0.0592329166829586
0.49737945199012756 0.7239634394645691 -0.06534484773874283
0.4796639382839203 0.7964908480644226 -0.048818182200193405
0.48564618825912476 0.7715282440185547 -0.0725908949971199
0.48865699768066406 0.7562700510025024 -0.07563075423240662
0.4914499819278717 0.7422382831573486 -0.07021723687648773
0.4935925602912903 0.7331719398498535 -0.06545519828796387
0.4547860324382782 0.7340102195739746 -0.05059875175356865
0.4512403607368469 0.7374498844146729 -0.05530083179473877
0.4454376995563507 0.7442284822463989 -0.05988455191254616
0.4393681585788727 0.7529810667037964 -0.05637170001864433
0.41821855306625366 0.6878621578216553 -0.049394503235816956
0.21354639530181885 0.6168291568756104 0.23219351470470428
0.5199422836303711 0.6241101622581482 -0.0882495865225792
0.4432964622974396 0.7350054979324341 -0.04086947441101074
0.4391365051269531 0.7367485165596008 -0.04394691437482834
0.49039149284362793 0.63658607006073 -0.06924668699502945
0.45185017585754395 0.6360001564025879 -0.04544449597597122
0.48685145378112793 0.6313204169273376 -0.06773252785205841
0.41240406036376953 0.5547112226486206 -0.013208873569965363
0.3721964955329895 0.5721120238304138 -0.01030590757727623
0.43709036707878113 0.6076139807701111 -0.053913604468107224
0.30661773681640625 0.32898640632629395 0.07171948254108429
0.3236732482910156 0.3506208062171936 0.03308330476284027
0.34188538789749146 0.375881552696228 0.002460552379488945
0.42204058170318604 0.7735750675201416 -0.04080038517713547
0.4532935619354248 0.3839583992958069 -0.024357328191399574
0.4460529685020447 0.34245565533638 -0.0033783740364015102
0.4366088807582855 0.2988317906856537 0.019080689176917076
0.332771897315979 0.5011113882064819 0.02504558302462101
0.27516284584999084 0.5287687182426453 0.05276714637875557
0.43624675273895264 0.48941361904144287 0.021171431988477707
0.3014562726020813 0.46042394638061523 0.038114409893751144
0.45621389150619507 0.5220533013343811 -0.022877337411046028
0.4600205421447754 0.5924423336982727 -0.09537429362535477
0.24727080762386322 0.5471216440200806 0.07460598647594452
0.29316234588623047 0.5447837114334106 0.02945462428033352
0.32635343074798584 0.5524017810821533 0.00862082652747631
0.3738251030445099 0.5468354225158691 0.0023809063713997602
0.4086833596229553 0.5355532169342041 0.0008501349948346615
0.4351770281791687 0.5230740308761597 -0.001788078574463725
0.4916382431983948 0.4872922897338867 -0.039092909544706345
0.2520240545272827 0.5973412394523621 0.06138700246810913
0.2807595729827881 0.45744627714157104 0.049548424780368805
0.5097695589065552 0.6158686280250549 -0.11832761764526367
0.4435330331325531 0.5609647035598755 -0.03079817071557045
0.2111501693725586 0.5122203826904297 0.2287517488002777
0.45495349168777466 0.5087065696716309 -0.0017696028808131814
0.43348971009254456 0.6115216612815857 -0.03024059161543846
0.3135828375816345 0.4782301187515259 0.044290948659181595
0.4571824073791504 0.5794647932052612 -0.08477460592985153
0.22007808089256287 0.6736446022987366 0.21401850879192352
0.436046302318573 0.4806196987628937 0.028325948864221573
0.4774927496910095 0.5625863075256348 -0.10499247908592224
0.30099987983703613 0.7841849327087402 0.05125057324767113
0.2954375743865967 0.8134885430335999 0.09169410914182663
0.2214282751083374 0.6071473360061646 0.145533487200737
0.2701858580112457 0.7523448467254639 0.08290965110063553
0.2391085922718048 0.4578796327114105 0.13070479035377502
0.4047606289386749 0.859155535697937 -0.021506410092115402
0.5112501978874207 0.6230818033218384 -0.0873633623123169
0.4214090406894684 0.5807906985282898 -0.02571626752614975
0.2511064410209656 0.5007410049438477 0.09061984717845917
0.35493695735931396 0.4903517961502075 0.019067170098423958
0.376357764005661 0.4924653470516205 0.014567087404429913
0.42684683203697205 0.7451250553131104 -0.04136915132403374
0.2571536600589752 0.6452178955078125 0.06262338906526566
0.4496156871318817 0.8943702578544617 -0.01450273022055626
0.3684418797492981 0.8631002902984619 0.02962340973317623
0.3341823220252991 0.8430306911468506 0.05614771321415901
0.513488233089447 0.34574851393699646 -0.003023606725037098
0.5050387978553772 0.8991986513137817 -0.01765746995806694
0.3971129357814789 0.49102750420570374 0.015593510121107101
0.41647419333457947 0.48675599694252014 0.02069428376853466
0.4292047619819641 0.4837239682674408 0.02739281766116619
0.26166680455207825 0.45541077852249146 0.07372881472110748
0.4153594970703125 0.4655190706253052 0.018462982028722763
0.3942972719669342 0.4598812162876129 0.013603566214442253
0.37347444891929626 0.45837002992630005 0.013108094222843647
0.351745069026947 0.4617409110069275 0.017166618257761
0.3375566303730011 0.4676457643508911 0.023293180391192436
0.21940526366233826 0.45548951625823975 0.198002427816391
0.3403847813606262 0.4865509271621704 0.02612326852977276
0.5188772082328796 0.6538664102554321 -0.0707717165350914
0.4405660331249237 0.6714306473731995 -0.05596404895186424
0.46278610825538635 0.6129662990570068 -0.0723508894443512
0.4871223568916321 0.6581868529319763 -0.0719439908862114
0.5137208700180054 0.45327430963516235 -0.024159740656614304
0.33391711115837097 0.8142451047897339 0.027258988469839096
0.3672600984573364 0.8370116949081421 0.004030917771160603
0.45170360803604126 0.8753384947776794 -0.0420510359108448
0.26500269770622253 0.779636025428772 0.13824059069156647
0.42986631393432617 0.4740070700645447 0.02453407645225525
0.47626569867134094 0.5236468315124512 -0.05432876944541931
0.5081955790519714 0.8801630139350891 -0.044355642050504684
0.40604889392852783 0.8809569478034973 0.0021586117800325155
0.2286076545715332 0.6595925092697144 0.13526417315006256
0.472750186920166 0.7330443859100342 -0.05893900617957115
0.46879076957702637 0.7393936514854431 -0.06441858410835266
0.4642680287361145 0.749877393245697 -0.0693284422159195
0.45956799387931824 0.7636034488677979 -0.06637903302907944
0.4471949636936188 0.7866374850273132 -0.04869229719042778
0.4416770040988922 0.7322839498519897 -0.043016284704208374
0.434512197971344 0.7304712533950806 -0.04382478818297386
0.42716410756111145 0.7269658446311951 -0.04382076859474182
0.39944222569465637 0.7104195952415466 -0.03788813203573227
0.29564619064331055 0.655341386795044 0.016241973266005516
0.47418010234832764 0.5029523372650146 -0.029006967321038246
0.4578011631965637 0.4618978202342987 0.015549549832940102
0.44161760807037354 0.4668692648410797 0.0223713219165802
0.4460086226463318 0.7295013666152954 -0.040575798600912094
0.28868627548217773 0.7154371738433838 0.043031152337789536
0.4812324047088623 0.45785707235336304 -0.012040911242365837
0.4290723204612732 0.8096928000450134 -0.037734415382146835
0.5197225213050842 0.5252999663352966 -0.09565466642379761
0.49464473128318787 0.5094654560089111 -0.06631846725940704
0.5177998542785645 0.5037240386009216 -0.06954729557037354
0.4609282910823822 0.5613537430763245 -0.06024400144815445
0.5102842450141907 0.8538295030593872 -0.05465029180049896
0.5115965008735657 0.8234131932258606 -0.050639551132917404
0.4690937399864197 0.8215010166168213 -0.04879981651902199
0.37356579303741455 0.7681649923324585 -0.01758197322487831
0.4121788442134857 0.632530152797699 -0.028316287323832512
0.39766448736190796 0.7926881909370422 -0.027603060007095337
0.3534770607948303 0.6300078630447388 -0.022003119811415672
0.38906973600387573 0.6573401689529419 -0.03055928274989128
0.33205646276474 0.6713923811912537 -0.011022361926734447
0.4582281708717346 0.8498761653900146 -0.051321472972631454
0.4460449516773224 0.5777158141136169 -0.04650852456688881
0.3470640182495117 0.7865461707115173 0.0023811792489141226
0.3791864514350891 0.8120564222335815 -0.012372087687253952
0.3566012978553772 0.738152027130127 -0.013334996998310089
0.262778103351593 0.6866320371627808 0.06629502773284912
0.3209904432296753 0.7418743371963501 0.009316184557974339
0.24202960729599 0.7081716656684875 0.11850336194038391
0.3698475956916809 0.6921483874320984 -0.025801043957471848
0.4600541293621063 0.5419085025787354 -0.04156406223773956
0.4687051773071289 0.6012728810310364 -0.10090970247983932
0.45273303985595703 0.612302839756012 -0.07699792087078094
0.4788092076778412 0.5837518572807312 -0.11547209322452545
0.4380887746810913 0.4392375648021698 0.0082682054489851
0.39866113662719727 0.4244461953639984 0.0030835142824798822
0.36434558033943176 0.4215725064277649 0.002219401067122817
0.3351128101348877 0.42640990018844604 0.008748766034841537
0.3138565421104431 0.4388398230075836 0.021558895707130432
0.2961176335811615 0.48594504594802856 0.052829544991254807
0.21878325939178467 0.556371808052063 0.14673905074596405
0.31519418954849243 0.5195307731628418 0.030595317482948303
0.3409963846206665 0.5258291959762573 0.017404912039637566
0.3738774061203003 0.5247743129730225 0.009935708716511726
0.40532320737838745 0.5184967517852783 0.007798623759299517
0.4299321472644806 0.5094094276428223 0.01116013154387474
0.447130411863327 0.5004945993423462 0.011446763761341572
0.21174949407577515 0.5646508932113647 0.2388153225183487
0.45322397351264954 0.6210697293281555 -0.0654982402920723
0.47856321930885315 0.5425082445144653 -0.07622010260820389
0.4860517084598541 0.5995529294013977 -0.11819369345903397
0.4984108805656433 0.6129478812217712 -0.10887472331523895
0.48595938086509705 0.6046779751777649 -0.10718660056591034
0.46003714203834534 0.6296795010566711 -0.057446423918008804
0.5027335286140442 0.6144716143608093 -0.11521980166435242
0.504135012626648 0.6217749118804932 -0.0875827744603157
0.4457039535045624 0.4814545512199402 0.02559434249997139
0.46100926399230957 0.48662424087524414 0.011942295357584953
0.47024646401405334 0.4890313148498535 -0.0039441767148673534
0.32888150215148926 0.4723584055900574 0.030873093754053116
0.3159666657447815 0.4626007378101349 0.031516849994659424
0.5395306348800659 0.5300693511962891 -0.08571270853281021
0.6765894889831543 0.4903962016105652 0.06434465199708939
0.5382323265075684 0.6186429858207703 -0.08454589545726776
0.745790421962738 0.4214736521244049 0.2040299028158188
0.6103184819221497 0.5088531970977783 0.030948763713240623
0.6339501142501831 0.5118986368179321 0.034888334572315216
0.6557756662368774 0.5113770365715027 0.044191885739564896
0.6834592819213867 0.5002155303955078 0.06786433607339859
0.5903717279434204 0.5011962652206421 0.03258930519223213
0.640735387802124 0.447040855884552 0.03064950555562973
0.6159497499465942 0.4480692744255066 0.028286555781960487
0.6637499332427979 0.45129233598709106 0.04076230898499489
0.6788455843925476 0.4610000252723694 0.05114050954580307
0.700471818447113 0.5180303454399109 0.08006902784109116
0.5988885760307312 0.8334225416183472 -0.01777770183980465
0.683771550655365 0.4847908020019531 0.07388151437044144
0.7569621801376343 0.5177930593490601 0.19788698852062225
0.723409116268158 0.5034732818603516 0.10974901914596558
0.6270231008529663 0.6031259894371033 -0.005171141587197781
0.546735405921936 0.6913555860519409 -0.0787070244550705
0.5405048131942749 0.7187013030052185 -0.07015375792980194
0.5721913576126099 0.7018212676048279 -0.06272588670253754
0.587804913520813 0.7154571413993835 -0.04531141370534897
0.5583221912384033 0.7221685647964478 -0.05917130783200264
0.5721325874328613 0.7272769212722778 -0.04287911579012871
0.6152530908584595 0.7587366700172424 -0.012422232888638973
0.5416048765182495 0.6029244065284729 -0.1259497106075287
0.5453174114227295 0.5798773765563965 -0.13076384365558624
0.7138006687164307 0.43575650453567505 0.06767528504133224
0.5814031362533569 0.5416492223739624 -0.0035041701048612595
0.586376428604126 0.6068238615989685 -0.061096906661987305
0.5876433253288269 0.5956668257713318 -0.05252494290471077
0.6930655241012573 0.6073791980743408 0.03322982043027878
0.5429379940032959 0.552374541759491 -0.11227717250585556
0.6653551459312439 0.4035339951515198 0.022185537964105606
0.6946831941604614 0.4148358404636383 0.04437531158328056
0.7277397513389587 0.37619680166244507 0.15840914845466614
0.5648176670074463 0.41852548718452454 -0.010064135305583477
0.594002902507782 0.45569801330566406 0.03262939304113388
0.6312661170959473 0.7361138463020325 -0.0026297657750546932
0.7273130416870117 0.7384186387062073 0.22823938727378845
0.5683203339576721 0.6192651987075806 -0.05541791394352913
0.5505152344703674 0.6258484721183777 -0.06130754202604294
0.6039952039718628 0.7370260953903198 -0.008341176435351372
0.592827320098877 0.7346216440200806 -0.016581114381551743
0.7066061496734619 0.40154534578323364 0.059095073491334915
0.5847840309143066 0.6198374629020691 -0.04945960268378258
0.6235252022743225 0.4029010534286499 0.0034040510654449463
0.6281751394271851 0.38459137082099915 0.0015892108203843236
0.6430363655090332 0.3149448335170746 0.06177205219864845
0.7179258465766907 0.3880605101585388 0.10160699486732483
0.6342294216156006 0.34901317954063416 0.03020569123327732
0.7256680130958557 0.4287720024585724 0.09208259731531143
0.7361480593681335 0.42637383937835693 0.14413948357105255
0.5443549752235413 0.7066587805747986 -0.07749679684638977
0.5649408102035522 0.7137016654014587 -0.06264447420835495
0.5802886486053467 0.7214369177818298 -0.04639275372028351
0.5618857145309448 0.6241258382797241 -0.051405105739831924
0.5981835722923279 0.7363706231117249 -0.012736809439957142
0.5913567543029785 0.7394559383392334 -0.02978268638253212
0.5900631546974182 0.732754647731781 -0.017383979633450508
0.560291051864624 0.6063169836997986 -0.08757572621107101
0.5663703680038452 0.7268001437187195 -0.03960643336176872
0.5522661805152893 0.7248759269714355 -0.05069844424724579
0.5359339714050293 0.7237314581871033 -0.06067221611738205
0.5439307689666748 0.7965342998504639 -0.04460684210062027
0.5451775789260864 0.7717090845108032 -0.06758962571620941
0.5444403290748596 0.7562387585639954 -0.07025127857923508
0.5419402718544006 0.7423523664474487 -0.06483921408653259
0.5388585925102234 0.733220636844635 -0.06018340587615967
0.5717962384223938 0.7335643172264099 -0.038980137556791306
0.5758185386657715 0.7370942234992981 -0.043472446501255035
0.581703245639801 0.7440799474716187 -0.047762904316186905
0.58680659532547 0.7527065277099609 -0.04339751601219177
0.6072210073471069 0.6878789663314819 -0.03225157409906387
0.7493216395378113 0.6258042454719543 0.283706396818161
0.5803786516189575 0.7343770265579224 -0.026409562677145004
0.585504412651062 0.7360648512840271 -0.02963191270828247
0.5440844893455505 0.6364554166793823 -0.06455174833536148
0.5753117799758911 0.6357593536376953 -0.0354560986161232
0.5470262765884399 0.6314465999603271 -0.06324340403079987
0.6051024198532104 0.5577458739280701 0.0049503277987241745
0.6426137685775757 0.5759507417678833 0.013860711827874184
0.5895729660987854 0.6083452701568604 -0.04001907259225845
0.6960244178771973 0.33987998962402344 0.10725006461143494
0.6863269209861755 0.36133071780204773 0.06421108543872833
0.6738607883453369 0.38643452525138855 0.029842540621757507
0.597719669342041 0.7733296751976013 -0.026044782251119614
0.5731767416000366 0.38834547996520996 -0.015257807448506355
0.5782540440559387 0.3465729057788849 0.007811973802745342
0.5836969614028931 0.30291590094566345 0.03171100467443466
0.6737319231033325 0.5081779956817627 0.05674631521105766
0.7232851982116699 0.5372449159622192 0.09365573525428772
0.5776709318161011 0.4934605062007904 0.03575437143445015
0.7022207975387573 0.4701703190803528 0.07499554753303528
0.5661140084266663 0.5242033004760742 -0.01189812459051609
0.5755171179771423 0.5940273404121399 -0.08481946587562561
0.7448986768722534 0.5560580492019653 0.12083926796913147
0.7100664377212524 0.5519984364509583 0.06775865703821182
0.6821800470352173 0.5582585334777832 0.040847841650247574
0.6389204263687134 0.5514388680458069 0.0268741175532341
0.6061962246894836 0.5393922924995422 0.019579142332077026
0.5817201137542725 0.5261214971542358 0.01223846711218357
0.5377731323242188 0.48848265409469604 -0.03451189771294594
0.740959882736206 0.6047724485397339 0.10706021636724472
0.7197842597961426 0.4677237272262573 0.09023761749267578
0.5323015451431274 0.6162513494491577 -0.11584920436143875
0.5795862078666687 0.5627807378768921 -0.01749817654490471
0.7563564777374268 0.5235902667045593 0.2814773619174957
0.5641217231750488 0.5112539529800415 0.009066775441169739
0.5900377631187439 0.6122753620147705 -0.01664917543530464
0.6903296709060669 0.48691052198410034 0.07922099530696869
0.5755701661109924 0.5808177590370178 -0.07381017506122589
0.7426794767379761 0.6812060475349426 0.2632833421230316
0.5770897269248962 0.4845622777938843 0.04339999333024025
0.56033855676651 0.5636030435562134 -0.09720740467309952
0.6899579763412476 0.7860463857650757 0.08440141379833221
0.6851128339767456 0.8146322965621948 0.12614655494689941
0.7564634084701538 0.6157833337783813 0.1961379051208496
0.7143245935440063 0.7561649084091187 0.12235736846923828
0.7467185854911804 0.4693881869316101 0.17898163199424744
0.6032148003578186 0.8586039543151855 -0.005669686943292618
0.5281825661659241 0.6232794523239136 -0.08592569082975388
0.5989348888397217 0.582732081413269 -0.009703392162919044
0.7407443523406982 0.5109268426895142 0.13611319661140442
0.6549418568611145 0.49707627296447754 0.04708293452858925
0.6346209049224854 0.4986151456832886 0.03923645615577698
0.5973470211029053 0.7444331645965576 -0.02543356828391552
0.7343008518218994 0.6516469120979309 0.10637561976909637
0.5579715371131897 0.8941577672958374 -0.005964299198240042
0.6270187497138977 0.8621436953544617 0.051814205944538116
0.6548231840133667 0.8425431251525879 0.0839807540178299
0.6144287586212158 0.4965755343437195 0.036610640585422516
0.595845639705658 0.4915378987789154 0.038796961307525635
0.5835472345352173 0.48801445960998535 0.04355616122484207
0.7338680028915405 0.46645116806030273 0.11773186177015305
0.5969539284706116 0.4707234501838684 0.03698499873280525
0.6168738007545471 0.4661497175693512 0.0349184088408947
0.6371929049491882 0.4652140140533447 0.038110699504613876
0.6576991677284241 0.46911200881004333 0.045786477625370026
0.6707377433776855 0.47551193833351135 0.05415242165327072
0.7547752857208252 0.46799173951148987 0.24953925609588623
0.6680396795272827 0.49389347434043884 0.05635909363627434
0.5875473022460938 0.6711634993553162 -0.04290474206209183
0.5699381232261658 0.6140455603599548 -0.06327319145202637
0.5481303930282593 0.6579908728599548 -0.06642355769872665
0.6626510620117188 0.8144816160202026 0.053907610476017
0.6342267990112305 0.8364035487174988 0.024925988167524338
0.5619949102401733 0.8752616047859192 -0.03392242267727852
0.7070724368095398 0.7828903794288635 0.1792016178369522
0.5832316279411316 0.4785495400428772 0.04103633761405945
0.5537082552909851 0.5251076817512512 -0.04689882695674896
0.5964081287384033 0.8800662755966187 0.01814240589737892
0.7484829425811768 0.6667260527610779 0.1836126148700714
0.5572797060012817 0.7329387664794922 -0.05015961080789566
0.5615347623825073 0.7393959760665894 -0.05502943694591522
0.5660329461097717 0.7498750686645508 -0.05946660414338112
0.5693727135658264 0.7636495232582092 -0.056542761623859406
0.5745094418525696 0.7866744995117188 -0.03821687772870064
0.5838519930839539 0.7312480211257935 -0.02810112200677395
0.5917559862136841 0.7294313907623291 -0.02768988348543644
0.5989563465118408 0.7260230183601379 -0.026668163016438484
0.6229436993598938 0.7104632258415222 -0.01733160950243473
0.706365704536438 0.6602650284767151 0.052070170640945435
0.5515357851982117 0.5046342015266418 -0.02143201045691967
0.5602008700370789 0.4651196300983429 0.025136766955256462
0.5732396841049194 0.47082599997520447 0.036420855671167374
0.5784620642662048 0.7285955548286438 -0.02655773237347603
0.7066196203231812 0.7194544672966003 0.0796918198466301
0.5427762269973755 0.45980536937713623 -0.006223457399755716
0.5871181488037109 0.8094035983085632 -0.02588031254708767
0.5393251776695251 0.510269045829773 -0.0623275451362133
0.5683736205101013 0.5628107190132141 -0.05048036575317383
0.5514895915985107 0.8213062882423401 -0.043165624141693115
0.638509213924408 0.768647313117981 0.0030749605502933264
0.6091508865356445 0.6334694027900696 -0.011612285859882832
0.6155306100845337 0.792540431022644 -0.011032236739993095
0.6616066694259644 0.6336374282836914 0.0030915008392184973
0.6308083534240723 0.6589151620864868 -0.010285839438438416
0.6782510876655579 0.6748538613319397 0.017469659447669983
0.5595974922180176 0.8499518632888794 -0.043804459273815155
0.5796835422515869 0.5791552066802979 -0.0343293733894825
0.6573828458786011 0.7872560024261475 0.026982704177498817
0.6289414167404175 0.8118413686752319 0.006601027213037014
0.6554425358772278 0.7393488883972168 0.011592547409236431
0.7268086671829224 0.6919765472412109 0.10753104835748672
0.6818110942840576 0.744319498538971 0.039248935878276825
0.7361398339271545 0.7139726877212524 0.16396458446979523
0.6470252275466919 0.6937817931175232 -0.0024032830260694027
0.5661343932151794 0.5436173677444458 -0.030974814668297768
0.5680235028266907 0.602800190448761 -0.09115369617938995
0.5794094800949097 0.6134310364723206 -0.0657213032245636
0.5620220899581909 0.5850239992141724 -0.10775718837976456
0.5800967812538147 0.44384679198265076 0.021580789238214493
0.6183538436889648 0.4312869906425476 0.022076116874814034
0.6507996320724487 0.42996078729629517 0.027225254103541374
0.6769796013832092 0.4358408451080322 0.03960978984832764
0.6942026615142822 0.4486742615699768 0.05589550361037254
0.7047353386878967 0.494745671749115 0.09036458283662796
0.7599582076072693 0.5663926601409912 0.19847428798675537
0.6895882487297058 0.5267609357833862 0.06479186564683914
0.6672763228416443 0.5318576693534851 0.04730593040585518
0.6372125744819641 0.5300403237342834 0.0342651791870594
0.6075212955474854 0.5229596495628357 0.027211187407374382
0.5844116806983948 0.5130868554115295 0.025665804743766785
0.5688101053237915 0.503679633140564 0.023474780842661858
0.7522037029266357 0.5748844146728516 0.2916140556335449
0.5769941210746765 0.621545135974884 -0.054700128734111786
0.5556259155273438 0.5435804724693298 -0.06862377375364304
0.5553144812583923 0.600728452205658 -0.11201273649930954
0.5410933494567871 0.6136050224304199 -0.10542906820774078
0.5532589554786682 0.6058523058891296 -0.10072406381368637
0.569277822971344 0.6298336982727051 -0.048455074429512024
0.5384650230407715 0.6151922941207886 -0.11226396262645721
0.5343083143234253 0.6221279501914978 -0.08508981019258499
0.5689589381217957 0.4850567579269409 0.03835422545671463
0.556563138961792 0.4893796741962433 0.021446337923407555
0.5508780479431152 0.4913371205329895 0.003634270979091525
0.6781827807426453 0.48048776388168335 0.06278003752231598
0.689731240272522 0.4716511368751526 0.06546329706907272
