ply
format ascii 1.0
element vertex 468
property float x
property float y
property float z
end_header
0.5088320374488831 0.7077201008796692 -0.05954205244779587
0.5150221586227417 0.6267626881599426 -0.1251205950975418
0.5094501376152039 0.6493229866027832 -0.06489766389131546
0.4913181662559509 0.5413796305656433 -0.0989329069852829
0.5157732963562012 0.6011752486228943 -0.1337583065032959
0.5143014192581177 0.5664938688278198 -0.12567251920700073
0.5086891651153564 0.48524779081344604 -0.06621242314577103
0.339242160320282 0.4753957986831665 0.009765632450580597
0.5073433518409729 0.4386003017425537 -0.05149146914482117
0.5083834528923035 0.4099574685096741 -0.056386951357126236
0.5077232718467712 0.2964785695075989 -0.031700801104307175
0.5083820223808289 0.7195495963096619 -0.05554419383406639
0.5072013735771179 0.7270950078964233 -0.04778396710753441
0.5057703852653503 0.7288907766342163 -0.03754041716456413
0.506994903087616 0.7329931259155273 -0.03817391395568848
0.5074215531349182 0.7422600388526917 -0.042485561221838
0.5073830485343933 0.7542661428451538 -0.048771943897008896
0.5064848065376282 0.7684100866317749 -0.04785134643316269
0.503239631652832 0.7960926294326782 -0.028636880218982697
0.5132843852043152 0.6392274498939514 -0.11274096369743347
0.48512616753578186 0.6355557441711426 -0.08246593177318573
0.2477954477071762 0.39419883489608765 0.10208949446678162
0.4062960147857666 0.49161750078201294 -0.004690547939389944
0.3842695951461792 0.4939984083175659 -0.006215243134647608
0.36149346828460693 0.49476301670074463 -0.003091012593358755
0.3283693790435791 0.4847903549671173 0.011682302691042423
0.42447492480278015 0.4861851930618286 -0.0006746273720636964
0.37527918815612793 0.44625189900398254 -0.019113406538963318
0.39843249320983887 0.44611501693725586 -0.014572114683687687
0.3532003164291382 0.4497660994529724 -0.015362044796347618
0.3375701308250427 0.4563875198364258 -0.007162716705352068
0.30833354592323303 0.501078724861145 0.0212001483887434
0.40547579526901245 0.8384259343147278 -0.0033855505753308535
0.329336941242218 0.4714353084564209 0.015112201683223248
0.23075082898139954 0.49330830574035645 0.11380492150783539
0.27956831455230713 0.48864901065826416 0.04011738672852516
0.3836645483970642 0.5960477590560913 -0.02569454163312912
0.4761448800563812 0.7027794718742371 -0.060468416661024094
0.4781991243362427 0.725980281829834 -0.04688551649451256
0.4413924813270569 0.7074329853057861 -0.04923034831881523
0.418718546628952 0.7143459320068359 -0.03220061957836151
0.45250600576400757 0.725236177444458 -0.0393257774412632
0.4325319528579712 0.7256949543952942 -0.024002552032470703
0.38534295558929443 0.7481057643890381 0.0012507905485108495
0.493308424949646 0.625666081905365 -0.12470270693302155
0.4911247491836548 0.6005741953849792 -0.1329382210969925
0.3014907240867615 0.4376298785209656 -0.009174853563308716
0.43315982818603516 0.5356191396713257 -0.02724565379321575
0.42705681920051575 0.6123518347740173 -0.0718163400888443
0.4252135157585144 0.5984567403793335 -0.06504452973604202
0.31311696767807007 0.591208815574646 -0.0051260110922157764
0.4915934205055237 0.5684463977813721 -0.12056233733892441
0.3619592785835266 0.4150218963623047 -0.04224912449717522
0.3273020088672638 0.42274996638298035 -0.029486648738384247
0.2759838104248047 0.35459470748901367 0.05910628288984299
0.46320831775665283 0.43225544691085815 -0.04909590631723404
0.41891929507255554 0.4505181610584259 -0.00464989710599184
0.36573702096939087 0.7243362069129944 0.004854714032262564
0.23154500126838684 0.7211238741874695 0.1832830309867859
0.4437825083732605 0.6265695691108704 -0.06043091043829918
0.46474412083625793 0.6353029012680054 -0.06113601103425026
0.3915376663208008 0.7255232334136963 0.005995281506329775
0.4022948443889618 0.7249945998191833 0.001257253927178681
0.31404781341552734 0.40814754366874695 -0.019294315949082375
0.4239541292190552 0.6217901706695557 -0.05846268683671951
0.40745773911476135 0.4163252115249634 -0.04880113899707794
0.40355807542800903 0.3976874351501465 -0.05445314943790436
0.37652987241744995 0.30390414595603943 -0.017181800678372383
0.29628556966781616 0.37994593381881714 0.01500527560710907
0.3929715156555176 0.3478555977344513 -0.036257416009902954
0.2865212559700012 0.42734208703041077 0.00870451144874096
0.26773709058761597 0.411617636680603 0.05383555218577385
0.47700726985931396 0.717110276222229 -0.05612409487366676
0.44826680421829224 0.7188546061515808 -0.04498891904950142
0.4262065291404724 0.7206683158874512 -0.029896585270762444
0.449294775724411 0.6308346390724182 -0.05560733377933502
0.39723145961761475 0.7254458665847778 0.0035475401673465967
0.4100939631462097 0.7306156158447266 -0.01055983267724514
0.404865562915802 0.7242088913917542 0.00044494710164144635
0.4614490866661072 0.622244119644165 -0.09362919628620148
0.43598926067352295 0.7236788272857666 -0.01969454251229763
0.4559380114078522 0.7254375219345093 -0.029648099094629288
0.4796590507030487 0.7274937033653259 -0.03693702816963196
0.4692513048648834 0.7946889996528625 -0.029367150738835335
0.47449275851249695 0.7662714123725891 -0.048340946435928345
0.4770270586013794 0.7516804933547974 -0.04949736222624779
0.4788162112236023 0.7396986484527588 -0.04228212684392929
0.4802754819393158 0.7319068908691406 -0.03797570616006851
0.43438464403152466 0.7281913757324219 -0.020375803112983704
0.4311069846153259 0.7308350205421448 -0.02470814622938633
0.4262872338294983 0.7369429469108582 -0.028181256726384163
0.4213944375514984 0.7452071905136108 -0.024517741054296494
0.3974560797214508 0.6857015490531921 -0.028277704492211342
0.21453222632408142 0.5995848178863525 0.2098674476146698
0.5114689469337463 0.643402099609375 -0.08128845691680908
0.4204494059085846 0.7270294427871704 -0.00806439109146595
0.4158368408679962 0.727878749370575 -0.010594765655696392
0.47446396946907043 0.6472578048706055 -0.06166369840502739
0.4312778115272522 0.6365488171577454 -0.03984825685620308
0.46967339515686035 0.6415463089942932 -0.062084443867206573
0.4083790183067322 0.5487799644470215 -0.021423770114779472
0.3704589307308197 0.5641247630119324 -0.01902434416115284
0.4197670817375183 0.6083343625068665 -0.05141547694802284
0.31694766879081726 0.32343101501464844 0.016480397433042526
0.3364483714103699 0.3577442467212677 -0.013351446017622948
0.3540402948856354 0.39686182141304016 -0.03835277259349823
0.4074704945087433 0.7660301923751831 -0.010765086859464645
0.45714426040649414 0.4025695323944092 -0.05961696431040764
0.4482539892196655 0.3468371033668518 -0.04606286436319351
0.4379633069038391 0.29599729180336 -0.03292139992117882
0.3407484292984009 0.4919230341911316 0.004229353275150061
0.28128355741500854 0.5178850889205933 0.03210614249110222
0.43556755781173706 0.48053085803985596 0.0034719915129244328
0.30953091382980347 0.4624966084957123 0.008238689973950386
0.45080727338790894 0.5208899974822998 -0.03538265451788902
0.4459451735019684 0.6060960292816162 -0.09427610784769058
0.2527655363082886 0.5347840785980225 0.05405689403414726
0.2994557321071625 0.5329421758651733 0.014151534996926785
0.33108752965927124 0.5410794615745544 -0.0024949475191533566
0.37613457441329956 0.5373166799545288 -0.009298613294959068
0.40862786769866943 0.5274922847747803 -0.010496365837752819
0.43263065814971924 0.5168997049331665 -0.01488544326275587
0.48533156514167786 0.49076440930366516 -0.05890845134854317
0.253770649433136 0.5838041305541992 0.05033449828624725
0.28880393505096436 0.46054691076278687 0.016050910577178
0.49973633885383606 0.6378357410430908 -0.11269371211528778
0.43388256430625916 0.5602580904960632 -0.035519834607839584
0.2190183401107788 0.4927007555961609 0.1876395046710968
0.4509376883506775 0.5049582719802856 -0.016998250037431717
0.4161100387573242 0.6091122031211853 -0.026760587468743324
0.32125383615493774 0.4739855229854584 0.01801358349621296
0.44406425952911377 0.5888943076133728 -0.08572007715702057
0.21744495630264282 0.6586917042732239 0.20198261737823486
0.4334346652030945 0.47228842973709106 0.009097278118133545
0.46788978576660156 0.5762908458709717 -0.10794886201620102
0.2901712656021118 0.7789982557296753 0.0736861526966095
0.2866137623786926 0.8102928400039673 0.11215300858020782
0.2228972315788269 0.5931729674339294 0.12938298285007477
0.2596803307533264 0.7443807721138 0.09683780372142792
0.24872185289859772 0.4482256770133972 0.08958439528942108
0.39685195684432983 0.867962121963501 0.008996047079563141
0.5004271864891052 0.6421196460723877 -0.08056165277957916
0.4114798307418823 0.5772644281387329 -0.027803989127278328
0.25750473141670227 0.4934433400630951 0.06067348271608353
0.36488956212997437 0.479107141494751 -0.00021474872482940555
0.3851110339164734 0.47957244515419006 -0.003690832294523716
0.4039628505706787 0.7349748015403748 -0.006920153740793467
0.25289881229400635 0.6330440640449524 0.061077434569597244
0.4418501555919647 0.9057409763336182 0.018156979233026505
0.36070939898490906 0.8703593611717224 0.05812299996614456
0.3256155848503113 0.8456001281738281 0.08215536177158356
0.508614718914032 0.3506564199924469 -0.0444524809718132
0.4962582290172577 0.9099540710449219 0.016602473333477974
0.4030304253101349 0.4778696894645691 -0.0025951035786420107
0.419607937335968 0.4747055768966675 0.0021133534610271454
0.42916157841682434 0.47321826219558716 0.0076690432615578175
0.27043265104293823 0.45606690645217896 0.037285950034856796
0.4144478440284729 0.46100783348083496 -0.0013508090050891042
0.3953244090080261 0.457592636346817 -0.008259173482656479
0.37668681144714355 0.4571666121482849 -0.009769036434590816
0.35704511404037476 0.46068447828292847 -0.0066366419196128845
0.34395596385002136 0.4658489227294922 -0.00044645744492299855
0.2300717532634735 0.4371434152126312 0.14948715269565582
0.35021036863327026 0.4775082468986511 0.004919376224279404
0.508858859539032 0.667475163936615 -0.05817006900906563
0.4205208718776703 0.6722592711448669 -0.04144850745797157
0.44457799196243286 0.6236209273338318 -0.06951645016670227
0.4724026322364807 0.6680542826652527 -0.05968002602458
0.5067594647407532 0.46040940284729004 -0.04911569878458977
0.32452958822250366 0.8137059211730957 0.054948773235082626
0.3586661219596863 0.8417104482650757 0.033501822501420975
0.44406312704086304 0.8849490880966187 -0.010543878190219402
0.25642019510269165 0.7715184092521667 0.14896075427532196
0.42749297618865967 0.46740615367889404 0.00459054671227932
0.46955475211143494 0.5293262004852295 -0.06553032249212265
0.49932920932769775 0.889076828956604 -0.011113852262496948
0.39839500188827515 0.8915250301361084 0.03284747153520584
0.22577059268951416 0.6473833322525024 0.1290825456380844
0.4556545615196228 0.7298563718795776 -0.030403945595026016
0.4525146782398224 0.735491931438446 -0.03537249192595482
0.4492584764957428 0.7447376251220703 -0.039922647178173065
0.4455808997154236 0.7576940059661865 -0.03764472156763077
0.43469634652137756 0.7826104760169983 -0.023108985275030136
0.4141734838485718 0.725117027759552 -0.010848315432667732
0.4076080322265625 0.7232416272163391 -0.012089959345757961
0.4006556272506714 0.7193425893783569 -0.012911198660731316
0.37691062688827515 0.7029955387115479 -0.011793533340096474
0.28759604692459106 0.6448647975921631 0.019947588443756104
0.46865788102149963 0.5044609904289246 -0.045289475470781326
0.45547544956207275 0.4609304368495941 -0.0046129971742630005
0.43880435824394226 0.46270209550857544 0.0016881739720702171
0.4190741181373596 0.7223048210144043 -0.008000236935913563
0.27670931816101074 0.7060072422027588 0.05570780113339424
0.47712600231170654 0.46248847246170044 -0.03429611399769783
0.4195702373981476 0.8094093799591064 -0.012002844363451004
0.5123753547668457 0.5380942225456238 -0.10471087694168091
0.48793360590934753 0.5169246196746826 -0.08101335167884827
0.5104873776435852 0.5121866464614868 -0.08440417051315308
0.4509197175502777 0.5671032667160034 -0.06472419202327728
0.5013769865036011 0.8595277070999146 -0.025512078776955605
0.5023685097694397 0.8250133395195007 -0.026677105575799942
0.46038591861724854 0.8233275413513184 -0.02476608380675316
0.3607632517814636 0.7598400115966797 0.011867840774357319
0.3966485261917114 0.6283887624740601 -0.023058027029037476
0.38724175095558167 0.7883991599082947 0.0008487006998620927
0.3445189297199249 0.6238498091697693 -0.018944676965475082
0.3746342360973358 0.6525546908378601 -0.01949118636548519
0.3200104236602783 0.6630944609642029 0.00036653122515417635
0.4505419135093689 0.8561125993728638 -0.02318948693573475
0.43336981534957886 0.5794546008110046 -0.04828181862831116
0.3370475769042969 0.7818813323974609 0.030270423740148544
0.3703688383102417 0.8124746680259705 0.01695459708571434
0.3414387106895447 0.7280118465423584 0.012006820179522038
0.2545325756072998 0.6759873628616333 0.07198537886142731
0.30835437774658203 0.733102023601532 0.03090212121605873
0.23562335968017578 0.6978960037231445 0.12207446992397308
0.35272717475891113 0.6833055019378662 -0.008821144700050354
0.45202240347862244 0.544536292552948 -0.04941994324326515
0.45392176508903503 0.6180276274681091 -0.09877467900514603
0.43433287739753723 0.6212174892425537 -0.07348435372114182
0.467470645904541 0.6028077006340027 -0.1159723699092865
0.439387708902359 0.44563013315200806 -0.014325188472867012
0.40340733528137207 0.4362487196922302 -0.02461492270231247
0.3711569607257843 0.43475428223609924 -0.02849605679512024
0.34313318133354187 0.4384007751941681 -0.023066679015755653
0.3222710192203522 0.4472217559814453 -0.010968243703246117
0.3033188581466675 0.48141300678253174 0.0252798181027174
0.22357475757598877 0.5421297550201416 0.12208689004182816
0.322726845741272 0.5097957253456116 0.012003173120319843
0.34784984588623047 0.5156298279762268 0.0009787209564819932
0.3791388273239136 0.5142354369163513 -0.005062991753220558
0.40793925523757935 0.5084476470947266 -0.004913603886961937
0.4298250675201416 0.5008974671363831 -0.004192180931568146
0.4451107978820801 0.49392396211624146 -0.003964675590395927
0.2161804735660553 0.5455132722854614 0.2064225822687149
0.4334738850593567 0.6264410614967346 -0.061589792370796204
0.4709085524082184 0.5520162582397461 -0.08327928930521011
0.4738570749759674 0.6212385296821594 -0.1153762936592102
0.48549044132232666 0.632902204990387 -0.10395728796720505
0.4723818600177765 0.6246421337127686 -0.10384199768304825
0.4395289719104767 0.6334911584854126 -0.05258245766162872
0.49110835790634155 0.6356748938560486 -0.10979843139648438
0.4913921654224396 0.6397435069084167 -0.08151300251483917
0.4426272511482239 0.4746292233467102 0.0069415210746228695
0.45731601119041443 0.48222917318344116 -0.005863083526492119
0.465566486120224 0.4874934256076813 -0.02268548682332039
0.3357941508293152 0.46939510107040405 0.006014519836753607
0.3241676688194275 0.4634547829627991 0.004964462947100401
0.531619131565094 0.542095422744751 -0.09369158744812012
0.6536592245101929 0.48282483220100403 0.04811760410666466
0.5360117554664612 0.6359332799911499 -0.07831452041864395
0.7177373170852661 0.4083712697029114 0.16214746236801147
0.591387152671814 0.49605900049209595 0.01969580352306366
0.6125174760818481 0.4991597831249237 0.023157469928264618
0.6335669159889221 0.5005683898925781 0.03098958358168602
0.6614057421684265 0.4924664795398712 0.052176956087350845
0.5743956565856934 0.489984393119812 0.018245456740260124
0.6239885687828064 0.4553176760673523 0.011866147629916668
0.6019366383552551 0.4535682201385498 0.009712264873087406
0.6438758373260498 0.4598572850227356 0.020921654999256134
0.6565951108932495 0.46648311614990234 0.03185005486011505
0.6781079769134521 0.5088784098625183 0.06470289826393127
0.5878950953483582 0.8378222584724426 0.014351452700793743
0.6616819500923157 0.47993096709251404 0.05547776445746422
0.7310322523117065 0.5047853589057922 0.17508648335933685
0.7006585597991943 0.49841123819351196 0.08953976631164551
0.618106484413147 0.5987319946289062 -0.0014314480358734727
0.5400769710540771 0.702396810054779 -0.053884588181972504
0.534014880657196 0.7256528735160828 -0.041061606258153915
0.5702212452888489 0.7062777280807495 -0.03560851141810417
0.5879388451576233 0.7129073739051819 -0.0138865876942873
0.5562654137611389 0.724234402179718 -0.027971666306257248
0.5725529193878174 0.7244428992271423 -0.008653189986944199
0.6107338666915894 0.7472529411315918 0.024677131325006485
0.5354251265525818 0.6260957717895508 -0.12130918353796005
0.5386644005775452 0.6011980175971985 -0.1289244294166565
0.688758909702301 0.4508405029773712 0.037330206483602524
0.5714201331138611 0.5379424095153809 -0.011368909850716591
0.5873563289642334 0.6134860515594482 -0.05641491338610649
0.58693528175354 0.5996619462966919 -0.049086347222328186
0.6780056953430176 0.5959027409553528 0.035389941185712814
0.5355232954025269 0.5692375302314758 -0.1155015081167221
0.641387939453125 0.4277114272117615 -0.011208983138203621
0.6701018810272217 0.4363020658493042 0.010035339742898941
0.7018805742263794 0.3688194155693054 0.11295165866613388
0.5492459535598755 0.43657106161117554 -0.0391521155834198
0.581855058670044 0.4564017653465271 0.015184418298304081
0.6295796632766724 0.7240399122238159 0.03277603164315224
0.7116276025772095 0.7264251708984375 0.2396497279405594
0.570757269859314 0.6272236704826355 -0.048907145857810974
0.5513308048248291 0.6357665061950684 -0.05540400370955467
0.6071617603302002 0.7239768505096436 0.03004404902458191
0.5963157415390015 0.723364531993866 0.022704316303133965
0.6803816556930542 0.422916054725647 0.02336166799068451
0.5876203179359436 0.6227127313613892 -0.04350828751921654
0.6014808416366577 0.42570483684539795 -0.027467595413327217
0.6069701910018921 0.4075227975845337 -0.03211688995361328
0.6276218295097351 0.3132607340812683 0.013430078513920307
0.6909505128860474 0.39377039670944214 0.06261127442121506
0.6159065365791321 0.357318252325058 -0.009841089136898518
0.6993810534477234 0.4412943720817566 0.05880485847592354
0.7089608907699585 0.4253665804862976 0.10834438353776932
0.5375665426254272 0.7166743874549866 -0.04966128617525101
0.5624733567237854 0.7175816297531128 -0.03233268857002258
0.5802791118621826 0.7191671133041382 -0.013147739693522453
0.564848780632019 0.6313028931617737 -0.04621735215187073
0.601732075214386 0.7237541079521179 0.02592274360358715
0.5914324522018433 0.7293124198913574 0.00882063340395689
0.5928777456283569 0.7227122783660889 0.021373474970459938
0.5592926740646362 0.6228088140487671 -0.08303099125623703
0.567157506942749 0.7226781845092773 -0.005111833568662405
0.5504586696624756 0.7247135639190674 -0.019036537036299706
0.5298184156417847 0.7271756529808044 -0.03123076818883419
0.535115659236908 0.7944487929344177 -0.0236207265406847
0.5361689925193787 0.7660568356513977 -0.041957054287195206
0.5355484485626221 0.7514110207557678 -0.04268033802509308
0.5339980125427246 0.7394446134567261 -0.03559593856334686
0.5316243171691895 0.7317149043083191 -0.03138405457139015
0.5700521469116211 0.7271541357040405 -0.005418537184596062
0.5736936330795288 0.7299642562866211 -0.009709412232041359
0.578493595123291 0.7360961437225342 -0.012782612815499306
0.5825901627540588 0.7443641424179077 -0.007895226590335369
0.6070011854171753 0.6857367157936096 -0.007319129072129726
0.7268716096878052 0.6089377403259277 0.27264928817749023
0.5804385542869568 0.7259333729743958 0.010355141945183277
0.5858392715454102 0.7265740633010864 0.007953097112476826
0.5424538850784302 0.6474239230155945 -0.056118689477443695
0.5787493586540222 0.636926531791687 -0.02793925069272518
0.5468263626098633 0.6419653296470642 -0.05660524591803551
0.5934175848960876 0.5514618158340454 -0.00026341609191149473
0.6284384727478027 0.5677494406700134 0.00955585204064846
0.5898923873901367 0.6095008850097656 -0.035149358212947845
0.674027681350708 0.33628714084625244 0.06015949696302414
0.661505937576294 0.37069061398506165 0.02470303326845169
0.6489835977554321 0.41004377603530884 -0.004803777206689119
0.5910068154335022 0.765328049659729 0.008468670770525932
0.5581112504005432 0.40817326307296753 -0.04863721877336502
0.5667116641998291 0.3517075479030609 -0.03229222074151039
0.5742447376251221 0.3011053204536438 -0.017562830820679665
0.6511683464050293 0.4985613226890564 0.042295895516872406
0.7005361318588257 0.5261510610580444 0.08108246326446533
0.5643534660339355 0.48406141996383667 0.02057665027678013
0.6791245341300964 0.4731794595718384 0.052878208458423615
0.5565763711929321 0.522834062576294 -0.022743895649909973
0.5736414194107056 0.6073258519172668 -0.08174671232700348
0.7216796278953552 0.543734073638916 0.109795480966568
0.6873530149459839 0.5397789478302002 0.05970703810453415
0.6615577340126038 0.5464344024658203 0.03577784448862076
0.6212058067321777 0.5413601398468018 0.019549738615751266
0.5911969542503357 0.5308021306991577 0.01114184781908989
0.569419801235199 0.5195837020874023 0.0014568387996405363
0.5297102332115173 0.49193108081817627 -0.053708139806985855
0.7216028571128845 0.5908569097518921 0.1054515466094017
0.6958860158920288 0.4719904065132141 0.06547712534666061
0.5261514782905579 0.6380260586738586 -0.10988064110279083
0.5732110738754272 0.5623085498809814 -0.01987544633448124
0.7282719612121582 0.5048692226409912 0.2524692416191101
0.553631603717804 0.5072250366210938 -0.004321530926972628
0.5899157524108887 0.6102467179298401 -0.01078858319669962
0.6676588654518127 0.48309630155563354 0.06018893048167229
0.5727443695068359 0.5903273224830627 -0.07286345958709717
0.7236337065696716 0.6663689613342285 0.26231732964515686
0.5658074021339417 0.47615307569503784 0.027097200974822044
0.5545663833618164 0.5775026679039001 -0.09881068766117096
0.6797564029693604 0.7805129289627075 0.11466105282306671
0.6727255582809448 0.8115718960762024 0.15440072119235992
0.7354832291603088 0.6019611358642578 0.19037793576717377
0.7035617828369141 0.7476560473442078 0.14556218683719635
0.7200019359588623 0.46079525351524353 0.14846666157245636
0.592545747756958 0.8671672344207764 0.028510456904768944
0.5221025347709656 0.6421882510185242 -0.07888485491275787
0.592353343963623 0.5794081687927246 -0.008856368251144886
0.7166365385055542 0.5040090680122375 0.11573441326618195
0.6315810680389404 0.4853075444698334 0.03338104113936424
0.6125786900520325 0.4851236641407013 0.025916708633303642
0.5966537594795227 0.7336084246635437 0.013669623993337154
0.7197718024253845 0.6390670537948608 0.11418872326612473
0.5477257966995239 0.9052765965461731 0.028913386166095734
0.6157565116882324 0.8695809841156006 0.08534722030162811
0.6430898904800415 0.8452808260917664 0.11651124805212021
0.5950754880905151 0.48283302783966064 0.022439653053879738
0.5790533423423767 0.4788009524345398 0.02358117885887623
0.5697815418243408 0.47705328464508057 0.026875367388129234
0.7087618112564087 0.468234121799469 0.09046491235494614
0.584134578704834 0.4663069546222687 0.02084321342408657
0.6022519469261169 0.46412035822868347 0.017217552289366722
0.6205297708511353 0.4646652936935425 0.020435525104403496
0.6388612985610962 0.468740314245224 0.02771548181772232
0.6502121686935425 0.4740087389945984 0.03654564544558525
0.7260109186172485 0.4506768584251404 0.21264630556106567
0.6445630192756653 0.4842464327812195 0.0412704236805439
0.5881419777870178 0.6723315119743347 -0.02530631795525551
0.5716697573661804 0.6243152618408203 -0.058616507798433304
0.5434366464614868 0.6679136753082275 -0.0530514121055603
0.651552677154541 0.8139486908912659 0.08794602751731873
0.6234878897666931 0.841148316860199 0.05971608683466911
0.5514923334121704 0.8844808340072632 -0.0001888802944449708
0.6936666369438171 0.7747882604598999 0.19948463141918182
0.571845531463623 0.47151026129722595 0.024397872388362885
0.5457404255867004 0.5307431817054749 -0.05690602958202362
0.5856329798698425 0.8907020092010498 0.05269834026694298
0.7312160730361938 0.6544657349586487 0.1876276582479477
0.5529738068580627 0.7292141914367676 -0.019318368285894394
0.5564070343971252 0.7349173426628113 -0.02361857146024704
0.5597142577171326 0.7440952658653259 -0.027657391503453255
0.5621992945671082 0.7571336030960083 -0.024859372526407242
0.5667604207992554 0.7820706367492676 -0.009303237311542034
0.5869942903518677 0.7236085534095764 0.008286843076348305
0.5942275524139404 0.7216303944587708 0.008969061076641083
0.601128101348877 0.717758297920227 0.009272374212741852
0.6229153871536255 0.7029767036437988 0.014078469015657902
0.695838451385498 0.6493013501167297 0.06402187049388885
0.5425868034362793 0.5061574578285217 -0.036470454186201096
0.5487449169158936 0.46417906880378723 0.0069084372371435165
0.5622185468673706 0.4667096436023712 0.01815902814269066
0.5810446739196777 0.7210046648979187 0.010163744911551476
0.698068380355835 0.7093966603279114 0.10101176053285599
0.5329901576042175 0.46456825733184814 -0.0277165025472641
0.5768629908561707 0.8088226914405823 0.0033138941507786512
0.5313345789909363 0.5178192257881165 -0.0762307345867157
0.562524139881134 0.5685685873031616 -0.05307687073945999
0.5410262942314148 0.8228693008422852 -0.017289260402321815
0.6295057535171509 0.7600416541099548 0.03861192613840103
0.6068515181541443 0.6298568844795227 -0.002909040078520775
0.6050693392753601 0.7878782749176025 0.022486871108412743
0.6526452302932739 0.627131462097168 0.011935566551983356
0.6259373426437378 0.6542868614196777 0.005558572243899107
0.6709132194519043 0.6662418842315674 0.035875726491212845
0.5487256646156311 0.8557565212249756 -0.013491149991750717
0.5757019519805908 0.5810868144035339 -0.03390483558177948
0.6464514136314392 0.7822791934013367 0.0615568682551384
0.6175644993782043 0.81206876039505 0.040962185710668564
0.6488292217254639 0.7287542223930359 0.04392186924815178
0.7152388095855713 0.6809007525444031 0.12277273088693619
0.6735649108886719 0.7349840402603149 0.06856448948383331
0.7218571305274963 0.7033236622810364 0.17775754630565643
0.6432908177375793 0.6848233938217163 0.02062702365219593
0.5588401556015015 0.5462648868560791 -0.03713211417198181
0.566869854927063 0.6188234686851501 -0.0874098613858223
0.5811874866485596 0.6220198273658752 -0.060368262231349945
0.5578048229217529 0.6038221716880798 -0.10657209157943726
0.5655570030212402 0.45057982206344604 0.001616329769603908
0.6005541086196899 0.44403910636901855 -0.0013498679036274552
0.6306898593902588 0.4450036287307739 0.0017773492727428675
0.6552375555038452 0.4497394561767578 0.013830743730068207
0.6714215278625488 0.4587768316268921 0.030834710225462914
0.6819419264793396 0.4907241761684418 0.07032504677772522
0.7359033226966858 0.5525955557823181 0.18477368354797363
0.6667200326919556 0.5166438817977905 0.05278944596648216
0.6454812288284302 0.521060049533844 0.03619711101055145
0.6172713041305542 0.5189497470855713 0.023789165541529655
0.590324878692627 0.5121853351593018 0.017857739701867104
0.5702099800109863 0.5041888952255249 0.012692850083112717
0.5566325187683105 0.4966951906681061 0.009915396571159363
0.726412296295166 0.5564398765563965 0.27098262310028076
0.5797036290168762 0.6271960139274597 -0.04872923716902733
0.54802405834198 0.5531857013702393 -0.07420581579208374
0.551954984664917 0.6219376921653748 -0.10804656893014908
0.5378249883651733 0.63325434923172 -0.09989789128303528
0.5508464574813843 0.6250616312026978 -0.09648499637842178
0.5728319883346558 0.6340133547782898 -0.04199988767504692
0.5338841080665588 0.6360788345336914 -0.10630650818347931
0.5303837656974792 0.6402025818824768 -0.07870320975780487
0.5580466985702515 0.47802215814590454 0.021797742694616318
0.5460789799690247 0.48480314016342163 0.005237207282334566
0.541434109210968 0.4897104501724243 -0.013875956647098064
0.6568858623504639 0.47776925563812256 0.044696155935525894
0.6667789220809937 0.47336164116859436 0.04621536657214165
