ply
format ascii 1.0
element vertex 468
property float x
property float y
property float z
end_header
0.5216009616851807 0.7306869029998779 -0.06187644600868225
0.5386350750923157 0.6532442569732666 -0.14319497346878052
0.5269116163253784 0.6778373122215271 -0.07519184798002243
0.5106313228607178 0.5549672842025757 -0.11755863577127457
0.5395941138267517 0.6230254769325256 -0.15324479341506958
0.5364481806755066 0.582848310470581 -0.1451210230588913
0.523841381072998 0.48721832036972046 -0.0829472616314888
0.33057495951652527 0.4872930645942688 -0.005840260069817305
0.5195221900939941 0.42461860179901123 -0.06905288249254227
0.51971435546875 0.38757118582725525 -0.07592114806175232
0.5133417844772339 0.24626204371452332 -0.058481864631175995
0.520185649394989 0.7428439259529114 -0.058288440108299255
0.5180468559265137 0.7498918771743774 -0.05117756873369217
0.5157310962677002 0.7501983046531677 -0.040688835084438324
0.5172256231307983 0.8152255415916443 -0.01742931455373764
0.5178713798522949 0.8262497186660767 -0.02161078155040741
0.5177261233329773 0.8390920758247375 -0.026544274762272835
0.5169700980186462 0.8540181517601013 -0.02050844393670559
0.5139021277427673 0.8764801025390625 0.0029072826728224754
0.5355679392814636 0.6681656837463379 -0.12960824370384216
0.5059777498245239 0.6645228266716003 -0.09720464050769806
0.20537656545639038 0.38573068380355835 0.08796047419309616
0.40735068917274475 0.5071771144866943 -0.020433224737644196
0.3815290629863739 0.5099165439605713 -0.022216852754354477
0.35560286045074463 0.509048342704773 -0.01940757967531681
0.31736063957214355 0.49721401929855347 -0.0029797593597322702
0.42846158146858215 0.49985548853874207 -0.014816556125879288
0.3710920512676239 0.4435853958129883 -0.037740956991910934
0.39820051193237305 0.44323182106018066 -0.03244788572192192
0.34504392743110657 0.4492577314376831 -0.0327519029378891
0.3265243172645569 0.45922279357910156 -0.023812185972929
0.2943044900894165 0.5143610835075378 0.008210031315684319
0.413725882768631 0.9094896912574768 0.025295382365584373
0.31910794973373413 0.4825306534767151 0.0008072547498159111
0.19511127471923828 0.5084636211395264 0.10811708122491837
0.2601585388183594 0.5005877017974854 0.028262300416827202
0.3839939832687378 0.6190244555473328 -0.03914458677172661
0.48122796416282654 0.7267735004425049 -0.0639476329088211
0.48011207580566406 0.7490546703338623 -0.05092794820666313
0.4372979700565338 0.7305381298065186 -0.05139504373073578
0.4071446359157562 0.7361366748809814 -0.027676573023200035
0.4481782615184784 0.748183012008667 -0.04118572920560837
0.42245638370513916 0.7478944063186646 -0.019973397254943848
0.3740588426589966 0.7898145914077759 0.023411886766552925
0.5164358019828796 0.6529164910316467 -0.14331775903701782
0.5149450302124023 0.6232527494430542 -0.15313923358917236
0.2830513119697571 0.43509235978126526 -0.02622411586344242
0.44135400652885437 0.5505588054656982 -0.04120460897684097
0.44316771626472473 0.637377917766571 -0.0889226421713829
0.4404050409793854 0.6207842826843262 -0.08168794214725494
0.2988516688346863 0.6144394278526306 -0.018839670345187187
0.5135920643806458 0.5862448215484619 -0.14049845933914185
0.35395851731300354 0.40255165100097656 -0.061801809817552567
0.31352630257606506 0.4140970706939697 -0.04783232510089874
0.23999468982219696 0.3336021900177002 0.03980626165866852
0.4690064489841461 0.4203779399394989 -0.0680217295885086
0.42178216576576233 0.45013922452926636 -0.020976858213543892
0.3523520231246948 0.7525072693824768 0.019534287974238396
0.21617913246154785 0.7799477577209473 0.1962413638830185
0.46057844161987305 0.6535472273826599 -0.07500750571489334
0.4827418923377991 0.6629399061203003 -0.07373961806297302
0.36907219886779785 0.7516195178031921 0.02285541407763958
0.38198333978652954 0.7534074783325195 0.019087057560682297
0.29573798179626465 0.39602798223495483 -0.038817454129457474
0.4378907084465027 0.6464850902557373 -0.07349134981632233
0.4059318006038666 0.40282490849494934 -0.06895022094249725
0.40084028244018555 0.37897560000419617 -0.07651662081480026
0.36217358708381653 0.2623915374279022 -0.04502393677830696
0.26934441924095154 0.36349907517433167 -0.0038307420909404755
0.38485050201416016 0.3171174228191376 -0.06140236184000969
0.262751042842865 0.4227374792098999 -0.0076932525262236595
0.23457370698451996 0.4055963158607483 0.03866682946681976
0.4801534414291382 0.7409540414810181 -0.05968502163887024
0.44353169202804565 0.7417593002319336 -0.046228569000959396
0.41501304507255554 0.7423380613327026 -0.025226520374417305
0.4656102657318115 0.6576330065727234 -0.06860288232564926
0.3750898838043213 0.7523474097251892 0.020803723484277725
0.3923346698284149 0.7768605351448059 0.013026184402406216
0.38646650314331055 0.7541801929473877 0.018970636650919914
0.48152610659599304 0.6505569815635681 -0.1112113818526268
0.42535990476608276 0.7446630001068115 -0.01567337103188038
0.45094868540763855 0.7463540434837341 -0.031091885641217232
0.4806564450263977 0.7489960789680481 -0.040955234318971634
0.47148868441581726 0.8744446635246277 0.0006255549378693104
0.47527799010276794 0.8499736189842224 -0.022296741604804993
0.47771891951560974 0.834869384765625 -0.026524771004915237
0.47969916462898254 0.8222024440765381 -0.021360669285058975
0.4816615581512451 0.8127063512802124 -0.017352255061268806
0.4246339797973633 0.7906274199485779 0.0018084514886140823
0.4201051890850067 0.7930909395217896 -0.0010805489728227258
0.4136556386947632 0.7988423109054565 -0.003535607596859336
0.4084642827510834 0.8064970970153809 0.0012196009047329426
0.3930656909942627 0.7123540043830872 -0.025436244904994965
0.18306955695152283 0.6377556920051575 0.21726000308990479
0.5316551923751831 0.6729599237442017 -0.09524732828140259
0.40701478719711304 0.7774298191070557 0.014009792357683182
0.39925023913383484 0.7760337591171265 0.012307411059737206
0.49128708243370056 0.6756181120872498 -0.07180201262235641
0.4427035450935364 0.6612052917480469 -0.05043238028883934
0.4874475300312042 0.6696721315383911 -0.07399308681488037
0.4121679663658142 0.5653087496757507 -0.03551051393151283
0.36680200695991516 0.5821978449821472 -0.03366784751415253
0.4320971667766571 0.6313724517822266 -0.06642638146877289
0.29057392477989197 0.29120251536369324 -0.006575124803930521
0.3176459074020386 0.3327059745788574 -0.03597128018736839
0.34343424439430237 0.3796769082546234 -0.05978694558143616
0.39883193373680115 0.8236982822418213 0.015733495354652405
0.4612467288970947 0.3826850354671478 -0.0805591344833374
0.44836562871932983 0.31307703256607056 -0.07161325961351395
0.4337087571620941 0.24884292483329773 -0.061792489141225815
0.33192113041877747 0.5053686499595642 -0.011523133143782616
0.26319488883018494 0.5335738062858582 0.020016644150018692
0.44162383675575256 0.4923728406429291 -0.010809558443725109
0.294360876083374 0.46888768672943115 -0.005858621094375849
0.46140286326408386 0.5333094000816345 -0.04960469529032707
0.4652765095233917 0.631039559841156 -0.1126340851187706
0.22982347011566162 0.555366039276123 0.045042261481285095
0.2853304147720337 0.548679769039154 0.0009841045830398798
0.32219797372817993 0.5557961463928223 -0.0165611132979393
0.37359747290611267 0.5528727769851685 -0.022603269666433334
0.4115156829357147 0.5428526401519775 -0.02329946868121624
0.43922170996665955 0.5302634239196777 -0.027814924716949463
0.4993237555027008 0.49549347162246704 -0.07601728290319443
0.2313620150089264 0.6110931634902954 0.04210812970995903
0.26960551738739014 0.4657048285007477 0.0018274871399626136
0.521832287311554 0.667181134223938 -0.12988831102848053
0.44435828924179077 0.5778692364692688 -0.05037359520792961
0.17533209919929504 0.5081688761711121 0.1863582730293274
0.4596685469150543 0.5153668522834778 -0.03048599883913994
0.42575129866600037 0.631264865398407 -0.038765791803598404
0.30862417817115784 0.4847644567489624 0.004516771528869867
0.4623332917690277 0.6104578971862793 -0.10392697155475616
0.19235935807228088 0.7072579264640808 0.2121317833662033
0.4394999146461487 0.483176589012146 -0.005656658671796322
0.48848459124565125 0.5960008502006531 -0.12755168974399567
0.29133427143096924 0.8395204544067383 0.09124231338500977
0.2896858751773834 0.878386378288269 0.13130342960357666
0.194379985332489 0.6284617185592651 0.1291418820619583
0.2525379955768585 0.8034504652023315 0.10780268162488937
0.2132895290851593 0.45242440700531006 0.07959939539432526
0.4095260500907898 0.9406323432922363 0.03823987767100334
0.5211474895477295 0.6719028949737549 -0.09449220448732376
0.41772791743278503 0.5964950919151306 -0.0421556755900383
0.23242081701755524 0.5071644186973572 0.05024637281894684
0.35964667797088623 0.492952823638916 -0.017141377553343773
0.38250237703323364 0.4943574368953705 -0.02069820463657379
0.38572120666503906 0.7793207764625549 0.01558297872543335
0.23140735924243927 0.6702141761779785 0.05625542998313904
0.4555809199810028 0.9800845384597778 0.049590952694416046
0.3726417124271393 0.9428988695144653 0.08534363657236099
0.3349473178386688 0.9159094095230103 0.10634534806013107
0.5167616009712219 0.31396484375 -0.06871084123849869
0.5079835057258606 0.9826656579971313 0.05005785450339317
0.40328192710876465 0.49240005016326904 -0.0188203826546669
0.422763466835022 0.4876583516597748 -0.013156171888113022
0.4342655837535858 0.4852086305618286 -0.006869059521704912
0.24540959298610687 0.46011480689048767 0.024015292525291443
0.4162196218967438 0.466838002204895 -0.017959807068109512
0.3939758837223053 0.4614941477775574 -0.02570011280477047
0.37307804822921753 0.46120303869247437 -0.027593817561864853
0.35121801495552063 0.4665285348892212 -0.024137862026691437
0.3362494111061096 0.4735679030418396 -0.01680668629705906
0.18502214550971985 0.43987247347831726 0.14184163510799408
0.34306055307388306 0.49022501707077026 -0.011404615826904774
0.5242726802825928 0.6949939727783203 -0.06410165876150131
0.42426615953445435 0.6990297436714172 -0.044287703931331635
0.462416410446167 0.6513521075248718 -0.0853186845779419
0.4834471642971039 0.6955649256706238 -0.06539224833250046
0.5197950005531311 0.4547082185745239 -0.06641202419996262
0.3322662115097046 0.8781441450119019 0.07952021807432175
0.3698180913925171 0.9097113609313965 0.061061374843120575
0.4577411711215973 0.9604332447052002 0.02082262746989727
0.25137048959732056 0.8371292948722839 0.1635565310716629
0.4323165714740753 0.476364403963089 -0.010912523604929447
0.48470771312713623 0.541877269744873 -0.08202803879976273
0.5115451216697693 0.9623860120773315 0.02289450913667679
0.411726176738739 0.9656874537467957 0.06236325576901436
0.20189538598060608 0.6928851008415222 0.13135077059268951
0.4509219229221344 0.8035066723823547 -0.009750057943165302
0.4466952383518219 0.80997633934021 -0.012777387164533138
0.4424663186073303 0.8197835683822632 -0.015505201183259487
0.4385570287704468 0.8330473899841309 -0.010857060551643372
0.4298233687877655 0.8538519740104675 0.005465550348162651
0.3970676362514496 0.7481356859207153 2.204639713454526e-05
0.3894766569137573 0.7450352907180786 -0.0003853356756735593
0.3827037811279297 0.7408338785171509 -0.001926958211697638
0.3658432960510254 0.7289588451385498 -0.0029593787621706724
0.2702213525772095 0.6802377700805664 0.012323607690632343
0.4810467064380646 0.5129050016403198 -0.06101270020008087
0.4619152843952179 0.4622528553009033 -0.02044571191072464
0.4443108141422272 0.467355877161026 -0.013662656769156456
0.40293067693710327 0.744972288608551 0.0025908946990966797
0.2640652060508728 0.7541806101799011 0.05989207327365875
0.48652803897857666 0.45991623401641846 -0.052005358040332794
0.4217280447483063 0.8783866763114929 0.017020609229803085
0.5322014093399048 0.5500891208648682 -0.12300010770559311
0.5050017833709717 0.5267647504806519 -0.09873160719871521
0.5280158519744873 0.5199607610702515 -0.10198378562927246
0.4661664068698883 0.5856263637542725 -0.08141118288040161
0.5133058428764343 0.9336251020431519 0.009486224502325058
0.5135723948478699 0.9010945558547974 0.007017022464424372
0.46687009930610657 0.8996750116348267 0.007454457227140665
0.358898401260376 0.806421160697937 0.03394141420722008
0.4024638533592224 0.6535886526107788 -0.03187192976474762
0.38742581009864807 0.8463532328605652 0.0280560702085495
0.3369758427143097 0.6528047323226929 -0.029652688652276993
0.3733683228492737 0.6816216707229614 -0.022858668118715286
0.30981144309043884 0.6979917287826538 -0.003970657009631395
0.4613686203956604 0.9320861101150513 0.008557274006307125
0.44654175639152527 0.5992050766944885 -0.06372591853141785
0.3404652178287506 0.8376001119613647 0.05269569903612137
0.3768768012523651 0.8748944997787476 0.043808307498693466
0.3357400596141815 0.7648179531097412 0.02449270896613598
0.23656012117862701 0.7214601039886475 0.07226686924695969
0.3028319478034973 0.7805969715118408 0.04169826582074165
0.21934150159358978 0.7521911859512329 0.1284918189048767
0.3452703356742859 0.7122707366943359 -0.006774472072720528
0.46523573994636536 0.5599626302719116 -0.06475408375263214
0.4739507734775543 0.6456031799316406 -0.11717028170824051
0.45134663581848145 0.6480507850646973 -0.08967691659927368
0.48968905210494995 0.6268808245658875 -0.13546743988990784
0.4434044659137726 0.4420139193534851 -0.03152371570467949
0.40272092819213867 0.4299567937850952 -0.04234843701124191
0.36584895849227905 0.4291214346885681 -0.04604600369930267
0.3335016369819641 0.4350813031196594 -0.03975434601306915
0.3086593747138977 0.44804051518440247 -0.026434175670146942
0.28814446926116943 0.4926066994667053 0.012788977473974228
0.19182056188583374 0.5679886341094971 0.1192786917090416
0.3117195963859558 0.5239009857177734 -0.0018703831592574716
0.34108200669288635 0.5298961400985718 -0.01273259799927473
0.37686508893966675 0.5297819375991821 -0.01859014481306076
0.4099659323692322 0.5237792134284973 -0.018450506031513214
0.4349367916584015 0.5143437385559082 -0.01733570545911789
0.4519105851650238 0.5047812461853027 -0.017315076664090157
0.17774730920791626 0.5726035833358765 0.2097480446100235
0.44896265864372253 0.6525307297706604 -0.07637558877468109
0.4885751008987427 0.5679646730422974 -0.10118594020605087
0.4962174594402313 0.6490033864974976 -0.13404768705368042
0.5069057941436768 0.6621277928352356 -0.12081119418144226
0.4935325086116791 0.6532560586929321 -0.12159548699855804
0.45341208577156067 0.6593121886253357 -0.06533750891685486
0.5130583643913269 0.665216326713562 -0.12686015665531158
0.5122430324554443 0.6694545149803162 -0.09578141570091248
0.4497760832309723 0.48406586050987244 -0.007639496587216854
0.46494799852371216 0.48925524950027466 -0.020150944590568542
0.47501707077026367 0.49347123503685 -0.037874985486269
0.3269863724708557 0.4787999987602234 -0.009582951664924622
0.31150704622268677 0.47020161151885986 -0.009928776882588863
0.5507672429084778 0.5540082454681396 -0.11047421395778656
0.6741020083427429 0.47517892718315125 0.0457611009478569
0.5543754696846008 0.6629855632781982 -0.09171896427869797
0.742272675037384 0.3780525028705597 0.16876478493213654
0.6068702936172485 0.5009261965751648 0.013144802302122116
0.630429208278656 0.5019921660423279 0.017694447189569473
0.6532617211341858 0.5000386834144592 0.02684135176241398
0.6822909712791443 0.4852778911590576 0.051930077373981476
0.5879337787628174 0.49485155940055847 0.010889047756791115
0.6413648724555969 0.4362121820449829 0.0048996275290846825
0.6157772541046143 0.43797141313552856 0.0007095424807630479
0.6646692156791687 0.44000867009162903 0.01613311842083931
0.6793480515480042 0.4486643075942993 0.028768692165613174
0.7000277042388916 0.5035389065742493 0.06719879806041718
0.5990623235702515 0.8993246555328369 0.050365038216114044
0.6818529963493347 0.46965301036834717 0.055008143186569214
0.752166748046875 0.4962638318538666 0.18929141759872437
0.7218834161758423 0.48881661891937256 0.09477183222770691
0.6389616131782532 0.6129933595657349 -0.004794764332473278
0.5585768818855286 0.7247655391693115 -0.05463315546512604
0.5512410402297974 0.7473986148834229 -0.04229925200343132
0.5921971797943115 0.7264200448989868 -0.032329101115465164
0.6106342077255249 0.7315587997436523 -0.0017816729377955198
0.5758172273635864 0.7452024221420288 -0.024457687512040138
0.5931888818740845 0.7448196411132812 0.002697331365197897
0.6286540031433105 0.7831945419311523 0.057100050151348114
0.5586066842079163 0.651496946811676 -0.13885444402694702
0.561007022857666 0.6218650341033936 -0.14772939682006836
0.7146256566047668 0.42317214608192444 0.036754999309778214
0.5863031148910522 0.5472744703292847 -0.01922697201371193
0.6050205826759338 0.6330341696739197 -0.06842067837715149
0.6034765243530273 0.6167700886726379 -0.06065757945179939
0.7055304646492004 0.6041632294654846 0.03787011653184891
0.5566186308860779 0.5850344300270081 -0.13363465666770935
0.6644328236579895 0.395590603351593 -0.018131595104932785
0.6953922510147095 0.4041658937931061 0.006874918472021818
0.7260155081748962 0.3281203806400299 0.11210877448320389
0.5649001002311707 0.418917715549469 -0.05364788696169853
0.5938103199005127 0.4460584819316864 0.005812014453113079
0.6476825475692749 0.7457261681556702 0.05991939827799797
0.7138744592666626 0.7596091032028198 0.2707790434360504
0.5881885886192322 0.6498275995254517 -0.05973583087325096
0.5680891871452332 0.6608257293701172 -0.0658685714006424
0.6313072443008423 0.7475671172142029 0.058080196380615234
0.6194124221801758 0.7500815391540527 0.050175514072179794
0.7070438861846924 0.38629722595214844 0.02013196237385273
0.6050143241882324 0.6424538493156433 -0.05371207371354103
0.6213626265525818 0.3985675275325775 -0.039043914526700974
0.6267522573471069 0.3748703598976135 -0.04572392255067825
0.6450267434120178 0.26074346899986267 -0.0042518083937466145
0.716492235660553 0.3558060824871063 0.060503799468278885
0.6344256401062012 0.31453844904899597 -0.02636585757136345
0.7258291244506836 0.4113307595252991 0.05968210846185684
0.7345813512802124 0.3959779739379883 0.11154691874980927
0.5558721423149109 0.7390870451927185 -0.0505405068397522
0.5833683609962463 0.7381496429443359 -0.028639106079936028
0.6023110747337341 0.7383283972740173 -0.00150759716052562
0.582038402557373 0.6543480157852173 -0.056309621781110764
0.6260334253311157 0.7485809922218323 0.05385168641805649
0.614449143409729 0.7729653716087341 0.040635768324136734
0.614303469657898 0.7509472966194153 0.04914053902029991
0.5788115859031677 0.6471186280250549 -0.09750284999608994
0.5873786211013794 0.7423236966133118 0.005423205439001322
0.5693842768669128 0.7442237138748169 -0.015136165544390678
0.5463190674781799 0.7477550506591797 -0.03187265247106552
0.5529596209526062 0.8714815378189087 0.009565352462232113
0.5545754432678223 0.8473494648933411 -0.012586165219545364
0.5537793636322021 0.8325027227401733 -0.0166800357401371
0.5518487691879272 0.8200746178627014 -0.011745653115212917
0.5481396317481995 0.8108017444610596 -0.008319894783198833
0.5896802544593811 0.7869378328323364 0.023147987201809883
0.5947952270507812 0.7892975807189941 0.01997356489300728
0.6009138822555542 0.7945451736450195 0.018764536827802658
0.6051313877105713 0.8014398217201233 0.02475222386419773
0.6280370950698853 0.7069218158721924 0.004000876098871231
0.737095296382904 0.6217954158782959 0.3004360795021057
0.6005250811576843 0.7741866707801819 0.040534332394599915
0.6083508729934692 0.7725914120674133 0.039020635187625885
0.5595394372940063 0.6740214824676514 -0.06418551504611969
0.5964498519897461 0.6580109000205994 -0.0347120463848114
0.5638563632965088 0.6679301261901855 -0.06643418222665787
0.610954761505127 0.5606822371482849 -0.005897305440157652
0.6508142948150635 0.5756235122680664 0.006721833720803261
0.6069538593292236 0.627189040184021 -0.04480599984526634
0.695974588394165 0.28769487142562866 0.051983971148729324
0.684913158416748 0.3274635374546051 0.01548426877707243
0.6726657748222351 0.37280702590942383 -0.013737090863287449
0.6108369827270508 0.8168104887008667 0.04336727783083916
0.5742232203483582 0.38164499402046204 -0.06496620923280716
0.5806990265846252 0.31188058853149414 -0.05341068282723427
0.5865533947944641 0.24835023283958435 -0.041385289281606674
0.6720332503318787 0.4945981502532959 0.04044496268033981
0.7234017848968506 0.5223217606544495 0.08594679832458496
0.5764698386192322 0.48808717727661133 0.012233360670506954
0.701965868473053 0.4566980004310608 0.053983740508556366
0.5705723762512207 0.5305314660072327 -0.032165318727493286
0.5926293730735779 0.6273501515388489 -0.09646633267402649
0.7445131540298462 0.5423007011413574 0.11943943053483963
0.7109252214431763 0.5383855104446411 0.06261489540338516
0.6844331622123718 0.5473847985267639 0.03633403033018112
0.6410689949989319 0.5462916493415833 0.017603309825062752
0.6074647903442383 0.5379678010940552 0.006876497063785791
0.5833475589752197 0.5266242623329163 -0.00524303549900651
0.5444520711898804 0.49449849128723145 -0.06855960190296173
0.7467725276947021 0.5970750451087952 0.11645377427339554
0.7188467979431152 0.45373570919036865 0.06761641800403595
0.5477666854858398 0.666348397731781 -0.1263645589351654
0.5888091325759888 0.5746741890907288 -0.029307708144187927
0.7473562359809875 0.4969857931137085 0.27308112382888794
0.5665696859359741 0.5126047730445862 -0.013171585276722908
0.6068247556686401 0.6271944046020508 -0.017340771853923798
0.6889151334762573 0.47201693058013916 0.061450500041246414
0.5899158716201782 0.6070989966392517 -0.08733905851840973
0.7305561304092407 0.6888157725334167 0.29183292388916016
0.5768349170684814 0.4782589077949524 0.01889054663479328
0.5736385583877563 0.5936049818992615 -0.11552464216947556
0.6826260089874268 0.8212186098098755 0.14701999723911285
0.6709496974945068 0.8584743738174438 0.18787208199501038
0.754648745059967 0.6121773719787598 0.2100898176431656
0.7093946933746338 0.783947229385376 0.1734212189912796
0.7437201738357544 0.4418984651565552 0.15771795809268951
0.5997805595397949 0.9289486408233643 0.06499860435724258
0.5418336391448975 0.6713241338729858 -0.09234700351953506
0.6099523305892944 0.5921604037284851 -0.016009138897061348
0.7381003499031067 0.4947294592857361 0.12358278036117554
0.6516280174255371 0.48337483406066895 0.028559809550642967
0.6310034394264221 0.4861571192741394 0.01993606984615326
0.6197022795677185 0.7747179269790649 0.045312609523534775
0.7439215183258057 0.6543092727661133 0.12822666764259338
0.5569707155227661 0.97343909740448 0.06448668241500854
0.6184486746788025 0.9271758794784546 0.12239496409893036
0.6424041390419006 0.8973206281661987 0.15239693224430084
0.6109068393707275 0.4856090843677521 0.015451161190867424
0.5926384925842285 0.4820711016654968 0.016154363751411438
0.5818362236022949 0.4800986051559448 0.019278163090348244
0.7321080565452576 0.4485016465187073 0.09522666037082672
0.596514105796814 0.4607848823070526 0.012022975832223892
0.615904688835144 0.45404475927352905 0.009324438869953156
0.6361240148544312 0.45190510153770447 0.01329024787992239
0.6565671563148499 0.4554498791694641 0.022510409355163574
0.6692706346511841 0.46157777309417725 0.032933495938777924
0.7488915920257568 0.4307396113872528 0.22675929963588715
0.6650175452232361 0.47919797897338867 0.037912413477897644
0.607506275177002 0.6945896148681641 -0.022160444408655167
0.5895792245864868 0.6473079323768616 -0.07092654705047607
0.5612326860427856 0.6934868693351746 -0.055981725454330444
0.6532933115959167 0.8607538938522339 0.12484051287174225
0.6265013217926025 0.8942394256591797 0.09690024703741074
0.561673104763031 0.9538436532020569 0.03534771129488945
0.6931130290031433 0.8165868520736694 0.23056814074516296
0.5832098722457886 0.4708506464958191 0.015685219317674637
0.5617378950119019 0.5398709774017334 -0.07024259865283966
0.5920979380607605 0.9537824392318726 0.0894559994339943
0.7470134496688843 0.6744195222854614 0.20926398038864136
0.5719931125640869 0.8005350232124329 0.006332453805953264
0.5769520401954651 0.8066086769104004 0.003686422947794199
0.5812723636627197 0.8160121440887451 0.0018982095643877983
0.5842710733413696 0.8288038372993469 0.007250998634845018
0.5875139236450195 0.848331868648529 0.025892190635204315
0.6096484065055847 0.7448277473449707 0.027919335290789604
0.6174360513687134 0.7412460446357727 0.02981792949140072
0.6243332028388977 0.7364945411682129 0.02979610301554203
0.643602192401886 0.7229089140892029 0.0337773859500885
0.721290111541748 0.6668122410774231 0.07400555908679962
0.5567532181739807 0.5110971927642822 -0.04849797114729881
0.5612428784370422 0.4596926271915436 -0.004840475041419268
0.5737777352333069 0.46350541710853577 0.008668309077620506
0.6024946570396423 0.7423568367958069 0.029402147978544235
0.7143566608428955 0.7381302118301392 0.12191060185432434
0.5463955998420715 0.4587259292602539 -0.04282777011394501
0.5921189785003662 0.870292067527771 0.03905332833528519
0.5479625463485718 0.5255464315414429 -0.0922088772058487
0.579062283039093 0.5827370285987854 -0.06608942151069641
0.5559226870536804 0.8953588008880615 0.01826440915465355
0.6409416198730469 0.7962685823440552 0.07231199741363525
0.62399822473526 0.6485772728919983 -0.004031018353998661
0.6180197596549988 0.8367698788642883 0.05843134596943855
0.6766342520713806 0.6438143849372864 0.014915498904883862
0.6452546119689941 0.675032377243042 0.012227117083966732
0.6926943063735962 0.6868045330047607 0.0471838153898716
0.5614801645278931 0.9265568256378174 0.022463375702500343
0.5913835763931274 0.595922589302063 -0.044595252722501755
0.6533606648445129 0.8232668042182922 0.0960424467921257
0.6248666048049927 0.8621196746826172 0.07727345079183578
0.6624188423156738 0.7546265125274658 0.07080505043268204
0.7344278693199158 0.7042598128318787 0.14126984775066376
0.6858940720558167 0.7661206722259521 0.09476341307163239
0.732182502746582 0.732329785823822 0.20259496569633484
0.6623629927635193 0.7044214606285095 0.03583300858736038
0.574095606803894 0.5574086308479309 -0.048253923654556274
0.5866872072219849 0.6417481303215027 -0.10230187326669693
0.5991067886352539 0.6436673998832703 -0.07244905084371567
0.5783900022506714 0.6240641474723816 -0.12314341962337494
0.5793945789337158 0.4385351538658142 -0.010226214304566383
0.617400586605072 0.42448386549949646 -0.010786658152937889
0.6509002447128296 0.42174720764160156 -0.004450252745300531
0.678065299987793 0.4257736802101135 0.010579969733953476
0.695404052734375 0.43693166971206665 0.029809199273586273
0.7030577063560486 0.48049870133399963 0.07341006398200989
0.7559748291969299 0.5536033511161804 0.20221352577209473
0.6886075139045715 0.5135850310325623 0.05398368462920189
0.6658042669296265 0.5213285088539124 0.03564518690109253
0.6352629065513611 0.5228026509284973 0.021070359274744987
0.6059194803237915 0.5183016657829285 0.012807617895305157
0.583807110786438 0.5100370645523071 0.006044353358447552
0.5693264007568359 0.5013644695281982 0.0015601742779836059
0.7409732937812805 0.5593112707138062 0.295808881521225
0.5972413420677185 0.6485587358474731 -0.05946240574121475
0.5660709142684937 0.5659356117248535 -0.08925975114107132
0.5730963945388794 0.6461058259010315 -0.12445690482854843
0.557766854763031 0.6599834561347961 -0.11531830579042435
0.571050226688385 0.6501657962799072 -0.11181145906448364
0.5906539559364319 0.6559877991676331 -0.051007673144340515
0.554555356502533 0.6635925769805908 -0.12247254699468613
0.5493959188461304 0.6681774854660034 -0.09202109277248383
0.5691758990287781 0.47999393939971924 0.012482396326959133
0.5582993030548096 0.4868215322494507 -0.005464721005409956
0.554370105266571 0.49164220690727234 -0.025195172056555748
0.6765410304069519 0.46623343229293823 0.042898450046777725
0.6892378926277161 0.4581916332244873 0.04522917792201042
