ply
format ascii 1.0
element vertex 468
property float x
property float y
property float z
end_header
0.4942997395992279 0.699970006942749 -0.05302874743938446
0.4901706576347351 0.6452625393867493 -0.13856081664562225
0.4926745295524597 0.6615862250328064 -0.06883694231510162
0.47249290347099304 0.5621591806411743 -0.11465560644865036
0.4900791347026825 0.6213446259498596 -0.15009286999702454
0.49109843373298645 0.5875537991523743 -0.1444147378206253
0.4944320321083069 0.50368332862854 -0.08947598189115524
0.32740819454193115 0.48532676696777344 0.01747015118598938
0.49548280239105225 0.44474565982818604 -0.08073636889457703
0.4955459237098694 0.4132388234138489 -0.09137194603681564
0.498363733291626 0.2917344570159912 -0.08835749328136444
0.4948253333568573 0.7094637155532837 -0.04846802353858948
0.49553021788597107 0.7143241167068481 -0.040689703077077866
0.4961259365081787 0.7134652733802795 -0.02992621250450611
0.49832260608673096 0.7637859582901001 -0.0108620785176754
0.49804019927978516 0.7731521129608154 -0.014015337452292442
0.49785470962524414 0.7839002013206482 -0.017498692497611046
0.49798938632011414 0.7959551811218262 -0.010739064775407314
0.4977347254753113 0.8137861490249634 0.014857979491353035
0.4907894432544708 0.6560909152030945 -0.12409361451864243
0.46945664286613464 0.6501283049583435 -0.08823354542255402
0.24663984775543213 0.3934270739555359 0.11849494278430939
0.39993351697921753 0.5073112845420837 -0.007491391617804766
0.3753475248813629 0.508198618888855 -0.004766877740621567
0.3513054847717285 0.506709635257721 0.002540490822866559
0.3184167146682739 0.49295926094055176 0.02346448227763176
0.41966137290000916 0.5032081604003906 -0.006927729118615389
0.36203140020370483 0.4510994851589203 -0.02178793027997017
0.389056533575058 0.45304685831069946 -0.023429226130247116
0.3374972641468048 0.45435184240341187 -0.012143299914896488
0.32160860300064087 0.46201083064079285 -0.0009614726295694709
0.2996678352355957 0.507445216178894 0.038825348019599915
0.4060502350330353 0.8322011232376099 0.05899718031287193
0.3177304267883301 0.47952979803085327 0.025525493547320366
0.23569339513778687 0.4936099648475647 0.14966826140880585
0.2743852138519287 0.49330002069473267 0.06182294711470604
0.36934894323349 0.6028822064399719 -0.016157768666744232
0.4564848244190216 0.6948808431625366 -0.04892902821302414
0.4604877531528473 0.7117336392402649 -0.03464331477880478
0.4191599190235138 0.6940548419952393 -0.02904435060918331
0.3967045545578003 0.6946965456008911 -0.0003286076243966818
0.43321719765663147 0.7082159519195557 -0.01916990801692009
0.41306543350219727 0.7054243683815002 0.006488874554634094
0.3732621371746063 0.7331318259239197 0.05919633060693741
0.4702012836933136 0.6437045335769653 -0.13570545613765717
0.4676724076271057 0.6202932000160217 -0.14649651944637299
0.286607027053833 0.4400104284286499 0.0012878020061179996
0.42422932386398315 0.5485752820968628 -0.030372075736522675
0.41486573219299316 0.6242160797119141 -0.07249712198972702
0.4145723879337311 0.6100470423698425 -0.0661398246884346
0.2954464554786682 0.5928837656974792 0.01902703382074833
0.46986204385757446 0.5891590118408203 -0.13552573323249817
0.3411158323287964 0.41946953535079956 -0.047839365899562836
0.30845585465431213 0.425129771232605 -0.026388123631477356
0.26728495955467224 0.35479536652565 0.06154753267765045
0.44505155086517334 0.4407050907611847 -0.07159695029258728
0.4124565124511719 0.461144357919693 -0.016314009204506874
0.3527478873729706 0.7015509605407715 0.05765607953071594
0.2675454318523407 0.703300952911377 0.257073312997818
0.43206778168678284 0.637531042098999 -0.06122656166553497
0.45245733857154846 0.647009015083313 -0.06309372931718826
0.36892226338386536 0.7015835642814636 0.0582750141620636
0.3817194700241089 0.7047349214553833 0.05180743709206581
0.2959728240966797 0.409210741519928 -0.0170460008084774
0.4132508337497711 0.6304060816764832 -0.0568305179476738
0.38557374477386475 0.4231249690055847 -0.06384111195802689
0.3807291090488434 0.4036068916320801 -0.0732157975435257
0.35822564363479614 0.30370032787323 -0.04738236218690872
0.2820231318473816 0.38182568550109863 0.017132651060819626
0.3718368113040924 0.35235679149627686 -0.062184758484363556
0.273129940032959 0.42838019132614136 0.020660996437072754
0.25998082756996155 0.4125503897666931 0.06708785891532898
0.4577018618583679 0.7058359384536743 -0.04375143349170685
0.42691487073898315 0.7031609416007996 -0.024025285616517067
0.40477699041366577 0.7001606225967407 0.0017081450205296278
0.43750113248825073 0.6412162780761719 -0.05613858625292778
0.3747859597206116 0.7027217149734497 0.05452904477715492
0.38965117931365967 0.7254505157470703 0.04344969242811203
0.3866857886314392 0.7057182788848877 0.050901662558317184
0.44540056586265564 0.6372805833816528 -0.0986085757613182
0.41793590784072876 0.7027617692947388 0.009823688305914402
0.4385714530944824 0.7065048217773438 -0.009394071996212006
0.46400660276412964 0.7109463810920715 -0.023877616971731186
0.45782795548439026 0.8098759651184082 0.01944943144917488
0.4591682255268097 0.7906957268714905 -0.005339070223271847
0.46039432287216187 0.7785813212394714 -0.01053672842681408
0.46249446272850037 0.7681856155395508 -0.00689140148460865
0.4655187427997589 0.7602400779724121 -0.004201516974717379
0.41756677627563477 0.7387640476226807 0.025473402813076973
0.4128105640411377 0.7408882975578308 0.02308494783937931
0.40679630637168884 0.7454127073287964 0.022095728665590286
0.40246155858039856 0.7515824437141418 0.028863733634352684
0.38098669052124023 0.6768680214881897 0.002623184584081173
0.2423950731754303 0.5890638828277588 0.2698780596256256
0.4914230704307556 0.6589143872261047 -0.08905039727687836
0.40386050939559937 0.7267968654632568 0.042747411876916885
0.39617639780044556 0.7254980802536011 0.04164675623178482
0.4604203701019287 0.6580386757850647 -0.06069646030664444
0.4199088513851166 0.6420835852622986 -0.03564787656068802
0.4566321074962616 0.6528914570808411 -0.06320532411336899
0.3981966972351074 0.558586061000824 -0.01851332187652588
0.35555288195610046 0.5705980062484741 -0.008380553685128689
0.4098374843597412 0.6173135638237 -0.04984737187623978
0.3018066883087158 0.32402291893959045 0.0042896815575659275
0.31700390577316284 0.3606048822402954 -0.025091851130127907
0.33254027366638184 0.40007221698760986 -0.047359663993120193
0.39432016015052795 0.7637426257133484 0.048205189406871796
0.43677109479904175 0.4099670350551605 -0.08630412817001343
0.42968299984931946 0.35099634528160095 -0.08360368758440018
0.4214620590209961 0.29392725229263306 -0.078224778175354
0.33037418127059937 0.5016266107559204 0.0136234937235713
0.2739468216896057 0.5224733352661133 0.05625617131590843
0.4318441152572632 0.4986599385738373 -0.005330002401024103
0.2981529235839844 0.4685068130493164 0.021640747785568237
0.44147202372550964 0.5362914204597473 -0.04240483045578003
0.4301885664463043 0.6211528778076172 -0.09927017986774445
0.24973168969154358 0.5367931723594666 0.08838335424661636
0.288858562707901 0.5370612144470215 0.036163780838251114
0.3186327815055847 0.5457231998443604 0.013880169950425625
0.36512452363967896 0.5452395677566528 -2.694641807465814e-05
0.40058645606040955 0.5385952591896057 -0.008051026612520218
0.4254187047481537 0.5302596092224121 -0.018425634130835533
0.4724198281764984 0.5093319416046143 -0.07753589749336243
0.2477748692035675 0.5821471214294434 0.08992534130811691
0.2794494032859802 0.4646778106689453 0.03237542882561684
0.4787546396255493 0.6545348763465881 -0.12211034446954727
0.4240798354148865 0.5725644826889038 -0.03817782178521156
0.2332058548927307 0.48716211318969727 0.23017990589141846
0.4434080123901367 0.5200050473213196 -0.02570977807044983
0.4073648750782013 0.6157425045967102 -0.02326379530131817
0.31068265438079834 0.48141592741012573 0.030994726344943047
0.43036484718322754 0.6038748025894165 -0.09161240607500076
0.2504654824733734 0.6445429921150208 0.2693157196044922
0.4309074580669403 0.49034082889556885 -0.000570621166843921
0.4498744010925293 0.5947033166885376 -0.1186423972249031
0.31125831604003906 0.7622235417366028 0.14240610599517822
0.31979748606681824 0.7880249619483948 0.18714825809001923
0.23344534635543823 0.5886438488960266 0.18064527213573456
0.2799259424209595 0.7307143807411194 0.16358989477157593
0.24718314409255981 0.44956833124160767 0.11462994664907455
0.40566012263298035 0.8545022010803223 0.07554031163454056
0.48200157284736633 0.657598614692688 -0.08701403439044952
0.40116220712661743 0.585861086845398 -0.02568070776760578
0.2552908658981323 0.4966481328010559 0.08777476847171783
0.3533914089202881 0.4932275712490082 0.0028343729209154844
0.37503212690353394 0.49540913105010986 -0.003818272612988949
0.3837289810180664 0.7264864444732666 0.048178303986787796
0.24919608235359192 0.6284490823745728 0.10715483874082565
0.44921281933784485 0.8882028460502625 0.08221397548913956
0.38322901725769043 0.8473141193389893 0.13065560162067413
0.355038583278656 0.8216844797134399 0.15666954219341278
0.4968850910663605 0.35146811604499817 -0.0921754464507103
0.49750563502311707 0.8949815034866333 0.07335440069437027
0.3955501914024353 0.494675874710083 -0.006086055655032396
0.4149342179298401 0.4923410415649414 -0.0037279692478477955
0.42636942863464355 0.4914953112602234 -0.00024489438510499895
0.26336386799812317 0.45833820104599 0.05697070434689522
0.408648818731308 0.47122249007225037 -0.009797231294214725
0.38701602816581726 0.4628344178199768 -0.013868805021047592
0.3651082515716553 0.4608527421951294 -0.011970375664532185
0.3435255289077759 0.4646502137184143 -0.004588131792843342
0.33032673597335815 0.4712563157081604 0.004704982042312622
0.23573213815689087 0.4348955750465393 0.1790979951620102
0.3382388949394226 0.48943156003952026 0.010762359946966171
0.49362778663635254 0.6737866401672363 -0.05722459778189659
0.4054757356643677 0.6698987483978271 -0.021967437118291855
0.43162012100219727 0.6361457109451294 -0.07259170711040497
0.45616233348846436 0.6722647547721863 -0.05200920253992081
0.495440274477005 0.4721974730491638 -0.07594667375087738
0.3452759385108948 0.7955120801925659 0.1264764666557312
0.375174880027771 0.8240588903427124 0.10334477573633194
0.44628462195396423 0.8763166666030884 0.05113297328352928
0.29188060760498047 0.7518370747566223 0.2241162657737732
0.4237799048423767 0.483076810836792 -0.004455007147043943
0.4557079076766968 0.5476815700531006 -0.07790210098028183
0.4970414638519287 0.8830281496047974 0.043837275356054306
0.4128212332725525 0.8710705041885376 0.10217677801847458
0.24017488956451416 0.6396682262420654 0.18638333678245544
0.4389805495738983 0.7511266469955444 0.00914754718542099
0.4343055486679077 0.7563702464103699 0.006975483614951372
0.4302164316177368 0.7644679546356201 0.006167936604470015
0.4273681938648224 0.7752971053123474 0.012351407669484615
0.42108413577079773 0.7908651828765869 0.032865021377801895
0.39359068870544434 0.7024840712547302 0.030554642900824547
0.385534405708313 0.6990519762039185 0.0315139964222908
0.3786032795906067 0.6951037645339966 0.030336160212755203
0.36083823442459106 0.6861920356750488 0.03068624809384346
0.27556729316711426 0.6420621275901794 0.057635534554719925
0.4575900137424469 0.5218345522880554 -0.058267299085855484
0.44728562235832214 0.4755876660346985 -0.022163381800055504
0.433479368686676 0.47793716192245483 -0.011116818524897099
0.4005594551563263 0.7006747126579285 0.032482393085956573
0.27931487560272217 0.6967976689338684 0.10975471884012222
0.4656883180141449 0.4755978584289551 -0.05638767406344414
0.4132487177848816 0.8089162707328796 0.04688100889325142
0.4921821355819702 0.5594016313552856 -0.12456177175045013
0.4720992147922516 0.5374511480331421 -0.09888123720884323
0.493320107460022 0.5330256223678589 -0.10612524300813675
0.4380192160606384 0.5822625756263733 -0.07218364626169205
0.49708104133605957 0.8620109558105469 0.02744978480041027
0.49738720059394836 0.8351285457611084 0.021757014095783234
0.4527309536933899 0.8302899599075317 0.02959534153342247
0.36020427942276 0.7444100379943848 0.07301626354455948
0.38715827465057373 0.6319661140441895 -0.010418834164738655
0.3846483528614044 0.779305636882782 0.06324399262666702
0.32712531089782715 0.6273087859153748 0.0020541707053780556
0.36225253343582153 0.6521928906440735 0.005518908612430096
0.3075311779975891 0.6598157286643982 0.03463265299797058
0.44702333211898804 0.8560489416122437 0.03579859808087349
0.4236902594566345 0.5912578701972961 -0.05108487233519554
0.34635719656944275 0.7668464183807373 0.09634066373109818
0.37692999839782715 0.7997908592224121 0.08234887570142746
0.3379063010215759 0.7103398442268372 0.06622747331857681
0.2574964165687561 0.6681473255157471 0.12480955570936203
0.3110082745552063 0.7204702496528625 0.0874612107872963
0.2548035681247711 0.6873009204864502 0.18649742007255554
0.34121716022491455 0.6724024415016174 0.028805622830986977
0.44071438908576965 0.5601649880409241 -0.05648680776357651
0.437432199716568 0.6333200931549072 -0.10414685308933258
0.4217573404312134 0.6330600380897522 -0.074657142162323
0.44784578680992126 0.6205627918243408 -0.12414692342281342
0.4280162453651428 0.45720189809799194 -0.031133072450757027
0.3883851170539856 0.44441860914230347 -0.03532325476408005
0.353973925113678 0.44136905670166016 -0.03182992711663246
0.32569223642349243 0.44392186403274536 -0.019322985783219337
0.3067326545715332 0.45247799158096313 -0.002043237676844001
0.29567375779151917 0.4876103103160858 0.04235405474901199
0.23224610090255737 0.5407364368438721 0.16716477274894714
0.3127569556236267 0.5166173577308655 0.027407296001911163
0.33813270926475525 0.5239585638046265 0.01254052110016346
0.3707541823387146 0.5252522826194763 0.001362814218737185
0.40141141414642334 0.5217416286468506 -0.005123147740960121
0.4241389334201813 0.515826940536499 -0.009463215246796608
0.4391792416572571 0.5097835659980774 -0.013020860962569714
0.23777204751968384 0.537378191947937 0.2584788501262665
0.42210569977760315 0.6361124515533447 -0.06137675419449806
0.45436766743659973 0.5706017017364502 -0.09468616545200348
0.45412155985832214 0.6384263634681702 -0.12390881031751633
0.4678099453449249 0.6486849784851074 -0.11212553083896637
0.45446041226387024 0.6404255628585815 -0.11117147654294968
0.42765504121780396 0.641533374786377 -0.051481280475854874
0.4716210961341858 0.6521385312080383 -0.11857355386018753
0.4745635986328125 0.6547932028770447 -0.08759581297636032
0.4389254152774811 0.4926210641860962 -0.005153738893568516
0.4507454037666321 0.4983769953250885 -0.019982492551207542
0.4568677842617035 0.50345778465271 -0.037382327020168304
0.32293713092803955 0.47605255246162415 0.013846209272742271
0.3107794523239136 0.4700336754322052 0.014840004034340382
0.5127424597740173 0.5621463060379028 -0.11679261922836304
0.6737696528434753 0.48513349890708923 0.0017871350282803178
0.5146846771240234 0.6506121754646301 -0.08987902849912643
0.7702436447143555 0.39168915152549744 0.09453682601451874
0.5986588597297668 0.5076224207878113 -0.017934082075953484
0.6238927841186523 0.5083543658256531 -0.017023352906107903
0.6487346887588501 0.5067156553268433 -0.011980796232819557
0.683567225933075 0.4927144944667816 0.006756913848221302
0.5782080888748169 0.503390908241272 -0.014999302104115486
0.6368468403816223 0.44946104288101196 -0.03485222905874252
0.6092890501022339 0.45151233673095703 -0.033703722059726715
0.6621979475021362 0.4528990089893341 -0.027085592970252037
0.6790519952774048 0.4607609510421753 -0.01692904718220234
0.7033249139785767 0.5070603489875793 0.02069208212196827
0.5922993421554565 0.8342101573944092 0.05157545953989029
0.6842525005340576 0.47921544313430786 0.00907469168305397
0.7792412042617798 0.4928321838378906 0.12567755579948425
0.7317709922790527 0.4923563003540039 0.04198284447193146
0.6254239678382874 0.6028742790222168 -0.027015551924705505
0.5340728163719177 0.6948895454406738 -0.05224357917904854
0.5326424837112427 0.7117846012115479 -0.03782011196017265
0.5749724507331848 0.6944605112075806 -0.0357465036213398
0.6016570329666138 0.695055365562439 -0.009140602312982082
0.5623798966407776 0.7084642648696899 -0.025392334908246994
0.5859909057617188 0.7054418325424194 -0.0016025727381929755
0.6308994293212891 0.7340783476829529 0.04832988604903221
0.5107578635215759 0.6439083218574524 -0.1371312439441681
0.5132871866226196 0.6203317046165466 -0.14807599782943726
0.7166515588760376 0.4378441870212555 -0.017085997387766838
0.5698859095573425 0.5485981702804565 -0.03758873790502548
0.5728085041046143 0.624376654624939 -0.07888586819171906
0.5743217468261719 0.610201358795166 -0.07281596213579178
0.7034447193145752 0.5928171873092651 0.0013314129319041967
0.5129601359367371 0.5892483592033386 -0.13765385746955872
0.6567527055740356 0.4159984886646271 -0.05991077795624733
0.6920671463012695 0.4221312701702118 -0.041801322251558304
0.7458359003067017 0.3522862493991852 0.040315303951501846
0.5475324988365173 0.43909984827041626 -0.07531701028347015
0.5856589674949646 0.4599635899066925 -0.02445847913622856
0.651769757270813 0.7023735642433167 0.045154690742492676
0.7497768402099609 0.7057420015335083 0.23530817031860352
0.5556812882423401 0.637862503528595 -0.0665360540151596
0.5344331860542297 0.6472341418266296 -0.06560894101858139
0.6363739967346191 0.7018085718154907 0.046765681356191635
0.6241503953933716 0.7046875357627869 0.04123521223664284
0.7067092061042786 0.4059370756149292 -0.033911824226379395
0.5758793354034424 0.630578875541687 -0.06325908750295639
0.6093515157699585 0.42001640796661377 -0.07219535857439041
0.6142112612724304 0.40022653341293335 -0.08159098774194717
0.6435246467590332 0.3012661039829254 -0.05907166004180908
0.7255711555480957 0.3789646029472351 -0.0017987934406846762
0.625770092010498 0.3496182858943939 -0.07219837605953217
0.7327582836151123 0.426067590713501 0.0009417387773282826
0.7512862086296082 0.41070321202278137 0.04523095116019249
0.5339342355728149 0.7059726715087891 -0.04709692671895027
0.5681332349777222 0.7034564018249512 -0.030600296333432198
0.5938718318939209 0.7004704475402832 -0.00695410743355751
0.5503174066543579 0.6414080858230591 -0.060020606964826584
0.6307206153869629 0.7028244137763977 0.043887265026569366
0.6148576140403748 0.7258856296539307 0.03399328142404556
0.6194641590118408 0.7056411504745483 0.04070935398340225
0.5393047332763672 0.6379519701004028 -0.10292427986860275
0.5818573236465454 0.7025845050811768 0.002024939749389887
0.5580442547798157 0.7065179347991943 -0.015336794778704643
0.5303460955619812 0.7109747529029846 -0.027486292645335197
0.5391531586647034 0.8103430271148682 0.016151370480656624
0.5382517576217651 0.791030764579773 -0.009244432672858238
0.536998450756073 0.7790470123291016 -0.01468623522669077
0.5350465774536133 0.768659234046936 -0.011008534580469131
0.5324200391769409 0.7607569694519043 -0.008181538432836533
0.5851758718490601 0.7391735315322876 0.01767364703118801
0.5897615551948547 0.7413351535797119 0.014894731342792511
0.595702052116394 0.7461081743240356 0.014140000566840172
0.6000253558158875 0.7522012591362 0.020411280915141106
0.6161126494407654 0.6771239042282104 -0.006964674219489098
0.7782560586929321 0.5897799134254456 0.2456788569688797
0.6007608771324158 0.7270460724830627 0.03353794291615486
0.6083189845085144 0.7257444858551025 0.032309554517269135
0.526271402835846 0.6582326292991638 -0.06299261003732681
0.5701911449432373 0.6421396136283875 -0.0408201701939106
0.5300824642181396 0.6530625820159912 -0.06555725634098053
0.5967668294906616 0.5585619807243347 -0.028068091720342636
0.6405155062675476 0.5704711079597473 -0.021187638863921165
0.5804190635681152 0.6174072027206421 -0.0569281242787838
0.7057202458381653 0.3211149275302887 -0.012906597927212715
0.6858792304992676 0.357189804315567 -0.040059491991996765
0.6661452651023865 0.39641353487968445 -0.060375411063432693
0.6078147292137146 0.7647093534469604 0.038912344723939896
0.5558014512062073 0.4078165292739868 -0.08999355137348175
0.5652093291282654 0.3495928645133972 -0.0883987620472908
0.5767253041267395 0.29264989495277405 -0.08390575647354126
0.6707682609558105 0.5015203356742859 -0.0023269562516361475
0.7306234836578369 0.5219507813453674 0.036207448691129684
0.5655527710914612 0.4988206624984741 -0.012532629072666168
0.7049368619918823 0.4671644866466522 0.0035228547640144825
0.5517803430557251 0.5361456274986267 -0.04811006039381027
0.5549904108047485 0.6215804219245911 -0.10452166944742203
0.757861852645874 0.5365356802940369 0.06590492278337479
0.7129518985748291 0.5367571711540222 0.017401613295078278
0.6808282136917114 0.54549640417099 -0.002662394195795059
0.6323330402374268 0.5451587438583374 -0.012601193971931934
0.5958478450775146 0.5386160016059875 -0.01778939552605152
0.5704095959663391 0.5302507281303406 -0.02570074424147606
0.5178180932998657 0.5091577768325806 -0.07988795638084412
0.7577488422393799 0.5822522044181824 0.06756645441055298
0.7256795167922974 0.4630766808986664 0.012646304443478584
0.5030996203422546 0.6548238396644592 -0.12310384213924408
0.5681344866752625 0.5725463032722473 -0.045272890478372574
0.7877647280693054 0.4864709973335266 0.20491068065166473
0.5513893961906433 0.5199522972106934 -0.0311546940356493
0.5846460461616516 0.6156942248344421 -0.030101031064987183
0.6917843818664551 0.48095229268074036 0.014022352173924446
0.5563103556632996 0.6040765643119812 -0.09694245457649231
0.7689224481582642 0.6463217735290527 0.2462749183177948
0.5671705007553101 0.49058017134666443 -0.007911606691777706
0.5347231030464172 0.5948829054832458 -0.12230956554412842
0.6967167854309082 0.7655174732208252 0.12634429335594177
0.6907656192779541 0.7918704152107239 0.1709223836660385
0.7796421647071838 0.5892842411994934 0.15657399594783783
0.7304239273071289 0.7334222793579102 0.14463330805301666
0.7661527395248413 0.44817277789115906 0.09148558229207993
0.5926792621612549 0.8570581078529358 0.06800421327352524
0.5010647177696228 0.657752275466919 -0.0877484381198883
0.5924104452133179 0.5856876969337463 -0.03427288681268692
0.7537074685096741 0.4957238435745239 0.06601405888795853
0.6462993621826172 0.49336227774620056 -0.01086632814258337
0.6240130662918091 0.4956756830215454 -0.016048433259129524
0.6209138631820679 0.7270297408103943 0.0381724089384079
0.7568597197532654 0.6290496587753296 0.08553437143564224
0.5468699336051941 0.8897029161453247 0.07780604064464569
0.6192978024482727 0.8508919477462769 0.12023554742336273
0.6514642238616943 0.8257577419281006 0.14365753531455994
0.6030198335647583 0.49496781826019287 -0.016542477533221245
0.5833428502082825 0.49251630902290344 -0.012759181670844555
0.5718086361885071 0.49173110723495483 -0.008274031803011894
0.7446049451828003 0.45667552947998047 0.035705629736185074
0.5907292366027832 0.47070738673210144 -0.01921614073216915
0.6130865812301636 0.46202361583709717 -0.024647468701004982
0.6349904537200928 0.4600827395915985 -0.024802805855870247
0.6568883657455444 0.46391624212265015 -0.018896259367465973
0.6706236600875854 0.4706265926361084 -0.010584480129182339
0.7835080623626709 0.4336259663105011 0.1542290449142456
0.6622586846351624 0.4896010458469391 -0.004164774902164936
0.5875633358955383 0.6700546145439148 -0.029219049960374832
0.5552345514297485 0.6365755796432495 -0.07715088129043579
0.5327624082565308 0.6723910570144653 -0.05509107932448387
0.6598119735717773 0.7988879680633545 0.11351441591978073
0.6268107295036316 0.8272583484649658 0.09299297630786896
0.548973798751831 0.877746045589447 0.046784140169620514
0.7222533226013184 0.7548219561576843 0.20467263460159302
0.5744767189025879 0.4831256866455078 -0.012950620613992214
0.5336542725563049 0.5475447177886963 -0.0816529169678688
0.5859705805778503 0.8736705780029297 0.09436646103858948
0.7726763486862183 0.6408703923225403 0.16328084468841553
0.5610676407814026 0.7517610788345337 0.0027741841040551662
0.5657262802124023 0.7570209503173828 0.0002679925237316638
0.5695145726203918 0.7651715278625488 -0.00076372514013201
0.5723957419395447 0.7759613990783691 0.005487898364663124
0.5784316062927246 0.7917414307594299 0.02566951885819435
0.609627366065979 0.7025963068008423 0.020656418055295944
0.6170554757118225 0.699470043182373 0.021039655432105064
0.6238800883293152 0.6954907178878784 0.019939525052905083
0.6405414342880249 0.6864152550697327 0.019097860902547836
0.726381778717041 0.6425896286964417 0.03832457214593887
0.5342519283294678 0.5217218399047852 -0.06230847164988518
0.5484643578529358 0.47501277923583984 -0.026993652805685997
0.5638413429260254 0.47759366035461426 -0.017796749249100685
0.6032825708389282 0.7004421949386597 0.023038754239678383
0.7271357178688049 0.6984098553657532 0.09113260358572006
0.5272441506385803 0.47519922256469727 -0.059322480112314224
0.5859369039535522 0.8102465271949768 0.039930716156959534
0.5154790878295898 0.5373430252075195 -0.10067957639694214
0.5509351491928101 0.5821818709373474 -0.07723841816186905
0.5436009168624878 0.8310458064079285 0.02616218663752079
0.6433207988739014 0.7462060451507568 0.06093571335077286
0.6071841716766357 0.6321029663085938 -0.01966560073196888
0.6171262860298157 0.7810757160186768 0.05387575924396515
0.669923722743988 0.6274239420890808 -0.01178104616701603
0.6351141929626465 0.6525910496711731 -0.005696981679648161
0.6926071643829346 0.6603921055793762 0.018867705017328262
0.5484468936920166 0.8571089506149292 0.03178844973444939
0.5670398473739624 0.5913216471672058 -0.05742950737476349
0.6576082110404968 0.7692949771881104 0.08324871212244034
0.6247687339782715 0.8022159337997437 0.07233838737010956
0.6660212874412537 0.7115565538406372 0.0516996756196022
0.7503147125244141 0.6694731712341309 0.10407066345214844
0.6936393976211548 0.7222760915756226 0.07138387858867645
0.7576221227645874 0.6891216039657593 0.16445715725421906
0.6598443984985352 0.6728203296661377 0.015236434526741505
0.5502309799194336 0.5600746870040894 -0.061977483332157135
0.547183632850647 0.6337491273880005 -0.10886745154857635
0.5654407739639282 0.6333935856819153 -0.08012448996305466
0.5350234508514404 0.6209741830825806 -0.12829428911209106
0.5678902864456177 0.4559955596923828 -0.03788702189922333
0.6082055568695068 0.4425399899482727 -0.044746533036231995
0.6438605785369873 0.43900856375694275 -0.04377373307943344
0.6736487150192261 0.4419558048248291 -0.034146104007959366
0.6945454478263855 0.45085588097572327 -0.018625296652317047
0.7084682583808899 0.48687994480133057 0.024002214893698692
0.7819567918777466 0.5407347083091736 0.14254269003868103
0.6887999773025513 0.5164253115653992 0.010251646861433983
0.6619795560836792 0.5239056944847107 -0.002494117245078087
0.6281100511550903 0.5253016948699951 -0.011079121381044388
0.5963603258132935 0.5217839479446411 -0.014953812584280968
0.5730283856391907 0.5159770846366882 -0.016602899879217148
0.5572654604911804 0.5097616910934448 -0.01892179250717163
0.7834638953208923 0.5372600555419922 0.23315709829330444
0.5662015676498413 0.6363397240638733 -0.06680157780647278
0.5325419306755066 0.5706799626350403 -0.09863293915987015
0.5282686352729797 0.6388172507286072 -0.1267300844192505
0.5154188871383667 0.649063766002655 -0.11372192203998566
0.5288259983062744 0.6410374045372009 -0.11403417587280273
0.5610621571540833 0.6417943239212036 -0.05612953007221222
0.5107782483100891 0.6524644494056702 -0.11991914361715317
0.5090386867523193 0.655052900314331 -0.08876107633113861
0.5582448244094849 0.4925925135612488 -0.01113040465861559
0.5449782609939575 0.4982805848121643 -0.02435149997472763
0.5373931527137756 0.5031515955924988 -0.04108322784304619
0.6784415245056152 0.4755747318267822 -0.001973767764866352
0.6909715533256531 0.4690665900707245 -0.00194763473700732
