ply
format ascii 1.0
comment Created by Open3D
element vertex 468
property double x
property double y
property double z
end_header
0.194075 0.33476 3.63056
0.196908 0.42746 3.69486
0.196375 0.393955 3.62888
0.170545 0.501402 3.65419
0.195687 0.452773 3.70094
0.192073 0.482311 3.68607
0.192115 0.552804 3.61391
0.00294478 0.557926 3.50308
0.190786 0.60664 3.59375
0.190587 0.638749 3.59678
0.19212 0.767731 3.56045
0.192724 0.321643 3.62823
0.191239 0.310936 3.62048
0.190453 0.305269 3.6086
0.199383 0.247585 3.59586
0.199647 0.234593 3.60097
0.198142 0.219584 3.60433
0.19955 0.202982 3.59652
0.202204 0.185272 3.5692
0.19375 0.413366 3.68111
0.173351 0.408885 3.64429
-0.118886 0.657 3.36169
0.0779686 0.539107 3.53592
0.0505868 0.536828 3.53242
0.0233907 0.537041 3.52305
-0.0139313 0.55002 3.4961
0.103141 0.544793 3.53405
0.0370819 0.607869 3.53423
0.0698213 0.605183 3.53513
0.00965022 0.603571 3.52336
-0.00829902 0.593897 3.51098
-0.0358867 0.531574 3.48035
0.0966619 0.159124 3.52718
-0.00854449 0.563929 3.49251
-0.123485 0.538741 3.35783
-0.0680407 0.546809 3.45
0.0594352 0.432764 3.55509
0.15838 0.337173 3.62277
0.159328 0.309205 3.61328
0.119607 0.325735 3.60241
0.0960584 0.312191 3.57915
0.130773 0.305012 3.59966
0.112937 0.298789 3.5775
0.0654112 0.252943 3.52427
0.175361 0.427616 3.68946
0.170437 0.451444 3.69409
-0.052762 0.61286 3.50102
0.111777 0.498235 3.56413
0.109768 0.426729 3.61778
0.10622 0.439493 3.60758
-0.0299165 0.433209 3.51768
0.168683 0.479291 3.67914
0.0209969 0.63973 3.54978
-0.021659 0.631877 3.52808
-0.08546 0.705387 3.41298
0.138466 0.613717 3.58352
0.098826 0.595307 3.53194
0.045292 0.284822 3.5233
-0.0984521 0.276884 3.30178
0.133407 0.411048 3.61218
0.158054 0.402128 3.61443
0.0706366 0.282326 3.53128
0.0821502 0.28239 3.5367
-0.0366516 0.647723 3.51278
0.108404 0.414226 3.60211
0.0744384 0.634662 3.56842
0.0691659 0.65565 3.5713
0.0349655 0.76539 3.51766
-0.0596423 0.677129 3.46809
0.0573215 0.712647 3.54821
-0.0702896 0.6229 3.47679
-0.0928102 0.638244 3.42146
0.157927 0.321484 3.62102
0.126133 0.313618 3.603
0.104767 0.305542 3.58008
0.141662 0.404918 3.60695
0.0769292 0.281963 3.53405
0.0903774 0.265377 3.5435
0.0849901 0.283521 3.53711
0.143208 0.423555 3.65191
0.115715 0.300167 3.57278
0.135406 0.303177 3.59017
0.160132 0.30505 3.60336
0.161062 0.186848 3.55956
0.158297 0.206356 3.58773
0.160028 0.222484 3.59536
0.164255 0.238164 3.59358
0.16691 0.249029 3.58988
0.118085 0.260858 3.5604
0.113643 0.257019 3.56064
0.106255 0.250006 3.55877
0.100328 0.242049 3.5537
0.0803476 0.338914 3.56767
-0.122127 0.412899 3.26235
0.198904 0.403687 3.65013
0.102906 0.26866 3.54811
0.0974106 0.267372 3.5465
0.164919 0.39108 3.61814
0.123306 0.395303 3.58333
0.161455 0.396388 3.61728
0.0834165 0.484196 3.55425
0.0392297 0.466225 3.54421
0.102787 0.426702 3.59254
-0.0356338 0.742587 3.46568
-0.0100451 0.702933 3.50794
0.0118306 0.659749 3.54343
0.088923 0.22748 3.53671
0.130156 0.646949 3.58919
0.122028 0.711839 3.57004
0.109212 0.772362 3.54604
-0.000619498 0.541083 3.50878
-0.066793 0.512409 3.46222
0.118774 0.550819 3.53426
-0.0390684 0.580932 3.48921
0.130715 0.513878 3.57542
0.126685 0.438549 3.64502
-0.101049 0.49302 3.43249
-0.0478553 0.496373 3.48941
-0.0101343 0.488962 3.51601
0.0448977 0.494026 3.53485
0.0837627 0.504803 3.5423
0.111318 0.51595 3.55
0.167571 0.546575 3.60497
-0.0987328 0.437808 3.4435
-0.0648444 0.582804 3.47418
0.180235 0.413648 3.67902
0.114669 0.4744 3.57627
-0.132623 0.537092 3.27594
0.133273 0.528339 3.5568
0.105448 0.422286 3.56601
-0.0215936 0.564471 3.48532
0.123066 0.45374 3.63181
-0.115719 0.347203 3.27346
0.117497 0.558472 3.52915
0.144619 0.469344 3.66014
-0.0297785 0.215625 3.43178
-0.0342438 0.180903 3.39235
-0.122078 0.422643 3.35114
-0.0692636 0.252244 3.40044
-0.108819 0.592627 3.38319
0.0907499 0.130365 3.51621
0.189659 0.40444 3.6472
0.090867 0.455181 3.56324
-0.0945547 0.540853 3.42232
0.0319535 0.55111 3.52248
0.0544027 0.550206 3.53162
0.0825604 0.262736 3.5391
-0.0929014 0.38161 3.43425
0.141917 0.0939231 3.51924
0.0524601 0.124669 3.46409
0.0122275 0.147257 3.43288
0.193148 0.705922 3.58085
0.200409 0.0933807 3.53071
0.0759104 0.552064 3.53318
0.0971322 0.555899 3.5324
0.111377 0.557435 3.53011
-0.0865128 0.587051 3.44529
0.090699 0.573886 3.53277
0.065369 0.579989 3.53181
0.0424654 0.580562 3.52908
0.0198316 0.577048 3.52106
0.00627192 0.571651 3.51136
-0.130239 0.603192 3.31244
0.0153245 0.554049 3.51297
0.196744 0.373154 3.62297
0.105554 0.357132 3.58516
0.13366 0.415948 3.6206
0.159382 0.368797 3.61551
0.191006 0.580221 3.59288
0.0125826 0.180916 3.45617
0.0501386 0.154491 3.48294
0.1401 0.114845 3.54501
-0.070506 0.220848 3.34751
0.108327 0.564499 3.53255
0.150889 0.508571 3.61249
0.199398 0.113298 3.55627
0.0937027 0.106079 3.49757
-0.116261 0.361362 3.3538
0.140387 0.253757 3.57708
0.135289 0.246014 3.5784
0.129236 0.23436 3.57813
0.125499 0.220479 3.57253
0.118155 0.204346 3.5513
0.0934843 0.29227 3.55629
0.085731 0.295496 3.55578
0.0774955 0.299958 3.55439
0.0579533 0.315188 3.54733
-0.0528884 0.371182 3.48694
0.150493 0.531621 3.58902
0.141561 0.575506 3.54282
0.121747 0.575158 3.53514
0.0987735 0.295161 3.55366
-0.0544315 0.298623 3.44838
0.159401 0.576728 3.57502
0.107343 0.184347 3.53457
0.191994 0.505739 3.66081
0.169039 0.52246 3.63001
0.192886 0.527659 3.63668
0.131561 0.471417 3.60972
0.199852 0.139766 3.5672
0.201281 0.166334 3.56647
0.154151 0.167508 3.55363
0.0438115 0.241218 3.50684
0.0825365 0.399242 3.55762
0.0716445 0.209122 3.51689
0.0166268 0.398446 3.53922
0.0567446 0.369982 3.55043
-0.00760062 0.352437 3.51618
0.144107 0.141526 3.55552
0.114805 0.4569 3.58924
0.0218142 0.215929 3.48328
0.0596251 0.184833 3.49959
0.0200619 0.279416 3.51025
-0.0845619 0.332262 3.42436
-0.0163884 0.269185 3.48008
-0.101497 0.304156 3.36703
0.0323081 0.33367 3.53596
0.132979 0.491665 3.59351
0.13425 0.427848 3.65361
0.119874 0.418257 3.62108
0.147122 0.446513 3.67316
0.119494 0.597964 3.54821
0.0743982 0.614215 3.54672
0.0339011 0.619144 3.54046
-0.00078569 0.615317 3.52768
-0.0260444 0.602643 3.50998
-0.0419424 0.555617 3.47212
-0.126289 0.481694 3.35467
-0.0197104 0.521945 3.49566
0.0095169 0.515734 3.51463
0.0468664 0.516943 3.52925
0.0821753 0.523045 3.53528
0.109473 0.530872 3.53768
0.128199 0.537951 3.54096
-0.127367 0.474832 3.26248
0.121057 0.410373 3.60836
0.15065 0.488951 3.63486
0.155577 0.428674 3.67532
0.167836 0.41492 3.66462
0.154583 0.42314 3.66283
0.129982 0.400796 3.59911
0.172803 0.414169 3.67254
0.180389 0.405106 3.64531
0.130289 0.557676 3.53213
0.142869 0.550826 3.54454
0.149168 0.547221 3.56293
-0.00191406 0.567474 3.50298
-0.0211415 0.581077 3.49599
0.215586 0.50048 3.65148
0.370393 0.551252 3.50439
0.218488 0.410798 3.64849
0.462456 0.618348 3.37778
0.29548 0.533936 3.52533
0.318922 0.530854 3.52416
0.342909 0.529902 3.51912
0.375425 0.542148 3.49811
0.277294 0.540738 3.52802
0.329958 0.594836 3.53404
0.301626 0.593458 3.53647
0.355686 0.590317 3.52769
0.371591 0.580762 3.51863
0.392812 0.521646 3.48965
0.286778 0.17462 3.53801
0.379517 0.556067 3.49642
0.465716 0.517611 3.36958
0.416565 0.53391 3.46184
0.31443 0.431357 3.56794
0.22503 0.338462 3.62702
0.217112 0.310332 3.61453
0.255477 0.329989 3.60994
0.276156 0.315293 3.58461
0.239579 0.307282 3.59974
0.259273 0.300313 3.57838
0.307307 0.259215 3.53756
0.214551 0.428653 3.69354
0.215811 0.451854 3.69883
0.400856 0.595714 3.5118
0.267494 0.495273 3.56646
0.269155 0.428327 3.62777
0.270071 0.439907 3.61772
0.382805 0.430015 3.53153
0.215936 0.478616 3.67799
0.341988 0.624993 3.56212
0.376806 0.615129 3.53989
0.434377 0.666524 3.42708
0.240461 0.608508 3.58584
0.282164 0.585515 3.53063
0.324654 0.289285 3.53093
0.441246 0.289325 3.31023
0.254933 0.413775 3.62041
0.232509 0.404702 3.62762
0.305098 0.282618 3.53417
0.288608 0.283069 3.53922
0.389834 0.628131 3.52639
0.2685 0.415525 3.61447
0.297298 0.623857 3.5782
0.300236 0.643564 3.58315
0.331516 0.738749 3.52569
0.409742 0.648442 3.48257
0.315665 0.693743 3.55624
0.417157 0.602417 3.48922
0.439242 0.609154 3.43791
0.221589 0.322788 3.62356
0.247944 0.31687 3.60586
0.267727 0.308096 3.58418
0.247818 0.407924 3.61829
0.296901 0.282312 3.53795
0.285791 0.267567 3.55349
0.283865 0.284731 3.53806
0.242469 0.426297 3.65252
0.251723 0.300752 3.57197
0.234326 0.304171 3.58854
0.213939 0.304979 3.60164
0.235675 0.191297 3.57085
0.233256 0.209706 3.59637
0.231398 0.225117 3.60041
0.230023 0.23979 3.59553
0.226289 0.250307 3.5899
0.261808 0.262847 3.56338
0.265202 0.259823 3.56881
0.271533 0.253981 3.57273
0.279146 0.246487 3.56864
0.296011 0.341889 3.57902
0.477632 0.403867 3.27103
0.273746 0.26939 3.54731
0.27971 0.26888 3.55228
0.226545 0.39292 3.62422
0.263132 0.397654 3.60124
0.228988 0.398607 3.62723
0.292093 0.48028 3.55708
0.329587 0.461796 3.55255
0.27411 0.427245 3.60464
0.389988 0.707852 3.47996
0.369543 0.677891 3.52153
0.351181 0.642754 3.55602
0.290213 0.235101 3.54814
0.246864 0.639065 3.59483
0.258543 0.701266 3.57595
0.266254 0.757988 3.55539
0.36327 0.533724 3.50876
0.415174 0.501773 3.47581
0.269403 0.546824 3.52567
0.395041 0.567966 3.49687
0.251137 0.511134 3.57486
0.25475 0.440245 3.65251
0.441914 0.481497 3.44505
0.401412 0.487127 3.49983
0.370837 0.481288 3.5255
0.326527 0.487949 3.53658
0.293408 0.500305 3.54136
0.268546 0.512729 3.54937
0.217364 0.544897 3.6037
0.442663 0.432394 3.45601
0.410966 0.567067 3.48323
0.205629 0.413998 3.67906
0.267491 0.472027 3.58007
0.48489 0.509935 3.28643
0.252724 0.525303 3.55461
0.280451 0.422809 3.58111
0.386744 0.555026 3.49038
0.2539 0.454343 3.64029
0.465476 0.349005 3.28544
0.272051 0.554486 3.51768
0.234667 0.469156 3.6628
0.379224 0.239091 3.44231
0.379566 0.207547 3.40082
0.471672 0.416611 3.36561
0.409572 0.271753 3.41142
0.456493 0.565545 3.39727
0.291814 0.149286 3.52512
0.208486 0.4046 3.64922
0.286036 0.453344 3.57188
0.436563 0.525466 3.43364
0.344741 0.544686 3.51803
0.322391 0.543877 3.52213
0.293038 0.265143 3.54973
0.436327 0.383734 3.45093
0.253638 0.10506 3.52404
0.32265 0.149023 3.47065
0.348167 0.174602 3.4391
0.301378 0.546643 3.52327
0.285699 0.551016 3.52046
0.277336 0.552896 3.51705
0.428305 0.567592 3.4568
0.285852 0.567239 3.52163
0.301711 0.572089 3.52562
0.324235 0.573205 3.52545
0.347089 0.569837 3.52119
0.361327 0.56419 3.51461
0.480659 0.568492 3.3283
0.360307 0.547632 3.51067
0.274613 0.359969 3.59712
0.253843 0.419532 3.6324
0.230071 0.370756 3.62086
0.350285 0.206416 3.46854
0.321125 0.178805 3.49491
0.251316 0.125459 3.55053
0.410411 0.241637 3.35292
0.277109 0.55988 3.51916
0.234296 0.506943 3.6133
0.292535 0.125033 3.50176
0.459603 0.364827 3.37138
0.246786 0.255689 3.57825
0.251018 0.248783 3.58327
0.256227 0.237941 3.5866
0.261578 0.224838 3.58321
0.267556 0.210609 3.56107
0.275726 0.293332 3.55686
0.28563 0.29645 3.55707
0.293047 0.301266 3.55767
0.314724 0.317854 3.55409
0.397614 0.374946 3.50319
0.234578 0.52921 3.58794
0.249126 0.57202 3.54189
0.265844 0.56934 3.52691
0.26887 0.295478 3.55192
0.399699 0.311432 3.46184
0.224087 0.574225 3.57526
0.275658 0.196494 3.54679
0.214975 0.521535 3.63143
0.250222 0.470846 3.61669
0.241207 0.174342 3.56313
0.325689 0.254157 3.52196
0.298393 0.400032 3.57322
0.302329 0.223288 3.53247
0.347263 0.399682 3.55681
0.318786 0.371931 3.56458
0.364112 0.357668 3.53154
0.248638 0.150064 3.56111
0.264551 0.45616 3.59827
0.343865 0.235643 3.49804
0.314626 0.204688 3.51453
0.344026 0.288195 3.51825
0.426146 0.341054 3.44154
0.367661 0.284554 3.49371
0.441361 0.315926 3.38069
0.333514 0.33715 3.54646
0.251164 0.489641 3.5949
0.247376 0.430979 3.65808
0.261283 0.421306 3.63351
0.238033 0.44774 3.67627
0.266545 0.591893 3.5456
0.301636 0.605002 3.55014
0.335545 0.606561 3.54781
0.365448 0.600011 3.53614
0.384691 0.587658 3.51929
0.3982 0.544782 3.4803
0.472687 0.467016 3.36415
0.380756 0.513198 3.5032
0.355383 0.507917 3.5189
0.323001 0.510732 3.52759
0.293549 0.518244 3.53078
0.27141 0.527511 3.5362
0.258163 0.535032 3.53885
0.482259 0.456316 3.26894
0.260426 0.412869 3.62137
0.235247 0.487877 3.6346
0.23123 0.431633 3.68003
0.215223 0.417762 3.66976
0.230693 0.426579 3.66709
0.25386 0.40332 3.61467
0.211232 0.415697 3.67673
0.214254 0.406859 3.64954
0.262333 0.554165 3.52551
0.245364 0.548446 3.54383
0.236537 0.544807 3.5633
0.370789 0.559792 3.50694
0.383022 0.56975 3.50494
