ply
format ascii 1.0
comment Created by Open3D
element vertex 468
property double x
property double y
property double z
end_header
-0.0339543 0.380773 3.935
-0.0380111 0.454373 3.99897
-0.0368343 0.4251 3.93746
-0.054595 0.530466 3.96109
-0.0373523 0.479935 4.00536
-0.0358227 0.51132 3.9932
-0.0334932 0.581413 3.92443
-0.197419 0.57804 3.83034
-0.0314074 0.636216 3.9045
-0.0300635 0.667788 3.90799
-0.0249306 0.774306 3.88132
-0.0331673 0.36981 3.9327
-0.0325901 0.362232 3.92586
-0.0323527 0.359665 3.91533
-0.0311209 0.322246 3.90739
-0.0313622 0.312698 3.91211
-0.0310624 0.30125 3.91722
-0.0315844 0.287241 3.91278
-0.0330683 0.261213 3.89055
-0.0373396 0.440734 3.98764
-0.0577394 0.439344 3.95452
-0.273255 0.640685 3.71934
-0.12632 0.560787 3.85371
-0.14967 0.559064 3.85251
-0.172771 0.558936 3.84675
-0.204676 0.569049 3.8265
-0.108241 0.565403 3.85131
-0.160874 0.620419 3.85855
-0.135188 0.618053 3.85966
-0.184827 0.61583 3.85148
-0.200697 0.606067 3.84336
-0.221705 0.550973 3.81575
-0.122491 0.230383 3.86086
-0.206809 0.58254 3.82234
-0.283937 0.542221 3.71132
-0.245556 0.561701 3.79242
-0.151522 0.467978 3.88361
-0.0668984 0.384379 3.93195
-0.0621639 0.362891 3.92168
-0.0994967 0.379437 3.91612
-0.119473 0.37146 3.89272
-0.0857588 0.362504 3.90892
-0.103969 0.359506 3.88709
-0.145809 0.323913 3.84763
-0.056517 0.455125 3.99765
-0.0584261 0.479715 4.0033
-0.234106 0.630305 3.83675
-0.101433 0.525244 3.8827
-0.106829 0.4588 3.93806
-0.107316 0.471299 3.92943
-0.220555 0.469223 3.85199
-0.0565181 0.507944 3.98607
-0.18201 0.660896 3.87659
-0.213216 0.651167 3.85849
-0.25077 0.688234 3.7649
-0.0811338 0.64076 3.89786
-0.114228 0.608531 3.85334
-0.164259 0.352618 3.84375
-0.260143 0.320676 3.65172
-0.0911154 0.444292 3.92963
-0.0729767 0.436373 3.93214
-0.14493 0.352608 3.84335
-0.132336 0.352515 3.84944
-0.225648 0.664516 3.84777
-0.107777 0.448773 3.92514
-0.138825 0.659015 3.89057
-0.14254 0.678627 3.89576
-0.158401 0.755765 3.85311
-0.23783 0.677027 3.81204
-0.148703 0.718298 3.87616
-0.247161 0.636583 3.81708
-0.260129 0.637121 3.77181
-0.0649921 0.371747 3.92935
-0.0919904 0.368933 3.91307
-0.111875 0.365519 3.89155
-0.0861498 0.439747 3.92498
-0.138898 0.352663 3.8467
-0.126092 0.337896 3.86083
-0.128226 0.352594 3.84984
-0.0785875 0.452924 3.96246
-0.0991137 0.361027 3.88311
-0.0811574 0.361453 3.89908
-0.0591489 0.36043 3.91111
-0.0691839 0.264204 3.8886
-0.0659127 0.290726 3.90923
-0.0642547 0.30485 3.91195
-0.0622309 0.315723 3.90673
-0.0593909 0.323643 3.90253
-0.100968 0.333427 3.87598
-0.105229 0.331123 3.87946
-0.110746 0.325861 3.88192
-0.115787 0.317797 3.87723
-0.138062 0.390514 3.88617
-0.283979 0.428405 3.61674
-0.0384388 0.431887 3.95556
-0.113645 0.338584 3.85922
-0.120015 0.339246 3.86141
-0.0658209 0.425626 3.93147
-0.102438 0.433252 3.90816
-0.0691688 0.430706 3.93289
-0.125689 0.512075 3.87478
-0.165364 0.497274 3.8696
-0.111911 0.460336 3.91631
-0.214692 0.727907 3.81189
-0.202886 0.705632 3.84623
-0.19008 0.67872 3.87312
-0.127159 0.299208 3.8613
-0.0878099 0.672186 3.90632
-0.0920362 0.721232 3.8929
-0.096846 0.769812 3.87704
-0.193103 0.561922 3.83653
-0.244954 0.532422 3.80426
-0.0976321 0.570244 3.84805
-0.223585 0.595982 3.82413
-0.0855044 0.540296 3.89034
-0.0927252 0.468274 3.96131
-0.26863 0.511939 3.77772
-0.230324 0.521146 3.82541
-0.201737 0.516513 3.84699
-0.158291 0.520848 3.85674
-0.124973 0.529909 3.86119
-0.101296 0.54089 3.86762
-0.0555036 0.57374 3.91545
-0.269434 0.467027 3.78569
-0.24042 0.597449 3.81348
-0.0484879 0.441767 3.98619
-0.100788 0.503318 3.89496
-0.290385 0.531736 3.63358
-0.0846949 0.552875 3.87101
-0.115632 0.456665 3.89171
-0.212839 0.58009 3.81738
-0.0925075 0.483358 3.95093
-0.276769 0.374997 3.62866
-0.0991464 0.577591 3.84182
-0.0749512 0.498567 3.9728
-0.2149 0.283395 3.77361
-0.210203 0.250231 3.73421
-0.288248 0.445422 3.70212
-0.243157 0.311069 3.74682
-0.272936 0.591355 3.73481
-0.125752 0.203701 3.84954
-0.0471867 0.432737 3.95419
-0.121859 0.486842 3.88742
-0.263425 0.552849 3.76928
-0.172079 0.572767 3.84408
-0.150905 0.571612 3.84916
-0.132075 0.334722 3.85681
-0.267324 0.419732 3.77926
-0.0849756 0.166132 3.84687
-0.151076 0.200564 3.79699
-0.177827 0.2219 3.76871
-0.0277058 0.722012 3.89667
-0.0357104 0.159752 3.85394
-0.131219 0.572793 3.85002
-0.113519 0.575296 3.84624
-0.103478 0.576126 3.84173
-0.255659 0.597853 3.78975
-0.118073 0.595619 3.84896
-0.137423 0.603376 3.85246
-0.1586 0.605268 3.85176
-0.179882 0.600901 3.84669
-0.193182 0.593466 3.83992
-0.286748 0.590146 3.67113
-0.186996 0.57495 3.83674
-0.0358397 0.410118 3.93027
-0.115485 0.40282 3.90374
-0.0912951 0.448154 3.93952
-0.069113 0.409117 3.92767
-0.0320945 0.60829 3.90542
-0.184583 0.25361 3.7947
-0.155483 0.229359 3.81998
-0.0856089 0.185878 3.8742
-0.236602 0.279571 3.69154
-0.105194 0.584676 3.84458
-0.0712586 0.537007 3.92506
-0.0347627 0.179072 3.87978
-0.121483 0.180858 3.82678
-0.281008 0.395512 3.70714
-0.0824088 0.327899 3.89071
-0.0866764 0.322588 3.89463
-0.0907501 0.313645 3.89727
-0.094359 0.300804 3.89354
-0.102541 0.27833 3.87655
-0.120861 0.357591 3.86679
-0.128792 0.360248 3.86608
-0.135479 0.364098 3.86672
-0.156251 0.37416 3.86469
-0.238872 0.414945 3.82737
-0.0702648 0.557866 3.90117
-0.0815876 0.596165 3.8596
-0.0953329 0.591256 3.84937
-0.114828 0.359374 3.8638
-0.239368 0.352808 3.79107
-0.0620081 0.601932 3.89016
-0.112364 0.256451 3.8668
-0.0349859 0.535207 3.96898
-0.0551545 0.551351 3.94131
-0.0344687 0.557074 3.94617
-0.0868104 0.501292 3.92802
-0.034139 0.20556 3.89095
-0.0336856 0.236129 3.89014
-0.0755432 0.24012 3.88448
-0.163267 0.311033 3.83674
-0.13494 0.437789 3.88458
-0.140023 0.280312 3.84989
-0.189938 0.440312 3.87412
-0.15827 0.415038 3.87653
-0.208938 0.401868 3.85306
-0.0829764 0.211363 3.88449
-0.0999417 0.487282 3.91117
-0.180442 0.286288 3.81855
-0.150757 0.257181 3.83586
-0.18268 0.34427 3.83627
-0.260448 0.378497 3.77099
-0.209857 0.332739 3.81791
-0.267408 0.349599 3.71619
-0.176928 0.388528 3.86191
-0.0854865 0.519962 3.90855
-0.0855253 0.45765 3.96748
-0.100118 0.451042 3.94171
-0.0771223 0.474767 3.98308
-0.0993911 0.617271 3.86533
-0.136188 0.632014 3.86831
-0.169157 0.634682 3.86584
-0.196458 0.629658 3.85597
-0.214962 0.61746 3.84255
-0.226139 0.571657 3.80873
-0.28893 0.493815 3.70506
-0.209203 0.543875 3.8281
-0.184875 0.539364 3.84232
-0.153861 0.540675 3.85092
-0.124602 0.546117 3.85504
-0.103331 0.553326 3.85608
-0.0893591 0.560564 3.85767
-0.287529 0.479355 3.61687
-0.099658 0.444843 3.92994
-0.0721566 0.51786 3.94538
-0.0711192 0.457537 3.98612
-0.0581767 0.445171 3.97647
-0.0703404 0.452775 3.97452
-0.0945636 0.437411 3.92188
-0.0548238 0.443344 3.98298
-0.0535466 0.435171 3.95458
-0.0910695 0.576552 3.84653
-0.078143 0.573178 3.86117
-0.071525 0.571478 3.87779
-0.200795 0.587606 3.83266
-0.211685 0.595212 3.83071
-0.015603 0.530747 3.96136
0.138981 0.580965 3.8263
-0.0165965 0.438937 3.95316
0.233194 0.651397 3.71426
0.0671923 0.563217 3.85416
0.0912556 0.5621 3.85194
0.115096 0.562253 3.84477
0.149007 0.572588 3.82267
0.0473499 0.56708 3.85109
0.105016 0.622223 3.85584
0.078654 0.619636 3.85659
0.12904 0.61802 3.84744
0.14496 0.608777 3.83823
0.166469 0.555468 3.8111
0.0592028 0.227603 3.85756
0.149146 0.585562 3.81742
0.238392 0.549707 3.70565
0.193853 0.566461 3.78584
0.088859 0.470573 3.87887
0.00179924 0.385346 3.93071
0.000165647 0.36386 3.92082
0.0388196 0.380734 3.91351
0.0623397 0.373935 3.89009
0.0269056 0.363979 3.90828
0.0471809 0.362114 3.88614
0.0909403 0.325575 3.84472
-0.0180777 0.454897 3.99606
-0.014788 0.479839 4.00155
0.183014 0.633188 3.83041
0.0369362 0.526643 3.88148
0.0381576 0.4596 3.93454
0.0399447 0.472173 3.92602
0.163209 0.473714 3.84671
-0.0150259 0.508145 3.98605
0.126338 0.661878 3.86977
0.159761 0.652807 3.85176
0.209978 0.698394 3.75848
0.0204957 0.640787 3.8956
0.055344 0.609837 3.85117
0.110461 0.355602 3.84076
0.210474 0.319876 3.64924
0.0202741 0.444393 3.92659
0.000518302 0.436299 3.9282
0.0912384 0.356377 3.84151
0.0798312 0.356308 3.84743
0.174134 0.666961 3.84022
0.0403269 0.449768 3.921
0.0809326 0.659401 3.88464
0.0863331 0.679384 3.8891
0.113294 0.762007 3.8477
0.192037 0.683499 3.80425
0.0968427 0.721759 3.87007
0.198278 0.640771 3.80999
0.215601 0.644558 3.76482
0.00169439 0.372462 3.92838
0.0321676 0.370473 3.91193
0.0548043 0.367919 3.88968
0.0146495 0.439849 3.92116
0.0857467 0.356587 3.84455
0.0728067 0.340654 3.85795
0.0765249 0.356251 3.84826
0.00697171 0.452564 3.96179
0.0435887 0.364055 3.88244
0.0224115 0.363334 3.89901
-0.00219067 0.361683 3.91136
0.0051606 0.264202 3.88682
0.00525869 0.291267 3.90884
0.00416283 0.305281 3.91216
0.00183699 0.316415 3.90737
-0.000712431 0.324181 3.90339
0.046446 0.335655 3.8748
0.0509271 0.333095 3.87754
0.0568636 0.3278 3.87928
0.0609241 0.319501 3.8745
0.077585 0.393033 3.88148
0.234444 0.432952 3.61399
0.0601824 0.341571 3.85884
0.0666005 0.342223 3.85943
-0.00659139 0.425786 3.92951
0.0333503 0.434097 3.90264
-0.00330717 0.430903 3.92984
0.0621791 0.514442 3.87345
0.103834 0.500691 3.8662
0.0450519 0.461715 3.91244
0.172332 0.736646 3.80499
0.15439 0.710657 3.83797
0.13584 0.680228 3.86561
0.070084 0.300192 3.85887
0.0294963 0.672515 3.90261
0.0384715 0.723189 3.88907
0.0499618 0.773108 3.87306
0.13638 0.565362 3.8334
0.191618 0.537624 3.79802
0.0351261 0.571693 3.84849
0.170078 0.599211 3.81873
0.0203604 0.541322 3.88998
0.0223668 0.468306 3.9586
0.217661 0.517585 3.77198
0.174313 0.526312 3.81999
0.143404 0.521156 3.84287
0.0968825 0.524273 3.85506
0.0621235 0.532306 3.86069
0.0378936 0.542286 3.86714
-0.0111049 0.57414 3.91554
0.215606 0.472004 3.78013
0.190312 0.601665 3.80746
-0.0255393 0.441699 3.98592
0.0342502 0.504801 3.89358
0.245316 0.540942 3.63013
0.0197388 0.553859 3.87109
0.0474698 0.458327 3.88723
0.156683 0.583513 3.81311
0.0241177 0.483808 3.94824
0.226955 0.376873 3.62513
0.0368814 0.578754 3.84272
0.00538484 0.498771 3.97153
0.162021 0.279346 3.7685
0.15803 0.244076 3.73112
0.236151 0.449584 3.69646
0.192827 0.308685 3.74134
0.227467 0.599579 3.72871
0.0615389 0.19944 3.84678
-0.0296048 0.432705 3.95346
0.0570591 0.488887 3.88427
0.214661 0.558604 3.76308
0.112299 0.575678 3.84167
0.0910151 0.574582 3.84841
0.0786539 0.337441 3.85405
0.213766 0.422876 3.77274
0.0150956 0.163593 3.8462
0.0885171 0.194356 3.79534
0.120655 0.215095 3.76689
0.0712188 0.57545 3.84999
0.0527371 0.577391 3.8472
0.0414794 0.577674 3.84305
0.208156 0.603302 3.78336
0.0601828 0.596537 3.84863
0.0817908 0.604493 3.8509
0.102557 0.606351 3.84918
0.123494 0.602517 3.84264
0.136572 0.595677 3.83514
0.243494 0.600998 3.66632
0.127643 0.578014 3.83365
0.0508371 0.404586 3.89963
0.0201909 0.447812 3.93582
3.97435e-05 0.409686 3.92602
0.127276 0.24856 3.79035
0.0957308 0.223598 3.81617
0.0178906 0.183687 3.87274
0.18607 0.275874 3.6894
0.0442524 0.585765 3.84562
0.00341007 0.537541 3.92427
0.0549216 0.176384 3.82576
0.230012 0.397585 3.70075
0.0248402 0.328996 3.89102
0.0292605 0.32384 3.89412
0.0330667 0.314928 3.89662
0.035934 0.302012 3.89282
0.0422477 0.278862 3.87566
0.0673948 0.360907 3.86525
0.0743549 0.363423 3.86455
0.0811834 0.367402 3.86455
0.0999162 0.377696 3.86094
0.184621 0.418091 3.82116
0.00406663 0.558604 3.90127
0.0181949 0.596569 3.85793
0.0334569 0.59236 3.84935
0.0620374 0.363051 3.86305
0.186763 0.353222 3.78463
-0.00155883 0.601996 3.88897
0.0512807 0.254839 3.86433
-0.0128586 0.551509 3.94053
0.0187414 0.501754 3.92578
0.0102057 0.239081 3.88239
0.106895 0.310961 3.83326
0.0700688 0.439849 3.87968
0.0819337 0.279083 3.84637
0.131037 0.44317 3.86754
0.0970809 0.417362 3.87109
0.152994 0.404196 3.84659
0.0162967 0.210006 3.88282
0.033066 0.488386 3.90851
0.123001 0.283804 3.81421
0.0914575 0.253539 3.83164
0.127758 0.345932 3.83341
0.208282 0.379697 3.7642
0.156539 0.332458 3.81254
0.216957 0.349521 3.7111
0.121144 0.391748 3.85696
0.0182842 0.520953 3.90771
0.0149247 0.457446 3.96569
0.0306229 0.451101 3.93758
0.00475291 0.474664 3.98144
0.0384098 0.617362 3.8631
0.0777731 0.632504 3.86432
0.112065 0.636259 3.86107
0.140654 0.631772 3.85065
0.160637 0.619933 3.83662
0.172346 0.575431 3.80338
0.239754 0.499887 3.70004
0.152375 0.548172 3.82398
0.126558 0.543096 3.8391
0.0940737 0.543811 3.84962
0.0637404 0.548499 3.85453
0.0411139 0.554764 3.85544
0.0259622 0.561566 3.85736
0.239597 0.486364 3.61453
0.0306978 0.44525 3.92571
0.00228719 0.518376 3.94472
-0.00187608 0.45706 3.98429
-0.0141688 0.444672 3.97488
-0.00198162 0.452065 3.973
0.0253197 0.437786 3.91722
-0.0182775 0.443011 3.98161
-0.0219452 0.434842 3.95325
0.027747 0.577394 3.84616
0.0145236 0.573783 3.86048
0.00698268 0.571995 3.87726
0.143994 0.590149 3.82759
0.156391 0.597989 3.82498
