ply
format ascii 1.0
comment Created by Open3D
element vertex 468
property double x
property double y
property double z
end_header
-0.0286016 0.359339 3.91749
-0.0306455 0.444025 3.97409
-0.0303864 0.411537 3.91368
-0.0486602 0.522514 3.93756
-0.0306842 0.470518 3.98049
-0.0297506 0.502851 3.96878
-0.0286155 0.576406 3.9007
-0.198216 0.580826 3.80975
-0.0285013 0.647173 3.87853
-0.0281752 0.683996 3.88248
-0.0269106 0.802684 3.85722
-0.0280313 0.347604 3.91561
-0.0274176 0.338756 3.90859
-0.0268913 0.334808 3.89821
-0.0251712 0.305533 3.8944
-0.0252048 0.29459 3.89858
-0.0248021 0.28173 3.90232
-0.0246316 0.267145 3.89646
-0.0246526 0.246273 3.87023
-0.0301616 0.430119 3.96274
-0.0479023 0.427919 3.92984
-0.276296 0.664285 3.69666
-0.125392 0.556953 3.83614
-0.149719 0.555548 3.83431
-0.173175 0.556687 3.82749
-0.204904 0.571777 3.80567
-0.105954 0.561792 3.83233
-0.159682 0.634359 3.83533
-0.131977 0.630228 3.8375
-0.185345 0.629483 3.82773
-0.20205 0.617942 3.82021
-0.222325 0.552107 3.79486
-0.108768 0.222327 3.84112
-0.207339 0.588485 3.80081
-0.28543 0.553436 3.68969
-0.246093 0.568126 3.77005
-0.144398 0.456174 3.86431
-0.0579522 0.364037 3.91408
-0.0536934 0.34022 3.90501
-0.0869583 0.358712 3.8992
-0.105944 0.350947 3.87901
-0.074615 0.339792 3.89405
-0.0916836 0.337705 3.87452
-0.133414 0.306143 3.8365
-0.0479944 0.445128 3.9724
-0.050955 0.470389 3.97828
-0.234454 0.644856 3.81124
-0.0958668 0.517517 3.86241
-0.093287 0.446759 3.91438
-0.0950127 0.459353 3.90646
-0.216806 0.457174 3.83352
-0.0500075 0.499492 3.96189
-0.18169 0.677508 3.84933
-0.213165 0.667485 3.83133
-0.254525 0.715221 3.74148
-0.0803034 0.653421 3.87192
-0.109454 0.616761 3.83257
-0.151192 0.333982 3.83267
-0.250963 0.320187 3.62891
-0.0776254 0.431457 3.90643
-0.0606537 0.422697 3.9075
-0.130473 0.333535 3.83406
-0.118747 0.333492 3.8407
-0.225328 0.68304 3.82115
-0.0932138 0.435151 3.90177
-0.138952 0.675015 3.86378
-0.142641 0.696421 3.86901
-0.163117 0.785568 3.8295
-0.239662 0.699383 3.78763
-0.150456 0.740847 3.85174
-0.248164 0.653327 3.79192
-0.262355 0.657305 3.74881
-0.0563225 0.350565 3.91246
-0.0803677 0.347521 3.8975
-0.099029 0.344491 3.87848
-0.0724127 0.425961 3.90102
-0.124675 0.33357 3.83795
-0.11355 0.321119 3.85135
-0.115162 0.33417 3.84103
-0.0682471 0.442797 3.9382
-0.0867566 0.338782 3.87056
-0.0698084 0.337949 3.8845
-0.0503052 0.336469 3.89485
-0.0587654 0.248993 3.86933
-0.057264 0.271467 3.89406
-0.0563179 0.28602 3.89833
-0.0543311 0.298607 3.8943
-0.0515497 0.307614 3.89041
-0.0906398 0.317861 3.86595
-0.0945806 0.31524 3.8692
-0.100127 0.309793 3.87138
-0.104687 0.301374 3.8663
-0.124668 0.373482 3.87014
-0.281406 0.435604 3.59419
-0.0310229 0.420479 3.93094
-0.10206 0.322565 3.85043
-0.10778 0.322495 3.85235
-0.0548095 0.41178 3.90771
-0.0875202 0.418155 3.88509
-0.057417 0.417042 3.90837
-0.120355 0.503351 3.85498
-0.161297 0.486826 3.84954
-0.0985309 0.44736 3.89364
-0.219016 0.756662 3.7881
-0.204768 0.728642 3.82134
-0.189724 0.697442 3.84675
-0.114902 0.282845 3.84845
-0.0875463 0.688909 3.88018
-0.0932317 0.742703 3.86937
-0.101002 0.799606 3.85317
-0.193612 0.561677 3.81656
-0.24625 0.532074 3.78364
-0.0936128 0.567508 3.82884
-0.22414 0.605837 3.80136
-0.0801581 0.533648 3.86939
-0.082169 0.458003 3.93706
-0.269523 0.512742 3.75724
-0.231635 0.516258 3.80598
-0.201449 0.508745 3.8285
-0.155841 0.513036 3.83732
-0.121571 0.523167 3.84188
-0.0974254 0.53476 3.8479
-0.0501907 0.568868 3.8922
-0.26773 0.4615 3.76631
-0.24136 0.608655 3.79039
-0.0402351 0.43134 3.96132
-0.0924461 0.493929 3.87437
-0.291573 0.547151 3.61143
-0.080307 0.547729 3.85064
-0.10227 0.443117 3.87073
-0.213212 0.586358 3.79568
-0.0829325 0.473194 3.92727
-0.270585 0.378267 3.60548
-0.093839 0.576625 3.82253
-0.0674809 0.48954 3.94859
-0.200752 0.274018 3.75608
-0.195498 0.24563 3.71281
-0.285859 0.447088 3.68087
-0.23184 0.303024 3.72808
-0.275269 0.607049 3.71277
-0.108848 0.202022 3.82702
-0.0387153 0.421424 3.92941
-0.113246 0.476062 3.86745
-0.26485 0.560526 3.74754
-0.172934 0.571364 3.82506
-0.151327 0.568937 3.83065
-0.119475 0.317725 3.84732
-0.261663 0.411879 3.76047
-0.0684347 0.170611 3.82126
-0.131182 0.20149 3.7735
-0.159348 0.219603 3.74686
-0.0275139 0.74221 3.87349
-0.0240755 0.164217 3.82861
-0.130425 0.56983 3.83129
-0.11117 0.572618 3.82732
-0.099144 0.573983 3.8225
-0.257595 0.610764 3.76683
-0.114415 0.602572 3.82857
-0.13537 0.614933 3.83
-0.158397 0.618251 3.82887
-0.181102 0.613157 3.82379
-0.194489 0.603513 3.81756
-0.288978 0.609695 3.64886
-0.187897 0.575541 3.81673
-0.0298131 0.393771 3.90843
-0.101813 0.385907 3.88425
-0.0784673 0.43617 3.91544
-0.0594718 0.392337 3.90631
-0.0281076 0.611379 3.88097
-0.167669 0.246187 3.77613
-0.138495 0.22501 3.79941
-0.0709714 0.183775 3.85066
-0.224877 0.27583 3.6691
-0.100317 0.586294 3.82507
-0.0651208 0.529647 3.90272
-0.0237851 0.177568 3.85613
-0.102289 0.184564 3.80196
-0.276279 0.394056 3.68628
-0.073127 0.312211 3.87966
-0.0771809 0.306339 3.88341
-0.0810577 0.296754 3.88577
-0.0840452 0.283361 3.8813
-0.0904621 0.263272 3.86137
-0.107691 0.336765 3.85608
-0.115091 0.340043 3.85554
-0.121426 0.344295 3.8558
-0.142714 0.356285 3.85224
-0.23217 0.402602 3.8099
-0.0650595 0.552448 3.87897
-0.0776425 0.598598 3.83869
-0.0905815 0.593591 3.82925
-0.101938 0.338582 3.85344
-0.228083 0.341249 3.77419
-0.0581542 0.605058 3.86697
-0.101022 0.243414 3.8492
-0.0293309 0.527132 3.94515
-0.0496207 0.544217 3.9181
-0.0290949 0.549867 3.92267
-0.0790552 0.491593 3.90551
-0.0237046 0.197862 3.86876
-0.024255 0.223473 3.86882
-0.0650708 0.227003 3.86421
-0.150667 0.294736 3.82407
-0.123512 0.423511 3.86468
-0.127957 0.266197 3.83474
-0.182878 0.426622 3.85603
-0.148056 0.399635 3.85908
-0.199695 0.387218 3.83738
-0.0703669 0.202789 3.86296
-0.0901926 0.476611 3.88938
-0.165709 0.273878 3.80304
-0.136892 0.247518 3.8182
-0.170586 0.327092 3.82374
-0.251458 0.369714 3.75268
-0.197144 0.318588 3.80349
-0.259549 0.345093 3.69625
-0.165696 0.371055 3.84718
-0.0784654 0.511884 3.88723
-0.074985 0.447506 3.94301
-0.0867813 0.438834 3.91762
-0.0681056 0.465365 3.95768
-0.0967322 0.625717 3.84395
-0.134668 0.644198 3.84523
-0.168828 0.648215 3.84121
-0.196858 0.643201 3.83123
-0.215515 0.62991 3.81844
-0.226592 0.577766 3.78643
-0.288659 0.500175 3.68376
-0.210067 0.542298 3.80819
-0.185007 0.535094 3.82267
-0.152937 0.535695 3.83184
-0.122848 0.541296 3.83692
-0.100557 0.548672 3.83673
-0.0856952 0.556564 3.83814
-0.28713 0.491009 3.59502
-0.0856015 0.431437 3.90603
-0.0655883 0.509518 3.92238
-0.0617614 0.447798 3.96113
-0.0492155 0.434786 3.95144
-0.060832 0.442781 3.9498
-0.0800081 0.422962 3.89821
-0.046111 0.432882 3.95781
-0.044175 0.423668 3.92985
-0.0860295 0.574963 3.82661
-0.0737081 0.570896 3.84075
-0.0669969 0.568377 3.85607
-0.201839 0.595627 3.81037
-0.212589 0.604611 3.80839
-0.00971718 0.522296 3.93772
0.149326 0.580271 3.8059
-0.0124843 0.426649 3.92941
0.236239 0.666701 3.69199
0.0770971 0.557452 3.83562
0.102081 0.555875 3.83273
0.125782 0.556757 3.82527
0.157989 0.571132 3.80233
0.0556559 0.56215 3.83198
0.11069 0.633695 3.8331
0.0825706 0.63006 3.83556
0.136122 0.628448 3.82443
0.153284 0.616768 3.81603
0.176463 0.551712 3.7908
0.0637666 0.21748 3.83824
0.158546 0.587701 3.79655
0.246368 0.553818 3.6846
0.202045 0.567452 3.76516
0.0948827 0.454387 3.86051
0.002307 0.362785 3.91328
0.000605981 0.339113 3.90421
0.0344317 0.355468 3.89798
0.0562019 0.347245 3.87745
0.0236064 0.337513 3.89349
0.0422736 0.335011 3.87367
0.0887852 0.301349 3.83342
-0.0123714 0.444369 3.97155
-0.00901123 0.46974 3.97717
0.186835 0.642726 3.80678
0.0440459 0.517014 3.86146
0.0380676 0.443606 3.91338
0.0412983 0.456449 3.90548
0.172557 0.455564 3.82823
-0.00920833 0.499102 3.9617
0.129464 0.675815 3.84417
0.162814 0.665068 3.8261
0.211789 0.717395 3.73641
0.0246687 0.653197 3.87001
0.0590267 0.61688 3.83126
0.105751 0.32923 3.82959
0.214273 0.314299 3.62592
0.0205484 0.428296 3.90559
0.00198043 0.420539 3.90607
0.083984 0.329527 3.83262
0.0731514 0.32984 3.83917
0.17569 0.680603 3.81567
0.0389641 0.431624 3.90058
0.0851686 0.674229 3.85955
0.0892952 0.695454 3.86411
0.113598 0.787232 3.82548
0.194052 0.699577 3.78234
0.0983649 0.741187 3.84761
0.201961 0.651568 3.78674
0.219617 0.65775 3.74346
0.00190338 0.349066 3.91156
0.0283885 0.344836 3.8969
0.0493462 0.341311 3.87724
0.0148077 0.422969 3.89967
0.0786134 0.329668 3.83582
0.0678781 0.317289 3.84915
0.0698282 0.330509 3.83955
0.0102105 0.440511 3.93833
0.0383556 0.336505 3.86993
0.0194204 0.336032 3.88412
-0.00174239 0.335691 3.89462
0.0107483 0.24757 3.8672
0.00914361 0.270178 3.89264
0.00771538 0.284811 3.89722
0.00497536 0.29747 3.89375
0.00201307 0.30653 3.89009
0.044431 0.315269 3.86446
0.0486965 0.312399 3.86711
0.0546566 0.306332 3.86871
0.0590525 0.297847 3.86355
0.0739271 0.370207 3.86753
0.241997 0.434098 3.59051
0.0562699 0.319643 3.84948
0.0621324 0.319092 3.85065
-0.00443902 0.410109 3.90715
0.0321231 0.414722 3.88308
-0.00162646 0.41525 3.9074
0.070206 0.502756 3.85352
0.112922 0.486064 3.84617
0.0452561 0.444245 3.89242
0.173072 0.758864 3.78297
0.155532 0.728687 3.8159
0.137822 0.69562 3.84137
0.0698077 0.279004 3.84576
0.0324931 0.688722 3.87727
0.0394393 0.743012 3.86657
0.0493859 0.800407 3.85026
0.14651 0.561321 3.81332
0.202706 0.531622 3.77845
0.0415528 0.567648 3.82907
0.177093 0.604483 3.79738
0.0271639 0.533476 3.86902
0.0255621 0.455493 3.93617
0.228547 0.512132 3.7522
0.186877 0.515873 3.80108
0.155442 0.508442 3.82455
0.107119 0.512944 3.83517
0.0715363 0.523102 3.84084
0.0463449 0.534628 3.84703
-0.00599761 0.568839 3.89222
0.226527 0.459858 3.76112
0.196393 0.607368 3.78579
-0.0196528 0.430879 3.96118
0.0397013 0.492842 3.87375
0.252027 0.548617 3.60686
0.0270817 0.547716 3.85036
0.0484431 0.440254 3.86868
0.16531 0.585442 3.79184
0.0278201 0.470941 3.92611
0.232638 0.374484 3.60183
0.0416661 0.576638 3.8234
0.0104852 0.488384 3.94791
0.162227 0.265975 3.75257
0.158086 0.236989 3.71084
0.246123 0.444998 3.67574
0.195128 0.295923 3.72361
0.234054 0.608196 3.70731
0.0642334 0.196165 3.8252
-0.0234659 0.421079 3.92922
0.0621388 0.474503 3.8654
0.223162 0.560321 3.74231
0.123616 0.571291 3.82218
0.102154 0.569308 3.82901
0.0739636 0.313784 3.8451
0.22165 0.408555 3.75457
0.0210834 0.167465 3.82069
0.0881143 0.193673 3.77292
0.119281 0.210693 3.74601
0.0809604 0.570276 3.83053
0.0606194 0.573088 3.82766
0.0474531 0.574385 3.82355
0.214455 0.610147 3.76163
0.064808 0.602558 3.82849
0.0871216 0.614826 3.82869
0.109836 0.617676 3.82632
0.132427 0.612282 3.82004
0.145885 0.602665 3.81361
0.248716 0.611933 3.64372
0.138731 0.57515 3.81347
0.0483915 0.382844 3.88214
0.0211051 0.433079 3.91433
0.00220921 0.391019 3.90557
0.126669 0.237891 3.77356
0.0962247 0.217243 3.79716
0.0245799 0.180754 3.84946
0.188476 0.268279 3.66695
0.0488019 0.586263 3.82614
0.0095632 0.529259 3.90237
0.05675 0.178799 3.80167
0.238093 0.390066 3.68059
0.0250121 0.310244 3.87894
0.0296042 0.304224 3.88209
0.0339589 0.29444 3.88424
0.036993 0.280851 3.87968
0.0443887 0.260501 3.85936
0.0606584 0.333533 3.85486
0.0674659 0.336207 3.85423
0.0740409 0.34021 3.85411
0.094745 0.352524 3.84952
0.190907 0.39925 3.80386
0.0101591 0.552297 3.87889
0.0234345 0.598498 3.83787
0.0381292 0.593842 3.82955
0.0551245 0.335669 3.85255
0.188534 0.335703 3.76872
0.00290587 0.604802 3.86638
0.0558112 0.239521 3.84614
-0.00733268 0.543923 3.91769
0.0242566 0.490458 3.90461
0.0178647 0.224976 3.86213
0.106575 0.289096 3.82041
0.0714674 0.420647 3.8617
0.083871 0.260859 3.83108
0.136597 0.424085 3.85
0.0982482 0.396707 3.85515
0.156124 0.383496 3.83162
0.0237603 0.200267 3.86123
0.0370286 0.474661 3.88839
0.123038 0.26703 3.79957
0.0935447 0.240831 3.81465
0.126587 0.322078 3.82056
0.212622 0.364717 3.74675
0.156304 0.312533 3.79892
0.222685 0.339664 3.6913
0.119312 0.367536 3.84294
0.0242878 0.510989 3.88693
0.0176911 0.44512 3.94269
0.0306382 0.435484 3.9162
0.00930126 0.463791 3.95724
0.0433712 0.625296 3.84277
0.0827629 0.643364 3.84243
0.117629 0.647265 3.83761
0.14643 0.641746 3.82719
0.166719 0.628299 3.81415
0.180584 0.576993 3.78229
0.249325 0.4994 3.67905
0.163567 0.54211 3.80437
0.137939 0.535091 3.81964
0.104808 0.535832 3.82992
0.0735824 0.541507 3.8359
0.0497977 0.548823 3.83566
0.0334495 0.556702 3.83759
0.247401 0.491264 3.59108
0.0297575 0.427947 3.9049
0.00855588 0.509021 3.92221
0.00251199 0.446247 3.96036
-0.0097004 0.433592 3.95105
0.00203291 0.441078 3.94929
0.0242979 0.419569 3.89675
-0.0131878 0.432027 3.9573
-0.0168759 0.422716 3.92933
0.0331424 0.575068 3.82668
0.0203666 0.570906 3.84025
0.0128489 0.568331 3.85538
0.153229 0.59479 3.80593
0.164661 0.603392 3.8039
