ply
format ascii 1.0
comment Created by Open3D
element vertex 468
property double x
property double y
property double z
end_header
0.0574867 0.314547 3.79711
0.0598065 0.40108 3.8577
0.0600448 0.371294 3.79754
0.0384999 0.47578 3.82107
0.0598224 0.426149 3.86397
0.0589778 0.456733 3.85225
0.0592988 0.52468 3.78496
-0.113566 0.519536 3.6894
0.0586497 0.574884 3.76595
0.0582182 0.604366 3.76862
0.0576116 0.70189 3.74088
0.0570584 0.302874 3.79453
0.0564184 0.294761 3.78784
0.0560889 0.291751 3.77756
0.0583457 0.244589 3.76612
0.0581592 0.234186 3.77102
0.0572269 0.22212 3.77616
0.0571602 0.207759 3.77146
0.0578658 0.184905 3.75039
0.0586069 0.38769 3.84628
0.0353374 0.385736 3.81197
-0.203892 0.586598 3.57939
-0.0420045 0.504687 3.7163
-0.0663983 0.502207 3.71416
-0.0906353 0.50179 3.7075
-0.124335 0.511856 3.68607
-0.0219134 0.510192 3.71303
-0.080038 0.563005 3.71825
-0.0531702 0.561196 3.71804
-0.104247 0.558265 3.71038
-0.120414 0.548547 3.70098
-0.141736 0.494489 3.67496
-0.037149 0.15833 3.71562
-0.123839 0.5241 3.68105
-0.212783 0.489052 3.57119
-0.168836 0.504991 3.65069
-0.0672683 0.411457 3.73859
0.0211162 0.318885 3.79212
0.0240159 0.295495 3.78251
-0.0158054 0.313248 3.77507
-0.0377375 0.30494 3.75233
-0.00292571 0.295021 3.77004
-0.0216242 0.292488 3.74859
-0.0665672 0.255516 3.7063
0.0384879 0.401744 3.8545
0.0353347 0.425716 3.86004
-0.156406 0.569339 3.69592
-0.0149723 0.469474 3.7423
-0.0219527 0.404972 3.79312
-0.0237257 0.416686 3.78462
-0.139321 0.412599 3.70861
0.0366696 0.453549 3.84507
-0.0985679 0.598657 3.73339
-0.132442 0.58854 3.71659
-0.179144 0.631064 3.62287
0.00772793 0.580328 3.75738
-0.0293623 0.55259 3.7123
-0.085126 0.28586 3.70233
-0.189876 0.260674 3.51734
-0.00312148 0.390569 3.78502
0.0172303 0.382017 3.78703
-0.0633211 0.284238 3.70505
-0.051828 0.284115 3.7113
-0.14584 0.601146 3.70496
-0.0240967 0.394188 3.77962
-0.0524742 0.597727 3.74714
-0.0575319 0.615795 3.75115
-0.0806006 0.69118 3.70923
-0.16239 0.616715 3.66849
-0.0659589 0.654603 3.73141
-0.170642 0.576013 3.67605
-0.187085 0.579608 3.62981
0.0219784 0.305166 3.79004
-0.00843759 0.301944 3.77345
-0.0296502 0.298536 3.75193
0.00273172 0.38551 3.77981
-0.0576579 0.284189 3.70829
-0.0454302 0.267306 3.72064
-0.0485982 0.284611 3.71185
0.010524 0.399908 3.8202
-0.0177045 0.294022 3.74477
0.00194929 0.293947 3.76097
0.0264068 0.293018 3.77302
0.0181597 0.188385 3.7459
0.0186217 0.211994 3.76684
0.0208826 0.226191 3.77045
0.0246715 0.238329 3.76552
0.0274908 0.247011 3.76176
-0.0185008 0.260831 3.7359
-0.0234129 0.257937 3.7379
-0.0305484 0.252516 3.73947
-0.0360154 0.244906 3.73492
-0.0550359 0.328373 3.74373
-0.210004 0.374684 3.48178
0.0608272 0.37909 3.8149
-0.0319301 0.268674 3.72214
-0.0386222 0.268719 3.72232
0.0257273 0.371032 3.78924
-0.0157661 0.377607 3.76168
0.0215884 0.376385 3.78892
-0.0403052 0.45631 3.73426
-0.0807895 0.441186 3.72765
-0.028469 0.405222 3.77108
-0.140402 0.667385 3.66794
-0.123911 0.64272 3.70059
-0.10724 0.615012 3.72873
-0.0460823 0.228729 3.71975
-0.000437843 0.609944 3.76383
-0.00775747 0.655946 3.7488
-0.0169448 0.701298 3.73289
-0.111933 0.504565 3.69631
-0.167224 0.47675 3.66197
-0.00965317 0.515752 3.71026
-0.144808 0.537543 3.68317
0.00240799 0.484468 3.75104
-0.00537593 0.414664 3.81703
-0.194126 0.45682 3.63687
-0.150519 0.465662 3.68374
-0.119934 0.460623 3.70543
-0.0734334 0.464708 3.71702
-0.0390148 0.474013 3.72223
-0.01447 0.484934 3.72845
0.0361383 0.517585 3.77609
-0.192951 0.411157 3.6446
-0.164475 0.539221 3.67258
0.0456049 0.388398 3.84458
-0.0144312 0.448044 3.75331
-0.217258 0.480796 3.49733
0.00420052 0.49686 3.73243
-0.0299218 0.40116 3.74584
-0.131901 0.522865 3.67706
-0.00710646 0.429126 3.80677
-0.205607 0.318952 3.49302
-0.0116638 0.522416 3.70442
0.0141574 0.444092 3.83038
-0.142042 0.215241 3.63125
-0.140236 0.180684 3.59662
-0.21417 0.390005 3.56229
-0.171139 0.246849 3.60609
-0.199983 0.53704 3.59401
-0.0423224 0.129261 3.70523
0.0507148 0.379916 3.8127
-0.0373065 0.430807 3.74389
-0.189591 0.497165 3.62794
-0.0867143 0.514898 3.70447
-0.0651785 0.514501 3.71095
-0.0519598 0.264959 3.71693
-0.191015 0.362115 3.63673
0.00393054 0.0897172 3.70531
-0.0729882 0.125324 3.65677
-0.104845 0.148879 3.62992
0.0581078 0.654048 3.75602
0.058964 0.0857637 3.71342
-0.0455164 0.51633 3.71237
-0.0270418 0.519826 3.70956
-0.015925 0.521288 3.70502
-0.181848 0.54047 3.6491
-0.0346015 0.536333 3.71062
-0.0566255 0.541737 3.71325
-0.0771905 0.542631 3.71177
-0.0980953 0.538829 3.70612
-0.111184 0.532713 3.69828
-0.214737 0.53863 3.53281
-0.102097 0.51675 3.6966
0.0594857 0.351867 3.79151
-0.0314995 0.342739 3.76117
-0.00299136 0.394761 3.79395
0.0210307 0.350109 3.78698
0.0588077 0.549094 3.76645
-0.108921 0.182364 3.65137
-0.0770639 0.155637 3.67606
0.00287194 0.111863 3.73023
-0.16662 0.214866 3.55735
-0.0190995 0.52816 3.70759
0.019194 0.481501 3.78422
0.0585147 0.106969 3.73752
-0.0383787 0.104416 3.68568
-0.209037 0.337806 3.56645
0.00236652 0.253002 3.75044
-0.00267857 0.246878 3.75317
-0.00814597 0.237533 3.75559
-0.0122459 0.22482 3.75179
-0.019571 0.205223 3.73552
-0.0399741 0.290289 3.72869
-0.0473389 0.293113 3.72785
-0.0544659 0.297392 3.72781
-0.0745356 0.309939 3.72304
-0.160405 0.35658 3.6826
0.0199257 0.501962 3.76187
0.00858195 0.539307 3.71902
-0.00751937 0.536059 3.71107
-0.0344263 0.292561 3.7266
-0.163294 0.29064 3.64698
0.0280083 0.543579 3.75005
-0.0280145 0.184713 3.7233
0.0590909 0.480291 3.82861
0.0366812 0.495875 3.80037
0.0594074 0.501601 3.80575
0.000915567 0.446047 3.78482
0.0584937 0.134576 3.74786
0.0584454 0.1633 3.74763
0.0138563 0.166996 3.73966
-0.0847501 0.242702 3.69341
-0.0512286 0.380843 3.73916
-0.0597078 0.210497 3.70611
-0.107189 0.382021 3.72717
-0.0747162 0.35592 3.73165
-0.128354 0.341391 3.70619
0.00658536 0.139382 3.73996
-0.0150135 0.432254 3.76742
-0.102697 0.216854 3.6746
-0.0702225 0.185709 3.69062
-0.104507 0.278484 3.69371
-0.185581 0.318673 3.62776
-0.134342 0.267014 3.67303
-0.19594 0.289363 3.57701
-0.0961735 0.326446 3.7179
0.00284336 0.464563 3.76759
0.00226364 0.40451 3.82385
-0.0141603 0.397179 3.79601
0.0138966 0.421113 3.84014
-0.0110105 0.559749 3.72441
-0.0508514 0.573935 3.72634
-0.0857833 0.576429 3.72389
-0.11475 0.570752 3.71436
-0.134985 0.558139 3.70083
-0.147266 0.514077 3.66785
-0.216154 0.439999 3.5661
-0.128036 0.487445 3.68744
-0.102866 0.482834 3.70216
-0.0703002 0.484333 3.71204
-0.0396756 0.490124 3.71648
-0.0166073 0.497621 3.71714
-0.00083013 0.504816 3.71873
-0.21294 0.427463 3.48257
-0.0140372 0.390616 3.78425
0.019301 0.462964 3.80451
0.0202534 0.403982 3.84245
0.0327579 0.391251 3.83331
0.0199501 0.399078 3.83128
-0.0079836 0.382381 3.7759
0.0376167 0.389627 3.83997
0.0416332 0.381633 3.81224
-0.00185079 0.521788 3.70771
0.0113361 0.517107 3.7215
0.0181966 0.514909 3.73837
-0.1185 0.527857 3.69097
-0.131466 0.537199 3.68849
0.0797036 0.475413 3.82042
0.221811 0.518994 3.69098
0.0829588 0.385762 3.81403
0.301087 0.576817 3.58096
0.150697 0.50345 3.71292
0.173443 0.501116 3.71189
0.196823 0.50057 3.70641
0.229443 0.510683 3.68733
0.133383 0.509005 3.71145
0.186161 0.560338 3.71826
0.16077 0.558749 3.71903
0.210238 0.555668 3.71196
0.225793 0.545952 3.70391
0.245595 0.492324 3.67791
0.149464 0.163833 3.72025
0.231726 0.523204 3.6836
0.311394 0.484138 3.5749
0.270232 0.502118 3.65464
0.176414 0.410609 3.74365
0.0917847 0.319118 3.79435
0.0860522 0.295321 3.78398
0.124996 0.313402 3.77873
0.145315 0.304404 3.75566
0.110326 0.294653 3.77122
0.129095 0.291497 3.75048
0.174694 0.256102 3.71188
0.0795316 0.401719 3.85651
0.0821715 0.425794 3.8621
0.256774 0.565642 3.69961
0.127313 0.468342 3.74273
0.134816 0.404403 3.7973
0.135754 0.416124 3.78873
0.240941 0.411441 3.71336
0.0810119 0.453356 3.84506
0.20505 0.595202 3.73956
0.235916 0.58498 3.72191
0.27844 0.621212 3.62541
0.106281 0.579079 3.75929
0.140431 0.550451 3.71271
0.192999 0.2855 3.70709
0.29024 0.264457 3.51941
0.11882 0.390277 3.78915
0.100329 0.382179 3.7929
0.172494 0.282129 3.70825
0.158913 0.282162 3.71448
0.248133 0.596674 3.71076
0.136177 0.393691 3.78499
0.162663 0.595187 3.75251
0.1671 0.61285 3.75731
0.18771 0.684135 3.71241
0.262857 0.609758 3.67358
0.176088 0.649513 3.73583
0.27004 0.571363 3.6797
0.285615 0.572609 3.63357
0.0893274 0.305137 3.79185
0.117187 0.301909 3.77575
0.137334 0.297948 3.75482
0.113838 0.385421 3.78528
0.165946 0.282063 3.71199
0.153917 0.266268 3.72562
0.154428 0.282754 3.71461
0.104263 0.399549 3.82081
0.123416 0.292906 3.74642
0.105222 0.293316 3.76168
0.0828656 0.292666 3.77333
0.0950389 0.189673 3.74973
0.0933977 0.212779 3.76965
0.0916425 0.226627 3.77213
0.0899155 0.238533 3.76645
0.0870294 0.246938 3.76195
0.128001 0.260495 3.73823
0.132521 0.257858 3.74211
0.138778 0.252625 3.745
0.14482 0.245412 3.74079
0.165105 0.328119 3.74941
0.314236 0.372607 3.48294
0.140377 0.267346 3.72338
0.147315 0.26755 3.72587
0.0926512 0.371101 3.7923
0.130688 0.37763 3.76931
0.0962492 0.376482 3.79363
0.150908 0.454972 3.73521
0.188421 0.439625 3.73066
0.140429 0.40468 3.77613
0.242477 0.658275 3.67231
0.228555 0.636613 3.70702
0.213665 0.610929 3.73514
0.155454 0.230511 3.72475
0.113473 0.608009 3.7674
0.121041 0.653205 3.75211
0.128129 0.697497 3.73647
0.217206 0.503522 3.69679
0.268747 0.474158 3.66624
0.123989 0.514614 3.70794
0.248154 0.53496 3.68605
0.111418 0.483559 3.75056
0.11922 0.414276 3.82007
0.292895 0.45411 3.64066
0.253282 0.463321 3.68648
0.224633 0.458395 3.70778
0.181989 0.462987 3.71762
0.149975 0.472669 3.72181
0.126755 0.483799 3.72806
0.0816847 0.517027 3.77589
0.292279 0.409967 3.64817
0.264594 0.535638 3.67552
0.0708997 0.388282 3.84489
0.127797 0.447126 3.75455
0.319668 0.474067 3.49815
0.110637 0.49591 3.73152
0.144418 0.400811 3.75213
0.238468 0.521414 3.67916
0.119597 0.428849 3.80978
0.3079 0.31993 3.49607
0.126027 0.521646 3.70161
0.100276 0.443858 3.83171
0.244246 0.222434 3.63683
0.24148 0.18922 3.60052
0.315726 0.388975 3.56679
0.27015 0.252262 3.6108
0.299792 0.530511 3.59714
0.154826 0.13601 3.70945
0.0708212 0.379862 3.81376
0.148363 0.429914 3.74719
0.288912 0.49374 3.6316
0.195966 0.513952 3.70354
0.174594 0.513367 3.70825
0.160514 0.264045 3.72196
0.290012 0.362707 3.64211
0.112558 0.0938219 3.70747
0.183485 0.134134 3.66017
0.210788 0.158408 3.63342
0.155296 0.515057 3.70956
0.138839 0.518516 3.70623
0.130058 0.520128 3.70174
0.280264 0.535912 3.65195
0.143548 0.535134 3.7086
0.161601 0.540552 3.71313
0.182072 0.541752 3.71195
0.203433 0.538007 3.70723
0.217059 0.531829 3.70081
0.315412 0.529905 3.53445
0.21101 0.516058 3.69683
0.143449 0.342839 3.76686
0.118311 0.394504 3.79896
0.0951321 0.350264 3.78945
0.215727 0.190802 3.65744
0.186348 0.164103 3.68148
0.112051 0.115643 3.73284
0.26638 0.220925 3.55905
0.131923 0.527206 3.70439
0.0968949 0.481038 3.78468
0.152379 0.111499 3.68833
0.308774 0.339236 3.57172
0.109943 0.252835 3.75167
0.114274 0.247114 3.75551
0.118834 0.238032 3.75886
0.123192 0.225692 3.75578
0.130193 0.206965 3.7394
0.146309 0.288576 3.73109
0.154591 0.291494 3.7304
0.161616 0.295636 3.73081
0.183062 0.309285 3.72745
0.259496 0.357105 3.6888
0.0963337 0.5012 3.76161
0.10815 0.538345 3.71915
0.121905 0.534762 3.70867
0.139768 0.29068 3.72781
0.263306 0.293732 3.65339
0.0884115 0.542934 3.75027
0.139007 0.188604 3.72795
0.0807778 0.495687 3.80099
0.113063 0.445632 3.78717
0.100685 0.169258 3.74298
0.192704 0.246041 3.69977
0.163137 0.380679 3.74536
0.16853 0.214603 3.71226
0.211808 0.381918 3.73438
0.183974 0.355834 3.7379
0.230674 0.342366 3.71307
0.10803 0.142418 3.74206
0.127705 0.43166 3.7707
0.210145 0.223024 3.68101
0.180331 0.192233 3.697
0.211163 0.28019 3.6983
0.284054 0.3208 3.63403
0.236754 0.271005 3.67976
0.294722 0.292672 3.58123
0.201895 0.326372 3.72322
0.111863 0.463878 3.76815
0.111339 0.404372 3.82599
0.127589 0.397001 3.80115
0.102449 0.421032 3.84188
0.125199 0.558516 3.72471
0.161112 0.572107 3.72897
0.193659 0.573868 3.72741
0.22117 0.567711 3.71812
0.239144 0.555156 3.70464
0.251232 0.512072 3.67098
0.316371 0.436782 3.56886
0.233124 0.485507 3.68927
0.208725 0.481179 3.70329
0.178108 0.482789 3.71175
0.149498 0.488734 3.71492
0.128799 0.496669 3.71661
0.115187 0.503948 3.71774
0.316615 0.422583 3.48212
0.127524 0.390308 3.78988
0.0975757 0.462704 3.80453
0.0956098 0.404193 3.84476
0.0820662 0.391703 3.8355
0.0948527 0.3992 3.83327
0.122378 0.382282 3.78247
0.0779863 0.389775 3.84216
0.07817 0.381807 3.81425
0.117751 0.520968 3.70616
0.104342 0.51645 3.72129
0.0976922 0.514232 3.73844
0.225338 0.527039 3.69364
0.236688 0.535343 3.69202
