ply
format ascii 1.0
comment Created by Open3D
element vertex 468
property double x
property double y
property double z
end_header
-0.0487109 0.371585 3.99389
-0.0531052 0.458118 4.07201
-0.0531239 0.42296 4.00173
-0.0734128 0.549478 4.02564
-0.0518313 0.489236 4.0787
-0.0496998 0.526904 4.06373
-0.0502399 0.611428 3.98382
-0.239866 0.6089 3.86769
-0.0508631 0.678909 3.95953
-0.0507501 0.718477 3.96191
-0.0464454 0.862491 3.92563
-0.0473629 0.358857 3.9908
-0.0457956 0.350309 3.98324
-0.0450765 0.347981 3.9713
-0.0498284 0.283224 3.95819
-0.0500945 0.272286 3.96384
-0.0491795 0.259394 3.96973
-0.0501505 0.242702 3.9654
-0.0541354 0.216286 3.9432
-0.0516158 0.441271 4.05919
-0.0784634 0.440501 4.02245
-0.338019 0.689362 3.73516
-0.158051 0.589013 3.89249
-0.184662 0.587124 3.89157
-0.212085 0.587297 3.88567
-0.249987 0.59851 3.86345
-0.138015 0.594732 3.89252
-0.196668 0.657777 3.9008
-0.167369 0.655536 3.90238
-0.224428 0.652471 3.89274
-0.242485 0.64135 3.88309
-0.273664 0.577255 3.85385
-0.158221 0.186308 3.91081
-0.250592 0.612507 3.85913
-0.353862 0.567242 3.73039
-0.301049 0.58946 3.82593
-0.192514 0.47709 3.93702
-0.0884908 0.376509 3.99121
-0.0821594 0.351824 3.97871
-0.128693 0.371818 3.97238
-0.154701 0.362253 3.94183
-0.112209 0.351426 3.96168
-0.136321 0.34774 3.93467
-0.187387 0.300569 3.88771
-0.0738846 0.459628 4.07092
-0.0754171 0.489343 4.07631
-0.27925 0.667118 3.87616
-0.132597 0.545522 3.93298
-0.13717 0.466695 4.00164
-0.138127 0.481479 3.99072
-0.277187 0.479336 3.90114
-0.0740284 0.522911 4.05499
-0.217453 0.7042 3.92494
-0.253649 0.691843 3.90277
-0.307518 0.747805 3.7868
-0.105226 0.683128 3.95102
-0.144884 0.645218 3.89542
-0.209096 0.33681 3.88321
-0.335346 0.292575 3.67073
-0.120145 0.448421 3.99284
-0.0970215 0.437898 3.99838
-0.189422 0.336777 3.88142
-0.173028 0.335173 3.88742
-0.268035 0.70849 3.88894
-0.138735 0.454984 3.98729
-0.169135 0.703141 3.942
-0.173102 0.727691 3.94729
-0.198857 0.834631 3.89011
-0.286568 0.729418 3.84409
-0.185072 0.783446 3.91969
-0.296097 0.675592 3.85288
-0.31723 0.680853 3.79791
-0.08594 0.361928 3.98754
-0.120212 0.359376 3.9673
-0.145689 0.355192 3.93999
-0.114283 0.443044 3.98932
-0.181644 0.336507 3.8853
-0.165879 0.314829 3.90147
-0.166623 0.334398 3.88741
-0.103734 0.457669 4.02904
-0.12973 0.349292 3.92973
-0.106961 0.350756 3.95031
-0.0788351 0.349277 3.96548
-0.0969321 0.221104 3.94195
-0.0920176 0.249027 3.96124
-0.0899074 0.265085 3.96336
-0.0886462 0.277613 3.95656
-0.0850305 0.286655 3.95134
-0.13534 0.304323 3.91876
-0.140012 0.302373 3.92326
-0.146256 0.297171 3.92699
-0.152899 0.288481 3.92161
-0.177552 0.383432 3.93731
-0.365369 0.427364 3.62586
-0.0554844 0.430897 4.02375
-0.151183 0.313296 3.89826
-0.158844 0.315107 3.90159
-0.0887999 0.424458 3.99587
-0.134265 0.436397 3.96955
-0.0924352 0.430968 3.9985
-0.162032 0.530387 3.92411
-0.209133 0.513101 3.92014
-0.144145 0.468753 3.97621
-0.263157 0.797904 3.84154
-0.244662 0.765081 3.88425
-0.226845 0.726425 3.91912
-0.166022 0.269032 3.90465
-0.113347 0.72248 3.95981
-0.122038 0.79009 3.93985
-0.12842 0.854808 3.91999
-0.236142 0.590821 3.87471
-0.303474 0.555415 3.84136
-0.127194 0.600548 3.88936
-0.270847 0.628784 3.86086
-0.11314 0.562845 3.94182
-0.119463 0.477058 4.02819
-0.334513 0.530484 3.81049
-0.286472 0.541974 3.86574
-0.251923 0.536724 3.89082
-0.200121 0.541405 3.90172
-0.160592 0.551855 3.90638
-0.132159 0.564601 3.9142
-0.0760856 0.602328 3.97235
-0.34076 0.475687 3.82243
-0.290776 0.630176 3.84869
-0.0648876 0.443014 4.05739
-0.13286 0.519024 3.94834
-0.367773 0.555635 3.6399
-0.113134 0.57873 3.91891
-0.150529 0.464626 3.94803
-0.25983 0.611007 3.85332
-0.118995 0.495265 4.01539
-0.35655 0.361435 3.64306
-0.129154 0.608609 3.88188
-0.0961483 0.512306 4.03966
-0.271699 0.248171 3.80959
-0.267475 0.20589 3.76666
-0.367972 0.447942 3.72606
-0.310033 0.280841 3.7806
-0.337994 0.626353 3.75624
-0.161634 0.155167 3.8989
-0.0662891 0.432219 4.02265
-0.157334 0.499766 3.94055
-0.32452 0.579142 3.79851
-0.210655 0.60418 3.88265
-0.185846 0.602786 3.88797
-0.173084 0.311827 3.89714
-0.340949 0.416651 3.81811
-0.115786 0.110745 3.89841
-0.19385 0.149159 3.83851
-0.226393 0.17344 3.80517
-0.0496036 0.792127 3.94509
-0.059873 0.101477 3.90768
-0.163154 0.604055 3.88939
-0.14439 0.606869 3.88553
-0.134184 0.60757 3.88126
-0.310828 0.631194 3.82083
-0.147191 0.623409 3.88942
-0.167346 0.628948 3.89442
-0.191191 0.630157 3.89348
-0.215039 0.626389 3.8878
-0.23123 0.620415 3.87979
-0.359808 0.627816 3.68192
-0.227875 0.606367 3.87487
-0.0523051 0.405055 3.99206
-0.149435 0.399035 3.96083
-0.119452 0.453191 4.00504
-0.0924308 0.405078 3.98902
-0.0498073 0.645029 3.96102
-0.232379 0.213478 3.83338
-0.197192 0.184679 3.86362
-0.11467 0.13375 3.9284
-0.303688 0.240681 3.71785
-0.13527 0.614637 3.88442
-0.0947858 0.557783 3.98328
-0.057699 0.124834 3.93537
-0.158747 0.127281 3.87368
-0.360291 0.385764 3.73467
-0.11336 0.294371 3.93688
-0.118374 0.288634 3.94171
-0.122941 0.278751 3.94494
-0.127717 0.264363 3.94139
-0.1374 0.241063 3.92422
-0.157955 0.343797 3.90873
-0.168191 0.347683 3.90799
-0.176114 0.352483 3.90896
-0.200048 0.363589 3.90886
-0.303115 0.411671 3.87407
-0.0943646 0.583537 3.95515
-0.108767 0.631698 3.90465
-0.124356 0.625706 3.89088
-0.14993 0.345695 3.90507
-0.30324 0.33404 3.83121
-0.0842599 0.637651 3.94171
-0.147423 0.216487 3.91636
-0.0501238 0.555048 4.03563
-0.0740684 0.574608 4.00288
-0.0505642 0.581322 4.00916
-0.11388 0.515917 3.98806
-0.0563162 0.155386 3.94649
-0.055334 0.189292 3.9445
-0.104056 0.194977 3.93879
-0.206477 0.284428 3.87693
-0.172601 0.441271 3.93844
-0.178778 0.24688 3.89418
-0.238984 0.443316 3.92775
-0.20054 0.412815 3.92781
-0.262905 0.395856 3.90153
-0.111852 0.162479 3.93888
-0.130648 0.499987 3.96862
-0.226452 0.25419 3.85835
-0.191172 0.219176 3.88037
-0.230135 0.325451 3.87613
-0.331619 0.365227 3.80925
-0.263486 0.310258 3.85823
-0.342947 0.328317 3.74599
-0.22284 0.380255 3.90824
-0.113423 0.538136 3.96391
-0.110762 0.463776 4.03518
-0.129144 0.457129 4.00726
-0.0990077 0.483943 4.05298
-0.128585 0.656026 3.90938
-0.169382 0.672351 3.91362
-0.206191 0.674888 3.91099
-0.237741 0.66789 3.89894
-0.259067 0.653204 3.88236
-0.276796 0.601126 3.84422
-0.364413 0.507661 3.72492
-0.258918 0.56879 3.86739
-0.229854 0.563714 3.8833
-0.192372 0.56498 3.89244
-0.158392 0.571306 3.89613
-0.133557 0.58007 3.89967
-0.118089 0.588502 3.90225
-0.367313 0.490424 3.62251
-0.129252 0.449805 3.99365
-0.0951433 0.535043 4.00745
-0.0921043 0.46298 4.0572
-0.0768028 0.44753 4.04684
-0.0922134 0.457398 4.0441
-0.12389 0.440898 3.98566
-0.0724325 0.445044 4.05432
-0.0734649 0.43537 4.023
-0.119833 0.608186 3.88875
-0.10478 0.603989 3.90733
-0.0965806 0.601084 3.92811
-0.241661 0.615926 3.87135
-0.256181 0.628471 3.8685
-0.0283459 0.550109 4.02818
0.141698 0.610568 3.87229
-0.0272762 0.438093 4.01959
0.27339 0.710918 3.7318
0.0618183 0.591636 3.90334
0.0903874 0.590065 3.90083
0.118709 0.59046 3.89232
0.158475 0.601028 3.86678
0.0369122 0.596387 3.89994
0.104823 0.662329 3.90678
0.0728841 0.65981 3.90544
0.132486 0.6568 3.89698
0.151125 0.645017 3.88497
0.184245 0.582004 3.85111
0.0526767 0.175415 3.90608
0.153364 0.613972 3.86224
0.280011 0.577425 3.72396
0.218512 0.595271 3.82083
0.0955069 0.478782 3.92888
-0.00394767 0.375562 3.98762
-0.00401659 0.350879 3.97567
0.0427999 0.369197 3.9646
0.0723354 0.360234 3.93361
0.0301402 0.349841 3.95879
0.0546515 0.346759 3.92974
0.10035 0.296514 3.87862
-0.0297269 0.458 4.06772
-0.0260083 0.488804 4.07354
0.199366 0.673318 3.87429
0.0317794 0.547267 3.93395
0.0400331 0.465853 3.99503
0.0419469 0.481754 3.98494
0.188522 0.482235 3.89071
-0.0261305 0.523363 4.0565
0.125182 0.710251 3.91963
0.167675 0.697853 3.89931
0.238836 0.770387 3.78319
0.0040807 0.685579 3.94997
0.0448465 0.648998 3.89905
0.126314 0.335031 3.87456
0.252939 0.282856 3.66555
0.0179342 0.446373 3.98644
-0.00767113 0.435816 3.98837
0.106691 0.336631 3.87287
0.0944016 0.335446 3.87881
0.185244 0.716288 3.88433
0.0432532 0.454599 3.97802
0.0707441 0.707925 3.93673
0.0770455 0.733499 3.94038
0.115773 0.850409 3.88607
0.211112 0.744367 3.83859
0.091307 0.794073 3.91465
0.219777 0.684306 3.84982
0.245884 0.695544 3.79223
-0.00316293 0.360623 3.9845
0.03548 0.35723 3.96255
0.0633442 0.353624 3.93351
0.0103946 0.440855 3.97996
0.100724 0.336451 3.87526
0.0823956 0.312772 3.89078
0.0903999 0.334611 3.87992
0.0032394 0.454854 4.02908
0.0511905 0.349599 3.92512
0.0248898 0.350122 3.94831
-0.0060548 0.34898 3.96501
-0.00689099 0.217856 3.93629
-0.00381492 0.246507 3.9588
-0.00455623 0.262849 3.96276
-0.00779087 0.275681 3.95697
-0.0107245 0.284913 3.9523
0.0494298 0.302329 3.91372
0.0546941 0.299887 3.91578
0.061658 0.293779 3.91658
0.0658041 0.284518 3.91172
0.0858849 0.382527 3.92545
0.280752 0.429177 3.62098
0.0672655 0.312722 3.89415
0.0747736 0.314063 3.89321
-0.0162647 0.423402 3.99079
0.0327377 0.435858 3.95567
-0.0121191 0.42937 3.99085
0.0624609 0.533138 3.92464
0.112523 0.516424 3.91585
0.0478607 0.469148 3.96814
0.188442 0.818696 3.83604
0.161301 0.778656 3.87741
0.136339 0.734032 3.91332
0.0729557 0.26392 3.89749
0.0131142 0.726131 3.95594
0.0244633 0.795863 3.93586
0.0406469 0.863288 3.91439
0.144123 0.593735 3.8791
0.218841 0.560889 3.83383
0.0213862 0.601831 3.89847
0.184158 0.633015 3.86128
0.0113463 0.564399 3.94439
0.0202046 0.475345 4.02401
0.254746 0.535997 3.80283
0.197933 0.547551 3.8606
0.15941 0.542016 3.88719
0.10173 0.545392 3.90347
0.059563 0.554704 3.91015
0.030607 0.56638 3.91731
-0.0255854 0.603098 3.97437
0.256154 0.478811 3.81238
0.211938 0.636412 3.84696
-0.0373927 0.44186 4.05698
0.030799 0.520751 3.9479
0.290984 0.569324 3.63669
0.00821809 0.580279 3.92247
0.0486061 0.465359 3.93808
0.165837 0.61361 3.85608
0.0225023 0.494921 4.01094
0.273201 0.356788 3.63525
0.022933 0.609469 3.89244
-0.00134616 0.51221 4.03904
0.184247 0.232757 3.80142
0.180648 0.187054 3.76301
0.282282 0.449361 3.7149
0.228375 0.268114 3.76959
0.264212 0.640035 3.75089
0.0534925 0.142061 3.89661
-0.0447363 0.431561 4.02115
0.0582027 0.501599 3.93596
0.247455 0.58618 3.79294
0.110956 0.606413 3.89026
0.0867965 0.605406 3.89832
0.0889113 0.309724 3.88658
0.256182 0.415325 3.80337
-0.0018157 0.102828 3.89952
0.0865342 0.13227 3.84016
0.128814 0.154226 3.80616
0.0641757 0.606436 3.89983
0.0422457 0.608852 3.89736
0.0283233 0.609042 3.89303
0.236954 0.63988 3.81733
0.0508994 0.625628 3.89952
0.0773597 0.631407 3.90211
0.100263 0.631756 3.90052
0.122827 0.627674 3.89353
0.137588 0.621859 3.88378
0.287733 0.646673 3.67706
0.128623 0.608411 3.88129
0.0535728 0.398505 3.9503
0.017568 0.45002 3.9967
-0.00793624 0.404163 3.98494
0.135628 0.196565 3.82815
0.095446 0.16837 3.85971
0.00245444 0.126107 3.9277
0.220442 0.226119 3.71467
0.031974 0.615926 3.89636
-0.00790645 0.558648 3.98391
0.0451883 0.114307 3.87609
0.277897 0.381787 3.72019
0.0217166 0.29185 3.93579
0.027134 0.285567 3.9388
0.0319185 0.275282 3.94128
0.0340674 0.260592 3.93712
0.038956 0.236375 3.92025
0.0806558 0.343636 3.90168
0.08822 0.347034 3.90073
0.095972 0.351671 3.90049
0.113758 0.363042 3.89837
0.219093 0.41007 3.85901
-0.00835368 0.584773 3.95759
0.00197706 0.633335 3.90662
0.019273 0.628105 3.89874
0.0745372 0.346362 3.89961
0.220444 0.326458 3.81696
-0.0167223 0.63898 3.9425
0.0464373 0.208397 3.91058
-0.026433 0.574848 4.00293
0.0133026 0.516335 3.9851
-0.00312414 0.18996 3.93382
0.115032 0.277105 3.86956
0.074711 0.44208 3.92839
0.0834015 0.238017 3.88625
0.147773 0.443354 3.91318
0.106859 0.4123 3.91576
0.176479 0.393477 3.8867
0.00212538 0.156278 3.93717
0.0316856 0.501074 3.96435
0.131367 0.242132 3.85159
0.0914949 0.206122 3.87324
0.143869 0.321095 3.87048
0.249623 0.359486 3.79338
0.178435 0.30163 3.84754
0.261505 0.320032 3.73412
0.138058 0.37947 3.89715
0.0106639 0.539476 3.96491
0.0123862 0.460963 4.03255
0.0309886 0.454565 3.99827
-0.00179664 0.482492 4.05172
0.0239418 0.658482 3.91258
0.0694327 0.675587 3.91363
0.110091 0.679559 3.91035
0.14481 0.673199 3.89873
0.170125 0.658144 3.88178
0.188835 0.6051 3.84313
0.283688 0.513881 3.71873
0.166646 0.573327 3.86646
0.135797 0.567996 3.884
0.0963139 0.568489 3.89701
0.0595629 0.573978 3.90273
0.0318484 0.581585 3.90373
0.0133911 0.589641 3.90638
0.285239 0.498726 3.62078
0.0312339 0.448154 3.98413
-0.00740257 0.535606 4.00875
-0.00933034 0.460032 4.05422
-0.0229964 0.444727 4.04346
-0.00832751 0.453778 4.0412
0.023972 0.439413 3.97352
-0.0284185 0.442956 4.05142
-0.0343547 0.43346 4.02011
0.0116339 0.6091 3.8955
-0.000456806 0.604888 3.90984
-0.0067723 0.60222 3.92944
0.146848 0.617423 3.87458
0.165176 0.631389 3.86907
