ply
format ascii 1.0
comment Created by Open3D
element vertex 468
property double x
property double y
property double z
end_header
0.0155923 0.339781 4.03734
0.0164853 0.410731 4.09867
0.0170457 0.386868 4.04051
-0.00284371 0.493973 4.05917
0.0162683 0.436783 4.10621
0.0160545 0.469644 4.09407
0.0182056 0.551778 4.01631
-0.155348 0.556691 3.91605
0.0189993 0.614095 3.99159
0.0193088 0.648252 3.99169
0.0201124 0.763331 3.95255
0.0152213 0.328108 4.03445
0.0149035 0.320222 4.02887
0.0144731 0.319184 4.02051
0.0159615 0.247697 3.98825
0.0157531 0.237266 3.9939
0.0152492 0.224205 4.0001
0.0150803 0.210078 3.99668
0.0149855 0.187468 3.97942
0.0161325 0.395802 4.0861
-0.00540013 0.39921 4.05399
-0.241453 0.650828 3.78789
-0.0858342 0.532222 3.94154
-0.110842 0.530601 3.93977
-0.134635 0.533016 3.93337
-0.167389 0.547373 3.91316
-0.0641693 0.539508 3.93834
-0.116637 0.603952 3.95032
-0.0898722 0.601898 3.9478
-0.142542 0.600091 3.94274
-0.160111 0.590028 3.9315
-0.187436 0.532561 3.90082
-0.0860675 0.160971 3.95057
-0.163886 0.563154 3.90727
-0.257715 0.542154 3.78863
-0.212728 0.548674 3.87358
-0.115301 0.435506 3.97905
-0.0269199 0.343847 4.03331
-0.0248134 0.321373 4.02323
-0.0699014 0.338444 4.01491
-0.0973174 0.332692 3.98646
-0.0563216 0.3214 4.0076
-0.0801408 0.321469 3.9823
-0.124287 0.276856 3.93514
-0.0037882 0.410743 4.0957
-0.00656206 0.435807 4.10252
-0.195357 0.615376 3.92074
-0.0566259 0.495732 3.97512
-0.0645659 0.421567 4.03576
-0.0662009 0.434974 4.02768
-0.194571 0.440689 3.94464
-0.00506586 0.467261 4.08629
-0.135481 0.645907 3.96131
-0.170059 0.636438 3.94264
-0.214672 0.696077 3.83176
-0.0309726 0.621115 3.98401
-0.0665599 0.592685 3.94074
-0.144626 0.314367 3.93535
-0.24381 0.289297 3.75013
-0.045758 0.408489 4.027
-0.0245903 0.399058 4.03071
-0.129394 0.316153 3.93308
-0.116451 0.313657 3.93805
-0.18324 0.652767 3.92897
-0.0676166 0.411917 4.02301
-0.0900259 0.642424 3.97585
-0.0939335 0.662258 3.97911
-0.115109 0.752714 3.92208
-0.198635 0.673905 3.8855
-0.101651 0.71021 3.95077
-0.209589 0.62641 3.89785
-0.224983 0.636761 3.8434
-0.0267354 0.329996 4.02967
-0.0626163 0.32815 4.01136
-0.0888762 0.326958 3.9861
-0.0400106 0.404375 4.02158
-0.123435 0.315304 3.93537
-0.10782 0.288776 3.94469
-0.111214 0.312318 3.93848
-0.0305306 0.412456 4.06008
-0.0757934 0.323604 3.9805
-0.0512651 0.322786 4.00045
-0.0221046 0.32052 4.01529
-0.0300442 0.191078 3.9754
-0.0288988 0.215238 3.99231
-0.0269958 0.229514 3.99429
-0.0239348 0.242436 3.98756
-0.0207576 0.251425 3.98348
-0.0757817 0.274204 3.95648
-0.0812486 0.271307 3.96048
-0.088607 0.265438 3.96407
-0.093788 0.258638 3.95924
-0.109009 0.353089 3.97909
-0.26274 0.426861 3.70479
0.0173004 0.392326 4.0563
-0.0918184 0.287957 3.94234
-0.100498 0.289455 3.94508
-0.0174101 0.387356 4.03351
-0.0609455 0.399281 4.00544
-0.0207205 0.392994 4.03236
-0.0854658 0.482701 3.96916
-0.129872 0.468804 3.96376
-0.0722334 0.42512 4.0141
-0.174781 0.730811 3.87937
-0.159553 0.699926 3.92105
-0.143644 0.665535 3.9548
-0.101276 0.242953 3.9465
-0.0382554 0.654464 3.99009
-0.0440889 0.709665 3.96734
-0.0526249 0.761408 3.94667
-0.155503 0.538227 3.92282
-0.215013 0.515746 3.8878
-0.0501892 0.547513 3.93564
-0.185687 0.579757 3.90797
-0.0377612 0.511103 3.98358
-0.0467449 0.428545 4.05925
-0.243395 0.496746 3.86252
-0.199548 0.500979 3.91315
-0.168705 0.493388 3.93654
-0.120657 0.494866 3.94806
-0.0836798 0.502455 3.9525
-0.0559727 0.51344 3.95833
-0.00397299 0.545151 4.00663
-0.248725 0.445948 3.87422
-0.205017 0.583161 3.89527
0.00409546 0.396784 4.08493
-0.0566962 0.472525 3.99081
-0.263502 0.544625 3.71091
-0.0358525 0.527848 3.961
-0.0752527 0.426078 3.98815
-0.1738 0.562448 3.90245
-0.0480497 0.444942 4.04879
-0.259182 0.360569 3.72136
-0.0496197 0.557111 3.92808
-0.0264176 0.457611 4.07228
-0.193432 0.230512 3.86537
-0.189197 0.192183 3.83172
-0.268646 0.434047 3.78758
-0.22705 0.264564 3.84052
-0.241422 0.593613 3.80907
-0.0877841 0.131173 3.94287
0.00804731 0.39353 4.05476
-0.0819494 0.455397 3.98344
-0.234046 0.543192 3.84882
-0.130893 0.547808 3.93083
-0.109633 0.545055 3.93663
-0.114207 0.286867 3.94167
-0.251374 0.391285 3.87058
-0.0398394 0.090121 3.94487
-0.116738 0.131627 3.89103
-0.149702 0.157309 3.86302
0.019922 0.707533 3.97304
0.0144063 0.0845491 3.95273
-0.08899 0.546043 3.93712
-0.0692031 0.550136 3.9338
-0.0561455 0.553903 3.92848
-0.222511 0.588115 3.86966
-0.0712916 0.571552 3.93592
-0.0923941 0.576924 3.93974
-0.112069 0.578549 3.93949
-0.133104 0.575755 3.93375
-0.147494 0.570242 3.92581
-0.256264 0.604533 3.74356
-0.145167 0.55219 3.92315
0.0167438 0.370993 4.03362
-0.0803238 0.364819 4.00138
-0.0454198 0.411591 4.03422
-0.0245917 0.369311 4.0297
0.018552 0.582429 3.99448
-0.156365 0.194353 3.88605
-0.123209 0.16329 3.91298
-0.0415105 0.108347 3.96864
-0.218829 0.232147 3.7913
-0.0562093 0.563056 3.931
-0.0211643 0.50508 4.01859
0.0143826 0.103182 3.9753
-0.0819392 0.10767 3.92253
-0.266461 0.37264 3.79594
-0.0508036 0.261126 3.971
-0.0562057 0.255021 3.97469
-0.0615022 0.245301 3.9786
-0.0648391 0.233044 3.97458
-0.0717519 0.212608 3.96163
-0.103157 0.320415 3.95844
-0.111193 0.323796 3.95758
-0.118477 0.327824 3.95756
-0.133099 0.338151 3.95401
-0.220818 0.380126 3.91966
-0.0197697 0.529803 3.99324
-0.0308238 0.578485 3.9444
-0.0452928 0.573815 3.9346
-0.0962919 0.322752 3.95806
-0.222399 0.311365 3.88256
-0.0115066 0.578879 3.97771
-0.0792792 0.189685 3.95548
0.0168053 0.497581 4.06693
-0.00360656 0.518277 4.0334
0.0177159 0.523988 4.03944
-0.0404523 0.466742 4.02319
0.0145851 0.130957 3.98364
0.0148782 0.162833 3.98188
-0.0349884 0.166527 3.97451
-0.136429 0.261792 3.92516
-0.0972919 0.404923 3.97949
-0.111052 0.222105 3.93781
-0.160995 0.40516 3.96787
-0.125585 0.379534 3.96922
-0.18509 0.363809 3.94447
-0.0402415 0.135529 3.97578
-0.0572946 0.45395 4.00745
-0.151878 0.232743 3.90855
-0.119078 0.196072 3.92704
-0.158731 0.301854 3.92818
-0.246457 0.342824 3.8632
-0.188457 0.286463 3.90713
-0.25349 0.315091 3.8102
-0.151167 0.351309 3.95269
-0.0379929 0.488611 4.00341
-0.0387243 0.416585 4.06413
-0.0568799 0.412993 4.03882
-0.0270613 0.43309 4.08222
-0.0495975 0.601693 3.95008
-0.0888432 0.61778 3.95373
-0.123825 0.620575 3.95333
-0.153631 0.615069 3.94376
-0.174859 0.601874 3.92778
-0.190259 0.555264 3.8915
-0.265636 0.489036 3.7872
-0.174459 0.522842 3.91466
-0.148873 0.51595 3.92935
-0.115977 0.514244 3.93968
-0.0839042 0.51823 3.94425
-0.0583902 0.527279 3.94439
-0.0415574 0.536581 3.94649
-0.262881 0.487058 3.69921
-0.0571727 0.40788 4.02688
-0.0219111 0.482587 4.04247
-0.0204466 0.414469 4.08353
-0.00739589 0.400714 4.07431
-0.020493 0.410215 4.07171
-0.0519162 0.401243 4.01883
-0.00327544 0.398302 4.08108
0.00020054 0.395252 4.05385
-0.0405502 0.557138 3.93255
-0.0283575 0.551514 3.94795
-0.0213637 0.547579 3.96687
-0.156555 0.566349 3.9176
-0.172582 0.577945 3.91692
0.0367347 0.494503 4.05832
0.189442 0.559912 3.91501
0.0386766 0.399462 4.0546
0.273097 0.653728 3.78365
0.119739 0.534067 3.93927
0.144044 0.53294 3.93808
0.167334 0.535828 3.93189
0.199388 0.550955 3.91206
0.099728 0.540629 3.93689
0.14888 0.605394 3.94758
0.123401 0.602253 3.9459
0.174557 0.602188 3.94012
0.192027 0.592583 3.93048
0.218847 0.535666 3.90067
0.114734 0.164721 3.95379
0.19805 0.566654 3.90621
0.288308 0.546835 3.78724
0.243116 0.552248 3.87313
0.145496 0.437409 3.98161
0.0569032 0.344301 4.03517
0.0532608 0.321461 4.025
0.0990928 0.339516 4.01861
0.126778 0.33384 3.99087
0.0844527 0.322033 4.01002
0.109109 0.322115 3.98586
0.154533 0.278737 3.94008
0.0361669 0.410969 4.09655
0.0381505 0.436116 4.10327
0.225019 0.618249 3.91942
0.090234 0.496832 3.97482
0.0957866 0.422595 4.03744
0.0970562 0.43631 4.02908
0.222319 0.444085 3.94796
0.0374382 0.467528 4.08616
0.168243 0.645718 3.96143
0.201295 0.637765 3.94204
0.247293 0.697534 3.82765
0.0678332 0.620412 3.98382
0.102169 0.592746 3.93868
0.174651 0.316545 3.94008
0.270295 0.298195 3.75079
0.0785404 0.409041 4.02879
0.0576897 0.39909 4.03327
0.160784 0.316975 3.93798
0.146765 0.314101 3.94298
0.214132 0.654152 3.92814
0.0986201 0.412678 4.02541
0.124804 0.641544 3.97639
0.128735 0.661315 3.97964
0.151757 0.752324 3.92006
0.230091 0.675456 3.88375
0.138498 0.709435 3.94994
0.239177 0.629155 3.89627
0.256086 0.639637 3.8412
0.0558342 0.330346 4.03153
0.0914685 0.329192 4.01443
0.118242 0.327946 3.99026
0.0732897 0.404815 4.02423
0.154528 0.315832 3.94099
0.138207 0.289309 3.94997
0.140997 0.312933 3.94308
0.0626606 0.41328 4.05992
0.103762 0.324037 3.98391
0.0791451 0.323218 4.00255
0.0500032 0.320673 4.0165
0.0592466 0.191349 3.97826
0.0581047 0.215475 3.99415
0.0568727 0.229908 3.99576
0.0551421 0.242806 3.98887
0.05192 0.251711 3.98404
0.106192 0.275083 3.95988
0.111009 0.272017 3.96474
0.117853 0.266078 3.96914
0.123517 0.259411 3.96448
0.139634 0.354842 3.9837
0.294353 0.433662 3.70379
0.122392 0.288811 3.94557
0.130912 0.289951 3.9496
0.0506256 0.387638 4.03489
0.0933231 0.399842 4.00938
0.053756 0.392874 4.03454
0.117966 0.484334 3.96933
0.160678 0.471039 3.96538
0.103197 0.426241 4.01627
0.208669 0.730894 3.87651
0.193056 0.699785 3.92
0.176737 0.665512 3.95458
0.131271 0.2449 3.95112
0.0752076 0.653391 3.99046
0.0832542 0.709309 3.96686
0.091093 0.760877 3.94643
0.187748 0.541534 3.92171
0.244637 0.519403 3.88836
0.0871164 0.548429 3.9335
0.216816 0.582848 3.90678
0.0719226 0.512122 3.98253
0.0781572 0.429582 4.06005
0.271614 0.501263 3.86274
0.229341 0.504582 3.91351
0.199256 0.496331 3.93738
0.153135 0.497038 3.94801
0.117343 0.504038 3.95198
0.090398 0.514541 3.95752
0.0403027 0.545285 4.00596
0.276102 0.451094 3.87573
0.234892 0.586498 3.89382
0.0278133 0.396962 4.0846
0.0897828 0.473719 3.9908
0.296787 0.549248 3.70756
0.0718398 0.528477 3.95981
0.107921 0.427243 3.99113
0.206992 0.565904 3.90154
0.0788393 0.4459 4.04978
0.287958 0.368356 3.72185
0.0875877 0.558184 3.92514
0.0576569 0.458453 4.0721
0.219263 0.238648 3.86907
0.214203 0.201355 3.83421
0.298352 0.440059 3.78842
0.251756 0.273011 3.84407
0.273132 0.597251 3.80627
0.11582 0.135819 3.94554
0.0266444 0.393709 4.05501
0.113742 0.456931 3.98482
0.263693 0.547192 3.84787
0.165423 0.55064 3.9291
0.144206 0.547438 3.93437
0.144788 0.287615 3.94718
0.277572 0.397211 3.87388
0.0684339 0.0927566 3.9458
0.145189 0.138343 3.89279
0.176935 0.165717 3.86519
0.123847 0.547858 3.93494
0.105389 0.551665 3.93128
0.0937488 0.555142 3.92555
0.252177 0.591644 3.8679
0.106943 0.572689 3.93285
0.126023 0.578144 3.93738
0.145571 0.580654 3.93701
0.166418 0.578631 3.93152
0.181023 0.573461 3.92407
0.289473 0.608059 3.7396
0.179649 0.555173 3.92181
0.111323 0.366281 4.00515
0.0781631 0.412146 4.0363
0.0562352 0.369949 4.03129
0.183876 0.201594 3.8899
0.150704 0.169514 3.91654
0.0695555 0.110882 3.97002
0.243809 0.241547 3.79248
0.0934227 0.564267 3.92766
0.0555386 0.505593 4.01823
0.110513 0.112432 3.92383
0.293759 0.379767 3.79861
0.0817084 0.261768 3.97314
0.0867805 0.255617 3.97722
0.0911314 0.245838 3.98144
0.0949302 0.233756 3.97772
0.101215 0.213855 3.96504
0.132451 0.320866 3.96265
0.141366 0.32472 3.96208
0.148687 0.328717 3.96254
0.163738 0.340269 3.95871
0.246419 0.384877 3.92444
0.055301 0.530314 3.99243
0.0691745 0.578507 3.94328
0.0830445 0.574551 3.93185
0.124904 0.323269 3.96206
0.247929 0.317954 3.88718
0.048699 0.578682 3.97716
0.107997 0.192252 3.95934
0.0386422 0.518522 4.03306
0.072977 0.467683 4.02356
0.0637979 0.167652 3.97725
0.166167 0.26556 3.92965
0.128793 0.406661 3.98256
0.139802 0.225354 3.94272
0.188609 0.407896 3.97278
0.155644 0.381835 3.9733
0.211835 0.367686 3.94951
0.0687245 0.13745 3.97741
0.0892317 0.454937 4.00852
0.180289 0.238681 3.91262
0.147616 0.201031 3.93136
0.18766 0.306049 3.93191
0.271345 0.349555 3.86803
0.215093 0.292302 3.91191
0.278916 0.323073 3.81274
0.17993 0.354134 3.95715
0.0716902 0.489736 4.00301
0.0702851 0.417431 4.0644
0.0883262 0.413754 4.04101
0.0589973 0.433846 4.08213
0.0869025 0.601605 3.94855
0.123866 0.617798 3.95307
0.157288 0.621409 3.95238
0.186034 0.616736 3.94279
0.206353 0.60433 3.92707
0.222042 0.558705 3.89083
0.295603 0.494383 3.78592
0.206083 0.52615 3.91445
0.180913 0.518913 3.92903
0.148864 0.516399 3.93908
0.117716 0.520007 3.94302
0.0937108 0.528179 3.94353
0.0778837 0.537314 3.94524
0.296068 0.492613 3.6963
0.0888195 0.408599 4.02949
0.0555293 0.483403 4.04193
0.0524505 0.415028 4.08422
0.0388577 0.401144 4.07508
0.0525747 0.410884 4.0721
0.083877 0.401611 4.02206
0.0349872 0.398492 4.08187
0.0337566 0.395367 4.05456
0.0786395 0.557827 3.9306
0.065687 0.551812 3.94698
0.0582085 0.547732 3.96621
0.190422 0.56952 3.91629
0.204546 0.580928 3.91609
