ply
format ascii 1.0
comment Created by Open3D
element vertex 468
property double x
property double y
property double z
end_header
0.0490818 0.341222 3.67604
0.053449 0.419995 3.74234
0.0539648 0.385182 3.67964
0.033268 0.4983 3.70584
0.0534282 0.446291 3.74768
0.0528521 0.479078 3.73535
0.0528912 0.551472 3.67232
-0.116577 0.550083 3.57424
0.0523158 0.606539 3.65619
0.0514823 0.641194 3.66126
0.0481876 0.7823 3.62709
0.0483586 0.330531 3.67353
0.0478449 0.322262 3.66645
0.0480892 0.318064 3.65533
0.049012 0.311057 3.65283
0.0488114 0.302619 3.65703
0.0480809 0.292146 3.66173
0.0483861 0.277683 3.65837
0.0507023 0.247433 3.63747
0.0528489 0.406457 3.73075
0.0320615 0.40168 3.69599
-0.2157 0.635096 3.46489
-0.0455455 0.536313 3.60108
-0.0697519 0.534451 3.5992
-0.0937875 0.533573 3.59256
-0.126881 0.542012 3.57047
-0.0255188 0.53945 3.59862
-0.0857308 0.591773 3.60289
-0.0592169 0.590403 3.60434
-0.108387 0.586528 3.59521
-0.12336 0.577446 3.58642
-0.14692 0.524402 3.55902
-0.0324071 0.200981 3.60892
-0.127051 0.554136 3.56625
-0.220024 0.517811 3.45579
-0.175598 0.53513 3.53584
-0.0692951 0.434963 3.62233
0.0184015 0.345375 3.67223
0.0200271 0.323461 3.66214
-0.0136015 0.340821 3.65658
-0.0342493 0.333959 3.63731
-0.00340377 0.324087 3.65168
-0.0206454 0.321569 3.63297
-0.0590563 0.292271 3.59641
0.0336658 0.420654 3.73921
0.0307104 0.446792 3.74382
-0.161624 0.600286 3.58308
-0.0195227 0.496146 3.62705
-0.0216605 0.424705 3.67611
-0.0230613 0.437845 3.66715
-0.144792 0.436203 3.59217
0.0318254 0.475836 3.7286
-0.10276 0.628186 3.62372
-0.137535 0.619548 3.60597
-0.192999 0.688642 3.50898
0.00281047 0.608911 3.64838
-0.0350439 0.581061 3.599
-0.079247 0.314915 3.59189
-0.18631 0.270377 3.39332
-0.00391708 0.407282 3.66906
0.0167869 0.398212 3.67038
-0.0564964 0.317858 3.59364
-0.0463521 0.318754 3.59941
-0.151537 0.635282 3.59376
-0.0223115 0.414309 3.66196
-0.0562526 0.625923 3.63808
-0.061497 0.649396 3.64158
-0.0954187 0.764783 3.59415
-0.171551 0.664509 3.55597
-0.0749031 0.709698 3.62012
-0.177618 0.609438 3.56268
-0.196658 0.622153 3.51718
0.018423 0.333064 3.67033
-0.00778025 0.330701 3.65545
-0.0271892 0.327706 3.63654
0.00246552 0.4022 3.66433
-0.0512485 0.318492 3.5965
-0.0394214 0.312715 3.60929
-0.0440143 0.319119 3.60014
0.00690531 0.417615 3.70527
-0.0168964 0.322662 3.62809
0.00121591 0.32156 3.64162
0.0226777 0.319882 3.65206
0.0190054 0.249151 3.63432
0.0187442 0.280373 3.65521
0.0194413 0.294886 3.65808
0.0214666 0.305083 3.65332
0.0235965 0.311983 3.64958
-0.0178557 0.315072 3.62506
-0.0211302 0.312991 3.6272
-0.0256599 0.307498 3.62811
-0.0288231 0.298343 3.62446
-0.0514701 0.353639 3.62847
-0.213877 0.38694 3.3613
0.0550254 0.393722 3.69861
-0.0296482 0.31519 3.61101
-0.0340974 0.314942 3.61107
0.0249364 0.38711 3.6712
-0.013511 0.395947 3.6438
0.0209136 0.392622 3.67208
-0.0436566 0.482778 3.61815
-0.0846532 0.466615 3.61147
-0.0265308 0.426423 3.65342
-0.154965 0.732957 3.55294
-0.132165 0.694224 3.58796
-0.111557 0.649716 3.61892
-0.0383541 0.274029 3.61074
-0.00588915 0.644575 3.65556
-0.0167682 0.715262 3.63866
-0.0300573 0.780089 3.61747
-0.115059 0.535677 3.58159
-0.17416 0.504832 3.5459
-0.0130013 0.542669 3.59667
-0.149178 0.568311 3.56896
-0.00277225 0.510948 3.63584
-0.00770094 0.433839 3.70095
-0.20054 0.483346 3.51976
-0.157132 0.49222 3.56705
-0.125333 0.487247 3.58914
-0.0773057 0.492383 3.60139
-0.0428425 0.502192 3.60656
-0.0196734 0.512962 3.61347
0.0300257 0.544129 3.66371
-0.198097 0.433227 3.52754
-0.171111 0.57094 3.5591
0.0406456 0.407396 3.72895
-0.0169349 0.471431 3.63723
-0.225005 0.506569 3.38012
-0.00148462 0.523815 3.6186
-0.0277875 0.420701 3.62896
-0.134443 0.551812 3.56225
-0.00903213 0.450413 3.68981
-0.204117 0.327985 3.37116
-0.0148824 0.549576 3.59185
0.0105808 0.466429 3.71343
-0.136424 0.237317 3.51881
-0.130742 0.200986 3.47837
-0.216337 0.407155 3.44519
-0.169456 0.26436 3.48874
-0.209223 0.5729 3.48064
-0.0337538 0.172227 3.59677
0.0457873 0.394371 3.69645
-0.0384507 0.454405 3.62713
-0.19728 0.526982 3.51329
-0.0898533 0.546474 3.58932
-0.0685819 0.54668 3.59583
-0.0445987 0.308215 3.60548
-0.193943 0.380374 3.51924
0.0106393 0.139246 3.59254
-0.0582799 0.16118 3.54564
-0.0909838 0.176865 3.51701
0.0499126 0.714946 3.64599
0.0564591 0.137264 3.5991
-0.0489431 0.548461 3.59707
-0.0298765 0.550341 3.59467
-0.0186713 0.549544 3.59203
-0.189797 0.573002 3.53501
-0.0391706 0.571341 3.59556
-0.0619645 0.580628 3.59611
-0.0837114 0.581636 3.5943
-0.104339 0.575722 3.58874
-0.116174 0.566903 3.58219
-0.2244 0.575384 3.41744
-0.105121 0.547848 3.58144
0.0527966 0.370115 3.67226
-0.0274742 0.366188 3.64344
-0.00501779 0.411583 3.67934
0.0195263 0.370924 3.66824
0.0524783 0.579985 3.65446
-0.0992681 0.210249 3.54226
-0.067166 0.190016 3.56715
0.006209 0.161551 3.62074
-0.161156 0.229157 3.4343
-0.0226901 0.558115 3.59474
0.014329 0.505703 3.67044
0.0541922 0.158548 3.62684
-0.0257713 0.148411 3.57463
-0.208718 0.352666 3.44795
0.00124519 0.313356 3.63887
-0.00231225 0.308874 3.64223
-0.00533988 0.300647 3.64474
-0.006896 0.286869 3.64205
-0.0128782 0.259765 3.62597
-0.0371855 0.321037 3.61546
-0.0435728 0.323478 3.6151
-0.0503441 0.327557 3.61499
-0.0715199 0.337265 3.61157
-0.165075 0.377596 3.56711
0.0142098 0.528057 3.64821
0.00276461 0.566558 3.60756
-0.0128611 0.563748 3.59944
-0.0321439 0.322131 3.61225
-0.163855 0.310546 3.53239
0.0219056 0.572923 3.63795
-0.0239385 0.230128 3.61525
0.0529236 0.50296 3.71294
0.0309884 0.520578 3.68804
0.0529561 0.525904 3.69312
-0.00270746 0.46851 3.66931
0.0527753 0.186239 3.63946
0.0517593 0.218007 3.63755
0.0131806 0.219129 3.63092
-0.0779483 0.274433 3.58565
-0.0495134 0.40285 3.62312
-0.0528764 0.248498 3.59839
-0.111235 0.405471 3.61198
-0.075299 0.379372 3.61729
-0.132321 0.364375 3.59292
0.00719599 0.18873 3.63243
-0.0162971 0.454157 3.65084
-0.0951796 0.245868 3.56655
-0.0631501 0.22008 3.58305
-0.100554 0.305241 3.58436
-0.186517 0.335977 3.5107
-0.131029 0.292053 3.5631
-0.194859 0.303664 3.45722
-0.0968693 0.351447 3.60589
-0.00125208 0.488562 3.65252
-0.000789627 0.423063 3.70896
-0.0148276 0.415546 3.67945
0.0105051 0.440834 3.72463
-0.0168736 0.586281 3.61457
-0.0564487 0.599897 3.61671
-0.0908302 0.602974 3.61257
-0.119015 0.598803 3.60156
-0.139182 0.588143 3.58801
-0.152098 0.544684 3.55295
-0.221018 0.462513 3.44934
-0.132678 0.516412 3.57141
-0.106964 0.512246 3.58677
-0.0736364 0.514273 3.59673
-0.0433327 0.519966 3.60067
-0.021132 0.526209 3.60246
-0.00588047 0.531866 3.60436
-0.219598 0.445909 3.36414
-0.0136082 0.409158 3.66758
0.0146751 0.485446 3.68901
0.0166723 0.422549 3.72782
0.0288521 0.41 3.71774
0.0160747 0.417358 3.7164
-0.00690083 0.400788 3.65884
0.0332808 0.408485 3.72435
0.0376854 0.397174 3.69631
-0.00611829 0.547204 3.5949
0.00571767 0.543993 3.60871
0.0121703 0.542086 3.62519
-0.122654 0.560139 3.57555
-0.134322 0.566526 3.5737
0.0729542 0.497657 3.70504
0.219937 0.552056 3.57399
0.0756831 0.402076 3.69751
0.297799 0.62753 3.46845
0.146685 0.535731 3.59717
0.169655 0.533924 3.59585
0.192955 0.533011 3.59079
0.226497 0.543244 3.57011
0.129519 0.539513 3.59628
0.183737 0.591327 3.60214
0.157524 0.589753 3.60468
0.207205 0.587071 3.59492
0.222171 0.578538 3.58699
0.243871 0.523999 3.56123
0.135939 0.205013 3.60971
0.229746 0.556725 3.56656
0.308999 0.514404 3.45968
0.269112 0.534402 3.53972
0.169328 0.433688 3.62596
0.0782465 0.344835 3.67301
0.0733295 0.322697 3.66238
0.107256 0.339457 3.65824
0.125102 0.33107 3.63842
0.0943353 0.322158 3.65143
0.11122 0.31835 3.63326
0.152565 0.29024 3.59827
0.0721303 0.421287 3.74069
0.0745582 0.447001 3.74542
0.254633 0.60114 3.58541
0.121924 0.494889 3.62725
0.124858 0.424234 3.67923
0.125521 0.436944 3.67015
0.239087 0.434841 3.59653
0.0738883 0.475272 3.72849
0.200748 0.628238 3.62773
0.233099 0.620193 3.60912
0.276154 0.680631 3.51369
0.100487 0.608166 3.6493
0.136676 0.580085 3.59887
0.172246 0.311583 3.59323
0.286991 0.275333 3.39299
0.109902 0.407269 3.67185
0.0908262 0.39844 3.67459
0.148584 0.312018 3.59365
0.13681 0.313185 3.60009
0.245139 0.635362 3.59768
0.125445 0.413573 3.66595
0.157345 0.625334 3.64167
0.161314 0.648696 3.64638
0.185817 0.758994 3.59958
0.259335 0.660559 3.56076
0.171096 0.706481 3.62493
0.268509 0.60912 3.56597
0.282767 0.618557 3.52136
0.0759628 0.332395 3.67052
0.100192 0.328846 3.65573
0.118115 0.324812 3.63746
0.104428 0.402305 3.66836
0.142686 0.312865 3.59731
0.130597 0.308788 3.61114
0.133521 0.313824 3.60057
0.0975876 0.418073 3.70559
0.106524 0.319059 3.62798
0.0901918 0.319192 3.6412
0.0706416 0.318474 3.65134
0.0805643 0.24964 3.63531
0.0760344 0.279916 3.65532
0.075011 0.294179 3.65749
0.0741089 0.304087 3.65254
0.0723193 0.310965 3.6487
0.109369 0.312337 3.62586
0.112398 0.31063 3.62877
0.116532 0.305654 3.63049
0.120896 0.29658 3.62634
0.148854 0.351943 3.63252
0.312784 0.386385 3.36241
0.120892 0.310844 3.61052
0.125475 0.310833 3.61197
0.0828176 0.386506 3.67309
0.119819 0.395477 3.65006
0.0865749 0.392437 3.67528
0.145073 0.480952 3.61811
0.183779 0.46461 3.61351
0.129381 0.425293 3.6568
0.240898 0.725734 3.55973
0.224088 0.690644 3.59389
0.20853 0.649072 3.62326
0.133782 0.273668 3.61153
0.107788 0.643515 3.65832
0.114975 0.713227 3.64192
0.123502 0.777253 3.62244
0.21412 0.535762 3.58056
0.268098 0.503464 3.55028
0.119953 0.54255 3.59372
0.245477 0.569326 3.57033
0.106457 0.50993 3.63547
0.111354 0.434058 3.7036
0.291977 0.481674 3.52359
0.252555 0.490311 3.57029
0.222113 0.485147 3.59168
0.177273 0.490328 3.60132
0.144969 0.500732 3.60549
0.122683 0.511966 3.61291
0.0754753 0.543605 3.6634
0.291183 0.432105 3.53099
0.262965 0.570607 3.56138
0.0644323 0.40751 3.72903
0.120445 0.469928 3.63788
0.316858 0.500848 3.38192
0.106586 0.523113 3.61766
0.13297 0.419676 3.6335
0.235327 0.553774 3.56228
0.111503 0.44997 3.69245
0.304139 0.330583 3.37207
0.121996 0.549763 3.58814
0.0931095 0.466091 3.71444
0.234457 0.244174 3.51993
0.232637 0.209377 3.47708
0.312338 0.407419 3.44805
0.26582 0.27048 3.49061
0.29735 0.56873 3.48428
0.140362 0.177278 3.59629
0.0644224 0.394433 3.69714
0.140085 0.45289 3.62919
0.287762 0.525294 3.51714
0.193257 0.546895 3.58741
0.171582 0.546538 3.59229
0.136271 0.304441 3.60689
0.288116 0.38149 3.5233
0.10159 0.141966 3.59112
0.166682 0.167613 3.54251
0.19589 0.184931 3.51401
0.151945 0.548351 3.59343
0.134994 0.550061 3.59029
0.125553 0.549242 3.58734
0.279151 0.571706 3.53824
0.140805 0.571235 3.59279
0.160163 0.58118 3.59485
0.18213 0.583133 3.59347
0.203917 0.578065 3.58898
0.216739 0.569746 3.58298
0.311804 0.568259 3.42035
0.208827 0.54883 3.58026
0.12867 0.364938 3.64702
0.110105 0.412554 3.68326
0.0839523 0.370398 3.6696
0.200926 0.217377 3.54232
0.171219 0.19697 3.56732
0.101214 0.164227 3.62019
0.262044 0.235638 3.43271
0.127993 0.557987 3.59058
0.0907254 0.50515 3.67061
0.136608 0.153285 3.57168
0.304637 0.355499 3.45107
0.0926787 0.311668 3.63855
0.0955512 0.30732 3.64248
0.0981121 0.299319 3.6449
0.100791 0.285852 3.64221
0.109868 0.259683 3.62594
0.126322 0.316196 3.61583
0.13334 0.318634 3.61542
0.139951 0.32272 3.61579
0.165205 0.334323 3.61409
0.257624 0.378249 3.57204
0.0909996 0.527282 3.64771
0.103613 0.56645 3.6074
0.117991 0.563077 3.59693
0.121028 0.317165 3.6119
0.257881 0.313907 3.5362
0.0828007 0.572404 3.63835
0.124079 0.232605 3.61633
0.0739372 0.520394 3.68845
0.10616 0.468103 3.67135
0.0892205 0.220844 3.63219
0.174414 0.275618 3.58758
0.151759 0.40164 3.62794
0.150688 0.250779 3.60034
0.207211 0.405336 3.61777
0.173619 0.378464 3.62209
0.22577 0.365229 3.59842
0.0975935 0.190706 3.63223
0.119079 0.453125 3.65324
0.194226 0.250576 3.56799
0.164943 0.225231 3.58471
0.195248 0.304796 3.58567
0.280709 0.338799 3.51474
0.224857 0.295285 3.56579
0.291475 0.30824 3.45916
0.190547 0.350109 3.60988
0.105613 0.487407 3.65268
0.104036 0.423789 3.71052
0.118602 0.415982 3.6835
0.0944059 0.440791 3.72577
0.120644 0.585743 3.61419
0.157013 0.599872 3.61784
0.19015 0.603265 3.6145
0.217798 0.599283 3.60355
0.236201 0.589214 3.58975
0.249092 0.545398 3.55496
0.313601 0.460302 3.45175
0.230864 0.515755 3.57281
0.205299 0.510847 3.58727
0.17352 0.51301 3.59536
0.145027 0.519145 3.59861
0.124967 0.526031 3.60154
0.11162 0.531787 3.60348
0.315235 0.442044 3.36449
0.1178 0.409023 3.67181
0.0910542 0.4848 3.68906
0.0881447 0.423461 3.7294
0.0754418 0.410954 3.71948
0.0882738 0.418505 3.71779
0.11227 0.400583 3.66413
0.0714451 0.409131 3.72582
0.0710981 0.397568 3.69773
0.114151 0.547508 3.59319
0.100412 0.543963 3.60839
0.0932336 0.541714 3.62518
0.224113 0.562928 3.57624
0.233455 0.568539 3.57478
