ply
format ascii 1.0
comment Created by Open3D
element vertex 468
property double x
property double y
property double z
end_header
-0.0130127 0.367105 3.74593
-0.014452 0.443884 3.80523
-0.0133305 0.411509 3.7472
-0.0341517 0.526937 3.76762
-0.0148372 0.470178 3.80986
-0.0149176 0.504496 3.79679
-0.014452 0.584764 3.73102
-0.179786 0.59633 3.6429
-0.0150407 0.659504 3.70493
-0.0155395 0.697958 3.70702
-0.0164651 0.82384 3.68277
-0.0127315 0.356326 3.74358
-0.0123796 0.347902 3.73695
-0.0121019 0.343694 3.72668
-0.0117452 0.332366 3.72597
-0.0115632 0.322699 3.73018
-0.0114815 0.311318 3.73493
-0.0110536 0.297834 3.73197
-0.00932596 0.27556 3.711
-0.0143724 0.431143 3.79472
-0.0362317 0.428099 3.76255
-0.260896 0.689051 3.53871
-0.105952 0.576972 3.66904
-0.129359 0.575203 3.66705
-0.153135 0.575134 3.66101
-0.186711 0.589489 3.63857
-0.0877669 0.579588 3.66537
-0.149329 0.649551 3.66197
-0.121797 0.646112 3.66487
-0.173272 0.644196 3.65486
-0.188252 0.633007 3.64876
-0.202799 0.570367 3.62911
-0.0880065 0.245505 3.6772
-0.190349 0.603895 3.63379
-0.266003 0.57333 3.53257
-0.228492 0.587139 3.60594
-0.128772 0.470968 3.69462
-0.0441295 0.372274 3.74248
-0.0395839 0.349979 3.73329
-0.0743622 0.369114 3.72809
-0.0915306 0.363938 3.7089
-0.0616932 0.351384 3.7232
-0.0775921 0.34987 3.7056
-0.115422 0.326791 3.66878
-0.0336669 0.445512 3.80299
-0.0370361 0.471371 3.80679
-0.220653 0.66142 3.64112
-0.0821432 0.53176 3.69385
-0.0860845 0.454429 3.74517
-0.0871005 0.468324 3.73637
-0.19652 0.477153 3.6644
-0.0359852 0.501917 3.79073
-0.172091 0.692206 3.67354
-0.201605 0.682338 3.65768
-0.243252 0.740458 3.57835
-0.069208 0.667153 3.69716
-0.0979496 0.63238 3.66214
-0.133938 0.349325 3.66436
-0.22411 0.336405 3.47167
-0.070001 0.437057 3.73925
-0.0513303 0.425628 3.73943
-0.112725 0.348308 3.66671
-0.102389 0.347827 3.6736
-0.214041 0.699167 3.64784
-0.0862552 0.444419 3.73228
-0.130011 0.689822 3.68676
-0.134853 0.712494 3.69066
-0.156071 0.810237 3.65582
-0.22882 0.719988 3.61825
-0.142371 0.759909 3.67681
-0.234134 0.671436 3.62332
-0.247742 0.678907 3.5857
-0.0424394 0.360109 3.74081
-0.0673454 0.358392 3.72669
-0.0845488 0.356882 3.70867
-0.0646165 0.431012 3.73412
-0.10728 0.348024 3.67048
-0.0965337 0.340242 3.6834
-0.0998208 0.348302 3.67384
-0.0589859 0.445958 3.77126
-0.0730928 0.350587 3.70085
-0.0565649 0.348767 3.71377
-0.036144 0.346129 3.72364
-0.0409645 0.278383 3.70836
-0.0415945 0.301718 3.72876
-0.0410988 0.315328 3.73118
-0.039465 0.326351 3.72667
-0.0372469 0.334162 3.72262
-0.0757153 0.340934 3.69951
-0.0792882 0.338549 3.70164
-0.0840249 0.333483 3.70297
-0.0875545 0.325412 3.69884
-0.110937 0.385157 3.70126
-0.254488 0.450584 3.44253
-0.0138421 0.419051 3.76449
-0.0863171 0.342273 3.68485
-0.0912826 0.341883 3.68545
-0.0431308 0.413846 3.74021
-0.0794516 0.425983 3.71692
-0.0470555 0.419593 3.7408
-0.104197 0.518952 3.68579
-0.142267 0.503705 3.68005
-0.0900508 0.457418 3.72429
-0.211206 0.781939 3.61825
-0.196201 0.748073 3.64751
-0.181087 0.713557 3.67077
-0.095839 0.307227 3.68309
-0.0776138 0.704041 3.70293
-0.083806 0.760867 3.69456
-0.0930317 0.823258 3.67689
-0.174557 0.579568 3.65008
-0.22671 0.55155 3.61871
-0.0769806 0.58313 3.66307
-0.208148 0.622826 3.63387
-0.0670749 0.545863 3.70074
-0.0733932 0.462659 3.76766
-0.249345 0.532814 3.59387
-0.211008 0.535761 3.63963
-0.181048 0.528098 3.66079
-0.135827 0.530921 3.66946
-0.103769 0.540334 3.67392
-0.0825159 0.550438 3.67972
-0.0362804 0.578304 3.72369
-0.245315 0.481957 3.60206
-0.226169 0.627778 3.62406
-0.026069 0.432425 3.79308
-0.0803707 0.505432 3.70583
-0.268536 0.566211 3.46086
-0.0662822 0.560843 3.68382
-0.0921188 0.453223 3.70257
-0.195802 0.60297 3.62901
-0.0740224 0.480143 3.75681
-0.243239 0.393589 3.45127
-0.079066 0.591088 3.65866
-0.0558009 0.494367 3.77758
-0.179028 0.293694 3.59268
-0.171956 0.263495 3.55156
-0.260778 0.464288 3.52351
-0.208682 0.322836 3.56476
-0.257821 0.628303 3.55399
-0.0882579 0.221596 3.66313
-0.0231978 0.419947 3.76272
-0.100024 0.48937 3.69777
-0.246946 0.580443 3.58539
-0.152235 0.587753 3.65807
-0.130165 0.58701 3.66368
-0.101952 0.337186 3.67919
-0.23851 0.431518 3.59456
-0.0479845 0.187997 3.65807
-0.109055 0.218362 3.61305
-0.136658 0.237113 3.58649
-0.0160398 0.759009 3.69984
-0.00497505 0.182655 3.66481
-0.11018 0.588699 3.66437
-0.0920541 0.59068 3.66109
-0.0820386 0.590248 3.65799
-0.241921 0.631018 3.6019
-0.101614 0.617546 3.66077
-0.123749 0.630021 3.65989
-0.146598 0.632394 3.65761
-0.168243 0.626943 3.65309
-0.180414 0.617819 3.64824
-0.26934 0.631492 3.49536
-0.168103 0.591195 3.65023
-0.0131302 0.396738 3.74141
-0.0909058 0.395503 3.71571
-0.0709208 0.441257 3.74847
-0.0461566 0.397508 3.73843
-0.0145341 0.622546 3.71009
-0.146232 0.264928 3.61251
-0.117652 0.243321 3.63515
-0.0516625 0.205628 3.68622
-0.199613 0.293544 3.50976
-0.0863483 0.600502 3.66048
-0.0518433 0.537694 3.73418
-0.00584963 0.199378 3.69209
-0.0809408 0.201311 3.64044
-0.250675 0.411836 3.52667
-0.0586496 0.337268 3.71259
-0.0621264 0.332158 3.71574
-0.0652838 0.323837 3.71872
-0.0671026 0.310931 3.716
-0.071689 0.290796 3.69854
-0.0925213 0.349643 3.68849
-0.0991885 0.353109 3.68749
-0.105738 0.35816 3.68707
-0.127127 0.370184 3.68429
-0.21135 0.423488 3.64083
-0.051576 0.562486 3.71067
-0.0638722 0.611597 3.67156
-0.0772286 0.608193 3.66384
-0.0871599 0.35058 3.68544
-0.206694 0.361798 3.60759
-0.0450126 0.617257 3.69716
-0.0808802 0.269143 3.68598
-0.0146913 0.531013 3.77415
-0.0357743 0.551569 3.74932
-0.0146421 0.555954 3.75349
-0.0675623 0.500034 3.73645
-0.00683628 0.222995 3.70505
-0.00800035 0.250543 3.70652
-0.0456672 0.25406 3.7008
-0.131999 0.31504 3.65694
-0.111654 0.436191 3.69699
-0.10854 0.289585 3.66953
-0.165419 0.443721 3.68567
-0.133142 0.414049 3.69114
-0.182173 0.406199 3.66772
-0.0508584 0.22828 3.69866
-0.0800337 0.486726 3.72002
-0.146039 0.293324 3.63742
-0.116599 0.267598 3.65258
-0.152708 0.34508 3.65588
-0.228656 0.389504 3.58673
-0.178264 0.3391 3.63633
-0.23451 0.363546 3.53464
-0.149804 0.387862 3.67903
-0.0660834 0.521384 3.71868
-0.0662881 0.451636 3.7752
-0.0796226 0.445326 3.74866
-0.0563359 0.467134 3.7881
-0.0848051 0.639777 3.67414
-0.124342 0.658887 3.67279
-0.15808 0.662721 3.66748
-0.184405 0.657521 3.65802
-0.201207 0.645013 3.64777
-0.208835 0.59577 3.62091
-0.266246 0.518307 3.52699
-0.189631 0.560694 3.64195
-0.164562 0.553557 3.65617
-0.132528 0.554402 3.66451
-0.103978 0.560162 3.66911
-0.083936 0.56552 3.66922
-0.070387 0.571082 3.67107
-0.261499 0.507796 3.44538
-0.0784791 0.438807 3.73769
-0.0519792 0.515353 3.75308
-0.0499742 0.449075 3.79256
-0.0378027 0.436324 3.78296
-0.0500367 0.444825 3.78189
-0.0727657 0.430021 3.73009
-0.0333536 0.434153 3.78917
-0.0307639 0.423067 3.76292
-0.0711448 0.588568 3.66173
-0.059691 0.583917 3.6744
-0.0532355 0.580059 3.68821
-0.186441 0.610424 3.64244
-0.196762 0.620564 3.63878
0.00510364 0.525966 3.76715
0.152392 0.589615 3.64147
0.00823185 0.427004 3.7627
0.230927 0.678958 3.53622
0.0794157 0.572745 3.66739
0.102483 0.570337 3.66536
0.125939 0.56947 3.65911
0.159299 0.582423 3.63692
0.0616019 0.576169 3.66457
0.119795 0.642655 3.66132
0.0932761 0.640264 3.66453
0.143117 0.636443 3.65396
0.157908 0.625017 3.64795
0.175915 0.563141 3.62797
0.0734138 0.242806 3.67655
0.16292 0.596689 3.6326
0.240869 0.563794 3.53014
0.200969 0.578735 3.60442
0.103686 0.466493 3.6939
0.0176723 0.371077 3.74213
0.0145761 0.348723 3.73269
0.0485225 0.36596 3.72713
0.0670627 0.359768 3.7079
0.0370239 0.349039 3.72207
0.0536579 0.346431 3.70434
0.0953837 0.321796 3.66832
0.00456454 0.444843 3.80317
0.00726313 0.470563 3.80691
0.187297 0.651512 3.64062
0.0560972 0.528856 3.69302
0.0586426 0.45066 3.74463
0.0601017 0.464547 3.73591
0.172209 0.470361 3.66315
0.00625906 0.500933 3.79035
0.13853 0.684313 3.67457
0.167589 0.673101 3.65797
0.211237 0.730523 3.57663
0.0387209 0.664603 3.69792
0.0706494 0.627562 3.66164
0.112783 0.343526 3.66339
0.212919 0.327508 3.46836
0.0428645 0.433776 3.73909
0.0242661 0.423842 3.74006
0.0912411 0.34257 3.66608
0.0799729 0.342696 3.67301
0.179115 0.688978 3.64805
0.0595363 0.440385 3.73222
0.097934 0.684108 3.68795
0.101704 0.706567 3.69185
0.122247 0.804107 3.6556
0.195279 0.710344 3.61766
0.109022 0.753899 3.67717
0.200823 0.661181 3.62244
0.216173 0.669061 3.58396
0.0166068 0.358628 3.74015
0.042207 0.355723 3.72576
0.0604477 0.352971 3.70757
0.037769 0.428051 3.73445
0.0855213 0.342751 3.66979
0.074659 0.335762 3.68325
0.0769124 0.343376 3.67316
0.0303491 0.443389 3.77062
0.0492753 0.347361 3.69966
0.032474 0.346417 3.71273
0.0119641 0.344858 3.72282
0.0218395 0.277501 3.70817
0.0191846 0.300547 3.72832
0.018009 0.314036 3.73037
0.0159755 0.325121 3.72578
0.0135702 0.33303 3.72179
0.0527856 0.337953 3.69861
0.0563977 0.335543 3.70113
0.0615138 0.330327 3.70279
0.0658421 0.321802 3.69853
0.0860904 0.381102 3.70055
0.237747 0.441328 3.43984
0.0639117 0.338367 3.68415
0.0691067 0.337664 3.6848
0.0161729 0.412429 3.7403
0.0537837 0.422563 3.71734
0.0200233 0.417981 3.74116
0.0790686 0.515378 3.68482
0.117315 0.498888 3.67956
0.0637929 0.453478 3.72372
0.177743 0.773455 3.61776
0.161967 0.739592 3.64765
0.146622 0.705099 3.67151
0.0764341 0.303734 3.68255
0.0458117 0.700869 3.70365
0.0512327 0.757781 3.69473
0.0596369 0.819927 3.67717
0.147332 0.573134 3.64826
0.200177 0.543767 3.61755
0.0509335 0.579621 3.66229
0.178044 0.61429 3.63259
0.0402737 0.543608 3.7002
0.0449403 0.459756 3.76747
0.22383 0.524111 3.59197
0.184701 0.528556 3.638
0.15523 0.521961 3.65955
0.110356 0.526322 3.66853
0.0784548 0.536717 3.6729
0.0566408 0.547524 3.67893
0.00796584 0.577149 3.72352
0.221916 0.473251 3.60011
0.195632 0.618556 3.62226
-0.00267492 0.431886 3.79303
0.0544636 0.502449 3.70492
0.245804 0.55653 3.45792
0.0398079 0.558379 3.68307
0.066667 0.449481 3.70221
0.168039 0.595487 3.62786
0.0459901 0.47723 3.75642
0.229314 0.384247 3.44845
0.0528382 0.587385 3.65747
0.0268139 0.492568 3.77716
0.165285 0.286759 3.59097
0.161572 0.256705 3.54917
0.241113 0.455073 3.52122
0.194948 0.314635 3.56255
0.229793 0.618675 3.55137
0.0759705 0.218558 3.66184
-0.00442774 0.419541 3.76278
0.0745976 0.485694 3.69708
0.219978 0.571524 3.58375
0.124868 0.582038 3.6565
0.103097 0.58185 3.66189
0.0805517 0.332464 3.67906
0.218068 0.422933 3.59275
0.0379545 0.186328 3.65685
0.0988229 0.213807 3.61079
0.12633 0.2314 3.58419
0.0835807 0.584202 3.66288
0.0658713 0.586785 3.65985
0.0561214 0.586686 3.65695
0.211794 0.621518 3.60007
0.0747057 0.612794 3.65988
0.0961532 0.624657 3.65902
0.118606 0.626558 3.65695
0.140039 0.620526 3.65206
0.152155 0.611099 3.64748
0.242489 0.621654 3.4924
0.140709 0.584856 3.64866
0.0655708 0.392426 3.71517
0.043117 0.438196 3.74868
0.0196362 0.396225 3.73812
0.133152 0.259272 3.61109
0.105202 0.238868 3.634
0.0393872 0.204172 3.68533
0.189414 0.285413 3.50667
0.0599232 0.596581 3.65932
0.0238482 0.536131 3.7338
0.070574 0.198228 3.63848
0.233475 0.402497 3.52396
0.0351097 0.33524 3.71159
0.0388161 0.330037 3.71494
0.0423225 0.32172 3.71811
0.045116 0.308705 3.71542
0.0523883 0.28839 3.69799
0.0692304 0.345199 3.68731
0.0761425 0.348222 3.68662
0.0827066 0.352929 3.68626
0.103638 0.365138 3.68311
0.18968 0.415993 3.63964
0.0238552 0.560776 3.71044
0.0366172 0.608888 3.67103
0.0503928 0.604577 3.66293
0.0635406 0.346352 3.68433
0.188588 0.354047 3.60608
0.0164071 0.615711 3.697
0.0642044 0.266656 3.6855
0.00691542 0.550589 3.74914
0.0401723 0.49792 3.73608
0.029386 0.253037 3.70061
0.113361 0.309945 3.65606
0.086369 0.431977 3.69639
0.091037 0.285704 3.66894
0.141163 0.438313 3.68539
0.10831 0.409372 3.69062
0.159346 0.400104 3.66729
0.036483 0.226951 3.69801
0.0534728 0.483799 3.71962
0.129604 0.288269 3.6364
0.10178 0.263396 3.65192
0.132482 0.33927 3.6547
0.210145 0.380821 3.58465
0.15951 0.332469 3.63522
0.219796 0.354143 3.53197
0.126155 0.382552 3.67814
0.0390651 0.519174 3.71817
0.0374126 0.448841 3.77485
0.0521139 0.441773 3.74848
0.027426 0.465156 3.78793
0.0564033 0.63586 3.67387
0.0943665 0.653127 3.67289
0.126779 0.655704 3.66806
0.152553 0.649503 3.65802
0.16964 0.63646 3.64712
0.181173 0.587954 3.61965
0.243704 0.508707 3.52436
0.162941 0.554189 3.6406
0.138121 0.548044 3.65505
0.106406 0.549555 3.66301
0.078064 0.55633 3.66772
0.0580713 0.562401 3.66846
0.0442462 0.568242 3.6705
0.241906 0.498362 3.44223
0.0515218 0.435167 3.73776
0.0236775 0.51375 3.75255
0.0209573 0.447391 3.79241
0.00885601 0.435332 3.78333
0.0211181 0.443041 3.7817
0.0462763 0.426865 3.73053
0.00447487 0.433293 3.78941
0.00301172 0.42237 3.76304
0.0450107 0.585479 3.66095
0.0330258 0.58155 3.67394
0.0261671 0.578109 3.68788
0.158653 0.603479 3.6413
0.167297 0.612759 3.6379
