ply
format ascii 1.0
comment Created by Open3D
element vertex 468
property double x
property double y
property double z
end_header
-0.00976082 0.337989 3.84395
-0.0102279 0.412084 3.89782
-0.0099423 0.38046 3.8397
-0.0283723 0.477798 3.86551
-0.0102237 0.434684 3.90414
-0.00957855 0.462048 3.89348
-0.00781941 0.524256 3.83257
-0.176435 0.519762 3.74868
-0.00756692 0.591045 3.81272
-0.00743262 0.627039 3.81685
-0.00779118 0.738053 3.79542
-0.00962667 0.328649 3.84158
-0.00916517 0.320978 3.83391
-0.00869159 0.316569 3.82341
-0.00852751 0.306988 3.81778
-0.00871173 0.299273 3.82087
-0.00870466 0.28979 3.82393
-0.00846607 0.278225 3.81847
-0.0079441 0.256997 3.79396
-0.0102947 0.400165 3.88673
-0.0281648 0.396061 3.85534
-0.275843 0.598867 3.63733
-0.105221 0.501302 3.77606
-0.129901 0.499256 3.77364
-0.153487 0.500722 3.76599
-0.18349 0.512655 3.74355
-0.0854277 0.505961 3.77157
-0.141756 0.568682 3.77568
-0.115224 0.566494 3.778
-0.165336 0.563126 3.76701
-0.180593 0.552717 3.75881
-0.203267 0.496794 3.7322
-0.0839348 0.227164 3.76977
-0.184926 0.525616 3.7397
-0.275005 0.49572 3.62859
-0.230872 0.511903 3.70749
-0.121581 0.416905 3.7943
-0.034998 0.34058 3.84035
-0.0301908 0.321659 3.83076
-0.0593649 0.334101 3.82778
-0.0742988 0.325989 3.81282
-0.0477032 0.319963 3.82293
-0.0613705 0.31661 3.80841
-0.100431 0.291928 3.77551
-0.0280696 0.412914 3.89582
-0.0307965 0.434483 3.90152
-0.221094 0.581111 3.74748
-0.0765323 0.470746 3.79569
-0.0741883 0.411264 3.84083
-0.0753937 0.421732 3.83368
-0.193265 0.41533 3.76583
-0.0298684 0.458743 3.88707
-0.169422 0.613826 3.78471
-0.200205 0.602145 3.76631
-0.255394 0.648989 3.68206
-0.0633034 0.596121 3.80716
-0.0919008 0.555451 3.77327
-0.117442 0.308204 3.77178
-0.231261 0.285115 3.56085
-0.0580129 0.397641 3.83323
-0.0406078 0.389944 3.83315
-0.0912434 0.309724 3.77568
-0.0813602 0.311709 3.78254
-0.215763 0.617411 3.75596
-0.073222 0.400668 3.82836
-0.125704 0.614215 3.79861
-0.131101 0.63555 3.80261
-0.157238 0.720531 3.7687
-0.236112 0.634467 3.7255
-0.14184 0.677766 3.78914
-0.237794 0.589579 3.7281
-0.25729 0.593713 3.68836
-0.0330436 0.330158 3.83876
-0.05291 0.325612 3.82678
-0.0677574 0.32138 3.81262
-0.0522741 0.39258 3.82773
-0.085936 0.310462 3.77941
-0.0779873 0.308218 3.7909
-0.0795213 0.31294 3.78252
-0.0494112 0.409568 3.86383
-0.0569677 0.317255 3.80408
-0.0430175 0.317798 3.81347
-0.0268514 0.317406 3.82083
-0.0348306 0.258771 3.79357
-0.0335956 0.28096 3.81722
-0.0329134 0.292642 3.82153
-0.0312337 0.301599 3.8184
-0.0290711 0.307818 3.81514
-0.060641 0.310534 3.80013
-0.0637916 0.308952 3.80287
-0.0681878 0.305115 3.80522
-0.0722016 0.29805 3.80138
-0.0959293 0.345027 3.80426
-0.265188 0.382465 3.52982
-0.0104474 0.389507 3.85644
-0.0694501 0.310491 3.79029
-0.0732747 0.310074 3.79166
-0.0341707 0.380418 3.83339
-0.066053 0.384471 3.81192
-0.0371343 0.38506 3.83388
-0.100261 0.457291 3.78793
-0.139359 0.441785 3.78155
-0.0780493 0.41075 3.82123
-0.218319 0.690863 3.72805
-0.200243 0.663734 3.75836
-0.180235 0.633752 3.78179
-0.0835648 0.279372 3.7846
-0.0717943 0.630545 3.81447
-0.0795191 0.680708 3.8072
-0.0892856 0.735239 3.79153
-0.172982 0.504462 3.7545
-0.228771 0.479545 3.72052
-0.0729307 0.510919 3.7686
-0.206048 0.544353 3.7394
-0.0609474 0.485393 3.80242
-0.0633459 0.422014 3.86255
-0.252334 0.461157 3.69361
-0.212291 0.46578 3.74213
-0.181563 0.460267 3.76451
-0.135484 0.464026 3.7728
-0.101942 0.473652 3.77772
-0.0780913 0.484702 3.78316
-0.0300019 0.517397 3.82508
-0.245852 0.414991 3.70113
-0.22745 0.549361 3.72804
-0.0204463 0.401076 3.88534
-0.0725294 0.450481 3.80568
-0.28283 0.485422 3.54987
-0.0605551 0.496365 3.78658
-0.0804286 0.40556 3.79999
-0.1916 0.524634 3.73421
-0.063903 0.434927 3.85366
-0.252174 0.332981 3.53894
-0.0729476 0.518515 3.7641
-0.0479071 0.449816 3.87419
-0.179481 0.257311 3.68928
-0.176209 0.229905 3.64304
-0.265511 0.397582 3.61648
-0.210308 0.278467 3.65988
-0.267756 0.546226 3.65218
-0.0869849 0.206802 3.75339
-0.0182315 0.39011 3.85478
-0.0922874 0.434246 3.79796
-0.251569 0.504879 3.68496
-0.152268 0.511656 3.76495
-0.130759 0.509634 3.77126
-0.0832082 0.304471 3.78731
-0.237669 0.371387 3.69352
-0.048985 0.179118 3.74393
-0.110879 0.199677 3.70201
-0.13978 0.212175 3.6774
-0.0077447 0.680839 3.81134
-0.00647201 0.175459 3.75044
-0.109819 0.511201 3.77212
-0.0903571 0.5145 3.76837
-0.0783947 0.516004 3.76394
-0.246377 0.551452 3.70441
-0.0944727 0.540946 3.77035
-0.116217 0.55029 3.7716
-0.138643 0.551743 3.76973
-0.160181 0.54662 3.76381
-0.172632 0.538748 3.75751
-0.284841 0.545319 3.58844
-0.166674 0.51536 3.75608
-0.00970207 0.365747 3.83502
-0.0767514 0.35671 3.81397
-0.0593827 0.402347 3.84229
-0.0374628 0.364342 3.83285
-0.0074453 0.556602 3.81505
-0.14658 0.23698 3.70901
-0.116959 0.222201 3.72928
-0.0506303 0.19525 3.77417
-0.20547 0.250865 3.59947
-0.0795763 0.527073 3.76699
-0.0454074 0.483184 3.83365
-0.00618564 0.191458 3.77929
-0.0817683 0.188565 3.72764
-0.253741 0.351742 3.61977
-0.0466243 0.309293 3.80839
-0.0498366 0.305494 3.81183
-0.0528923 0.298985 3.815
-0.0551666 0.28825 3.81158
-0.0617622 0.268241 3.79243
-0.0730966 0.313988 3.79479
-0.0795737 0.3157 3.7947
-0.0859029 0.318801 3.79486
-0.110598 0.328499 3.79034
-0.206956 0.367185 3.74149
-0.0454737 0.502315 3.81211
-0.0581877 0.541511 3.77784
-0.0706779 0.535024 3.77044
-0.0686987 0.31571 3.79195
-0.203631 0.313328 3.70637
-0.0386727 0.550027 3.80316
-0.0740101 0.247372 3.77953
-0.00885404 0.482271 3.87253
-0.0294931 0.496677 3.84879
-0.00838704 0.501695 3.85297
-0.0595288 0.449986 3.83453
-0.00640825 0.211525 3.79257
-0.00701908 0.234859 3.7925
-0.0414658 0.236802 3.78904
-0.123344 0.28026 3.76149
-0.100499 0.388743 3.79469
-0.100256 0.261974 3.7695
-0.158354 0.390851 3.78588
-0.122753 0.36812 3.7918
-0.174594 0.355821 3.76964
-0.0480819 0.214494 3.78743
-0.0704696 0.436001 3.81865
-0.141878 0.261743 3.73789
-0.112423 0.243255 3.74992
-0.142771 0.302942 3.7605
-0.227581 0.335078 3.68488
-0.172342 0.296763 3.73787
-0.237557 0.310972 3.62826
-0.138134 0.341028 3.78207
-0.0588835 0.467035 3.81832
-0.0562737 0.413919 3.86852
-0.0678863 0.404664 3.84347
-0.0484697 0.429069 3.88175
-0.0792752 0.566694 3.78357
-0.118975 0.581829 3.78412
-0.152193 0.583799 3.77974
-0.178993 0.577892 3.76889
-0.197027 0.565374 3.75595
-0.208402 0.519183 3.72439
-0.273065 0.445992 3.62112
-0.189962 0.488162 3.74552
-0.165723 0.482632 3.75981
-0.133295 0.482831 3.76902
-0.102947 0.488674 3.7748
-0.0805584 0.495581 3.77401
-0.06537 0.502957 3.77579
-0.273959 0.43285 3.53266
-0.0659316 0.397652 3.83252
-0.0455362 0.466022 3.85085
-0.0422145 0.414795 3.88526
-0.0298741 0.403602 3.87589
-0.0416009 0.410198 3.87452
-0.0596261 0.389848 3.82468
-0.0266695 0.402261 3.88187
-0.0242124 0.392213 3.85527
-0.0652663 0.517699 3.76667
-0.0535619 0.516214 3.77898
-0.0470015 0.51511 3.79168
-0.179603 0.532136 3.74973
-0.19137 0.541414 3.74662
0.0108478 0.47771 3.86539
0.167543 0.520306 3.74595
0.00780734 0.39521 3.85508
0.267622 0.602565 3.63271
0.0949605 0.501407 3.77468
0.120302 0.49964 3.77169
0.144145 0.501243 3.76383
0.174908 0.513224 3.74097
0.0739665 0.506108 3.77054
0.131613 0.570609 3.77332
0.104305 0.56805 3.77578
0.155756 0.565073 3.76424
0.171617 0.554463 3.75596
0.194788 0.497644 3.72872
0.0739887 0.225731 3.76869
0.176252 0.526271 3.73654
0.269287 0.498153 3.62407
0.223265 0.513441 3.70337
0.108597 0.416103 3.79208
0.0164824 0.339611 3.84053
0.0130578 0.320799 3.83105
0.0431583 0.331666 3.82827
0.0604475 0.323199 3.81367
0.0318323 0.318262 3.82371
0.0472637 0.314434 3.80932
0.0906863 0.289322 3.77522
0.00760784 0.412531 3.89553
0.0112916 0.434195 3.90124
0.212454 0.584613 3.74291
0.0628804 0.470622 3.79466
0.0568727 0.409345 3.84042
0.0591974 0.420043 3.83317
0.183859 0.415035 3.76221
0.0110875 0.458504 3.88675
0.15841 0.61738 3.77909
0.190349 0.605646 3.76113
0.246027 0.652613 3.67731
0.0493629 0.597496 3.8047
0.0802759 0.556382 3.77168
0.108005 0.305425 3.77126
0.226599 0.284583 3.5585
0.039566 0.39565 3.83349
0.02134 0.388566 3.83286
0.0807583 0.30655 3.77645
0.0708371 0.308856 3.78334
0.206286 0.62159 3.75049
0.0563626 0.398532 3.82794
0.11336 0.617198 3.79446
0.118652 0.638862 3.79838
0.144012 0.722703 3.76519
0.226786 0.638232 3.72071
0.128747 0.680406 3.78544
0.229373 0.593234 3.72331
0.249145 0.597276 3.68334
0.0151765 0.32904 3.83894
0.0368551 0.323582 3.82761
0.0537611 0.318875 3.81352
0.033625 0.390481 3.82732
0.0753346 0.307544 3.78017
0.0664759 0.305733 3.79176
0.0689662 0.310287 3.78336
0.030053 0.408157 3.86376
0.0432763 0.315335 3.80502
0.0275926 0.316277 3.81434
0.0104516 0.316725 3.82131
0.020477 0.258007 3.79326
0.0178941 0.279999 3.81754
0.0167246 0.291779 3.82197
0.0148439 0.300695 3.81899
0.0128664 0.307056 3.81587
0.0476123 0.30873 3.80094
0.050813 0.307136 3.80356
0.0553969 0.303001 3.80566
0.0597901 0.295928 3.80152
0.0824835 0.343002 3.80397
0.259082 0.384006 3.52633
0.0575783 0.308436 3.79124
0.0615034 0.307649 3.79249
0.0148042 0.37928 3.83314
0.0487767 0.382366 3.81138
0.0176585 0.383885 3.83377
0.0872616 0.457061 3.78642
0.127479 0.44156 3.77892
0.062023 0.40899 3.82077
0.20733 0.69408 3.72343
0.189236 0.667357 3.75353
0.169305 0.637822 3.77648
0.0727604 0.277541 3.78444
0.0580835 0.63242 3.81158
0.0649507 0.681853 3.80498
0.0745107 0.73622 3.78916
0.164149 0.505048 3.75196
0.221306 0.48042 3.71667
0.06068 0.511014 3.76796
0.19754 0.546155 3.73577
0.0468732 0.485405 3.80177
0.04527 0.420508 3.86215
0.246088 0.462408 3.6896
0.204005 0.466356 3.73859
0.17187 0.460646 3.76138
0.1241 0.464205 3.77046
0.0897734 0.473764 3.77606
0.0652376 0.484711 3.78203
0.0148904 0.517471 3.82462
0.239098 0.415514 3.69745
0.2194 0.551767 3.72398
0.000190355 0.400787 3.88528
0.0578674 0.450005 3.80503
0.275963 0.488346 3.54521
0.0468056 0.496391 3.78567
0.0643566 0.403758 3.79892
0.183094 0.525493 3.73096
0.0468495 0.433626 3.85318
0.246847 0.333432 3.53588
0.0609209 0.518581 3.7635
0.0302626 0.449289 3.87367
0.174017 0.255334 3.68727
0.171078 0.228336 3.64137
0.259984 0.398488 3.61296
0.205875 0.277052 3.65737
0.260396 0.549366 3.64754
0.0772233 0.205425 3.75259
-0.0026804 0.389886 3.85465
0.07814 0.43349 3.79681
0.244963 0.506879 3.68072
0.142761 0.511961 3.76249
0.121013 0.509833 3.76922
0.0721077 0.301973 3.78793
0.231249 0.371041 3.69015
0.0372542 0.178389 3.74355
0.102416 0.198209 3.70152
0.133132 0.210364 3.67652
0.0995628 0.511426 3.77073
0.0792631 0.514814 3.76759
0.0666662 0.516243 3.76356
0.238836 0.554223 3.6999
0.0841946 0.541548 3.7695
0.1068 0.551223 3.76992
0.129452 0.552771 3.76754
0.151158 0.547529 3.76139
0.163869 0.539477 3.75472
0.276722 0.54876 3.58374
0.157382 0.515802 3.7535
0.0611005 0.354861 3.81383
0.0406898 0.400341 3.84192
0.0190241 0.363321 3.83289
0.139826 0.234884 3.70768
0.10903 0.220348 3.72821
0.0394184 0.194433 3.77354
0.20091 0.249741 3.5978
0.0680647 0.527378 3.76661
0.0298515 0.48321 3.83311
0.0715839 0.187348 3.7272
0.248946 0.351761 3.61633
0.0319084 0.308005 3.80935
0.0351811 0.304084 3.81254
0.0384473 0.297553 3.81564
0.0411543 0.286819 3.81218
0.0493696 0.266903 3.7926
0.0611596 0.311478 3.79581
0.067602 0.312829 3.79571
0.0742105 0.315669 3.79565
0.09944 0.326034 3.78995
0.199335 0.36644 3.73822
0.0307008 0.502307 3.8116
0.0447759 0.542059 3.77715
0.058263 0.535467 3.7696
0.0566367 0.313362 3.79291
0.197489 0.311902 3.70364
0.0242744 0.550356 3.80249
0.0634853 0.246011 3.7789
0.0134415 0.496557 3.84837
0.0433845 0.449472 3.83393
0.0288203 0.236024 3.78857
0.11487 0.277988 3.76024
0.0855541 0.387219 3.79353
0.0912106 0.259884 3.76868
0.147228 0.389946 3.78275
0.109808 0.366763 3.79008
0.165371 0.354636 3.76654
0.036601 0.213757 3.78678
0.0549459 0.434902 3.81805
0.134319 0.259619 3.73635
0.104002 0.24124 3.7486
0.134505 0.300842 3.75911
0.221748 0.334249 3.68181
0.165519 0.294741 3.73578
0.233182 0.310281 3.62546
0.127795 0.339364 3.78048
0.0437319 0.466583 3.81775
0.0374329 0.412356 3.86831
0.0498172 0.402538 3.84311
0.0293742 0.428252 3.88186
0.0663636 0.567739 3.78217
0.10704 0.58367 3.7813
0.141301 0.585911 3.77586
0.169051 0.580109 3.765
0.188011 0.567519 3.75195
0.200332 0.520509 3.72086
0.267687 0.447799 3.61721
0.181041 0.488906 3.74227
0.155992 0.483144 3.75704
0.122783 0.483112 3.76682
0.0917398 0.488867 3.77317
0.0684335 0.495603 3.77257
0.0525537 0.503066 3.77472
0.267502 0.435203 3.52895
0.0481342 0.395365 3.83221
0.0286226 0.465838 3.85054
0.0224184 0.413908 3.88489
0.0100762 0.402821 3.87567
0.0218423 0.40916 3.87432
0.0418377 0.387665 3.82442
0.00665207 0.401707 3.8817
0.00366584 0.391654 3.85515
0.0526462 0.517822 3.76609
0.0401133 0.516283 3.77797
0.0329858 0.515213 3.79082
0.170948 0.532857 3.74654
0.182733 0.542788 3.74337
