ply
format ascii 1.0
comment Created by Open3D
element vertex 468
property double x
property double y
property double z
end_header
0.0969407 0.364813 3.65317
0.107632 0.44496 3.73624
0.105839 0.411233 3.66642
0.0826061 0.537277 3.6924
0.107299 0.475705 3.74201
0.104901 0.513908 3.72715
0.102009 0.598503 3.651
-0.0881767 0.597413 3.53566
0.100483 0.659456 3.6278
0.0993117 0.69687 3.63095
0.0952194 0.845994 3.59407
0.094948 0.353267 3.64981
0.0929753 0.346073 3.64287
0.0921348 0.344686 3.63145
0.0959886 0.298744 3.62639
0.0957777 0.289553 3.63195
0.0938945 0.27898 3.63859
0.0938988 0.264007 3.63627
0.0958964 0.234883 3.61764
0.106108 0.428893 3.72344
0.0810625 0.426183 3.68398
-0.204821 0.691775 3.40674
-0.0100018 0.579842 3.56839
-0.0374492 0.578212 3.56567
-0.0641331 0.578103 3.55753
-0.101908 0.588045 3.53132
0.0135215 0.583551 3.56605
-0.0532778 0.646585 3.56659
-0.0220534 0.644514 3.56738
-0.080091 0.640299 3.55713
-0.0981053 0.628895 3.54679
-0.123065 0.568858 3.51741
-0.00128663 0.188436 3.57866
-0.100091 0.602177 3.52567
-0.208671 0.562358 3.39815
-0.154687 0.579854 3.48926
-0.041154 0.46985 3.59413
0.054194 0.36921 3.64699
0.0519083 0.347287 3.63457
0.00829626 0.365667 3.62426
-0.0216975 0.359965 3.59385
0.0182507 0.348404 3.61755
-0.00598028 0.347173 3.58978
-0.0472244 0.306029 3.54452
0.0851623 0.445077 3.73176
0.0814744 0.475904 3.73664
-0.139127 0.650589 3.54206
0.0204226 0.536316 3.60034
0.0157397 0.455174 3.65819
0.0137253 0.471269 3.64786
-0.128629 0.47366 3.55513
0.0819781 0.510292 3.71947
-0.0694156 0.683602 3.58677
-0.109876 0.672864 3.56691
-0.174958 0.749856 3.45536
0.0472598 0.663003 3.61718
0.00567047 0.63371 3.56258
-0.0721944 0.340116 3.53851
-0.18018 0.282806 3.34369
0.0364888 0.435837 3.65047
0.0605484 0.425727 3.65343
-0.0553418 0.343309 3.53544
-0.0432782 0.341801 3.54117
-0.125494 0.689817 3.55273
0.0123633 0.445191 3.64157
-0.0171267 0.681926 3.60383
-0.0228481 0.706996 3.60752
-0.060039 0.830797 3.55345
-0.148824 0.721756 3.50874
-0.0370299 0.771849 3.58259
-0.156914 0.661048 3.51828
-0.179899 0.674925 3.46454
0.052033 0.355682 3.64331
0.0140506 0.354768 3.62155
-0.0135588 0.35349 3.59315
0.0429576 0.430698 3.64481
-0.0496866 0.343001 3.53786
-0.0311036 0.323084 3.55509
-0.0393105 0.340745 3.54285
0.051649 0.442669 3.69285
-0.00297555 0.34993 3.58491
0.0229048 0.348677 3.60706
0.0533199 0.346478 3.62407
0.0529373 0.236121 3.61006
0.0516599 0.267148 3.62898
0.0530398 0.282162 3.6312
0.0562223 0.292581 3.62452
0.0588636 0.300301 3.61965
-0.000174768 0.314777 3.57987
-0.00457402 0.312726 3.58188
-0.0106489 0.30739 3.58291
-0.013825 0.298375 3.57835
-0.0321225 0.379608 3.58785
-0.206399 0.420381 3.30244
0.109174 0.417878 3.68872
-0.0173944 0.323006 3.55899
-0.0244057 0.324224 3.55796
0.0694784 0.413598 3.65533
0.021584 0.427321 3.62018
0.0651238 0.419438 3.6557
-0.00847824 0.522643 3.59049
-0.0567462 0.506599 3.58153
0.0078148 0.459619 3.63175
-0.128427 0.797598 3.50474
-0.101993 0.754615 3.54557
-0.0788792 0.706656 3.58108
-0.0204233 0.275704 3.56592
0.0379271 0.701891 3.62335
0.0266521 0.776676 3.60373
0.0117953 0.845523 3.58122
-0.0883251 0.580782 3.54463
-0.15389 0.547958 3.50107
0.0285573 0.587974 3.56448
-0.125607 0.615517 3.52668
0.0401656 0.552625 3.61064
0.0350811 0.463246 3.68705
-0.186108 0.524024 3.47185
-0.134912 0.53582 3.52657
-0.0993246 0.530998 3.55215
-0.0456714 0.53478 3.56896
-0.00601298 0.543651 3.57597
0.0208299 0.554955 3.58401
0.0774378 0.590155 3.64123
-0.187976 0.469671 3.48134
-0.149927 0.617878 3.5146
0.0917266 0.429698 3.72114
0.0223221 0.509712 3.61322
-0.217283 0.554485 3.31727
0.0422165 0.567728 3.58957
0.00661243 0.455802 3.60285
-0.109664 0.599044 3.52053
0.0329123 0.483356 3.67408
-0.198796 0.351728 3.31605
0.0268543 0.595923 3.55795
0.0567874 0.500047 3.70195
-0.121793 0.23848 3.47359
-0.115772 0.195728 3.43736
-0.209061 0.439771 3.39075
-0.161429 0.27113 3.44238
-0.195084 0.622449 3.42481
-0.00145607 0.155688 3.57003
0.0986828 0.418703 3.68576
-0.00431497 0.491672 3.60108
-0.180135 0.570644 3.46346
-0.0581479 0.59265 3.55401
-0.0349133 0.592285 3.56214
-0.0369927 0.319919 3.55101
-0.188459 0.408939 3.47282
0.0494129 0.119714 3.57329
-0.0304453 0.144759 3.51456
-0.0688948 0.164706 3.48004
0.0976372 0.775042 3.61397
0.101173 0.119313 3.58106
-0.0130615 0.593759 3.56392
0.00850491 0.595852 3.56197
0.0219689 0.595315 3.55871
-0.171303 0.620943 3.48714
-0.00184788 0.62 3.56029
-0.0278104 0.630806 3.5604
-0.0514265 0.632332 3.55788
-0.0742506 0.626087 3.55113
-0.0875549 0.616111 3.54293
-0.215861 0.629128 3.35573
-0.0753519 0.594783 3.54458
0.103023 0.394977 3.65552
-7.97119e-05 0.392952 3.61338
0.0366931 0.438993 3.66145
0.05974 0.395841 3.64841
0.10067 0.629792 3.62901
-0.0768155 0.204671 3.50047
-0.0397695 0.178932 3.53255
0.044625 0.142819 3.60062
-0.151368 0.231565 3.39072
0.0174284 0.605063 3.56053
0.0605194 0.546233 3.64977
0.098801 0.142081 3.60796
0.00697888 0.129018 3.55006
-0.204405 0.376147 3.39592
0.0270003 0.306024 3.60222
0.0224047 0.300895 3.6053
0.0183335 0.29222 3.60855
0.0168388 0.278045 3.60527
0.0110995 0.251699 3.59114
-0.0314071 0.346665 3.56304
-0.0384012 0.350017 3.56197
-0.0455645 0.35441 3.56156
-0.060567 0.363403 3.56135
-0.157609 0.404988 3.52568
0.060217 0.57219 3.62432
0.0481195 0.616426 3.5736
0.0297664 0.61284 3.56465
-0.0251144 0.348622 3.56087
-0.157827 0.326181 3.48606
0.0681905 0.622815 3.60947
0.00408181 0.221769 3.58262
0.104019 0.542218 3.7002
0.0795863 0.56239 3.66909
0.103372 0.568688 3.67517
0.0404404 0.504704 3.64972
0.0973693 0.172 3.61927
0.096616 0.206363 3.6171
0.0492757 0.206041 3.60655
-0.0594526 0.284856 3.53742
-0.0197823 0.434848 3.59392
-0.0298682 0.248555 3.55688
-0.0924165 0.436434 3.57851
-0.052436 0.407552 3.58119
-0.119563 0.389786 3.55219
0.0443704 0.172544 3.61014
0.0227388 0.49006 3.62876
-0.0740711 0.249131 3.52197
-0.0367837 0.215816 3.54509
-0.0877234 0.325201 3.53639
-0.182585 0.356316 3.4634
-0.119582 0.304596 3.51607
-0.189943 0.318626 3.40878
-0.0832336 0.378805 3.56194
0.0421198 0.527573 3.63019
0.0428292 0.448904 3.69613
0.024029 0.443951 3.66198
0.0578214 0.469734 3.71523
0.02669 0.638609 3.57903
-0.0174194 0.654324 3.57982
-0.0567227 0.65756 3.57474
-0.0897813 0.652141 3.56293
-0.114013 0.638422 3.54725
-0.128505 0.58995 3.50935
-0.211052 0.501389 3.39351
-0.107075 0.560916 3.53225
-0.0778577 0.556325 3.55025
-0.0410122 0.557475 3.56305
-0.00652523 0.562489 3.56833
0.0191389 0.569363 3.57073
0.0369451 0.576343 3.57305
-0.211694 0.48691 3.30277
0.0236843 0.438413 3.64818
0.0617537 0.523374 3.67303
0.0647779 0.447081 3.71809
0.077043 0.432563 3.70758
0.0628574 0.441269 3.70542
0.0300686 0.430487 3.63782
0.0829623 0.430759 3.71539
0.0885052 0.421241 3.68479
0.0375303 0.59402 3.56168
0.0502962 0.59043 3.57684
0.0575297 0.588449 3.59659
-0.0951011 0.60841 3.53558
-0.109818 0.615387 3.53264
0.125284 0.536526 3.69084
0.273307 0.59867 3.53868
0.131624 0.42778 3.68811
0.35708 0.677087 3.41654
0.196181 0.57704 3.56239
0.220988 0.576005 3.56158
0.245855 0.57636 3.55644
0.280373 0.588363 3.534
0.177562 0.581782 3.56217
0.234852 0.644275 3.56733
0.206064 0.641967 3.56881
0.260854 0.639043 3.56065
0.276981 0.628526 3.55275
0.299729 0.567262 3.52453
0.189507 0.198433 3.58324
0.283271 0.603768 3.53003
0.366856 0.556711 3.4096
0.323881 0.577907 3.49937
0.227907 0.468851 3.60494
0.134136 0.369981 3.65173
0.127108 0.347602 3.63871
0.170781 0.367305 3.63374
0.194393 0.360104 3.60519
0.155178 0.348534 3.6234
0.177857 0.345664 3.59864
0.222219 0.307379 3.55603
0.127732 0.446674 3.73532
0.128612 0.476587 3.73978
0.307993 0.649652 3.54915
0.174135 0.534415 3.60143
0.184145 0.456115 3.66731
0.183641 0.47099 3.65615
0.302407 0.472849 3.5695
0.127194 0.509833 3.7192
0.252231 0.681798 3.59529
0.285488 0.672012 3.57525
0.331766 0.73404 3.46561
0.149059 0.66131 3.61883
0.184667 0.631194 3.56224
0.244045 0.339997 3.55076
0.346975 0.295926 3.34944
0.169799 0.4375 3.65897
0.148538 0.426916 3.66399
0.228181 0.340017 3.54883
0.214042 0.337978 3.55502
0.297866 0.687537 3.56209
0.185849 0.445388 3.65318
0.207325 0.679845 3.61083
0.211116 0.704459 3.61635
0.236292 0.819152 3.56268
0.313111 0.71267 3.51922
0.221984 0.764855 3.59123
0.322496 0.658101 3.52723
0.339369 0.66657 3.47577
0.130959 0.356506 3.64752
0.162454 0.355604 3.62863
0.18616 0.353156 3.60365
0.164142 0.432388 3.65613
0.221784 0.339568 3.55256
0.205572 0.321502 3.5691
0.208007 0.336949 3.55511
0.154812 0.445097 3.69518
0.172279 0.347327 3.59334
0.150671 0.347533 3.61218
0.123865 0.345759 3.62642
0.134142 0.238483 3.61538
0.130942 0.268107 3.6319
0.130399 0.282891 3.63256
0.130567 0.293058 3.62557
0.128172 0.300645 3.62045
0.176635 0.314042 3.58851
0.180289 0.312575 3.59286
0.185051 0.307915 3.59543
0.190037 0.299495 3.59086
0.216273 0.379812 3.60221
0.374651 0.421253 3.31054
0.192399 0.320267 3.56747
0.199255 0.322341 3.57022
0.140102 0.413604 3.66109
0.181191 0.427366 3.63618
0.144116 0.419841 3.66431
0.200193 0.520131 3.59258
0.2416 0.504129 3.58851
0.188958 0.459074 3.64194
0.293711 0.782749 3.51692
0.276049 0.746566 3.55716
0.260284 0.703825 3.59018
0.199813 0.279088 3.57451
0.156507 0.699117 3.62849
0.164715 0.772614 3.60952
0.172163 0.839339 3.58969
0.267781 0.580116 3.54555
0.32482 0.545618 3.51243
0.167493 0.586317 3.55899
0.299849 0.61543 3.5329
0.156947 0.551112 3.60978
0.168318 0.464863 3.69357
0.350714 0.521897 3.48349
0.30994 0.532849 3.53559
0.279594 0.527589 3.55908
0.232996 0.531508 3.57057
0.198023 0.541113 3.57504
0.173079 0.55309 3.58316
0.125048 0.589277 3.64036
0.356119 0.469641 3.49472
0.31686 0.616037 3.52215
0.118488 0.4303 3.72196
0.175521 0.507944 3.61585
0.379106 0.545041 3.32508
0.156298 0.566104 3.5879
0.194384 0.455146 3.61545
0.289822 0.600052 3.52463
0.166702 0.483636 3.6803
0.366173 0.359381 3.32498
0.169435 0.594733 3.55133
0.146347 0.50008 3.70402
0.292048 0.255841 3.48172
0.286428 0.215948 3.44031
0.377049 0.44238 3.40373
0.326017 0.286752 3.45346
0.356068 0.614071 3.43539
0.192263 0.168244 3.57169
0.120016 0.418962 3.68788
0.197312 0.490059 3.60807
0.342912 0.567822 3.47347
0.246374 0.591991 3.55294
0.22324 0.590217 3.55767
0.211319 0.318912 3.56478
0.356268 0.413965 3.48993
0.150678 0.126863 3.57173
0.220416 0.161105 3.51205
0.249331 0.184573 3.47875
0.20152 0.59131 3.55866
0.183332 0.593329 3.55474
0.173634 0.593312 3.55068
0.333718 0.616929 3.49605
0.187787 0.619057 3.55574
0.20732 0.630289 3.55887
0.23083 0.633091 3.55858
0.2544 0.6277 3.55436
0.268414 0.618038 3.54783
0.374265 0.616059 3.36572
0.262544 0.594918 3.54529
0.192278 0.393303 3.62553
0.169138 0.441797 3.67142
0.140405 0.39639 3.6533
0.256458 0.222452 3.50531
0.224287 0.195653 3.53592
0.149253 0.149454 3.60056
0.318645 0.248348 3.39326
0.175472 0.604001 3.55305
0.142189 0.54551 3.65028
0.189064 0.141544 3.54717
0.369986 0.38432 3.41073
0.15501 0.306245 3.60636
0.158646 0.301371 3.61108
0.161508 0.292973 3.61433
0.164757 0.279207 3.61155
0.171963 0.254409 3.59631
0.19943 0.343688 3.57487
0.208444 0.347506 3.57381
0.215062 0.352413 3.57487
0.236643 0.362879 3.5753
0.324364 0.409129 3.54384
0.14088 0.570873 3.62279
0.152122 0.615403 3.57308
0.16616 0.611089 3.55981
0.19213 0.344846 3.57105
0.32341 0.336628 3.50296
0.131571 0.621822 3.60972
0.179884 0.22885 3.58854
0.124381 0.562067 3.66945
0.159712 0.504464 3.65413
0.140096 0.210484 3.61151
0.23671 0.291226 3.54618
0.212794 0.434089 3.60686
0.209456 0.256415 3.56471
0.268875 0.43803 3.59575
0.236079 0.407987 3.59552
0.290346 0.393981 3.57014
0.147031 0.177725 3.61148
0.175023 0.489273 3.63502
0.252951 0.261823 3.52929
0.220052 0.228692 3.55165
0.260653 0.329134 3.54496
0.347824 0.365653 3.48125
0.288042 0.314842 3.52856
0.354487 0.330831 3.42073
0.255965 0.379403 3.57627
0.158288 0.526491 3.63121
0.161177 0.45156 3.70082
0.17766 0.446185 3.6726
0.150209 0.471 3.718
0.169664 0.637415 3.57796
0.207225 0.653117 3.58282
0.242409 0.656133 3.58025
0.27162 0.650625 3.56947
0.290452 0.638065 3.55467
0.303211 0.589525 3.51642
0.374881 0.499132 3.40298
0.286611 0.55915 3.53729
0.259969 0.553727 3.553
0.226488 0.554725 3.56222
0.195931 0.560033 3.56558
0.173959 0.567858 3.56928
0.160007 0.575123 3.57139
0.377149 0.481639 3.30812
0.177674 0.43982 3.65979
0.144114 0.522649 3.67329
0.144379 0.44983 3.72243
0.129736 0.435159 3.71204
0.144303 0.44436 3.70959
0.172581 0.431333 3.65177
0.125613 0.432622 3.71894
0.126918 0.42246 3.68837
0.161359 0.593155 3.558
0.148397 0.589425 3.57595
0.141844 0.587326 3.59646
0.276663 0.610445 3.54048
0.28796 0.61622 3.53938
