ply
format ascii 1.0
comment Created by Open3D
element vertex 468
property double x
property double y
property double z
end_header
0.0149254 0.346677 3.94724
0.0171358 0.429952 4.0112
0.016551 0.403058 3.94963
-0.00378702 0.517693 3.97282
0.0171471 0.45801 4.0183
0.0169987 0.493559 4.00655
0.017857 0.576118 3.93329
-0.156576 0.572791 3.83197
0.0178714 0.634448 3.91112
0.0178608 0.668075 3.91257
0.0173967 0.786344 3.87594
0.0147727 0.3339 3.94471
0.0145565 0.324546 3.9381
0.014702 0.321656 3.92805
0.0151497 0.268125 3.91022
0.0149296 0.256159 3.91525
0.014597 0.241986 3.92128
0.0146245 0.226025 3.91749
0.0151654 0.204859 3.89669
0.0165695 0.415129 3.99917
-0.00866508 0.417426 3.96491
-0.237921 0.659217 3.70929
-0.0867288 0.555588 3.8583
-0.110809 0.552745 3.85671
-0.134338 0.552995 3.85013
-0.167247 0.563492 3.82926
-0.0664573 0.562807 3.85545
-0.120511 0.616625 3.86477
-0.0944438 0.616249 3.86333
-0.144953 0.611731 3.85745
-0.161351 0.602199 3.84684
-0.185673 0.547315 3.81787
-0.0798998 0.179316 3.86753
-0.165656 0.577076 3.82372
-0.251855 0.551135 3.70721
-0.211644 0.561058 3.79171
-0.111175 0.453197 3.88937
-0.0224365 0.351424 3.9438
-0.0184371 0.325508 3.93338
-0.0597538 0.344859 3.92763
-0.0823736 0.335361 3.90405
-0.0455034 0.324726 3.92062
-0.0653106 0.322018 3.89952
-0.109728 0.282597 3.85947
-0.00464434 0.430554 4.00856
-0.00759287 0.457684 4.01508
-0.196977 0.624466 3.83878
-0.0580719 0.516212 3.88938
-0.0674521 0.440614 3.94603
-0.0687064 0.454566 3.93758
-0.183513 0.455807 3.8577
-0.00584839 0.490682 3.99874
-0.139284 0.65551 3.88028
-0.173311 0.644557 3.86179
-0.2152 0.706483 3.75394
-0.0324786 0.63908 3.90308
-0.071155 0.609307 3.85628
-0.128439 0.316007 3.85573
-0.227829 0.305437 3.66066
-0.0489575 0.425786 3.93684
-0.0276096 0.416416 3.94091
-0.107986 0.313566 3.85649
-0.0949823 0.312832 3.86272
-0.185902 0.660022 3.84766
-0.0692613 0.429941 3.9328
-0.0930772 0.655973 3.89427
-0.0975092 0.676521 3.89789
-0.121131 0.771644 3.8446
-0.19997 0.684278 3.80605
-0.106642 0.72692 3.8714
-0.210084 0.63472 3.81629
-0.223747 0.645764 3.76445
-0.0211369 0.336042 3.94091
-0.0520302 0.332636 3.92486
-0.073939 0.32838 3.90359
-0.0429365 0.4211 3.93227
-0.101834 0.313022 3.85983
-0.0900723 0.294471 3.87206
-0.0906136 0.313162 3.8633
-0.0342487 0.431981 3.97195
-0.0599908 0.323742 3.89622
-0.0399108 0.324153 3.9119
-0.0150033 0.322927 3.9241
-0.0244991 0.208383 3.8945
-0.024397 0.231115 3.91435
-0.0222592 0.246495 3.91677
-0.0191079 0.26121 3.91033
-0.0159049 0.271333 3.90612
-0.0623548 0.287353 3.88316
-0.0675356 0.284015 3.88679
-0.0749779 0.277512 3.8901
-0.080695 0.26976 3.886
-0.0990094 0.361513 3.89651
-0.250743 0.433891 3.61674
0.0170951 0.409605 3.96698
-0.0750969 0.296407 3.87015
-0.0827722 0.296296 3.87227
-0.018812 0.404355 3.94265
-0.0612104 0.414635 3.91474
-0.0231579 0.410142 3.94246
-0.0848676 0.501785 3.88212
-0.12548 0.485739 3.87637
-0.073562 0.443338 3.92367
-0.178947 0.74512 3.80186
-0.163084 0.712563 3.84071
-0.147544 0.675086 3.87341
-0.0886831 0.254773 3.87181
-0.0405487 0.672791 3.91021
-0.0485276 0.730082 3.88903
-0.0578567 0.783791 3.86943
-0.155118 0.556034 3.83928
-0.21109 0.529663 3.8047
-0.0536 0.570166 3.85205
-0.186943 0.592178 3.82535
-0.040032 0.532994 3.89836
-0.0502867 0.448862 3.97053
-0.236309 0.510158 3.77922
-0.195304 0.515369 3.82817
-0.164938 0.508582 3.8512
-0.118853 0.51224 3.86316
-0.0841349 0.522086 3.86787
-0.0580299 0.534297 3.874
-0.00590676 0.568787 3.92354
-0.236168 0.459225 3.78932
-0.20575 0.594885 3.81337
0.00309365 0.416448 3.99759
-0.0577778 0.492122 3.90231
-0.254818 0.548474 3.62773
-0.0386503 0.548654 3.87731
-0.0756523 0.441831 3.89726
-0.174826 0.576056 3.81919
-0.0511607 0.466079 3.95989
-0.245028 0.371764 3.6323
-0.0540652 0.578971 3.84475
-0.0287241 0.480763 3.98421
-0.180299 0.248224 3.78068
-0.176656 0.212772 3.74468
-0.255714 0.444469 3.70234
-0.209636 0.28382 3.75397
-0.238142 0.602244 3.72883
-0.0837846 0.149837 3.8571
0.00631692 0.410809 3.96523
-0.0812663 0.473733 3.89393
-0.231097 0.554757 3.76708
-0.131631 0.567978 3.84713
-0.11037 0.567198 3.85335
-0.0966344 0.291766 3.86861
-0.233827 0.406173 3.78381
-0.0378245 0.108077 3.85563
-0.112135 0.149045 3.80567
-0.142167 0.176124 3.77814
0.0176338 0.728787 3.89528
0.0165455 0.1024 3.86282
-0.0903945 0.569289 3.85428
-0.0716546 0.57375 3.85094
-0.0598199 0.57657 3.84546
-0.221681 0.598692 3.78805
-0.0751489 0.589889 3.85285
-0.0959288 0.592861 3.85735
-0.11579 0.593077 3.85626
-0.13635 0.58924 3.85035
-0.150264 0.58379 3.84249
-0.250151 0.610028 3.66277
-0.146288 0.57014 3.83923
0.01615 0.384704 3.94301
-0.0754073 0.376936 3.91444
-0.0491365 0.429196 3.94587
-0.023263 0.383399 3.93974
0.0179418 0.6053 3.91237
-0.14859 0.211188 3.80267
-0.117495 0.180665 3.82805
-0.0390536 0.128524 3.88182
-0.203458 0.252089 3.70286
-0.0607283 0.583889 3.84806
-0.0232033 0.527499 3.93339
0.0159351 0.122695 3.88768
-0.078979 0.125051 3.83548
-0.2496 0.386493 3.70946
-0.0416071 0.278208 3.8954
-0.0467203 0.271233 3.89954
-0.052405 0.260319 3.90347
-0.0563795 0.246762 3.90017
-0.0621752 0.228181 3.88533
-0.0836064 0.31906 3.87993
-0.091918 0.321998 3.8794
-0.0994626 0.326659 3.87928
-0.118654 0.341827 3.87483
-0.203502 0.396277 3.83271
-0.0222573 0.552367 3.90909
-0.0339395 0.597951 3.86098
-0.0496002 0.593453 3.85179
-0.0767415 0.322154 3.87816
-0.203909 0.327864 3.79654
-0.0132161 0.60033 3.89467
-0.0709546 0.206985 3.87507
0.0172929 0.522064 3.98104
-0.00530276 0.541994 3.94983
0.0175923 0.54807 3.95577
-0.0426616 0.48751 3.93574
0.0158818 0.150986 3.89764
0.0155551 0.181441 3.89634
-0.02976 0.185585 3.89062
-0.12653 0.271363 3.84689
-0.0954925 0.420327 3.89043
-0.101853 0.235944 3.85929
-0.150697 0.421886 3.87911
-0.118509 0.393302 3.88368
-0.171009 0.378845 3.85799
-0.0362596 0.156286 3.89097
-0.0590068 0.47339 3.91838
-0.143556 0.246511 3.82735
-0.112078 0.211666 3.84408
-0.146353 0.309812 3.84642
-0.22696 0.359212 3.77627
-0.174117 0.300528 3.82466
-0.235276 0.332314 3.7227
-0.138943 0.360518 3.8699
-0.0398674 0.509752 3.91659
-0.0422585 0.436645 3.97635
-0.0599399 0.431691 3.94938
-0.0299259 0.45417 3.99438
-0.0530242 0.618316 3.86673
-0.0931128 0.630707 3.87105
-0.128053 0.631724 3.87041
-0.15693 0.625691 3.8606
-0.177068 0.61259 3.8452
-0.190486 0.568614 3.80945
-0.256739 0.498676 3.70383
-0.172568 0.538478 3.83085
-0.147578 0.533175 3.84596
-0.115448 0.533908 3.85639
-0.0846154 0.539835 3.86027
-0.0605767 0.54914 3.86113
-0.0441965 0.558254 3.86244
-0.252583 0.491475 3.6138
-0.0595696 0.425609 3.93728
-0.0237119 0.50495 3.95541
-0.0232954 0.434491 3.99628
-0.0101687 0.420818 3.98698
-0.0237364 0.429993 3.98426
-0.0531761 0.418097 3.92901
-0.00528134 0.418264 3.99387
-0.00249988 0.412999 3.96488
-0.0448057 0.57848 3.84872
-0.0312956 0.572791 3.86475
-0.0239544 0.569138 3.88351
-0.158813 0.579951 3.83442
-0.173562 0.590881 3.83273
0.0383909 0.517782 3.9725
0.190376 0.575127 3.83168
0.0422032 0.417069 3.96566
0.27089 0.661348 3.70736
0.120766 0.556451 3.85724
0.144416 0.553947 3.85604
0.1677 0.554535 3.84969
0.19995 0.565812 3.82883
0.101074 0.563265 3.85501
0.153382 0.618815 3.86392
0.127602 0.617685 3.86309
0.178085 0.614326 3.85641
0.194584 0.604941 3.8467
0.218387 0.549126 3.81782
0.112373 0.180601 3.86827
0.199297 0.579787 3.82336
0.284174 0.554184 3.70643
0.243549 0.563552 3.79174
0.143344 0.453357 3.89042
0.0521717 0.350888 3.94443
0.0472098 0.32498 3.93388
0.0892836 0.343664 3.92871
0.111581 0.333564 3.90518
0.0738729 0.323591 3.9213
0.0939129 0.320553 3.90022
0.14037 0.281665 3.86033
0.0385603 0.430511 4.00915
0.0413213 0.457746 4.01558
0.22883 0.62867 3.83836
0.0919514 0.516452 3.88974
0.100591 0.440094 3.94774
0.101767 0.454515 3.93921
0.214226 0.456741 3.85817
0.03988 0.490626 3.99886
0.17207 0.658712 3.88043
0.205775 0.648227 3.86133
0.248315 0.708154 3.7525
0.067458 0.640037 3.90289
0.105625 0.61004 3.85589
0.159147 0.3148 3.85606
0.260838 0.308827 3.65923
0.0825701 0.42505 3.93869
0.0609532 0.415786 3.94289
0.138051 0.311529 3.85679
0.124574 0.31077 3.86308
0.218499 0.663897 3.84734
0.102328 0.429188 3.93492
0.126609 0.658051 3.8947
0.130894 0.678898 3.89848
0.153858 0.772129 3.84403
0.232548 0.68717 3.80561
0.140111 0.728265 3.87174
0.241812 0.638424 3.81595
0.256174 0.648702 3.76369
0.0501423 0.33556 3.94161
0.0809684 0.331691 3.92583
0.103029 0.326928 3.90471
0.0765482 0.42033 3.93441
0.131673 0.311031 3.86029
0.119135 0.293196 3.87334
0.12003 0.311311 3.86362
0.0673743 0.43152 3.97248
0.0883152 0.322338 3.89691
0.0683473 0.323191 3.91237
0.0439376 0.322515 3.92428
0.054978 0.208399 3.89564
0.0533929 0.230894 3.91539
0.0513696 0.246379 3.91772
0.0490224 0.260802 3.9109
0.0460354 0.270869 3.90623
0.0918052 0.286669 3.88398
0.0966519 0.283295 3.88824
0.103579 0.276881 3.89197
0.109641 0.269131 3.88776
0.130019 0.360899 3.89815
0.285531 0.437026 3.61541
0.104608 0.295016 3.87044
0.111986 0.294909 3.87322
0.0522675 0.403979 3.94349
0.0945875 0.413878 3.91735
0.0563763 0.409446 3.94386
0.118214 0.502257 3.88231
0.157876 0.486376 3.87661
0.106789 0.44306 3.92561
0.211409 0.746243 3.80122
0.196146 0.714633 3.8408
0.180604 0.67854 3.8736
0.119232 0.254652 3.87281
0.0751133 0.67393 3.91022
0.0827847 0.730616 3.88936
0.0912921 0.783893 3.86977
0.187969 0.558146 3.83909
0.243115 0.531384 3.80491
0.0887829 0.570532 3.85132
0.219224 0.59507 3.82509
0.0742912 0.533189 3.89828
0.0835863 0.448672 3.9716
0.267884 0.512217 3.77889
0.227246 0.516716 3.82837
0.19728 0.509547 3.85136
0.151964 0.512939 3.86299
0.118131 0.522686 3.86769
0.0922752 0.534604 3.87405
0.0413683 0.568792 3.92339
0.267113 0.461037 3.78899
0.237297 0.598025 3.81323
0.0297668 0.416228 3.99759
0.0917003 0.492244 3.90285
0.289062 0.55133 3.62499
0.0736701 0.548801 3.87694
0.109527 0.441573 3.89932
0.20815 0.578692 3.81885
0.0841966 0.466124 3.9611
0.278989 0.375136 3.63121
0.0897732 0.579388 3.84376
0.0620645 0.480904 3.98463
0.212906 0.25049 3.781
0.209943 0.215655 3.74449
0.288528 0.447288 3.70225
0.241238 0.286409 3.75367
0.270736 0.605057 3.72753
0.117012 0.151553 3.85772
0.0277782 0.41081 3.96551
0.114387 0.47392 3.89492
0.262858 0.557437 3.76684
0.165868 0.569638 3.84638
0.144717 0.568608 3.85219
0.12608 0.290426 3.86987
0.264301 0.407936 3.78443
0.0711894 0.109034 3.8559
0.146642 0.151373 3.80579
0.176661 0.178838 3.77804
0.124669 0.570241 3.8534
0.106636 0.574501 3.84979
0.0952685 0.577101 3.84442
0.253276 0.601825 3.78784
0.109473 0.591137 3.85196
0.129124 0.594588 3.85697
0.148907 0.595311 3.85577
0.16955 0.591957 3.84995
0.183489 0.586704 3.84202
0.284036 0.612235 3.66023
0.180304 0.572167 3.83878
0.107011 0.376308 3.91609
0.0827629 0.428591 3.94774
0.0551951 0.383151 3.94058
0.182142 0.212975 3.8035
0.150919 0.182437 3.8291
0.07154 0.129484 3.88207
0.23605 0.255183 3.70171
0.0958988 0.584588 3.8469
0.0577778 0.527575 3.93353
0.112772 0.126817 3.83565
0.281675 0.389332 3.70953
0.0714739 0.277656 3.89636
0.0762834 0.270706 3.90052
0.0813663 0.260002 3.90479
0.0856404 0.246563 3.90138
0.0923992 0.228288 3.88628
0.112382 0.31722 3.88064
0.121174 0.320242 3.88018
0.128809 0.32456 3.88019
0.149186 0.340779 3.87574
0.233264 0.397607 3.83359
0.0572295 0.552533 3.90898
0.0699242 0.598362 3.86126
0.0848996 0.594043 3.85085
0.105436 0.320309 3.87846
0.234857 0.32975 3.79706
0.0489873 0.600579 3.89474
0.102266 0.207497 3.87581
0.0402707 0.54209 3.94975
0.0762732 0.48763 3.93636
0.0610082 0.186053 3.8913
0.158417 0.271402 3.84761
0.128345 0.420044 3.89225
0.133246 0.236178 3.86058
0.181086 0.422514 3.88051
0.150131 0.39336 3.88525
0.201049 0.379626 3.85878
0.0681927 0.156902 3.89131
0.0923803 0.473327 3.91971
0.176252 0.247493 3.82774
0.144967 0.212723 3.84502
0.177579 0.309884 3.84677
0.25738 0.361418 3.77712
0.205315 0.301606 3.82544
0.266712 0.335162 3.72204
0.169517 0.360475 3.87084
0.0741967 0.510007 3.91693
0.0753291 0.436104 3.97737
0.0930804 0.431119 3.95149
0.0636587 0.454023 3.99489
0.0881468 0.61917 3.86693
0.126685 0.632532 3.87124
0.160933 0.634161 3.86996
0.18998 0.628522 3.86036
0.209665 0.615904 3.84483
0.223238 0.571234 3.80934
0.289263 0.501403 3.70266
0.205421 0.540233 3.83083
0.180529 0.534619 3.84604
0.148879 0.53483 3.85613
0.11874 0.540602 3.85986
0.0953327 0.549457 3.86108
0.0793385 0.558445 3.86214
0.287289 0.494263 3.61112
0.0928874 0.424924 3.93924
0.0580368 0.505234 3.95554
0.0567781 0.434216 3.99704
0.0427599 0.420649 3.98771
0.0569376 0.429757 3.98505
0.0863894 0.417194 3.93131
0.0380076 0.41811 3.99441
0.036339 0.412658 3.96553
0.0804978 0.578838 3.84833
0.0668312 0.572894 3.86457
0.0594151 0.569166 3.8834
0.192294 0.582744 3.83392
0.206435 0.593832 3.83276
