ply
format ascii 1.0
comment Created by Open3D
element vertex 468
property double x
property double y
property double z
end_header
-0.0559756 0.390391 3.97971
-0.0642431 0.469222 4.04723
-0.0622769 0.436116 3.9842
-0.0794051 0.549343 4.0073
-0.0635234 0.496036 4.05284
-0.0609164 0.529267 4.03956
-0.0566864 0.604265 3.97042
-0.219243 0.606633 3.87423
-0.0548695 0.669202 3.9484
-0.0536832 0.704345 3.95171
-0.0490796 0.821818 3.92686
-0.0542383 0.379555 3.97657
-0.0524543 0.371719 3.96904
-0.0511714 0.368388 3.9578
-0.052419 0.341404 3.95393
-0.052597 0.332348 3.95848
-0.0515341 0.320938 3.963
-0.0515239 0.306418 3.95901
-0.0528255 0.27744 3.93763
-0.0626367 0.454782 4.03535
-0.08462 0.45268 4.0029
-0.298135 0.673657 3.76315
-0.144411 0.58655 3.89567
-0.168362 0.584871 3.89501
-0.192309 0.584931 3.88992
-0.224745 0.597626 3.86919
-0.126978 0.591104 3.89439
-0.183337 0.654421 3.90016
-0.155766 0.651509 3.90226
-0.208027 0.649306 3.89366
-0.2232 0.63852 3.88631
-0.242412 0.576881 3.86005
-0.137526 0.243641 3.90857
-0.228848 0.612979 3.86617
-0.305033 0.568174 3.75336
-0.265498 0.589595 3.83613
-0.171721 0.486488 3.93047
-0.0860346 0.395016 3.97615
-0.0778601 0.372929 3.96418
-0.113857 0.391628 3.95919
-0.130093 0.384061 3.93561
-0.098846 0.373442 3.95053
-0.115144 0.370357 3.92983
-0.155697 0.338428 3.8923
-0.0821655 0.470672 4.04633
-0.0836465 0.496486 4.05112
-0.253133 0.661428 3.88029
-0.123759 0.547217 3.92796
-0.129571 0.47611 3.9845
-0.129126 0.488874 3.97506
-0.240094 0.488341 3.8986
-0.0818554 0.525762 4.03267
-0.20414 0.695088 3.9228
-0.233736 0.684169 3.90324
-0.275005 0.725071 3.80953
-0.105052 0.674089 3.94324
-0.134501 0.639975 3.89643
-0.174091 0.364238 3.88811
-0.283708 0.335929 3.68957
-0.115919 0.459904 3.97707
-0.0979328 0.45014 3.98077
-0.152953 0.364251 3.88678
-0.140096 0.363729 3.89315
-0.245583 0.697946 3.89239
-0.129095 0.465258 3.97108
-0.162757 0.693792 3.93714
-0.166374 0.714631 3.94249
-0.184194 0.799256 3.90028
-0.259564 0.712192 3.85753
-0.174028 0.756922 3.92409
-0.266895 0.668115 3.86045
-0.282123 0.669325 3.81675
-0.0821002 0.382297 3.97279
-0.105863 0.3804 3.95556
-0.122538 0.377164 3.93431
-0.110689 0.454691 3.97348
-0.146528 0.364116 3.89067
-0.134883 0.353377 3.90575
-0.136209 0.363768 3.8933
-0.105054 0.46887 4.00973
-0.109476 0.371041 3.92484
-0.0940234 0.371082 3.94026
-0.0741826 0.36952 3.95239
-0.0849524 0.282264 3.93571
-0.0817416 0.310941 3.95459
-0.0808689 0.325184 3.9572
-0.0800936 0.335687 3.95214
-0.0774347 0.343146 3.94795
-0.113261 0.351058 3.92119
-0.116529 0.349131 3.92474
-0.120732 0.344467 3.92703
-0.12567 0.336179 3.92269
-0.153281 0.403385 3.93231
-0.310781 0.447936 3.65656
-0.0653336 0.443859 4.00381
-0.124809 0.353704 3.90402
-0.129769 0.35443 3.90636
-0.0906822 0.437582 3.97862
-0.124476 0.448129 3.95579
-0.0941288 0.443537 3.98089
-0.146906 0.533412 3.91967
-0.185653 0.517584 3.91564
-0.132518 0.477375 3.96203
-0.239397 0.768398 3.85802
-0.225868 0.742821 3.89292
-0.212341 0.713946 3.91965
-0.138213 0.315418 3.90694
-0.112286 0.707794 3.95237
-0.117448 0.760932 3.94063
-0.122475 0.815982 3.92438
-0.213144 0.588828 3.87998
-0.265572 0.556669 3.84906
-0.117495 0.595615 3.89118
-0.244024 0.626276 3.86772
-0.108519 0.562466 3.93548
-0.117369 0.485448 4.00839
-0.289785 0.535468 3.82135
-0.251492 0.54357 3.87047
-0.222373 0.538246 3.89278
-0.178838 0.543011 3.90123
-0.145806 0.553153 3.90528
-0.12297 0.564404 3.91226
-0.0785466 0.596587 3.96145
-0.291899 0.487547 3.83015
-0.260124 0.627742 3.85691
-0.0737791 0.456063 4.03387
-0.123627 0.522923 3.9405
-0.316434 0.55664 3.67462
-0.107522 0.576093 3.91626
-0.136812 0.473193 3.93883
-0.234307 0.610171 3.86045
-0.115818 0.501497 3.99716
-0.301824 0.392852 3.66783
-0.119201 0.603448 3.8851
-0.0989909 0.516703 4.01895
-0.231655 0.297327 3.81793
-0.229363 0.262272 3.77527
-0.312358 0.465839 3.74488
-0.261749 0.326394 3.78931
-0.296021 0.620218 3.77882
-0.141817 0.214575 3.89657
-0.0747565 0.44508 4.00273
-0.142794 0.505889 3.93311
-0.282947 0.580143 3.81227
-0.193009 0.598993 3.88776
-0.170535 0.597422 3.89194
-0.140694 0.350121 3.90118
-0.288686 0.43878 3.8238
-0.103431 0.17261 3.89371
-0.169033 0.210409 3.84165
-0.195483 0.232874 3.81175
-0.0516429 0.762597 3.94276
-0.0542458 0.163652 3.90134
-0.149677 0.598994 3.89228
-0.132256 0.601565 3.88834
-0.122929 0.601943 3.88429
-0.275627 0.627714 3.83272
-0.13692 0.626435 3.89021
-0.156358 0.636949 3.89305
-0.179689 0.639674 3.89292
-0.202275 0.634695 3.88903
-0.215199 0.626045 3.88317
-0.313766 0.618914 3.71431
-0.208719 0.602206 3.88057
-0.0602413 0.420679 3.97609
-0.134022 0.415885 3.94998
-0.116105 0.464513 3.98824
-0.0913556 0.420764 3.97359
-0.0547958 0.636633 3.95037
-0.200374 0.266584 3.83985
-0.171287 0.24132 3.86563
-0.102295 0.195476 3.92162
-0.258176 0.292757 3.73021
-0.124864 0.612004 3.88714
-0.0949105 0.557454 3.97159
-0.0522914 0.185297 3.92762
-0.139723 0.189191 3.8725
-0.303983 0.414565 3.7493
-0.0977095 0.346762 3.93578
-0.101175 0.341999 3.93997
-0.103928 0.333633 3.94257
-0.107041 0.320364 3.93933
-0.115273 0.295827 3.92261
-0.129419 0.368202 3.90952
-0.137427 0.371424 3.90892
-0.143892 0.376111 3.90957
-0.168202 0.386463 3.91027
-0.257181 0.433058 3.87324
-0.0936427 0.580212 3.94676
-0.103361 0.623655 3.90482
-0.116025 0.619302 3.8931
-0.123628 0.369281 3.90594
-0.256085 0.369364 3.83588
-0.0843696 0.62988 3.93547
-0.12602 0.271473 3.914
-0.0594806 0.554276 4.01555
-0.0784705 0.572113 3.98839
-0.0582018 0.577732 3.99306
-0.110116 0.520177 3.97455
-0.0518125 0.214827 3.93879
-0.0523423 0.248713 3.93722
-0.0913278 0.254863 3.9318
-0.175972 0.324911 3.88292
-0.155065 0.45387 3.93187
-0.15253 0.295484 3.89663
-0.208022 0.45817 3.92207
-0.175921 0.430184 3.9241
-0.225247 0.41859 3.90052
-0.0988932 0.223334 3.93186
-0.122275 0.505667 3.95703
-0.195162 0.300023 3.86483
-0.16547 0.270569 3.88279
-0.196185 0.357236 3.88106
-0.279765 0.396478 3.8151
-0.22425 0.347753 3.86375
-0.288791 0.366769 3.75775
-0.191098 0.402191 3.9083
-0.109168 0.540032 3.95444
-0.11095 0.474456 4.01493
-0.123557 0.467867 3.98899
-0.102939 0.491409 4.03034
-0.121695 0.648255 3.91013
-0.158804 0.665038 3.91386
-0.192159 0.668073 3.91074
-0.219047 0.661994 3.90028
-0.235656 0.648812 3.88665
-0.246683 0.600545 3.85221
-0.311822 0.516647 3.7466
-0.230071 0.568956 3.8724
-0.20537 0.563424 3.88679
-0.173508 0.565082 3.89453
-0.144037 0.571102 3.89806
-0.123638 0.578312 3.90012
-0.110607 0.584946 3.90214
-0.313731 0.501144 3.65698
-0.122451 0.460989 3.97713
-0.0968394 0.536645 3.9918
-0.0971192 0.473534 4.03455
-0.083711 0.460062 4.02459
-0.0964056 0.468639 4.02262
-0.117029 0.452622 3.96956
-0.0801794 0.458007 4.03106
-0.0806211 0.448066 4.00329
-0.111561 0.601977 3.8907
-0.0992952 0.598109 3.9063
-0.0938012 0.595613 3.92313
-0.222879 0.619079 3.87619
-0.232682 0.626578 3.87402
-0.0391868 0.549846 4.00819
0.124504 0.605415 3.86744
-0.0407639 0.450426 3.99983
0.234848 0.688026 3.74931
0.0496074 0.58867 3.89904
0.0753676 0.586585 3.89584
0.10055 0.586147 3.88758
0.136057 0.597039 3.86323
0.0271435 0.592531 3.8964
0.0911694 0.65641 3.8951
0.0618117 0.653876 3.89718
0.116273 0.650453 3.88582
0.132936 0.638674 3.87653
0.155009 0.57815 3.85009
0.0444208 0.232537 3.9025
0.135724 0.610887 3.85745
0.236176 0.57381 3.74076
0.185078 0.591139 3.82325
0.071419 0.48589 3.9202
-0.0202487 0.393377 3.97416
-0.0195877 0.37194 3.96353
0.0183973 0.3873 3.95589
0.0437677 0.380025 3.93315
0.00851211 0.37123 3.9511
0.0293726 0.368528 3.92962
0.075114 0.333054 3.88745
-0.0433824 0.469076 4.04293
-0.0392486 0.495429 4.04764
0.171119 0.663068 3.8681
0.0180944 0.548049 3.9254
0.0170853 0.473616 3.97797
0.0195462 0.48779 3.96909
0.152733 0.487765 3.88537
-0.0389598 0.525823 4.03259
0.109618 0.696653 3.90715
0.145229 0.68537 3.88894
0.20726 0.740058 3.79497
-0.000799493 0.675507 3.93707
0.0355942 0.642307 3.89388
0.095976 0.360119 3.88287
0.210817 0.322362 3.68303
-0.00243796 0.456423 3.97168
-0.0240015 0.447199 3.9725
0.0732619 0.362017 3.88567
0.0629579 0.362461 3.89141
0.160458 0.700443 3.87716
0.0190634 0.463179 3.96354
0.0619846 0.695319 3.92315
0.0674894 0.716934 3.92729
0.0985539 0.809828 3.88792
0.183754 0.720616 3.84105
0.0791896 0.763177 3.91084
0.188261 0.671515 3.84715
0.21096 0.67753 3.80143
-0.0190202 0.380647 3.97165
0.0128854 0.37733 3.95485
0.0363788 0.37409 3.93303
-0.00892405 0.451084 3.96561
0.0679014 0.362417 3.88841
0.0539585 0.350792 3.90227
0.0606046 0.362524 3.89224
-0.0146339 0.465524 4.00856
0.0265248 0.370644 3.92503
0.00440316 0.370384 3.9415
-0.0209644 0.369443 3.95365
-0.0152852 0.279351 3.9322
-0.0152393 0.309393 3.95456
-0.0165658 0.323795 3.9581
-0.0195192 0.334562 3.95393
-0.0215548 0.342098 3.95016
0.0282431 0.34921 3.92048
0.0321163 0.346826 3.92235
0.0374281 0.341478 3.9232
0.0412467 0.332755 3.91867
0.0589042 0.400462 3.92369
0.23394 0.446822 3.64863
0.0430208 0.352803 3.90481
0.0481671 0.352689 3.90426
-0.0317031 0.436156 3.97469
0.0100842 0.445273 3.94482
-0.0280431 0.441513 3.97473
0.0438265 0.534902 3.91648
0.0875687 0.518591 3.90741
0.0239726 0.476402 3.95473
0.164132 0.781939 3.8421
0.141416 0.750237 3.87553
0.119806 0.716534 3.90302
0.0525437 0.310134 3.90353
0.00798292 0.710164 3.943
0.017097 0.764413 3.93235
0.0300418 0.821559 3.91469
0.123282 0.589048 3.8751
0.183641 0.558104 3.83578
0.0132171 0.596912 3.89503
0.158389 0.626765 3.85784
0.000653212 0.563271 3.93456
0.00124641 0.482552 4.00326
0.213573 0.536825 3.80829
0.165221 0.545409 3.85936
0.131314 0.540358 3.88349
0.080379 0.545112 3.89751
0.0438206 0.554905 3.90402
0.0190798 0.565494 3.91107
-0.033613 0.597106 3.96155
0.211621 0.486494 3.81725
0.181252 0.629996 3.84581
-0.0495887 0.455315 4.03322
0.0145564 0.523578 3.93775
0.245331 0.565827 3.66446
-0.000641646 0.577055 3.91613
0.0252457 0.472199 3.92982
0.143821 0.609274 3.85284
0.00376941 0.500016 3.99179
0.226955 0.385006 3.6589
0.0152103 0.604342 3.89012
-0.0164298 0.516035 4.01649
0.158936 0.277531 3.80776
0.156684 0.239945 3.76886
0.233779 0.463048 3.73224
0.192348 0.308857 3.77775
0.224556 0.628465 3.76489
0.0475685 0.201138 3.89137
-0.056054 0.444434 4.0011
0.037743 0.506303 3.92698
0.209093 0.58307 3.79983
0.0958459 0.599344 3.88512
0.0734879 0.599066 3.89281
0.0598999 0.347337 3.89803
0.209712 0.432685 3.8089
-0.00155781 0.164916 3.89244
0.0781319 0.192243 3.83934
0.114566 0.211231 3.80843
0.0525426 0.60091 3.89479
0.0322623 0.603554 3.89333
0.0196358 0.603636 3.89048
0.201596 0.631828 3.82032
0.0422172 0.62756 3.89243
0.066778 0.63768 3.891
0.0895576 0.638963 3.88826
0.11129 0.633132 3.88142
0.124036 0.624095 3.87418
0.244607 0.631663 3.70104
0.112151 0.601786 3.87605
0.0298294 0.413477 3.9421
-0.00222316 0.460062 3.98073
-0.0232533 0.418976 3.97068
0.119577 0.247116 3.83177
0.0853257 0.22297 3.85901
0.00195795 0.188037 3.91883
0.186602 0.274217 3.72516
0.0240175 0.613057 3.89249
-0.018276 0.557575 3.96995
0.0409224 0.176048 3.87158
0.228956 0.40612 3.73532
0.00506874 0.34492 3.93741
0.00915179 0.340091 3.94015
0.0129006 0.331637 3.94243
0.0153926 0.31803 3.93899
0.0231915 0.29199 3.9215
0.0506904 0.36678 3.90882
0.0570853 0.369236 3.90853
0.0640159 0.373244 3.90798
0.0839752 0.383722 3.90364
0.17793 0.427458 3.85823
-0.0173812 0.580916 3.94667
-0.00421709 0.624588 3.90375
0.0122512 0.620894 3.89584
0.0457858 0.36876 3.90624
0.182382 0.357282 3.82206
-0.0234121 0.63067 3.93408
0.0352509 0.263207 3.90886
-0.0355561 0.572049 3.98709
-0.00198948 0.519702 3.97017
-0.00813444 0.250071 3.92764
0.0949433 0.315381 3.87499
0.0502082 0.452684 3.9216
0.0682018 0.285247 3.88929
0.117279 0.454956 3.90661
0.0804255 0.427759 3.91235
0.142907 0.412606 3.88518
-0.000478303 0.21773 3.92911
0.0129763 0.505512 3.95195
0.113451 0.28528 3.85554
0.0793731 0.255651 3.87416
0.117291 0.350215 3.87503
0.205112 0.385905 3.80002
0.150195 0.335053 3.85215
0.216909 0.353626 3.74619
0.108177 0.39884 3.89765
-0.00231108 0.540441 3.95272
-0.00626638 0.470766 4.0116
0.00906816 0.464 3.98116
-0.0181709 0.489321 4.02772
0.0176789 0.649461 3.90771
0.0595555 0.665892 3.90607
0.0958375 0.669235 3.90036
0.12573 0.663212 3.8892
0.147327 0.649618 3.87543
0.161104 0.600752 3.8421
0.237276 0.518746 3.7359
0.140092 0.570309 3.86414
0.112659 0.565354 3.88079
0.077815 0.566976 3.89244
0.0457883 0.572918 3.89858
0.0213855 0.579255 3.89951
0.00495594 0.585761 3.9023
0.239117 0.506232 3.65002
0.00864546 0.457641 3.96912
-0.0201711 0.536911 3.9908
-0.025094 0.470329 4.03088
-0.0368785 0.457269 4.02108
-0.0242983 0.464996 4.01945
0.00242567 0.449354 3.96013
-0.041757 0.455879 4.02804
-0.047161 0.44612 4.00028
0.00492504 0.602618 3.89294
-0.00754832 0.598749 3.90596
-0.0146903 0.596265 3.92205
0.130934 0.617002 3.86693
0.143943 0.625903 3.86363
