ply
format ascii 1.0
comment Created by Open3D
element vertex 468
property double x
property double y
property double z
end_header
-0.0156896 0.349225 4.07501
-0.0148986 0.425882 4.13339
-0.0169509 0.402049 4.07072
-0.0354636 0.504151 4.09728
-0.0143431 0.450441 4.14178
-0.013324 0.482046 4.1309
-0.0139867 0.556863 4.06083
-0.19052 0.563721 3.96067
-0.0133874 0.611041 4.04311
-0.0130333 0.641737 4.04749
-0.0133089 0.754703 4.01613
-0.0156236 0.337366 4.07186
-0.0155476 0.327955 4.06313
-0.0151723 0.323887 4.05184
-0.0154157 0.317215 4.0514
-0.0154555 0.307006 4.05565
-0.0148667 0.293412 4.0604
-0.0148409 0.278978 4.05627
-0.0150215 0.253408 4.03024
-0.0147035 0.413151 4.1205
-0.0384082 0.415096 4.08705
-0.278733 0.645047 3.83576
-0.117981 0.543406 3.98487
-0.142253 0.541499 3.98337
-0.166107 0.542072 3.97685
-0.19891 0.554418 3.95682
-0.0984354 0.549383 3.98323
-0.149224 0.596957 3.9952
-0.124166 0.595541 3.99536
-0.17352 0.594457 3.98722
-0.190105 0.587498 3.97709
-0.219241 0.537707 3.94514
-0.10994 0.214433 4.00304
-0.199574 0.568826 3.95258
-0.29235 0.546209 3.83048
-0.246488 0.552544 3.9193
-0.139223 0.444798 4.01513
-0.046007 0.353145 4.07123
-0.0406248 0.328252 4.05916
-0.0769965 0.345085 4.05604
-0.0958683 0.334208 4.03693
-0.0622336 0.326583 4.04841
-0.0795256 0.323279 4.03077
-0.12646 0.295176 3.99998
-0.0352974 0.426234 4.13186
-0.0380856 0.449749 4.13939
-0.227373 0.611257 3.96938
-0.088763 0.504544 4.01577
-0.0937975 0.432754 4.06977
-0.0952164 0.445217 4.06171
-0.212043 0.445749 3.98273
-0.0367762 0.479281 4.12272
-0.169639 0.634854 4.01532
-0.20347 0.627622 3.99487
-0.25308 0.685864 3.88592
-0.064793 0.615565 4.03604
-0.102916 0.589447 3.98778
-0.1459 0.317734 3.99359
-0.27324 0.325958 3.76953
-0.0762056 0.419864 4.0603
-0.0554169 0.412343 4.06454
-0.118141 0.317877 3.99476
-0.104662 0.319447 4.00183
-0.217137 0.642891 3.98209
-0.0944005 0.422329 4.05634
-0.124526 0.632351 4.02983
-0.128965 0.651135 4.03472
-0.153871 0.739909 3.98409
-0.234552 0.665064 3.94103
-0.139698 0.697463 4.01075
-0.242892 0.621033 3.94674
-0.260972 0.631706 3.89505
-0.0437719 0.338835 4.06795
-0.0690295 0.333713 4.05346
-0.0876803 0.328302 4.0363
-0.069987 0.415685 4.05578
-0.11119 0.318295 3.9987
-0.100087 0.31416 4.01564
-0.101239 0.320928 4.00267
-0.0619552 0.427131 4.09373
-0.0735396 0.324439 4.02656
-0.0569671 0.325052 4.0383
-0.0371943 0.324524 4.04776
-0.047652 0.25477 4.03014
-0.0448128 0.281065 4.05446
-0.0433701 0.296246 4.05754
-0.0418589 0.309591 4.05196
-0.0394717 0.317841 4.04743
-0.0775343 0.31897 4.02598
-0.0809405 0.31567 4.03104
-0.0862238 0.308916 4.03524
-0.092009 0.300204 4.03053
-0.119028 0.360219 4.02936
-0.299808 0.443527 3.72825
-0.0169885 0.409005 4.08803
-0.0889491 0.318943 4.01184
-0.0939134 0.317585 4.01552
-0.0476347 0.401808 4.06502
-0.0870459 0.408043 4.03955
-0.0513325 0.406766 4.06525
-0.114597 0.490716 4.00753
-0.154898 0.474439 4.00128
-0.0995501 0.43479 4.04777
-0.213088 0.71814 3.93935
-0.19608 0.688103 3.97914
-0.178834 0.653461 4.00998
-0.106307 0.279434 4.0123
-0.0720303 0.645413 4.04612
-0.0807988 0.699175 4.0289
-0.0892442 0.750567 4.01098
-0.186867 0.546193 3.96647
-0.246068 0.519847 3.93166
-0.0866869 0.555821 3.97944
-0.218119 0.581525 3.95539
-0.0712689 0.51991 4.02459
-0.0778794 0.441256 4.09399
-0.272978 0.502915 3.90356
-0.229267 0.503774 3.95483
-0.197345 0.495392 3.97829
-0.15015 0.500311 3.98915
-0.115321 0.510708 3.99433
-0.0894636 0.521917 4.00089
-0.0381047 0.550653 4.05064
-0.270866 0.453545 3.91173
-0.238222 0.584047 3.94269
-0.0268927 0.41422 4.11902
-0.0878986 0.481615 4.02715
-0.30226 0.547548 3.74367
-0.0711208 0.534791 4.00423
-0.103231 0.433396 4.02305
-0.207068 0.56725 3.94753
-0.0787157 0.456475 4.08397
-0.291636 0.386181 3.7422
-0.0876645 0.564567 3.97224
-0.0578992 0.470357 4.10786
-0.217858 0.269444 3.90838
-0.217043 0.242054 3.8623
-0.297374 0.447391 3.82068
-0.248966 0.301745 3.87522
-0.277891 0.592493 3.85497
-0.115905 0.188555 3.98866
-0.0267188 0.410024 4.08663
-0.10954 0.463811 4.01899
-0.267844 0.547298 3.89313
-0.164957 0.55713 3.97496
-0.142972 0.555148 3.98043
-0.106806 0.309229 4.01139
-0.266622 0.406104 3.90593
-0.0698363 0.152192 3.98164
-0.146948 0.188155 3.9303
-0.179414 0.210426 3.90055
-0.0135593 0.699481 4.03346
-0.0145961 0.145816 3.98826
-0.122535 0.556451 3.98159
-0.104404 0.560094 3.97779
-0.0932655 0.562665 3.97247
-0.256147 0.588164 3.91676
-0.105847 0.576125 3.98154
-0.125506 0.57997 3.98644
-0.146537 0.581262 3.98568
-0.16836 0.5787 3.97975
-0.182893 0.574199 3.97201
-0.295225 0.601921 3.78367
-0.180023 0.560342 3.96732
-0.0167689 0.385882 4.06584
-0.0975833 0.374504 4.04213
-0.0763544 0.42348 4.0699
-0.0501504 0.383343 4.06434
-0.0134479 0.584378 4.04198
-0.184198 0.238394 3.93449
-0.151443 0.213557 3.9608
-0.0703307 0.170099 4.01329
-0.247167 0.277708 3.81317
-0.0932968 0.569673 3.97554
-0.0548209 0.513954 4.05958
-0.0142565 0.163887 4.01853
-0.111733 0.167717 3.9608
-0.289553 0.395047 3.82656
-0.0604799 0.319105 4.03769
-0.0639676 0.312832 4.04296
-0.0676729 0.302577 4.04697
-0.0715245 0.289038 4.04319
-0.0802948 0.265239 4.02392
-0.0940579 0.321036 4.01503
-0.102602 0.322684 4.0151
-0.110266 0.326003 4.01545
-0.137023 0.340792 4.01132
-0.231808 0.393939 3.9582
-0.05444 0.536901 4.03585
-0.0676932 0.579499 3.99204
-0.0828305 0.575908 3.98099
-0.0880469 0.324106 4.01233
-0.23631 0.336524 3.92255
-0.0456296 0.580216 4.02457
-0.0960545 0.240158 4.01192
-0.0134511 0.507892 4.10651
-0.0371538 0.526245 4.07669
-0.0139103 0.531773 4.0825
-0.0722493 0.476974 4.06064
-0.0144809 0.190948 4.0325
-0.014876 0.224303 4.03157
-0.0570127 0.227061 4.02731
-0.152159 0.284483 3.98664
-0.123021 0.413758 4.01746
-0.126511 0.258925 3.99867
-0.177555 0.416066 4.00701
-0.144974 0.389714 4.01371
-0.198223 0.376995 3.98826
-0.0662474 0.195881 4.02611
-0.0874873 0.463444 4.04317
-0.174969 0.265819 3.9633
-0.143114 0.238697 3.98076
-0.17221 0.314224 3.98236
-0.26001 0.365501 3.89872
-0.203783 0.310182 3.95761
-0.275654 0.346435 3.83949
-0.163396 0.35776 4.00281
-0.0709485 0.498125 4.04187
-0.0694945 0.430833 4.09901
-0.0861054 0.425118 4.07334
-0.0594859 0.446738 4.11732
-0.0862027 0.597966 3.99953
-0.124074 0.609337 4.00509
-0.157372 0.611742 4.00374
-0.1861 0.608401 3.99318
-0.206334 0.598881 3.97697
-0.223688 0.560092 3.93769
-0.298494 0.497414 3.82383
-0.205766 0.52816 3.95806
-0.180242 0.521546 3.9734
-0.147269 0.522331 3.98333
-0.116094 0.528174 3.98728
-0.0925822 0.536208 3.98863
-0.0768955 0.544144 3.99011
-0.301475 0.496133 3.72686
-0.0855075 0.418917 4.06088
-0.0551923 0.492944 4.07994
-0.0523367 0.429704 4.11933
-0.0380909 0.418162 4.1094
-0.0520224 0.426011 4.10678
-0.0787836 0.411849 4.05302
-0.0341095 0.415894 4.11606
-0.0338419 0.411592 4.08687
-0.0788655 0.563033 3.9772
-0.0641809 0.556813 3.99312
-0.0563804 0.552668 4.01173
-0.19211 0.571032 3.96375
-0.20378 0.579617 3.9628
0.00802772 0.504394 4.09814
0.168253 0.56578 3.95966
0.00762274 0.414835 4.08566
0.261723 0.654876 3.83567
0.0959458 0.544964 3.98731
0.121423 0.543092 3.98501
0.14615 0.544068 3.97752
0.179497 0.556873 3.956
0.0740799 0.550655 3.98441
0.129773 0.600597 3.99615
0.103224 0.598746 3.99504
0.154251 0.598233 3.98752
0.171026 0.591265 3.97647
0.200474 0.541025 3.94256
0.0846923 0.210808 3.99804
0.177414 0.571299 3.95134
0.275348 0.552551 3.82811
0.228947 0.557281 3.91584
0.115392 0.445643 4.01123
0.0158245 0.35301 4.07095
0.0116646 0.327919 4.05927
0.0490451 0.344039 4.05578
0.0694249 0.333374 4.03763
0.0357034 0.325684 4.0497
0.0531635 0.32257 4.03238
0.10147 0.293741 3.99799
0.00680935 0.426487 4.13012
0.0108824 0.450173 4.1376
0.21194 0.617282 3.96699
0.0636856 0.505555 4.01556
0.0674163 0.432977 4.0666
0.0696243 0.445544 4.05876
0.194243 0.447586 3.9783
0.00987981 0.479624 4.12286
0.149907 0.640754 4.01055
0.185865 0.633714 3.99071
0.235723 0.696141 3.88509
0.0395917 0.617612 4.03444
0.0792816 0.591987 3.98797
0.120992 0.316554 3.99259
0.256908 0.323615 3.76513
0.0468531 0.41968 4.05746
0.0245439 0.412096 4.06007
0.0896645 0.317137 3.99763
0.0793827 0.319014 4.00421
0.200266 0.649852 3.97764
0.0680473 0.422089 4.05251
0.102051 0.636853 4.02521
0.107184 0.656299 4.02987
0.132367 0.747128 3.98243
0.218029 0.673608 3.93778
0.116486 0.703467 4.00785
0.227694 0.628118 3.94433
0.244772 0.640042 3.89291
0.0143781 0.338472 4.06817
0.0413623 0.332859 4.05439
0.0611465 0.327442 4.03721
0.0396104 0.415282 4.05188
0.0839325 0.317804 4.00106
0.0743165 0.313866 4.01622
0.0776197 0.320342 4.00491
0.0344597 0.427071 4.09361
0.0492402 0.323987 4.02855
0.0307737 0.324506 4.0402
0.00894343 0.324457 4.04924
0.0194821 0.254201 4.02781
0.0170396 0.280988 4.05384
0.0152057 0.296105 4.05763
0.0124219 0.309352 4.0527
0.0102371 0.317693 4.04841
0.0519405 0.318721 4.02686
0.0559411 0.315519 4.03078
0.0615847 0.308712 4.03396
0.0663482 0.299871 4.02892
0.0932275 0.359728 4.02672
0.277335 0.446585 3.72606
0.0640092 0.318498 4.01441
0.0685803 0.317229 4.0168
0.0155825 0.401489 4.06303
0.0572265 0.407491 4.03395
0.0198551 0.406559 4.06204
0.0907378 0.491888 4.00693
0.132646 0.476008 3.9985
0.0734105 0.434917 4.04441
0.194977 0.727658 3.93748
0.177308 0.696193 3.97488
0.159029 0.660089 4.00518
0.0813198 0.277915 4.01036
0.0479048 0.64833 4.04329
0.0553085 0.702409 4.02691
0.065395 0.754644 4.00852
0.167439 0.548285 3.96615
0.228695 0.523855 3.92774
0.0600837 0.556719 3.98135
0.20026 0.585799 3.95392
0.0455941 0.520818 4.02521
0.0516937 0.441559 4.09162
0.25741 0.507174 3.89998
0.211131 0.507099 3.95172
0.177735 0.498039 3.97575
0.127691 0.502197 3.98848
0.0912729 0.512058 3.99455
0.0645414 0.523034 4.00122
0.0104671 0.551196 4.05099
0.25496 0.45614 3.90842
0.222483 0.589565 3.94079
-0.00165882 0.414156 4.1189
0.0614256 0.482393 4.02664
0.279566 0.554666 3.74337
0.0441561 0.535704 4.00513
0.0743296 0.43355 4.01842
0.186332 0.570103 3.9467
0.0537387 0.456891 4.0817
0.272193 0.386545 3.73824
0.0606089 0.565288 3.97511
0.0326451 0.470813 4.10686
0.201457 0.26442 3.90117
0.201771 0.235484 3.8564
0.278216 0.450367 3.81678
0.234603 0.297992 3.86833
0.259942 0.60022 3.85353
0.0911101 0.183988 3.98395
-0.00708983 0.409948 4.08603
0.084441 0.464586 4.01665
0.251386 0.55279 3.8901
0.14245 0.558961 3.97525
0.120506 0.556901 3.98202
0.0805038 0.308728 4.01185
0.251274 0.407017 3.90076
0.0418377 0.149501 3.97935
0.123931 0.181661 3.9262
0.160112 0.203185 3.89559
0.0994752 0.55818 3.98336
0.0795504 0.561603 3.98044
0.066713 0.563563 3.97552
0.241298 0.594689 3.91428
0.0832561 0.577422 3.98416
0.105667 0.581876 3.98766
0.126583 0.583161 3.98623
0.148258 0.580955 3.97975
0.162345 0.576655 3.97103
0.274273 0.610804 3.78365
0.157454 0.562293 3.96703
0.0700263 0.374024 4.03919
0.0475778 0.423457 4.06606
0.0190076 0.38307 4.06301
0.164547 0.232618 3.92723
0.129543 0.207572 3.9539
0.0437224 0.167622 4.01026
0.232158 0.272691 3.8085
0.0676564 0.570391 3.97924
0.0277485 0.514508 4.05951
0.0857501 0.162897 3.95836
0.272898 0.395765 3.82103
0.0328442 0.318688 4.03902
0.0369246 0.312674 4.04344
0.0411897 0.30244 4.04721
0.0444212 0.288905 4.04294
0.0542545 0.263977 4.02256
0.0690181 0.320445 4.01728
0.0761961 0.321982 4.01768
0.0839805 0.325331 4.01738
0.111768 0.340248 4.01037
0.21602 0.394459 3.95211
0.0274227 0.53762 4.03633
0.039532 0.580626 3.99222
0.0560034 0.577097 3.98347
0.0643554 0.323597 4.0151
0.220099 0.334638 3.91601
0.0186983 0.581133 4.02444
0.0707002 0.237576 4.00756
0.00980328 0.526751 4.07625
0.045957 0.477574 4.05898
0.0292464 0.2256 4.02442
0.129558 0.281937 3.98147
0.0958599 0.413971 4.01246
0.103124 0.256023 3.99313
0.157126 0.416937 4.00048
0.120469 0.389742 4.0089
0.179982 0.376977 3.9814
0.0392809 0.194067 4.0235
0.0616356 0.463963 4.041
0.154164 0.261738 3.95662
0.119831 0.234255 3.97391
0.150158 0.312545 3.97889
0.245256 0.364805 3.89211
0.18625 0.307523 3.95112
0.260992 0.344857 3.83349
0.141124 0.357409 3.99845
0.0441831 0.49887 4.04214
0.043216 0.430858 4.09774
0.0591257 0.425139 4.06931
0.0323965 0.446934 4.11603
0.060152 0.599713 3.9998
0.101014 0.612616 4.0032
0.136538 0.616096 4.00152
0.166618 0.613177 3.99121
0.188413 0.603655 3.9751
0.20504 0.56369 3.93553
0.280381 0.502166 3.82149
0.186386 0.531041 3.95606
0.159892 0.524044 3.97178
0.125622 0.524303 3.98313
0.0929013 0.529728 3.98826
0.0677033 0.537524 3.98885
0.0504055 0.545164 3.99098
0.277998 0.501306 3.7264
0.0577687 0.418736 4.05675
0.0277078 0.493453 4.08012
0.0249449 0.429807 4.11758
0.0107448 0.418013 4.10779
0.0245993 0.425799 4.10548
0.0498684 0.411291 4.04832
0.00632882 0.415925 4.11471
0.00152349 0.411323 4.08543
0.0508599 0.563757 3.97864
0.0367592 0.557609 3.99383
0.029233 0.553523 4.01162
0.170743 0.573512 3.96227
0.184684 0.583175 3.96111
