ply
format ascii 1.0
comment Created by Open3D
element vertex 468
property double x
property double y
property double z
end_header
-0.0382092 0.382015 4.09937
-0.0416825 0.479118 4.17242
-0.0411815 0.440609 4.10488
-0.060433 0.556578 4.12841
-0.0405603 0.506931 4.17835
-0.0370872 0.538677 4.16361
-0.0363567 0.610861 4.08949
-0.216109 0.604485 3.97819
-0.0374689 0.67607 4.0663
-0.0376294 0.712473 4.06943
-0.0345449 0.837525 4.03895
-0.0370772 0.369013 4.09573
-0.0349966 0.359597 4.08789
-0.0339275 0.355812 4.07547
-0.0432204 0.303141 4.06775
-0.0434469 0.292151 4.0733
-0.0419346 0.279374 4.07832
-0.0421755 0.263283 4.07394
-0.0441955 0.241337 4.05206
-0.0392869 0.462777 4.15862
-0.0654083 0.459753 4.12563
-0.303327 0.667134 3.85155
-0.138285 0.584398 4.00017
-0.163274 0.581919 3.99896
-0.188608 0.581917 3.9941
-0.222071 0.594618 3.97184
-0.119345 0.591099 4.00177
-0.17556 0.655547 4.00695
-0.146151 0.652976 4.00966
-0.202157 0.650208 3.99993
-0.218143 0.638593 3.99158
-0.241656 0.572586 3.96303
-0.135641 0.218717 4.01596
-0.225474 0.609507 3.96985
-0.312495 0.559625 3.84205
-0.264204 0.584594 3.93453
-0.167066 0.482662 4.04635
-0.0731806 0.386472 4.09688
-0.065995 0.360226 4.08286
-0.108476 0.380363 4.07827
-0.133002 0.368644 4.04973
-0.093043 0.358457 4.06645
-0.116639 0.353292 4.04285
-0.166587 0.311369 3.99978
-0.0603296 0.480315 4.17119
-0.0617222 0.506216 4.1764
-0.246058 0.658594 3.98248
-0.114391 0.547784 4.04163
-0.118338 0.479877 4.10571
-0.119277 0.492163 4.09539
-0.241671 0.480823 4.00925
-0.0610972 0.53431 4.15569
-0.192002 0.696846 4.033
-0.224382 0.683797 4.00948
-0.274923 0.721935 3.90147
-0.0897329 0.67926 4.05988
-0.125046 0.642314 4.00411
-0.18573 0.342759 3.99427
-0.298966 0.314756 3.78194
-0.103645 0.463896 4.0986
-0.0814033 0.453923 4.10483
-0.168802 0.33976 3.99511
-0.152745 0.339185 4.00071
-0.236544 0.69722 3.99668
-0.118877 0.466797 4.09229
-0.148472 0.697257 4.05181
-0.151471 0.71863 4.05679
-0.174675 0.805393 4.00332
-0.253929 0.710252 3.9558
-0.162903 0.763254 4.03274
-0.261527 0.66433 3.96061
-0.282163 0.663982 3.9108
-0.0700284 0.37128 4.09226
-0.100981 0.367646 4.07302
-0.124974 0.361352 4.04827
-0.0976727 0.457895 4.09624
-0.161101 0.339594 3.99882
-0.146923 0.323352 4.0157
-0.146882 0.339436 3.99967
-0.089426 0.476763 4.13057
-0.109505 0.353814 4.03683
-0.0882207 0.356131 4.05523
-0.0628124 0.356129 4.06928
-0.0817713 0.24613 4.0517
-0.0797218 0.269548 4.07094
-0.0786638 0.284349 4.07293
-0.0780218 0.2969 4.06692
-0.0743071 0.305766 4.06127
-0.118963 0.317521 4.03102
-0.122733 0.31537 4.0357
-0.128103 0.310356 4.03956
-0.134965 0.302514 4.03486
-0.153594 0.39248 4.04702
-0.328707 0.433823 3.74363
-0.0442331 0.451097 4.12674
-0.134311 0.323324 4.01139
-0.140683 0.324169 4.01542
-0.0743211 0.440555 4.10104
-0.114737 0.4481 4.0787
-0.0772466 0.447009 4.10431
-0.140975 0.532311 4.03274
-0.182187 0.514202 4.02882
-0.12426 0.478868 4.08213
-0.232835 0.769631 3.95556
-0.215432 0.744977 3.99632
-0.200188 0.715577 4.02823
-0.145722 0.286233 4.01549
-0.0966028 0.714064 4.06926
-0.104784 0.77096 4.05269
-0.10945 0.827055 4.03372
-0.209983 0.586086 3.98305
-0.266174 0.550974 3.95038
-0.110164 0.597166 3.99891
-0.240377 0.623597 3.96874
-0.0971146 0.564507 4.04952
-0.102595 0.492533 4.13053
-0.294765 0.52745 3.91926
-0.252672 0.537871 3.97487
-0.222022 0.533564 4.00039
-0.176047 0.540021 4.01068
-0.140627 0.551737 4.01533
-0.114334 0.564737 4.02324
-0.0612529 0.602005 4.07857
-0.301769 0.477417 3.9323
-0.256333 0.623619 3.95549
-0.0515944 0.46402 4.15692
-0.115345 0.524212 4.05672
-0.330169 0.54651 3.75844
-0.0971707 0.578081 4.02856
-0.130954 0.473314 4.05849
-0.232385 0.607857 3.96272
-0.1017 0.507238 4.1183
-0.319414 0.376019 3.75809
-0.112054 0.605027 3.99158
-0.0808705 0.523869 4.14076
-0.236477 0.273673 3.91507
-0.234519 0.236569 3.87223
-0.327728 0.452899 3.83993
-0.270371 0.303783 3.88669
-0.300828 0.613326 3.86968
-0.139601 0.191315 4.00263
-0.0543874 0.452343 4.12618
-0.136207 0.504907 4.04931
-0.284439 0.573641 3.90665
-0.189554 0.597167 3.99277
-0.166097 0.595381 3.99677
-0.154006 0.320448 4.01104
-0.299954 0.425507 3.92792
-0.100075 0.149807 4.00304
-0.171233 0.185729 3.9436
-0.199067 0.207432 3.91
-0.0374897 0.775414 4.05697
-0.0475852 0.139701 4.01218
-0.143797 0.597223 3.99752
-0.126556 0.601107 3.99413
-0.117256 0.602945 3.99072
-0.273981 0.621945 3.92849
-0.127814 0.622448 3.99576
-0.14615 0.629486 3.99924
-0.170517 0.631572 3.99963
-0.194213 0.627577 3.9953
-0.208544 0.620495 3.98868
-0.324206 0.610952 3.80085
-0.205639 0.600601 3.98551
-0.0408162 0.419993 4.09692
-0.128626 0.410011 4.06934
-0.102242 0.46986 4.11036
-0.0773695 0.418398 4.09516
-0.0354974 0.642819 4.06783
-0.203024 0.243018 3.93899
-0.171457 0.217773 3.96849
-0.0971352 0.170956 4.03137
-0.268414 0.267743 3.8249
-0.117787 0.611739 3.99273
-0.0798117 0.561896 4.08929
-0.0449722 0.161336 4.03934
-0.139713 0.165807 3.97808
-0.319344 0.398497 3.84687
-0.0995237 0.310676 4.04765
-0.103782 0.305137 4.0529
-0.108179 0.295648 4.05662
-0.112854 0.282203 4.053
-0.119106 0.262912 4.03405
-0.137358 0.348063 4.01923
-0.147785 0.351729 4.01882
-0.154653 0.356616 4.01966
-0.175468 0.370129 4.01887
-0.262534 0.420474 3.9815
-0.0792301 0.58418 4.0624
-0.092349 0.627983 4.01571
-0.107535 0.622428 4.00041
-0.12999 0.349712 4.01427
-0.262933 0.350593 3.93829
-0.0684438 0.634674 4.05018
-0.125712 0.243654 4.02336
-0.0371339 0.562554 4.13788
-0.0595275 0.578182 4.10775
-0.037131 0.584772 4.11345
-0.0974061 0.524141 4.09368
-0.043743 0.188927 4.05092
-0.0438823 0.218435 4.05085
-0.0868296 0.22422 4.0454
-0.182237 0.301035 3.98664
-0.15083 0.449848 4.0492
-0.155636 0.269639 4.00247
-0.205577 0.449993 4.03636
-0.174514 0.421245 4.03782
-0.226383 0.405357 4.00931
-0.0942463 0.19671 4.04235
-0.112898 0.508017 4.07549
-0.198986 0.277291 3.96613
-0.166039 0.247267 3.9869
-0.203735 0.336681 3.9849
-0.289869 0.3796 3.91786
-0.229003 0.327102 3.96533
-0.302444 0.347201 3.85538
-0.193332 0.387482 4.01683
-0.0976401 0.543025 4.07106
-0.0946736 0.482296 4.13625
-0.110532 0.472585 4.11143
-0.0845414 0.500563 4.15366
-0.111606 0.652867 4.01983
-0.149216 0.668708 4.02327
-0.183358 0.670825 4.01952
-0.212458 0.662917 4.00696
-0.230487 0.647547 3.99034
-0.244907 0.596649 3.9529
-0.324102 0.506069 3.8371
-0.229257 0.56469 3.97703
-0.203384 0.55979 3.99306
-0.169535 0.561759 4.00121
-0.138203 0.569102 4.00489
-0.115151 0.57843 4.00929
-0.101279 0.586566 4.0125
-0.330209 0.488994 3.74072
-0.110345 0.463766 4.09923
-0.0810486 0.54254 4.11162
-0.0774752 0.483157 4.1578
-0.0619816 0.467782 4.14752
-0.0776543 0.477416 4.14511
-0.104842 0.454127 4.09265
-0.0578536 0.465758 4.15443
-0.0606696 0.45501 4.12648
-0.102916 0.604987 3.99923
-0.0881956 0.601328 4.01767
-0.0807661 0.599356 4.03684
-0.217543 0.614761 3.9809
-0.228972 0.6251 3.9772
-0.0155325 0.558108 4.13163
0.151845 0.612576 3.98113
-0.016613 0.456348 4.12074
0.277948 0.704472 3.84159
0.0761358 0.591846 4.01409
0.103989 0.590377 4.01037
0.131291 0.59103 4.00091
0.167763 0.603775 3.97459
0.0498578 0.596761 4.01152
0.117004 0.668509 4.01125
0.0833354 0.664701 4.01248
0.144667 0.663064 4.00015
0.162809 0.650887 3.98848
0.190274 0.583731 3.95744
0.0604078 0.204285 4.00784
0.162836 0.618169 3.97034
0.28074 0.579587 3.83382
0.222273 0.597853 3.92728
0.101622 0.485928 4.03241
0.00282369 0.384599 4.09136
0.00283332 0.358682 4.07864
0.0461564 0.375897 4.06707
0.0735272 0.365109 4.03744
0.0350643 0.355876 4.06168
0.0568556 0.351628 4.0342
0.102192 0.30623 3.98233
-0.0195765 0.478565 4.16683
-0.0152147 0.505527 4.17197
0.205883 0.675831 3.97853
0.0435465 0.551433 4.04079
0.0490469 0.478402 4.09432
0.0520083 0.492517 4.08435
0.191471 0.486504 3.99242
-0.013756 0.53558 4.15689
0.132931 0.711916 4.02255
0.174288 0.700291 4.00255
0.243665 0.760211 3.893
0.0165381 0.684787 4.0557
0.0543836 0.652357 4.00963
0.126564 0.340185 3.97848
0.25854 0.302159 3.7717
0.0262517 0.46043 4.08794
0.000496862 0.450263 4.08956
0.104559 0.339991 3.97973
0.0932686 0.339718 3.98488
0.190698 0.716464 3.98859
0.0515948 0.465785 4.07757
0.0803646 0.708158 4.04059
0.0862216 0.731239 4.04454
0.122019 0.831929 3.99722
0.215995 0.738457 3.94585
0.0985077 0.782472 4.02443
0.22464 0.685018 3.95513
0.249451 0.691969 3.90027
0.0036326 0.369226 4.0877
0.0393782 0.363828 4.06561
0.0647843 0.358371 4.03741
0.0179936 0.45397 4.08173
0.0985044 0.339892 3.98193
0.0810437 0.321202 3.99696
0.0900299 0.339636 3.98542
0.0143252 0.472826 4.12926
0.0543646 0.354049 4.02919
0.0303791 0.355317 4.05181
0.00189464 0.355916 4.06829
0.000151283 0.241529 4.04168
0.00200755 0.26582 4.06437
0.000483618 0.28138 4.06891
-0.00370152 0.294453 4.06505
-0.00598285 0.303643 4.06046
0.0510442 0.315507 4.02067
0.0553676 0.312444 4.02169
0.0619305 0.306193 4.02109
0.0662726 0.297514 4.01629
0.0865533 0.390548 4.02927
0.282076 0.440559 3.73429
0.0686831 0.323252 4.00217
0.0741119 0.323151 4.00003
-0.00693445 0.438642 4.09337
0.038369 0.446099 4.05702
-0.00355388 0.444237 4.0925
0.0723843 0.537562 4.03089
0.118597 0.520371 4.02068
0.0565752 0.479384 4.0685
0.193168 0.804102 3.94537
0.166674 0.769948 3.98476
0.143405 0.733103 4.01759
0.0755459 0.279325 4.00204
0.0240935 0.721526 4.06138
0.033526 0.780914 4.04661
0.0482784 0.841025 4.02545
0.155043 0.595204 3.98695
0.222759 0.562282 3.93911
0.0338575 0.602368 4.01197
0.192091 0.636587 3.96727
0.0238204 0.567767 4.05177
0.0306625 0.490303 4.12292
0.257771 0.539347 3.90745
0.20354 0.549033 3.96625
0.166078 0.543508 3.99295
0.110167 0.54806 4.01111
0.0701866 0.557842 4.01845
0.042731 0.56898 4.02608
-0.0124782 0.603818 4.08107
0.25908 0.484276 3.91616
0.218163 0.639446 3.95255
-0.0251434 0.462808 4.15658
0.0420599 0.527529 4.05346
0.292041 0.571561 3.75166
0.0207283 0.581887 4.03232
0.0552787 0.474017 4.04122
0.174764 0.617743 3.96362
0.0338853 0.507048 4.1097
0.276154 0.372447 3.74425
0.0352157 0.610105 4.00724
0.0111898 0.52452 4.1384
0.189889 0.252598 3.9038
0.189527 0.21151 3.86583
0.282534 0.45854 3.82306
0.232509 0.286492 3.87133
0.266156 0.639106 3.86081
0.0624015 0.174127 3.9989
-0.0341818 0.451336 4.12368
0.0673294 0.508226 4.04039
0.250162 0.588958 3.89966
0.123071 0.605563 4.00056
0.0999736 0.603957 4.00921
0.0878327 0.318189 3.99223
0.257065 0.424488 3.90477
0.00904794 0.139192 4.00367
0.0967489 0.163381 3.94428
0.13916 0.182153 3.91025
0.0775379 0.605073 4.01111
0.0556575 0.60811 4.01008
0.0408801 0.608971 4.00807
0.241164 0.641549 3.9233
0.0633271 0.63057 4.01005
0.089113 0.638793 4.00827
0.112839 0.640132 4.00545
0.135795 0.635793 3.9978
0.149208 0.628875 3.9887
0.289572 0.643928 3.7896
0.139476 0.608768 3.99107
0.0579472 0.408167 4.05314
0.0257713 0.46514 4.09715
0.000182439 0.416865 4.08854
0.142586 0.219957 3.93106
0.103243 0.195682 3.96198
0.0132148 0.16096 4.0299
0.228518 0.248181 3.81836
0.0446168 0.617889 4.01026
0.00436033 0.563868 4.08959
0.0561996 0.148757 3.98067
0.279112 0.394893 3.82466
0.0244877 0.308021 4.04341
0.0294027 0.301646 4.04564
0.0346922 0.291642 4.04704
0.0372546 0.27773 4.04284
0.0439947 0.256751 4.02504
0.0811571 0.347953 4.0064
0.0880755 0.351115 4.00623
0.0959017 0.355451 4.0055
0.112806 0.369 4.00299
0.219668 0.418927 3.95856
0.00409766 0.586761 4.06473
0.0130378 0.632359 4.01904
0.0311402 0.629263 4.01219
0.0754605 0.350633 4.00452
0.221907 0.340142 3.91777
-0.00387217 0.637483 4.05098
0.0531199 0.232677 4.01311
-0.0137499 0.579087 4.10727
0.0247438 0.52522 4.08748
0.00532043 0.217595 4.03734
0.119215 0.290343 3.97194
0.0803051 0.450762 4.03152
0.0891066 0.25681 3.98812
0.149164 0.450784 4.01461
0.108945 0.421169 4.01931
0.176682 0.402678 3.98746
0.0123885 0.188717 4.03962
0.0424752 0.509785 4.06645
0.137009 0.260352 3.95422
0.0976008 0.229205 3.97495
0.147203 0.330397 3.97321
0.250648 0.372246 3.89394
0.181968 0.314621 3.94845
0.264516 0.336191 3.83713
0.137939 0.386606 3.99978
0.0226831 0.54551 4.07039
0.0232593 0.477923 4.1317
0.0393641 0.468702 4.09729
0.00896697 0.499165 4.15086
0.0349021 0.659684 4.02425
0.0795116 0.678217 4.02184
0.119307 0.683087 4.01518
0.153863 0.677477 4.00302
0.178535 0.661958 3.98649
0.195143 0.608102 3.94998
0.28424 0.519695 3.8286
0.174404 0.575203 3.97341
0.145031 0.569322 3.99167
0.107087 0.570184 4.00568
0.0718886 0.57571 4.01269
0.0441007 0.583056 4.01421
0.0255315 0.590416 4.01762
0.286679 0.505658 3.7366
0.0393262 0.460785 4.08381
0.0046893 0.544331 4.11243
0.000829862 0.478956 4.15307
-0.0114781 0.463598 4.14197
0.00257849 0.472172 4.14031
0.0308435 0.451109 4.07381
-0.0169923 0.462964 4.14999
-0.0242308 0.452495 4.12173
0.0230226 0.609491 4.00987
0.0112783 0.604558 4.02121
0.00500754 0.602149 4.03859
0.157057 0.623271 3.98074
0.174676 0.636162 3.97416
