ply
format ascii 1.0
comment Created by Open3D
element vertex 468
property double x
property double y
property double z
end_header
-0.00907762 0.360766 3.9653
-0.00759402 0.443325 4.02582
-0.0092374 0.416146 3.9632
-0.028411 0.526266 3.98913
-0.007495 0.469305 4.03339
-0.0072872 0.503316 4.02205
-0.00817878 0.582963 3.95166
-0.177698 0.586791 3.85426
-0.00820797 0.645381 3.93161
-0.00811693 0.678504 3.93561
-0.00851016 0.782639 3.90607
-0.00905059 0.348735 3.96246
-0.00892854 0.340015 3.9542
-0.00867839 0.336621 3.94311
-0.00876188 0.327599 3.94223
-0.00881339 0.317277 3.94681
-0.0084501 0.304671 3.95244
-0.00814534 0.291064 3.9494
-0.00788507 0.269202 3.92558
-0.00760175 0.430376 4.01362
-0.0306176 0.4317 3.97949
-0.261189 0.664615 3.73431
-0.106987 0.567995 3.87936
-0.13092 0.565955 3.87804
-0.154107 0.565977 3.8715
-0.185062 0.577046 3.85049
-0.0874417 0.573552 3.87691
-0.140253 0.625445 3.88659
-0.114661 0.624709 3.88675
-0.163843 0.620871 3.87902
-0.179683 0.612133 3.86946
-0.204291 0.559743 3.839
-0.0971691 0.237318 3.89522
-0.186586 0.591772 3.84601
-0.273107 0.564403 3.72822
-0.230991 0.574491 3.81374
-0.126795 0.465258 3.90881
-0.0389984 0.365309 3.962
-0.0344275 0.341079 3.95036
-0.0694308 0.359606 3.94705
-0.0882522 0.35112 3.92869
-0.0560896 0.341046 3.94012
-0.0733435 0.339293 3.9227
-0.117982 0.315726 3.89148
-0.0276387 0.444422 4.02404
-0.030835 0.469269 4.0309
-0.216227 0.636688 3.86078
-0.0786088 0.526526 3.90891
-0.0829721 0.450703 3.96223
-0.0841028 0.464165 3.95403
-0.196569 0.468176 3.87661
-0.0296024 0.5003 4.01445
-0.162983 0.666031 3.90322
-0.194551 0.65579 3.88414
-0.238926 0.708742 3.78226
-0.0595937 0.651079 3.92414
-0.0924569 0.617134 3.87967
-0.135922 0.338852 3.8849
-0.245751 0.344514 3.66635
-0.0664139 0.436496 3.95318
-0.0469374 0.428612 3.95641
-0.111347 0.336511 3.88699
-0.0995415 0.337736 3.89391
-0.207735 0.670329 3.87199
-0.0835572 0.43998 3.94898
-0.119576 0.666984 3.91723
-0.12433 0.686348 3.92213
-0.145837 0.768276 3.87568
-0.223243 0.690322 3.83347
-0.133216 0.727506 3.90069
-0.230739 0.645757 3.83917
-0.246062 0.653904 3.79038
-0.0372841 0.351171 3.95919
-0.0620562 0.348147 3.94471
-0.0808098 0.344913 3.92781
-0.0604535 0.43191 3.94877
-0.105313 0.336765 3.89096
-0.0950735 0.331375 3.90667
-0.0964458 0.339236 3.89461
-0.0530317 0.445077 3.98715
-0.0679959 0.340753 3.91843
-0.0511603 0.339601 3.93016
-0.0311851 0.338016 3.93952
-0.0404608 0.271038 3.92476
-0.0390461 0.294057 3.94741
-0.0378771 0.308282 3.94945
-0.0361928 0.320477 3.94321
-0.0338872 0.328985 3.93867
-0.073083 0.333501 3.91776
-0.0765964 0.3308 3.92219
-0.0817237 0.324948 3.92612
-0.0867184 0.316926 3.92176
-0.108252 0.378463 3.92026
-0.272871 0.457683 3.62804
-0.00905352 0.423994 3.98065
-0.0839808 0.334916 3.90398
-0.0892984 0.333823 3.90681
-0.0389074 0.416945 3.95705
-0.0761342 0.424345 3.93188
-0.0427279 0.422554 3.95743
-0.103178 0.512231 3.90093
-0.142249 0.496003 3.8948
-0.0879067 0.453198 3.94032
-0.202936 0.744329 3.83266
-0.188151 0.715839 3.86945
-0.172284 0.68454 3.89856
-0.0980474 0.298958 3.90452
-0.0674315 0.682817 3.93319
-0.0749517 0.729723 3.91848
-0.0828719 0.779711 3.90104
-0.173838 0.569452 3.86083
-0.229722 0.541527 3.82641
-0.0752433 0.579276 3.87305
-0.205084 0.604775 3.84826
-0.0622164 0.542686 3.91717
-0.0683834 0.460064 3.98646
-0.254524 0.52429 3.79901
-0.213529 0.525638 3.84934
-0.18289 0.517934 3.87236
-0.137563 0.522648 3.88292
-0.104027 0.53319 3.88759
-0.0794203 0.54476 3.89411
-0.0308601 0.576187 3.94207
-0.250497 0.475135 3.80731
-0.224961 0.608111 3.83619
-0.0196496 0.431709 4.01201
-0.0766027 0.502029 3.92042
-0.279771 0.561389 3.64496
-0.0614088 0.557789 3.89732
-0.0906401 0.450924 3.91573
-0.193121 0.589168 3.84105
-0.0689164 0.476255 3.97625
-0.264171 0.402123 3.64062
-0.075924 0.588306 3.8664
-0.0498509 0.491272 3.99981
-0.195803 0.292673 3.8011
-0.193323 0.265085 3.75631
-0.272752 0.465489 3.71797
-0.224311 0.324137 3.76923
-0.260678 0.612087 3.75209
-0.1018 0.213052 3.88089
-0.0185467 0.425018 3.97893
-0.0976635 0.484148 3.9124
-0.251071 0.568511 3.78886
-0.153158 0.581027 3.86881
-0.131856 0.579551 3.8746
-0.101174 0.327165 3.9025
-0.244751 0.428116 3.8005
-0.0581294 0.178177 3.87517
-0.129328 0.212322 3.82408
-0.158979 0.234203 3.79436
-0.00849027 0.729038 3.92326
-0.00664118 0.17251 3.88242
-0.111563 0.580975 3.87535
-0.0928531 0.584447 3.87165
-0.0813476 0.586218 3.86664
-0.242015 0.611384 3.81082
-0.0962637 0.60559 3.87496
-0.116902 0.612478 3.87918
-0.138413 0.613539 3.87838
-0.159861 0.608772 3.87275
-0.173166 0.601557 3.86516
-0.274907 0.617798 3.68385
-0.167656 0.583754 3.86098
-0.00920095 0.398986 3.95778
-0.0870983 0.391363 3.93368
-0.0666025 0.440424 3.96296
-0.0419329 0.397585 3.95596
-0.00807606 0.614329 3.93203
-0.16525 0.261762 3.826
-0.13474 0.237537 3.852
-0.059309 0.195308 3.90585
-0.220876 0.298783 3.70902
-0.0823213 0.595317 3.86976
-0.046747 0.536467 3.95192
-0.00654469 0.189968 3.91158
-0.096935 0.192657 3.85453
-0.263561 0.414451 3.72307
-0.0555369 0.33139 3.92927
-0.0590986 0.32551 3.9342
-0.0626365 0.31623 3.93853
-0.0658802 0.303691 3.93571
-0.0726749 0.283183 3.91759
-0.0886553 0.338862 3.90721
-0.0962477 0.340783 3.90723
-0.10326 0.344511 3.90758
-0.126505 0.36039 3.90297
-0.213278 0.416924 3.85186
-0.0463173 0.560801 3.92777
-0.057893 0.605716 3.88412
-0.0719928 0.601204 3.87449
-0.0828426 0.341603 3.90445
-0.215378 0.359227 3.81596
-0.0382096 0.60938 3.91535
-0.0853518 0.261279 3.9049
-0.00760644 0.530519 3.99769
-0.0303035 0.549944 3.96863
-0.0079947 0.555591 3.97405
-0.0625576 0.497431 3.95346
-0.00681696 0.214864 3.92488
-0.00755321 0.244332 3.9245
-0.0478634 0.247082 3.91982
-0.139863 0.306972 3.87752
-0.110252 0.432222 3.91049
-0.115181 0.281175 3.89043
-0.163568 0.437731 3.90022
-0.13198 0.409404 3.90644
-0.182476 0.399718 3.88117
-0.0559051 0.219046 3.91839
-0.0761741 0.48324 3.93608
-0.159145 0.288805 3.85425
-0.128685 0.261716 3.87161
-0.158615 0.336792 3.87403
-0.237325 0.38779 3.79278
-0.186463 0.333494 3.85
-0.249404 0.36699 3.73469
-0.150138 0.379366 3.89517
-0.0612499 0.519474 3.93484
-0.0605275 0.449204 3.9922
-0.0758702 0.442594 3.96562
-0.0512075 0.465719 4.0095
-0.0774009 0.626583 3.89096
-0.116179 0.638427 3.89536
-0.149148 0.639311 3.89346
-0.176511 0.63466 3.88345
-0.195267 0.62369 3.86843
-0.209019 0.582109 3.83147
-0.276475 0.515521 3.7217
-0.191193 0.55047 3.85209
-0.166675 0.544578 3.86738
-0.134921 0.545954 3.87721
-0.104952 0.551949 3.88116
-0.0820759 0.559853 3.88207
-0.066515 0.567604 3.88328
-0.276684 0.509506 3.62801
-0.0752926 0.43612 3.95349
-0.0468572 0.514308 3.97222
-0.0443328 0.448061 4.01192
-0.0309533 0.436333 4.00202
-0.0438614 0.444207 3.9998
-0.0686688 0.428631 3.94552
-0.0268888 0.433722 4.00869
-0.0257328 0.427372 3.9794
-0.0673792 0.586323 3.87065
-0.0540705 0.580925 3.88601
-0.0472883 0.577422 3.90357
-0.180732 0.596196 3.85692
-0.191497 0.602962 3.85559
0.0130681 0.526348 3.98959
0.165039 0.587969 3.85356
0.0140512 0.431137 3.9788
0.252069 0.668877 3.73393
0.0946573 0.568496 3.88083
0.119386 0.566725 3.87891
0.142992 0.56679 3.8721
0.17388 0.578251 3.85029
0.073343 0.573953 3.8778
0.128912 0.628004 3.88669
0.102296 0.626932 3.88659
0.152858 0.623489 3.87859
0.168692 0.614626 3.86871
0.193461 0.560866 3.83799
0.0854003 0.234245 3.89277
0.173793 0.593309 3.84522
0.262857 0.566884 3.72692
0.220647 0.576313 3.81183
0.113899 0.464778 3.90685
0.0218234 0.364848 3.96168
0.0175608 0.340629 3.95036
0.0535084 0.358422 3.94697
0.0729363 0.349998 3.92857
0.0404886 0.340137 3.94058
0.0577122 0.338561 3.92313
0.104306 0.313656 3.88966
0.0130147 0.444209 4.02315
0.0164404 0.469227 4.02991
0.207331 0.640174 3.85875
0.0645811 0.526723 3.90908
0.0685096 0.450106 3.96088
0.0700761 0.463591 3.95297
0.186637 0.467732 3.87455
0.0150377 0.500396 4.01441
0.151233 0.669825 3.8993
0.184359 0.659449 3.88072
0.229375 0.713439 3.78111
0.0441028 0.652259 3.92253
0.0785915 0.61884 3.87978
0.121717 0.336882 3.88352
0.235732 0.342261 3.6657
0.0504071 0.435792 3.95202
0.0301047 0.427848 3.9543
0.0951465 0.335139 3.88731
0.0847892 0.336643 3.89399
0.198082 0.674479 3.86843
0.0691173 0.439047 3.94734
0.105725 0.669849 3.91364
0.110776 0.68961 3.9183
0.132176 0.771773 3.87402
0.2138 0.694694 3.83098
0.118923 0.730838 3.89823
0.222016 0.649494 3.83708
0.237192 0.657868 3.78895
0.0202679 0.350562 3.95908
0.0459935 0.347128 3.94513
0.0652808 0.343882 3.92795
0.0439592 0.431124 3.94682
0.0895579 0.335566 3.89084
0.080073 0.330164 3.90597
0.0823605 0.338133 3.89467
0.0384076 0.444611 3.98723
0.0532584 0.340237 3.91912
0.0355628 0.338986 3.93085
0.0148045 0.337773 3.94018
0.0259828 0.270165 3.92325
0.0238339 0.293425 3.94669
0.0218575 0.307613 3.94925
0.019279 0.319843 3.94343
0.0169393 0.328493 3.93898
0.0580964 0.332696 3.9176
0.0619726 0.329825 3.92145
0.0675206 0.323648 3.92455
0.0722256 0.315498 3.92024
0.0935921 0.377213 3.91889
0.259731 0.458184 3.6275
0.0693859 0.334004 3.90433
0.0744209 0.332869 3.90651
0.0215401 0.416449 3.95606
0.059889 0.423188 3.92939
0.0256336 0.421952 3.95591
0.0900098 0.512304 3.90075
0.130117 0.495971 3.89356
0.0736241 0.452358 3.93911
0.191867 0.749072 3.83076
0.176916 0.720258 3.86609
0.160524 0.688696 3.89474
0.0847654 0.296939 3.90288
0.0523699 0.684544 3.93083
0.058944 0.731362 3.91701
0.0675752 0.781541 3.89926
0.162776 0.570315 3.86079
0.2197 0.542478 3.82446
0.0597089 0.579613 3.87439
0.194782 0.607199 3.84731
0.0476012 0.542956 3.91777
0.0542507 0.459611 3.98545
0.24535 0.525178 3.79743
0.203285 0.526293 3.84791
0.172147 0.518343 3.87132
0.125212 0.522855 3.88269
0.0906444 0.53342 3.88791
0.0654046 0.545019 3.89454
0.0148154 0.576425 3.94238
0.241127 0.475125 3.80609
0.215727 0.610934 3.83484
0.00470729 0.431553 4.01196
0.062124 0.501963 3.92074
0.266906 0.564259 3.64468
0.0460746 0.558046 3.89795
0.0749004 0.450122 3.91384
0.180933 0.590908 3.84053
0.0553618 0.475997 3.97538
0.252622 0.401179 3.63979
0.0601694 0.588689 3.86819
0.0360639 0.491192 3.9994
0.186898 0.288628 3.79863
0.185012 0.26072 3.75504
0.261365 0.465649 3.71685
0.215483 0.321063 3.76716
0.250518 0.615541 3.75098
0.0906705 0.209557 3.87892
0.000450612 0.424884 3.97869
0.0841554 0.48392 3.91164
0.241266 0.570642 3.78738
0.140389 0.581831 3.86882
0.119273 0.580374 3.87535
0.0861056 0.325755 3.90173
0.235502 0.427062 3.79889
0.0454236 0.176082 3.87433
0.118849 0.207635 3.82286
0.149859 0.22924 3.7931
0.0984105 0.581788 3.87651
0.0784942 0.585102 3.87321
0.0658849 0.586619 3.86859
0.233104 0.614508 3.80935
0.0832196 0.606542 3.87636
0.105585 0.613869 3.87973
0.127242 0.614983 3.87826
0.14854 0.61037 3.87211
0.161415 0.603142 3.86427
0.263413 0.621585 3.68328
0.154839 0.584654 3.86072
0.0717407 0.390091 3.93228
0.0511625 0.439778 3.96116
0.0247976 0.397051 3.95534
0.155395 0.257148 3.82338
0.124382 0.232934 3.84927
0.0473098 0.193229 3.90447
0.211855 0.29559 3.70856
0.0672994 0.595829 3.87203
0.0315183 0.536551 3.95198
0.0853203 0.189116 3.85376
0.253343 0.413364 3.72161
0.0394804 0.330603 3.9296
0.0434303 0.324722 3.93399
0.0475874 0.315252 3.93809
0.0509538 0.302408 3.93491
0.0593193 0.281563 3.9164
0.0738435 0.33806 3.90775
0.0808061 0.339666 3.90793
0.0880427 0.34333 3.90765
0.111968 0.358874 3.90195
0.204114 0.41572 3.84948
0.0307761 0.561071 3.92826
0.0413317 0.606288 3.88436
0.0561974 0.601974 3.87601
0.0685418 0.34089 3.90506
0.205786 0.356815 3.8134
0.0222154 0.609754 3.9153
0.0729818 0.258915 3.90258
0.0146554 0.550059 3.96833
0.0480838 0.497402 3.95285
0.0342617 0.245643 3.91835
0.127726 0.30393 3.87448
0.0956133 0.431226 3.90839
0.10335 0.278053 3.88728
0.152373 0.436781 3.89698
0.118436 0.408182 3.90408
0.172262 0.398066 3.87787
0.0434227 0.217473 3.91706
0.0620834 0.482875 3.93539
0.148384 0.284967 3.85117
0.117219 0.257813 3.86834
0.146374 0.334468 3.87184
0.228352 0.385882 3.79056
0.176618 0.330565 3.84701
0.240094 0.365101 3.7333
0.137613 0.377854 3.89296
0.0463858 0.519473 3.93519
0.0465288 0.448719 3.99169
0.0612431 0.441919 3.96386
0.0368045 0.46544 4.00902
0.0618418 0.627853 3.89116
0.102331 0.640615 3.89388
0.136862 0.642279 3.89158
0.165256 0.637505 3.88174
0.184842 0.626521 3.86677
0.198136 0.583896 3.83023
0.265695 0.516672 3.72083
0.180298 0.551376 3.85136
0.155507 0.545309 3.86687
0.12299 0.546446 3.87734
0.0918733 0.552387 3.88178
0.0679078 0.560114 3.88247
0.0512683 0.567895 3.88402
0.26329 0.511225 3.62794
0.0601101 0.435241 3.9517
0.0316605 0.514359 3.97245
0.0299828 0.447748 4.011
0.0164074 0.435901 4.00126
0.0293658 0.44377 3.99912
0.0529346 0.427497 3.94344
0.012201 0.433416 4.00801
0.00853533 0.427082 3.97865
0.0511404 0.586676 3.87187
0.0381149 0.581216 3.8866
0.0315008 0.57771 3.90372
0.168513 0.597743 3.85585
0.180352 0.605166 3.85446
