ply
format ascii 1.0
comment Created by Open3D
element vertex 468
property double x
property double y
property double z
end_header
-0.00780123 0.360928 3.7784
-0.00839795 0.436606 3.84601
-0.00827731 0.40283 3.78472
-0.0275788 0.51955 3.80668
-0.00833898 0.464341 3.85068
-0.00850798 0.498888 3.83755
-0.00845937 0.575607 3.77147
-0.175511 0.579281 3.67434
-0.00828422 0.633715 3.75286
-0.00789972 0.669352 3.75694
-0.00718822 0.813122 3.72394
-0.00752779 0.349879 3.77675
-0.00750936 0.342275 3.77088
-0.0074397 0.339451 3.76064
-0.00531862 0.300348 3.75805
-0.00537234 0.291032 3.76285
-0.00554186 0.279674 3.76786
-0.00558102 0.264445 3.76404
-0.00598391 0.236972 3.74307
-0.00868815 0.42221 3.83528
-0.0303684 0.419373 3.80138
-0.253977 0.661008 3.57067
-0.103217 0.559944 3.70043
-0.126465 0.558719 3.699
-0.149731 0.558682 3.69306
-0.183731 0.570605 3.67118
-0.0853902 0.563046 3.69819
-0.141543 0.624739 3.6991
-0.115052 0.62156 3.70127
-0.165435 0.619899 3.69199
-0.181003 0.609897 3.68467
-0.199933 0.550766 3.6616
-0.0916599 0.201733 3.71103
-0.185957 0.585291 3.66599
-0.263434 0.542468 3.56344
-0.224678 0.561477 3.63983
-0.128374 0.456476 3.7286
-0.0422195 0.365523 3.7749
-0.0392552 0.343547 3.76614
-0.0766861 0.361596 3.75865
-0.0979349 0.354254 3.73498
-0.0644485 0.343914 3.75328
-0.0833561 0.340548 3.7312
-0.121716 0.302766 3.69094
-0.0274872 0.437781 3.84385
-0.0300311 0.465242 3.84794
-0.211952 0.632324 3.68268
-0.0778286 0.518295 3.72912
-0.0827499 0.445209 3.78265
-0.0836285 0.458931 3.77345
-0.199695 0.459754 3.698
-0.0289162 0.495739 3.8309
-0.157137 0.660951 3.72126
-0.189973 0.653035 3.70404
-0.232695 0.71558 3.61243
-0.0564598 0.636396 3.74533
-0.0928405 0.609666 3.69654
-0.141973 0.333426 3.68628
-0.233651 0.290641 3.50773
-0.0666717 0.427497 3.77516
-0.0467989 0.417367 3.77751
-0.124724 0.333881 3.68535
-0.113221 0.332626 3.6917
-0.201626 0.668548 3.6929
-0.08452 0.434987 3.76937
-0.113333 0.656785 3.73545
-0.11716 0.680351 3.73999
-0.142887 0.793734 3.69454
-0.216033 0.693843 3.65716
-0.127054 0.739768 3.71903
-0.225017 0.640994 3.66355
-0.238945 0.65021 3.62026
-0.0412086 0.352842 3.77316
-0.0699033 0.350655 3.75654
-0.0905997 0.347518 3.73416
-0.0614666 0.422282 3.77106
-0.119436 0.333712 3.6888
-0.104711 0.317297 3.70321
-0.109152 0.332062 3.69253
-0.0535754 0.436393 3.80988
-0.0792957 0.341843 3.72701
-0.0599043 0.342098 3.74365
-0.0365407 0.340716 3.75632
-0.0417915 0.239305 3.73927
-0.0398559 0.267955 3.75946
-0.0388535 0.28303 3.7621
-0.0369679 0.294017 3.75709
-0.0345529 0.301922 3.75314
-0.0790732 0.312484 3.72296
-0.0831123 0.310384 3.72511
-0.0882436 0.305059 3.72621
-0.0921847 0.296139 3.72152
-0.114832 0.372636 3.72859
-0.26003 0.410932 3.47463
-0.0085846 0.410312 3.80344
-0.0923891 0.317573 3.70491
-0.098841 0.318326 3.70515
-0.0387713 0.405198 3.77717
-0.0785292 0.41691 3.75216
-0.0426191 0.411213 3.77878
-0.101663 0.505282 3.72073
-0.141903 0.490112 3.71567
-0.0882612 0.447438 3.76036
-0.197949 0.760895 3.6547
-0.180479 0.724669 3.68844
-0.164494 0.682355 3.71722
-0.101116 0.275829 3.70693
-0.0639425 0.672897 3.75284
-0.0717957 0.744833 3.73649
-0.0813866 0.810035 3.71717
-0.171211 0.562198 3.68242
-0.224006 0.530323 3.65061
-0.0745086 0.566534 3.69558
-0.20247 0.598126 3.66903
-0.0614889 0.533317 3.73688
-0.067908 0.454006 3.80635
-0.247646 0.507813 3.62596
-0.208638 0.517881 3.67083
-0.178738 0.512411 3.69197
-0.13364 0.516189 3.70271
-0.100505 0.525058 3.70747
-0.0779329 0.535775 3.71441
-0.03038 0.567793 3.76309
-0.248149 0.45726 3.63466
-0.219524 0.599335 3.66035
-0.0203399 0.423512 3.83362
-0.0766837 0.493311 3.74078
-0.268538 0.531677 3.49037
-0.0612641 0.547045 3.71854
-0.0913629 0.442562 3.73605
-0.191864 0.581944 3.66212
-0.0685247 0.471027 3.79527
-0.251098 0.350869 3.48571
-0.0764422 0.574143 3.68975
-0.0490559 0.486598 3.81735
-0.186379 0.252232 3.62423
-0.179918 0.215642 3.58803
-0.264838 0.430876 3.55558
-0.217822 0.28169 3.59861
-0.252104 0.598845 3.58585
-0.0920622 0.174286 3.70055
-0.0178008 0.411241 3.8015
-0.0982185 0.476506 3.73243
-0.243215 0.552412 3.61871
-0.148546 0.572495 3.68912
-0.127169 0.571722 3.69489
-0.110264 0.314332 3.69913
-0.245919 0.402976 3.62819
-0.0510375 0.138662 3.69865
-0.114792 0.168113 3.65036
-0.143387 0.18777 3.62262
-0.00769068 0.745091 3.74201
-0.00718883 0.134137 3.70594
-0.107805 0.572933 3.696
-0.0899403 0.574365 3.69309
-0.0797624 0.573584 3.68976
-0.235289 0.600986 3.63803
-0.0980255 0.600403 3.6922
-0.118783 0.613026 3.69284
-0.140558 0.61581 3.69093
-0.162131 0.61028 3.68632
-0.174528 0.600264 3.68041
-0.265344 0.600867 3.52551
-0.164114 0.575293 3.68131
-0.00806475 0.388178 3.77633
-0.0914215 0.385287 3.74698
-0.0670302 0.431768 3.78571
-0.0428159 0.389051 3.77252
-0.00849648 0.605597 3.7529
-0.151877 0.221428 3.64455
-0.122392 0.197787 3.66996
-0.0533292 0.15863 3.72523
-0.208752 0.246211 3.54702
-0.0833537 0.583948 3.69155
-0.0456545 0.527852 3.77149
-0.00647954 0.153465 3.73116
-0.0853463 0.151142 3.67951
-0.257652 0.374619 3.56001
-0.0587644 0.306274 3.74002
-0.0627992 0.301084 3.74292
-0.0661873 0.291924 3.74486
-0.0687156 0.277931 3.74151
-0.0754259 0.253899 3.72549
-0.101938 0.338111 3.71015
-0.109082 0.341731 3.70858
-0.115473 0.346596 3.70876
-0.134245 0.356259 3.70751
-0.219047 0.39869 3.6748
-0.0454542 0.551016 3.74812
-0.0585491 0.592084 3.70615
-0.0735259 0.58922 3.69692
-0.0961335 0.339181 3.70727
-0.216374 0.32892 3.64001
-0.0384107 0.598157 3.73684
-0.0844708 0.229124 3.71608
-0.00856186 0.52432 3.8141
-0.029163 0.542807 3.78801
-0.00853143 0.548406 3.79273
-0.0622792 0.489796 3.77327
-0.00622617 0.179646 3.7422
-0.00600577 0.210329 3.74131
-0.0472132 0.212961 3.73447
-0.135886 0.286793 3.68174
-0.111012 0.423243 3.72943
-0.112065 0.254211 3.69643
-0.16863 0.426188 3.71897
-0.134783 0.398512 3.72098
-0.187846 0.384179 3.69839
-0.0525052 0.183768 3.73526
-0.0761645 0.475778 3.75607
-0.150132 0.257861 3.66606
-0.120318 0.227814 3.68388
-0.157731 0.322968 3.68144
-0.237994 0.356528 3.62028
-0.184717 0.308484 3.66525
-0.243034 0.323442 3.56916
-0.155013 0.371312 3.70633
-0.0607717 0.510168 3.75458
-0.0609078 0.442302 3.81417
-0.0761835 0.435985 3.78649
-0.0498871 0.459949 3.82879
-0.076154 0.613814 3.71156
-0.113408 0.631093 3.7132
-0.147242 0.63576 3.70894
-0.175047 0.631803 3.69896
-0.193773 0.620123 3.68658
-0.20486 0.572634 3.65453
-0.266627 0.486422 3.55786
-0.186699 0.542744 3.67349
-0.161153 0.537206 3.68807
-0.129535 0.538332 3.69725
-0.100858 0.543304 3.70096
-0.0803975 0.549574 3.70294
-0.0665713 0.555622 3.70441
-0.264674 0.470264 3.4753
-0.0760841 0.429629 3.77477
-0.0457162 0.506628 3.79106
-0.043728 0.440777 3.83248
-0.0317638 0.427243 3.82313
-0.0443632 0.435718 3.82148
-0.0708658 0.42121 3.76659
-0.0273923 0.425206 3.82965
-0.0250621 0.414341 3.80156
-0.0685093 0.571775 3.69405
-0.0556956 0.568252 3.70846
-0.0483994 0.566083 3.72516
-0.181234 0.592266 3.67432
-0.191242 0.597874 3.67322
0.0106299 0.519126 3.80669
0.157313 0.576616 3.67483
0.0128418 0.418834 3.80146
0.238935 0.658571 3.5711
0.0857076 0.557422 3.70087
0.108742 0.556073 3.69947
0.131929 0.556148 3.6938
0.165417 0.567918 3.67158
0.0675958 0.560945 3.69874
0.124391 0.62236 3.69961
0.0978595 0.619799 3.70207
0.148098 0.617138 3.69267
0.163427 0.606917 3.68547
0.182128 0.548264 3.66247
0.0783173 0.201051 3.71104
0.167571 0.582451 3.66646
0.246347 0.540594 3.56326
0.207264 0.558949 3.6402
0.111764 0.455383 3.72923
0.0270222 0.365754 3.77508
0.0246729 0.343954 3.76655
0.0619922 0.361819 3.7588
0.0838954 0.35467 3.73521
0.0500537 0.34443 3.75368
0.0694631 0.341387 3.7315
0.109002 0.30285 3.69142
0.0107546 0.437512 3.84387
0.0130924 0.46489 3.84788
0.195668 0.628781 3.68355
0.0609131 0.51705 3.72957
0.0654918 0.44389 3.7828
0.0665611 0.457592 3.7737
0.182155 0.458338 3.69883
0.0119093 0.495224 3.83095
0.14124 0.658273 3.72195
0.173931 0.649652 3.70493
0.218696 0.712868 3.6129
0.0400857 0.635567 3.74553
0.0758339 0.608079 3.69691
0.12818 0.333605 3.68644
0.215031 0.288715 3.50715
0.0493803 0.426303 3.7757
0.0296144 0.416742 3.77788
0.11204 0.334999 3.68557
0.100354 0.333824 3.69186
0.18622 0.665081 3.69401
0.0671181 0.433785 3.76961
0.0972098 0.654775 3.73607
0.101491 0.678387 3.74037
0.128101 0.791804 3.69472
0.201472 0.690825 3.65797
0.111838 0.737664 3.71942
0.209105 0.637381 3.66437
0.223621 0.647098 3.62099
0.0265279 0.352997 3.77321
0.0556026 0.351074 3.75699
0.0769314 0.348137 3.73467
0.0440615 0.421359 3.77135
0.106577 0.334906 3.68889
0.0931488 0.318292 3.70361
0.0960957 0.333166 3.69291
0.0360479 0.435035 3.81002
0.0652494 0.342999 3.72722
0.0456325 0.342863 3.74409
0.0220282 0.341201 3.75666
0.0298834 0.239814 3.73982
0.0289911 0.268443 3.76015
0.0281282 0.283349 3.76269
0.0264025 0.294413 3.75761
0.0239012 0.302177 3.75362
0.0681664 0.313369 3.72331
0.0722423 0.311321 3.72585
0.0774225 0.305808 3.72683
0.0812164 0.296928 3.72216
0.0997032 0.372634 3.72879
0.241749 0.409141 3.47441
0.0809223 0.318477 3.70513
0.0874082 0.319479 3.70557
0.0218191 0.404913 3.77734
0.0610478 0.416283 3.75247
0.0254677 0.410764 3.77913
0.0849007 0.503881 3.72141
0.124835 0.48867 3.7165
0.071138 0.446365 3.76068
0.183661 0.758617 3.65555
0.165712 0.721934 3.68915
0.148742 0.679615 3.71798
0.0891762 0.276251 3.70746
0.0483621 0.672018 3.75273
0.0564386 0.743557 3.73638
0.0666539 0.809099 3.71731
0.153077 0.559663 3.68296
0.206239 0.52786 3.65109
0.0567644 0.564649 3.69587
0.185299 0.595009 3.66969
0.0446514 0.532348 3.73726
0.0505829 0.452647 3.80657
0.229635 0.505488 3.6264
0.190549 0.515374 3.6712
0.161264 0.510168 3.69243
0.116502 0.514244 3.70345
0.0834846 0.523309 3.70799
0.0609012 0.534406 3.71495
0.0137103 0.567488 3.76329
0.229382 0.455177 3.63457
0.202928 0.596444 3.66097
0.00295605 0.423194 3.83357
0.0600485 0.492244 3.74114
0.251349 0.530124 3.49007
0.0442085 0.545875 3.71898
0.0743475 0.441703 3.73623
0.173622 0.579085 3.66261
0.0513164 0.469897 3.79539
0.232481 0.348753 3.48537
0.0586272 0.572424 3.69001
0.0318765 0.485781 3.8174
0.170293 0.250753 3.624
0.163003 0.214026 3.58748
0.246125 0.428922 3.55545
0.200492 0.280026 3.59796
0.235819 0.596512 3.58594
0.0782933 0.173351 3.70001
0.000550588 0.411067 3.80171
0.081576 0.475489 3.73273
0.225875 0.549999 3.61879
0.130609 0.569706 3.68948
0.109359 0.568999 3.6953
0.0986472 0.315239 3.69966
0.227307 0.401488 3.62847
0.036735 0.138129 3.69858
0.0997608 0.166546 3.64982
0.127742 0.186014 3.62211
0.0899995 0.570302 3.6965
0.0722212 0.572046 3.69354
0.0620368 0.571491 3.69022
0.218695 0.598143 3.63835
0.0801204 0.598801 3.69277
0.100546 0.611234 3.69344
0.122062 0.613874 3.69175
0.143399 0.608096 3.68676
0.155979 0.597928 3.68126
0.249002 0.599037 3.52546
0.146068 0.572483 3.68189
0.0752417 0.385091 3.7472
0.0496265 0.43038 3.78607
0.0268995 0.388913 3.77256
0.136852 0.219823 3.64453
0.107948 0.196435 3.66986
0.0399102 0.158122 3.72529
0.190712 0.244753 3.54675
0.0654235 0.582299 3.69198
0.0287935 0.527034 3.77168
0.0706424 0.150138 3.67923
0.238617 0.373119 3.55988
0.0480389 0.306732 3.74064
0.0522238 0.301694 3.74374
0.0555686 0.292596 3.74565
0.0579422 0.278599 3.74214
0.0636953 0.254531 3.72607
0.088563 0.339252 3.71044
0.0957281 0.342686 3.70929
0.102113 0.347192 3.70903
0.119868 0.356514 3.70742
0.201331 0.397776 3.67572
0.0287028 0.55039 3.74859
0.0414716 0.591075 3.70641
0.0561121 0.58784 3.69692
0.0825801 0.340346 3.70744
0.199277 0.327878 3.64033
0.0215897 0.59769 3.73698
0.0718649 0.22919 3.7163
0.0122679 0.542343 3.78818
0.0453407 0.488986 3.77359
0.0350042 0.213068 3.73487
0.121887 0.286079 3.68236
0.0943459 0.422435 3.72997
0.0987327 0.253796 3.69694
0.152014 0.425354 3.71995
0.119131 0.397766 3.72146
0.171285 0.383297 3.6992
0.03969 0.183538 3.73541
0.0593237 0.47469 3.75629
0.135451 0.25678 3.66641
0.106563 0.226825 3.68408
0.143025 0.32251 3.68208
0.219889 0.355157 3.62053
0.168834 0.307621 3.66581
0.224633 0.321919 3.56902
0.139731 0.371081 3.70711
0.0439483 0.509332 3.75496
0.0433932 0.440929 3.81434
0.0589915 0.434657 3.78676
0.032824 0.459133 3.82928
0.0591414 0.612541 3.712
0.0965347 0.628943 3.71375
0.130422 0.633195 3.70964
0.158233 0.6287 3.69969
0.176806 0.616751 3.68729
0.187471 0.569769 3.65527
0.248803 0.484413 3.55755
0.168842 0.540219 3.67421
0.143593 0.534742 3.68873
0.112264 0.535898 3.6979
0.083589 0.541176 3.70153
0.0630858 0.547802 3.70353
0.0492223 0.554166 3.70479
0.24694 0.468739 3.47518
0.0586284 0.428417 3.77505
0.0287885 0.50596 3.79111
0.0266183 0.439877 3.83267
0.0140781 0.426604 3.82337
0.0268763 0.434619 3.82161
0.0532702 0.420348 3.76689
0.0100117 0.42473 3.82984
0.00775937 0.413949 3.80169
0.0508626 0.570261 3.69421
0.0384453 0.567093 3.70866
0.0314425 0.565325 3.72518
0.162862 0.589738 3.67501
0.173517 0.594963 3.6741
