ply
format ascii 1.0
comment Created by Open3D
element vertex 468
property double x
property double y
property double z
end_header
0.0875308 0.365405 3.68298
0.0969122 0.441615 3.76926
0.0961996 0.410517 3.69587
0.0700761 0.529641 3.72559
0.0960367 0.470695 3.77642
0.0934437 0.506961 3.76203
0.0923809 0.587079 3.68416
-0.105035 0.586331 3.56508
0.0911056 0.634097 3.66497
0.08998 0.667276 3.66923
0.0863418 0.815843 3.6292
0.0857873 0.353513 3.67934
0.0842027 0.345998 3.67166
0.0835517 0.344527 3.65963
0.0874195 0.303671 3.65245
0.0869613 0.295122 3.6585
0.0849703 0.284151 3.66603
0.0851427 0.268714 3.66445
0.0884163 0.234578 3.64597
0.095431 0.425867 3.75533
0.0671035 0.424498 3.71319
-0.23083 0.675049 3.4302
-0.022981 0.571801 3.59548
-0.0518828 0.570165 3.59363
-0.0806707 0.56972 3.58598
-0.121313 0.577068 3.56043
0.00100808 0.575722 3.59325
-0.0682115 0.623011 3.60174
-0.037375 0.622303 3.59998
-0.0953205 0.618276 3.59305
-0.11347 0.609697 3.58125
-0.145783 0.560226 3.54545
-0.0192531 0.180331 3.60628
-0.11762 0.58871 3.55589
-0.237736 0.551722 3.4187
-0.180386 0.568137 3.51661
-0.0595043 0.466702 3.62058
0.0407257 0.370203 3.67655
0.0396956 0.347046 3.6632
-0.00881538 0.365343 3.65304
-0.040663 0.357728 3.62192
0.00306192 0.347477 3.64569
-0.0230951 0.345113 3.61699
-0.0672842 0.30205 3.57189
0.0718472 0.441661 3.76455
0.0678805 0.471019 3.77065
-0.161289 0.628253 3.57822
0.00634251 0.529964 3.62813
-0.0048222 0.45319 3.68654
-0.00620397 0.468292 3.67627
-0.151664 0.470864 3.58273
0.068504 0.503746 3.75378
-0.0857465 0.655251 3.62832
-0.129586 0.646627 3.60766
-0.198946 0.728937 3.48364
0.0378071 0.636629 3.65623
-0.0089732 0.615455 3.5922
-0.09513 0.335788 3.5656
-0.216896 0.271301 3.35526
0.0179438 0.434661 3.6771
0.0441042 0.42517 3.68117
-0.0744134 0.33933 3.56256
-0.0618807 0.338753 3.5681
-0.146328 0.662848 3.5914
-0.00871238 0.443846 3.66876
-0.0292186 0.653164 3.6446
-0.0356882 0.676786 3.64856
-0.0772751 0.802876 3.5886
-0.170867 0.698744 3.54212
-0.0518541 0.744509 3.61947
-0.180464 0.638902 3.55276
-0.204305 0.655992 3.49273
0.0390899 0.35582 3.67239
-0.00192247 0.353975 3.65003
-0.0316331 0.351093 3.62105
0.0248946 0.430021 3.67164
-0.0683199 0.339587 3.56505
-0.0487592 0.321826 3.58263
-0.0582756 0.337615 3.56969
0.0353408 0.440154 3.72266
-0.019724 0.347752 3.61192
0.00827796 0.347559 3.6346
0.0417487 0.345924 3.65221
0.0419789 0.235784 3.63854
0.0401303 0.271627 3.6574
0.0414188 0.287392 3.65916
0.0449759 0.297893 3.65124
0.0477831 0.305102 3.64584
-0.0155659 0.315935 3.60614
-0.0204829 0.313967 3.60896
-0.0268942 0.308263 3.61058
-0.0304476 0.298709 3.60615
-0.0536078 0.377788 3.61535
-0.240478 0.40977 3.3125
0.098921 0.416319 3.71851
-0.0342546 0.322174 3.58536
-0.0416412 0.323609 3.58494
0.0544024 0.413308 3.6838
0.00174285 0.426653 3.6461
0.0492567 0.418924 3.68376
-0.0244254 0.517485 3.6183
-0.0752222 0.502783 3.60998
-0.0128158 0.457428 3.65875
-0.149503 0.772953 3.53759
-0.120774 0.728753 3.58172
-0.0956931 0.677257 3.62101
-0.0381869 0.273303 3.59358
0.0277533 0.672234 3.66387
0.0145875 0.749883 3.64017
-0.00165111 0.816059 3.61693
-0.10653 0.571395 3.5731
-0.17918 0.540872 3.52751
0.0159744 0.579733 3.59103
-0.146637 0.599137 3.55863
0.0272355 0.545243 3.64
0.0171114 0.459934 3.71743
-0.214265 0.516766 3.49659
-0.158108 0.53041 3.55374
-0.120107 0.526114 3.57969
-0.063335 0.529218 3.59724
-0.0209353 0.537503 3.60376
0.00789411 0.547782 3.61215
0.0658987 0.579544 3.67347
-0.216569 0.464479 3.50493
-0.173837 0.600811 3.54572
0.0793673 0.426747 3.75279
0.00661019 0.504419 3.64012
-0.246743 0.542612 3.33142
0.0302428 0.559565 3.61787
-0.0134029 0.454025 3.62745
-0.128901 0.585888 3.5507
0.0151249 0.478854 3.7044
-0.234398 0.340846 3.32629
0.0134733 0.586372 3.58387
0.0414154 0.494091 3.73487
-0.153331 0.230038 3.49244
-0.148501 0.183055 3.45417
-0.241017 0.432089 3.40742
-0.195471 0.26266 3.45934
-0.22141 0.608468 3.44865
-0.0212888 0.143802 3.59729
0.0867904 0.417333 3.71526
-0.021606 0.487513 3.62741
-0.207609 0.559161 3.48824
-0.0732278 0.584378 3.58245
-0.0487236 0.584414 3.59049
-0.0551143 0.317781 3.57863
-0.218763 0.403942 3.4942
0.0365906 0.104147 3.60133
-0.0547984 0.130211 3.53714
-0.0976008 0.151122 3.49968
0.0886681 0.747698 3.6492
0.097054 0.103825 3.61076
-0.0262507 0.585842 3.59198
-0.00442138 0.587712 3.5893
0.00864763 0.586901 3.58511
-0.196985 0.604 3.51687
-0.0146597 0.602495 3.58991
-0.0413148 0.608663 3.59342
-0.0642823 0.609067 3.59215
-0.0874773 0.604553 3.58546
-0.102109 0.597601 3.57582
-0.243141 0.615654 3.37433
-0.0911908 0.585286 3.57379
0.093643 0.395005 3.68484
-0.0202019 0.392378 3.64123
0.0183394 0.437505 3.68866
0.0455736 0.39627 3.67755
0.0915753 0.611838 3.66283
-0.105466 0.195419 3.52195
-0.0645753 0.167812 3.55684
0.0316263 0.131214 3.63056
-0.186926 0.219348 3.40484
0.00418312 0.59304 3.58781
0.0476326 0.538566 3.68031
0.094371 0.129965 3.63923
-0.012227 0.113905 3.57591
-0.238231 0.368319 3.41162
0.0137568 0.309589 3.62831
0.00879826 0.304543 3.6322
0.0044951 0.295745 3.63615
0.00264415 0.281107 3.63323
-0.00348541 0.250558 3.61928
-0.0494252 0.343517 3.5904
-0.056866 0.346493 3.58975
-0.0648341 0.350802 3.58945
-0.0831034 0.360366 3.58825
-0.184272 0.40149 3.54972
0.0479769 0.563091 3.65477
0.0370778 0.602479 3.60153
0.0173227 0.599916 3.59217
-0.0434076 0.345828 3.58786
-0.188148 0.320918 3.50648
0.0575669 0.605936 3.64116
-0.0119276 0.217096 3.61069
0.0932191 0.534227 3.73409
0.0675818 0.553638 3.70123
0.0931394 0.559551 3.70809
0.025044 0.499149 3.67872
0.0922644 0.164127 3.65139
0.0903551 0.202833 3.64807
0.0379476 0.202428 3.63685
-0.0827908 0.280026 3.56347
-0.0404614 0.432925 3.61895
-0.0497226 0.243402 3.5838
-0.113857 0.434094 3.60486
-0.0740386 0.405423 3.60687
-0.14444 0.386889 3.57672
0.0320704 0.164857 3.64078
0.00528121 0.485802 3.65611
-0.100401 0.242774 3.54563
-0.0593073 0.208074 3.57093
-0.112844 0.320722 3.56207
-0.2144 0.350532 3.48308
-0.147619 0.299511 3.53847
-0.22495 0.310349 3.42458
-0.107199 0.37545 3.58781
0.0279499 0.521202 3.65906
0.0256189 0.446112 3.72643
0.00429339 0.442331 3.69023
0.041638 0.465403 3.74785
0.0153383 0.618974 3.60964
-0.0310696 0.631017 3.61423
-0.0722281 0.63412 3.61235
-0.107128 0.630058 3.60065
-0.133271 0.618508 3.58283
-0.151366 0.577615 3.53858
-0.242014 0.492512 3.41231
-0.127821 0.553104 3.56003
-0.0970533 0.549267 3.57835
-0.0577964 0.550278 3.59117
-0.0206068 0.555035 3.59547
0.0065968 0.561796 3.59828
0.025094 0.568254 3.60026
-0.243295 0.475814 3.31408
0.00368709 0.437133 3.6753
0.0479509 0.516549 3.70434
0.0493485 0.443881 3.74972
0.0630623 0.429878 3.73836
0.0476432 0.438313 3.73598
0.0108975 0.429543 3.66451
0.0696106 0.428023 3.74676
0.0753029 0.419619 3.71391
0.0250772 0.584785 3.58771
0.0389307 0.580537 3.60436
0.0459622 0.578091 3.62614
-0.111158 0.592491 3.56749
-0.127828 0.599049 3.56464
0.116808 0.528784 3.72348
0.279079 0.586589 3.56195
0.124776 0.425268 3.71795
0.373461 0.658188 3.4331
0.197405 0.568909 3.58557
0.223494 0.567559 3.58475
0.250165 0.566887 3.5796
0.288626 0.576553 3.55812
0.17736 0.573633 3.58641
0.236623 0.621017 3.59685
0.208335 0.619895 3.59789
0.263109 0.616904 3.58939
0.280459 0.608935 3.57961
0.310998 0.556437 3.54821
0.199284 0.190051 3.61296
0.290049 0.589868 3.55433
0.389185 0.5436 3.4258
0.339415 0.56387 3.52284
0.232774 0.463958 3.62903
0.12923 0.37052 3.68133
0.122193 0.347125 3.66707
0.171124 0.366191 3.66294
0.198062 0.356946 3.63309
0.153902 0.347266 3.65127
0.179427 0.34353 3.62518
0.230341 0.302343 3.58279
0.119434 0.44262 3.76832
0.120318 0.471061 3.77427
0.316504 0.627328 3.57912
0.172787 0.527086 3.62762
0.185658 0.452675 3.69673
0.185378 0.466942 3.68518
0.313612 0.466968 3.59273
0.118493 0.503073 3.75309
0.252131 0.654451 3.62973
0.289891 0.646193 3.60861
0.344544 0.711105 3.48697
0.140711 0.635075 3.65404
0.186291 0.612996 3.58957
0.255095 0.33435 3.57655
0.379441 0.283834 3.36444
0.168916 0.435052 3.68707
0.14469 0.425495 3.69336
0.234526 0.335456 3.57383
0.218637 0.33465 3.57956
0.30429 0.661259 3.59412
0.188332 0.442853 3.68185
0.202653 0.651612 3.64544
0.207277 0.674757 3.65155
0.237743 0.7894 3.5928
0.322268 0.688632 3.54624
0.220949 0.73676 3.623
0.333147 0.635568 3.55508
0.35283 0.646126 3.49746
0.12608 0.356236 3.67672
0.161821 0.354094 3.65707
0.188698 0.350245 3.63108
0.162702 0.430564 3.6844
0.227095 0.335605 3.57754
0.208431 0.319548 3.59515
0.212233 0.333684 3.58015
0.150695 0.441146 3.72534
0.173094 0.345423 3.61985
0.148877 0.346519 3.63928
0.118742 0.345301 3.65432
0.130848 0.237968 3.64392
0.125621 0.271843 3.66013
0.124409 0.287563 3.65996
0.124615 0.297996 3.65184
0.122362 0.305083 3.64616
0.17652 0.314822 3.61351
0.180284 0.313125 3.61895
0.185743 0.307783 3.62225
0.191832 0.298512 3.61731
0.222598 0.376924 3.62969
0.404131 0.40943 3.31955
0.194197 0.319443 3.59202
0.201562 0.321137 3.59551
0.135324 0.413075 3.6904
0.182789 0.426097 3.66375
0.139759 0.418978 3.69368
0.201288 0.513752 3.61784
0.246191 0.498145 3.6136
0.19185 0.455863 3.67009
0.3007 0.755887 3.54359
0.28027 0.719832 3.58687
0.261645 0.675198 3.62316
0.205169 0.275691 3.60144
0.148858 0.669919 3.66486
0.159701 0.745002 3.64307
0.168437 0.808504 3.62292
0.274204 0.569684 3.56906
0.340104 0.535474 3.53469
0.167123 0.578102 3.58317
0.309012 0.598432 3.55895
0.153366 0.542883 3.63763
0.166294 0.459983 3.72438
0.370157 0.511447 3.50423
0.322238 0.524415 3.55796
0.288055 0.519945 3.58229
0.237053 0.524421 3.59499
0.199044 0.533666 3.59985
0.171199 0.545085 3.60891
0.11822 0.578349 3.67194
0.375708 0.46136 3.51462
0.329003 0.59764 3.54797
0.109677 0.427055 3.75381
0.175216 0.501906 3.64211
0.402955 0.531572 3.33425
0.152939 0.557295 3.61409
0.198073 0.452278 3.64078
0.29816 0.586276 3.5493
0.165076 0.47813 3.7109
0.397469 0.347635 3.33634
0.17015 0.585474 3.57511
0.14089 0.493391 3.73658
0.319018 0.24645 3.50458
0.315094 0.20373 3.46257
0.403402 0.43207 3.41821
0.355538 0.277131 3.47399
0.373049 0.597976 3.4535
0.20477 0.156413 3.60229
0.111193 0.417241 3.71742
0.19979 0.484737 3.63319
0.361761 0.553889 3.49472
0.249275 0.58295 3.57565
0.224734 0.582252 3.58066
0.215522 0.315761 3.59081
0.378556 0.405966 3.50898
0.156029 0.111626 3.60191
0.239111 0.147224 3.53922
0.273602 0.171313 3.5039
0.202567 0.583428 3.58247
0.183887 0.58526 3.57894
0.174149 0.585127 3.57473
0.347984 0.598515 3.52003
0.189478 0.601305 3.58219
0.209376 0.607861 3.58783
0.232438 0.609433 3.58712
0.256565 0.605441 3.58162
0.272098 0.598799 3.57387
0.393509 0.60078 3.37784
0.266719 0.584482 3.56851
0.195229 0.391639 3.65406
0.167915 0.43868 3.69998
0.135655 0.396238 3.68287
0.279448 0.212247 3.53161
0.242688 0.184255 3.56506
0.154208 0.137793 3.63225
0.349904 0.236524 3.41229
0.176565 0.592038 3.57795
0.136662 0.537273 3.68019
0.201559 0.126958 3.57642
0.398268 0.374083 3.4261
0.152208 0.30928 3.63182
0.155898 0.304366 3.63719
0.15903 0.295458 3.6409
0.163255 0.281195 3.6383
0.173414 0.252914 3.6239
0.202676 0.34063 3.60076
0.212689 0.34356 3.60003
0.220716 0.348088 3.60119
0.246034 0.358654 3.60146
0.341917 0.402874 3.5655
0.135529 0.561238 3.6524
0.148929 0.601356 3.59942
0.165387 0.598193 3.58535
0.194876 0.342326 3.59648
0.347242 0.329018 3.52384
0.125418 0.604743 3.64044
0.185817 0.22373 3.61748
0.116785 0.553 3.70149
0.156967 0.498007 3.68284
0.139956 0.206577 3.64215
0.250121 0.284989 3.57311
0.218247 0.431013 3.63192
0.219696 0.25009 3.59286
0.27866 0.433139 3.61931
0.244122 0.404224 3.62006
0.305238 0.388555 3.59257
0.150028 0.17016 3.64323
0.175346 0.483996 3.66251
0.271686 0.25397 3.55552
0.234765 0.219956 3.58043
0.275754 0.322962 3.57036
0.372806 0.357209 3.5009
0.308588 0.307923 3.55218
0.38468 0.320634 3.43837
0.267953 0.374439 3.60099
0.155348 0.519295 3.65891
0.158007 0.447089 3.73137
0.177907 0.443015 3.70217
0.144889 0.465759 3.75107
0.166586 0.617918 3.60583
0.206026 0.630345 3.61285
0.24302 0.633063 3.61161
0.274719 0.628549 3.60018
0.296528 0.617858 3.58331
0.315042 0.575839 3.54082
0.399794 0.487821 3.41843
0.29586 0.54921 3.56039
0.266503 0.544751 3.57681
0.230124 0.546366 3.58644
0.197259 0.551773 3.58918
0.172747 0.559439 3.59418
0.157651 0.566457 3.59628
0.404198 0.469207 3.31649
0.178428 0.437285 3.68866
0.138241 0.515257 3.70388
0.138635 0.445506 3.75458
0.122414 0.43152 3.74345
0.138621 0.440206 3.7405
0.172654 0.429518 3.68017
0.117686 0.429143 3.75073
0.119299 0.420367 3.71817
0.160756 0.583894 3.58224
0.145242 0.579199 3.60159
0.137085 0.576551 3.62485
0.281935 0.593676 3.56594
0.294617 0.599367 3.56488
