ply
format ascii 1.0
comment Created by Open3D
element vertex 468
property double x
property double y
property double z
end_header
0.00474154 0.373206 3.83404
0.00500382 0.437107 3.9037
0.00521638 0.40847 3.84125
-0.0147767 0.51541 3.8643
0.00506341 0.463649 3.90959
0.00474229 0.495886 3.89682
0.00494459 0.568999 3.82559
-0.172172 0.567382 3.72876
0.00422676 0.634937 3.80205
0.00400761 0.671661 3.80441
0.00407734 0.798939 3.77607
0.00454394 0.363476 3.8318
0.00459071 0.356902 3.82601
0.00445066 0.355156 3.816
0.00627429 0.302251 3.80816
0.00631335 0.293803 3.8131
0.00604595 0.283902 3.81857
0.00606271 0.270881 3.81446
0.00594279 0.248896 3.79427
0.00491953 0.423258 3.89226
-0.0159493 0.421954 3.85828
-0.26442 0.653061 3.61097
-0.0974822 0.547076 3.75736
-0.123106 0.546038 3.75494
-0.147726 0.547691 3.74759
-0.18208 0.559623 3.72475
-0.0765869 0.551045 3.7535
-0.134978 0.618519 3.75619
-0.106802 0.615335 3.75735
-0.160917 0.612949 3.74781
-0.178037 0.601496 3.73924
-0.201679 0.543201 3.71278
-0.0831562 0.221771 3.76188
-0.182006 0.572908 3.71935
-0.273405 0.539923 3.60486
-0.228569 0.555641 3.68728
-0.124551 0.456489 3.78544
-0.0335374 0.377067 3.83086
-0.0317145 0.3583 3.82157
-0.0724201 0.373592 3.8141
-0.097401 0.367845 3.78856
-0.0599854 0.358444 3.80813
-0.081672 0.356229 3.78447
-0.121122 0.318685 3.74193
-0.0143344 0.438024 3.90125
-0.0168642 0.463967 3.90654
-0.214545 0.626601 3.73034
-0.0682046 0.51192 3.78449
-0.0703334 0.445364 3.84059
-0.0717274 0.458217 3.83206
-0.204397 0.460365 3.75167
-0.0160355 0.492794 3.88985
-0.156407 0.659625 3.76864
-0.190772 0.64853 3.75017
-0.241442 0.70565 3.65481
-0.0490299 0.638984 3.79396
-0.0828322 0.603138 3.75241
-0.142828 0.349771 3.73815
-0.236254 0.303059 3.55099
-0.0531386 0.429649 3.83247
-0.033006 0.42057 3.83377
-0.127504 0.35133 3.73649
-0.114822 0.349001 3.74285
-0.20486 0.664366 3.73852
-0.0725251 0.436418 3.82715
-0.11053 0.658431 3.78373
-0.115344 0.681077 3.78821
-0.142734 0.780981 3.74438
-0.222701 0.685779 3.70181
-0.126047 0.732072 3.76792
-0.230071 0.635836 3.70959
-0.247277 0.643193 3.66331
-0.0334066 0.365956 3.82845
-0.0657172 0.364249 3.81146
-0.0896534 0.362399 3.7879
-0.0479034 0.424981 3.82685
-0.121752 0.350684 3.73981
-0.105851 0.33016 3.75418
-0.109991 0.347724 3.74365
-0.0398156 0.436552 3.86689
-0.0774711 0.358134 3.78091
-0.0552427 0.358091 3.79881
-0.0289606 0.356624 3.81201
-0.0334772 0.251303 3.79105
-0.0324784 0.274879 3.81048
-0.0314833 0.287898 3.81306
-0.0296796 0.297387 3.80767
-0.0270358 0.304571 3.80335
-0.0771407 0.320183 3.77302
-0.0818312 0.318624 3.77568
-0.0876477 0.314524 3.77812
-0.0917426 0.307054 3.77318
-0.11227 0.382365 3.78207
-0.266872 0.417511 3.5128
0.00523217 0.413941 3.85999
-0.0917216 0.328598 3.75485
-0.0992952 0.330362 3.75577
-0.0258175 0.410138 3.83399
-0.067054 0.421326 3.80865
-0.0290872 0.415203 3.83495
-0.0956996 0.499977 3.77673
-0.140651 0.487135 3.77052
-0.0771073 0.448073 3.81838
-0.203451 0.749424 3.701
-0.184649 0.716688 3.73588
-0.165717 0.680359 3.7647
-0.0991257 0.290593 3.75778
-0.0574007 0.675446 3.80065
-0.0654445 0.736105 3.78669
-0.0759934 0.796197 3.76933
-0.169535 0.551659 3.73593
-0.228955 0.525497 3.70028
-0.0634534 0.555969 3.75042
-0.202703 0.589271 3.71927
-0.0503134 0.526715 3.79209
-0.0548566 0.453232 3.8645
-0.254722 0.505137 3.6736
-0.212782 0.514055 3.72294
-0.180881 0.509053 3.74589
-0.131918 0.510511 3.75717
-0.0948921 0.517459 3.76273
-0.0687976 0.527581 3.769
-0.017658 0.561295 3.81677
-0.255908 0.457981 3.68305
-0.222732 0.592692 3.70831
-0.00656105 0.424387 3.89078
-0.0661686 0.489913 3.7979
-0.279434 0.532414 3.5269
-0.0499978 0.539738 3.77251
-0.0809284 0.444749 3.79336
-0.190081 0.571161 3.71423
-0.0558334 0.469242 3.85381
-0.256021 0.360136 3.52583
-0.0640512 0.563772 3.74442
-0.036279 0.483764 3.87632
-0.184799 0.268708 3.67257
-0.176533 0.234095 3.63457
-0.273084 0.434277 3.59805
-0.220646 0.293874 3.64636
-0.261435 0.593808 3.6275
-0.0819893 0.198526 3.75065
-0.00351875 0.414842 3.85815
-0.0904115 0.474572 3.78972
-0.249828 0.547966 3.66406
-0.145546 0.56017 3.74511
-0.123153 0.558314 3.75153
-0.11175 0.328188 3.75034
-0.254215 0.407055 3.67769
-0.0392756 0.168019 3.74907
-0.104927 0.193418 3.69778
-0.135992 0.210175 3.66935
0.00407341 0.735928 3.79329
0.00490891 0.163872 3.75626
-0.10178 0.559046 3.75263
-0.081518 0.56111 3.74905
-0.0691884 0.561897 3.74465
-0.241253 0.595629 3.68392
-0.0873454 0.587009 3.75027
-0.109717 0.597526 3.75209
-0.1318 0.59971 3.75026
-0.154056 0.594784 3.74437
-0.168025 0.586212 3.7372
-0.276491 0.597294 3.56329
-0.16098 0.563409 3.73648
0.00521876 0.395462 3.83262
-0.0845815 0.392917 3.80225
-0.0534119 0.432899 3.84219
-0.0322069 0.395997 3.82892
0.00471928 0.601744 3.80533
-0.145965 0.241465 3.69315
-0.113955 0.22065 3.71936
-0.0421209 0.183449 3.77634
-0.208634 0.261208 3.59223
-0.0713522 0.572482 3.74712
-0.0334571 0.522556 3.82719
0.00518758 0.179744 3.78212
-0.0742954 0.178738 3.72833
-0.265246 0.380553 3.60457
-0.0544828 0.310968 3.79012
-0.0590344 0.306449 3.79326
-0.0628069 0.298828 3.79649
-0.0650422 0.28692 3.79278
-0.0709963 0.267036 3.77667
-0.102717 0.354572 3.7618
-0.110685 0.357892 3.7603
-0.117432 0.362124 3.76059
-0.134632 0.369284 3.75919
-0.225933 0.403076 3.72715
-0.0333788 0.544799 3.80267
-0.0472555 0.586952 3.75924
-0.0613555 0.581215 3.75053
-0.0963057 0.355872 3.76007
-0.221171 0.33852 3.69009
-0.0267984 0.594698 3.79012
-0.0779919 0.245974 3.76791
0.0048411 0.51982 3.87188
-0.0162418 0.536719 3.84338
0.0049572 0.542358 3.84839
-0.0503112 0.48691 3.8306
0.00552525 0.201161 3.79304
0.00576556 0.227028 3.79293
-0.0378744 0.229031 3.78646
-0.13258 0.303224 3.73227
-0.103404 0.426598 3.78518
-0.107198 0.271318 3.74743
-0.169865 0.428897 3.77468
-0.131903 0.40422 3.77536
-0.19073 0.390859 3.75282
-0.0422341 0.203821 3.78662
-0.0648486 0.473788 3.81381
-0.145434 0.275807 3.7156
-0.113577 0.247875 3.73449
-0.156981 0.337503 3.73308
-0.245391 0.36362 3.66988
-0.185213 0.321347 3.71582
-0.248887 0.33231 3.61533
-0.155268 0.381344 3.75906
-0.0490646 0.50569 3.8111
-0.0474014 0.441742 3.87142
-0.0631947 0.436753 3.84396
-0.0366656 0.458871 3.88634
-0.0673383 0.611477 3.76359
-0.107769 0.628543 3.76424
-0.143279 0.63199 3.76049
-0.17275 0.625969 3.75003
-0.193131 0.612222 3.73639
-0.205899 0.563818 3.70413
-0.275526 0.486853 3.59991
-0.187894 0.535468 3.72636
-0.161093 0.529959 3.74115
-0.127177 0.529054 3.75148
-0.0952313 0.533085 3.75725
-0.0713831 0.539549 3.75761
-0.0556507 0.547013 3.7592
-0.273389 0.474119 3.51191
-0.063252 0.431352 3.83206
-0.0333196 0.503123 3.84849
-0.0302292 0.440633 3.88984
-0.0176871 0.427945 3.88031
-0.0305564 0.435882 3.87848
-0.0585188 0.424351 3.8232
-0.0136362 0.425991 3.88702
-0.0107211 0.41737 3.85821
-0.0557363 0.563095 3.74811
-0.0435677 0.560813 3.76218
-0.0362068 0.559521 3.77849
-0.17602 0.579223 3.72973
-0.189576 0.588258 3.72667
0.0246779 0.515176 3.86416
0.181274 0.566677 3.72947
0.0258457 0.421635 3.85851
0.273466 0.650939 3.61189
0.107295 0.546176 3.75733
0.132689 0.54538 3.75499
0.15706 0.547014 3.748
0.190823 0.558911 3.72532
0.0866093 0.550242 3.75355
0.143344 0.618569 3.75662
0.115484 0.615288 3.7578
0.169423 0.612901 3.7484
0.186534 0.601179 3.74033
0.210889 0.542463 3.71355
0.0933653 0.222105 3.7615
0.19101 0.572273 3.72011
0.282588 0.538939 3.60572
0.237485 0.554964 3.68813
0.134053 0.456176 3.78589
0.0425856 0.377265 3.83081
0.0404113 0.358419 3.82147
0.0806752 0.373702 3.81393
0.105126 0.367962 3.78832
0.0680747 0.358561 3.80773
0.0895291 0.356364 3.78418
0.130036 0.31843 3.74148
0.0243094 0.437907 3.90164
0.0265815 0.463809 3.90676
0.222138 0.626462 3.73103
0.0786306 0.511523 3.78462
0.0799222 0.444754 3.84093
0.0813108 0.457557 3.83222
0.213375 0.459991 3.75229
0.0255934 0.492584 3.88974
0.164068 0.660417 3.76902
0.198228 0.649039 3.7508
0.249965 0.703673 3.65636
0.0572318 0.639687 3.79396
0.0922105 0.602954 3.75253
0.150583 0.349449 3.73756
0.244019 0.30319 3.55004
0.0629432 0.429118 3.83323
0.0430647 0.420229 3.83439
0.135283 0.351051 3.73608
0.122401 0.348763 3.74271
0.212293 0.664652 3.73928
0.0818939 0.435847 3.82747
0.118347 0.659476 3.78433
0.122633 0.682057 3.78882
0.150177 0.779866 3.74559
0.230786 0.685016 3.70324
0.133538 0.731981 3.76913
0.237567 0.635321 3.71057
0.255688 0.641826 3.66486
0.0421184 0.366043 3.82836
0.0739751 0.364564 3.81122
0.0974986 0.362411 3.78766
0.057809 0.424526 3.82751
0.129417 0.35039 3.73946
0.114932 0.329975 3.75389
0.117454 0.347311 3.74333
0.049341 0.435803 3.86702
0.0849095 0.358183 3.78057
0.0634498 0.358245 3.79834
0.0376299 0.356654 3.81169
0.0452011 0.251347 3.79111
0.0442509 0.274805 3.81027
0.0435162 0.287916 3.81276
0.0417461 0.297448 3.80717
0.0390008 0.304511 3.80301
0.0874536 0.320215 3.77256
0.0920357 0.318626 3.77571
0.0977377 0.31437 3.77788
0.101955 0.307126 3.77318
0.120588 0.382423 3.78202
0.276124 0.41695 3.51264
0.101071 0.328451 3.75424
0.108509 0.330288 3.75546
0.0358836 0.410004 3.83423
0.0765327 0.421016 3.80939
0.0391385 0.414859 3.83532
0.106038 0.499552 3.77677
0.15048 0.486629 3.77076
0.0865845 0.44747 3.81871
0.211232 0.748061 3.70253
0.192313 0.716416 3.73734
0.17306 0.681001 3.76541
0.109044 0.290841 3.75763
0.0650613 0.676194 3.80076
0.0733812 0.736069 3.78721
0.0834785 0.795667 3.77035
0.178714 0.551011 3.73634
0.237916 0.524826 3.70128
0.0736991 0.555208 3.75045
0.211195 0.588952 3.72023
0.0606796 0.52638 3.79206
0.0645337 0.452682 3.86485
0.263659 0.504443 3.67437
0.221651 0.513229 3.72364
0.190343 0.508325 3.74634
0.142022 0.509888 3.75722
0.105228 0.51704 3.76263
0.0791582 0.527144 3.76909
0.0277563 0.561259 3.81685
0.26449 0.457492 3.68363
0.230952 0.592312 3.70925
0.0164485 0.42414 3.89078
0.0765651 0.489509 3.79806
0.289 0.530745 3.52709
0.0603414 0.539346 3.77257
0.090883 0.444258 3.79365
0.198882 0.570635 3.71478
0.0654031 0.468698 3.85419
0.26446 0.359897 3.52549
0.0740783 0.563137 3.74415
0.0457476 0.483449 3.87629
0.192041 0.269486 3.67205
0.183448 0.235404 3.63355
0.282219 0.433974 3.59866
0.227639 0.294615 3.64584
0.270503 0.592428 3.62855
0.0916339 0.199096 3.74972
0.0141887 0.414765 3.85823
0.100546 0.474331 3.79008
0.258683 0.547202 3.66483
0.155065 0.559327 3.7454
0.132936 0.557334 3.75161
0.120802 0.32794 3.7501
0.262234 0.407273 3.67794
0.0490841 0.168173 3.74839
0.113742 0.194111 3.69652
0.143939 0.211278 3.66798
0.111609 0.558095 3.75254
0.091551 0.560237 3.74899
0.0793498 0.561031 3.74444
0.249343 0.594953 3.68486
0.0966656 0.586851 3.75042
0.118571 0.597495 3.75222
0.140557 0.599871 3.75093
0.162749 0.594797 3.74488
0.176723 0.585952 3.73811
0.286271 0.595206 3.5638
0.170313 0.562552 3.73677
0.0934357 0.392968 3.8024
0.0631177 0.432189 3.8426
0.0418033 0.395987 3.82903
0.154247 0.242246 3.69239
0.12254 0.221484 3.71877
0.052291 0.183568 3.77595
0.215877 0.261954 3.59109
0.0810336 0.571925 3.74696
0.0435299 0.522284 3.82735
0.0838079 0.179222 3.72732
0.273464 0.380845 3.60486
0.0657271 0.310988 3.78964
0.0704104 0.30656 3.79312
0.0740804 0.298686 3.79606
0.0764255 0.286818 3.79235
0.0819668 0.267078 3.7763
0.110307 0.354305 3.76155
0.118196 0.357763 3.76018
0.125085 0.361995 3.76041
0.142589 0.369318 3.75865
0.23383 0.403221 3.72775
0.0435936 0.544618 3.80276
0.0571167 0.586987 3.75937
0.0712932 0.580818 3.75012
0.103379 0.355758 3.75954
0.228529 0.33895 3.69014
0.0363003 0.594837 3.79019
0.0884966 0.24644 3.7675
0.0261502 0.53659 3.84338
0.0603259 0.486522 3.83078
0.0493852 0.229386 3.78676
0.141386 0.302995 3.73161
0.11289 0.42635 3.78555
0.116691 0.271598 3.74712
0.178524 0.428808 3.77549
0.140805 0.403959 3.77555
0.198705 0.390814 3.75318
0.0531644 0.204079 3.78627
0.0749067 0.473351 3.81394
0.153991 0.276152 3.71507
0.122751 0.248434 3.73394
0.165005 0.337328 3.73219
0.252777 0.363956 3.6703
0.192794 0.321671 3.71535
0.256484 0.332694 3.61526
0.163058 0.38118 3.75894
0.0593457 0.505389 3.81113
0.0570118 0.441063 3.87154
0.0728515 0.435963 3.84448
0.0464488 0.458354 3.88666
0.0765772 0.611828 3.76406
0.116224 0.629006 3.76492
0.151496 0.632257 3.76099
0.180949 0.62611 3.7507
0.201305 0.612121 3.73756
0.214884 0.563337 3.70518
0.284949 0.486234 3.60042
0.197134 0.534699 3.72684
0.170714 0.529215 3.7415
0.137011 0.528443 3.75162
0.105379 0.532496 3.75724
0.0815712 0.538923 3.7576
0.0658558 0.546507 3.75923
0.283213 0.473131 3.51192
0.0727859 0.43082 3.83243
0.0434412 0.502762 3.8485
0.0399645 0.440309 3.89007
0.0272388 0.42758 3.88056
0.0400797 0.435323 3.87867
0.067889 0.423891 3.82384
0.0233683 0.425658 3.88725
0.0210134 0.417279 3.85855
0.0658518 0.562497 3.74797
0.0535984 0.560524 3.7623
0.0463254 0.559405 3.77846
0.184775 0.578864 3.73037
0.198017 0.587819 3.7277
