ply
format ascii 1.0
comment Created by Open3D
element vertex 468
property double x
property double y
property double z
end_header
0.00597851 0.36301 3.85829
0.00627798 0.447624 3.93172
0.00616026 0.417764 3.86699
-0.0131899 0.537781 3.89391
0.00639278 0.476824 3.93876
0.00649742 0.513925 3.9273
0.00735532 0.598406 3.85714
-0.160881 0.596705 3.75462
0.00738465 0.652416 3.83756
0.00737831 0.68716 3.841
0.00730752 0.825164 3.80953
0.00599969 0.351386 3.85509
0.00616306 0.345592 3.84819
0.00651174 0.346203 3.8376
0.00718373 0.323197 3.83552
0.00700479 0.31658 3.84096
0.00659269 0.307847 3.84881
0.00651831 0.294664 3.84978
0.00658734 0.262711 3.83494
0.00564192 0.432735 3.91939
-0.0186359 0.433734 3.88356
-0.260309 0.680812 3.63941
-0.0894974 0.57867 3.77958
-0.114207 0.576937 3.7783
-0.138663 0.577235 3.77229
-0.172417 0.586526 3.75141
-0.0692973 0.583854 3.77726
-0.124392 0.634363 3.78651
-0.099128 0.634415 3.78551
-0.147768 0.628881 3.77957
-0.163817 0.619781 3.76998
-0.194979 0.568922 3.73955
-0.0870811 0.211464 3.79956
-0.170753 0.600132 3.74699
-0.275181 0.563126 3.6298
-0.224566 0.578326 3.71554
-0.122222 0.473879 3.80843
-0.032325 0.368713 3.85535
-0.0302216 0.348236 3.84285
-0.0714691 0.36764 3.83729
-0.0977825 0.363966 3.81167
-0.0598569 0.350895 3.82859
-0.0831866 0.351955 3.80526
-0.123056 0.322149 3.76969
-0.0150214 0.448626 3.92911
-0.017067 0.477155 3.93561
-0.203338 0.639287 3.7678
-0.0648741 0.537005 3.80953
-0.0754917 0.460364 3.86422
-0.0757731 0.475052 3.85538
-0.201014 0.478347 3.77571
-0.0151613 0.510762 3.91967
-0.141105 0.669928 3.80931
-0.176832 0.659081 3.79186
-0.232735 0.733331 3.68651
-0.0373045 0.655015 3.83002
-0.0764395 0.627577 3.77788
-0.146789 0.351407 3.76317
-0.257331 0.298797 3.57249
-0.0586291 0.443609 3.85484
-0.0377353 0.433764 3.85858
-0.128804 0.354997 3.76017
-0.117873 0.353452 3.76614
-0.191396 0.674731 3.7788
-0.0787582 0.450898 3.85004
-0.0946735 0.670553 3.82193
-0.100003 0.693365 3.82652
-0.131711 0.807415 3.77784
-0.211297 0.706369 3.7374
-0.113326 0.754223 3.80261
-0.219975 0.649355 3.74608
-0.240214 0.664341 3.69474
-0.0317909 0.35524 3.85145
-0.0645411 0.356581 3.83338
-0.0898967 0.357707 3.80996
-0.0533872 0.439016 3.85068
-0.123776 0.354953 3.76311
-0.106735 0.34146 3.78026
-0.1138 0.351777 3.76736
-0.0429642 0.449215 3.89206
-0.0795856 0.354596 3.80108
-0.0555792 0.35182 3.81853
-0.0274619 0.348311 3.83244
-0.0314853 0.263706 3.83082
-0.0294728 0.297329 3.84482
-0.0285582 0.311368 3.84375
-0.027459 0.319503 3.8351
-0.0255056 0.325288 3.83001
-0.0790451 0.335639 3.79901
-0.0824443 0.334895 3.80304
-0.0867128 0.33084 3.80653
-0.0899583 0.322467 3.80231
-0.114434 0.385835 3.80554
-0.280154 0.429783 3.53341
0.00613504 0.42441 3.88553
-0.094919 0.340409 3.77986
-0.101068 0.342471 3.78146
-0.0285875 0.420909 3.85963
-0.0720538 0.434655 3.83146
-0.0330672 0.427105 3.86017
-0.0918779 0.523398 3.80144
-0.135603 0.508445 3.79634
-0.0816692 0.464276 3.84086
-0.192111 0.776829 3.73465
-0.170504 0.737028 3.77191
-0.150225 0.690909 3.80355
-0.0986412 0.297598 3.78924
-0.0456994 0.690963 3.83821
-0.0566613 0.76038 3.81995
-0.0679139 0.822364 3.80255
-0.160039 0.579931 3.76163
-0.224791 0.549644 3.72587
-0.0570203 0.589509 3.77385
-0.192792 0.609617 3.75096
-0.0469075 0.553457 3.81878
-0.0577942 0.467528 3.88997
-0.254437 0.5268 3.69895
-0.206785 0.537703 3.74781
-0.174132 0.532317 3.77001
-0.125667 0.535121 3.78237
-0.0893126 0.543867 3.78715
-0.063664 0.555318 3.79429
-0.0149741 0.590236 3.84726
-0.257296 0.475205 3.70653
-0.21546 0.61097 3.74031
-0.00724353 0.434093 3.9176
-0.0652623 0.511636 3.82095
-0.283557 0.555569 3.55001
-0.0449178 0.568673 3.79833
-0.0847012 0.461589 3.81391
-0.17898 0.5963 3.74276
-0.0579713 0.485842 3.87913
-0.273993 0.364278 3.54706
-0.0583457 0.597813 3.76738
-0.0363986 0.500961 3.90441
-0.201623 0.260149 3.69856
-0.195722 0.217876 3.66093
-0.280972 0.448757 3.61933
-0.238166 0.289779 3.66948
-0.258665 0.617818 3.6552
-0.0897191 0.179697 3.78926
-0.00432371 0.425712 3.88339
-0.0896212 0.494139 3.81202
-0.248188 0.569928 3.69095
-0.134675 0.592676 3.7689
-0.113049 0.591693 3.77491
-0.11174 0.337644 3.77623
-0.259655 0.41835 3.69893
-0.0426112 0.143186 3.78917
-0.117697 0.16868 3.73203
-0.152577 0.18845 3.6996
0.00735392 0.75981 3.826
0.00763844 0.140479 3.7973
-0.092919 0.592934 3.77606
-0.0739255 0.595747 3.7726
-0.0628975 0.596562 3.76808
-0.235747 0.614091 3.71514
-0.0803155 0.616547 3.77427
-0.101541 0.62357 3.7785
-0.122073 0.624462 3.77762
-0.143121 0.619197 3.77242
-0.156579 0.611099 3.76481
-0.276185 0.624604 3.58893
-0.149909 0.594599 3.76137
0.00642605 0.399179 3.85875
-0.0871401 0.398704 3.82697
-0.058258 0.446648 3.8654
-0.0325106 0.40064 3.85552
0.00738502 0.626238 3.83732
-0.160855 0.227981 3.72373
-0.125806 0.203055 3.75427
-0.0449925 0.165799 3.81806
-0.229528 0.250615 3.61543
-0.0653567 0.605509 3.77049
-0.0312031 0.547429 3.85485
0.00740959 0.164263 3.82471
-0.0826836 0.153116 3.76633
-0.277079 0.388241 3.625
-0.0544435 0.329838 3.81617
-0.0578256 0.326211 3.82081
-0.0600819 0.319418 3.82574
-0.0620077 0.306717 3.82394
-0.0692002 0.277334 3.81197
-0.105705 0.354159 3.78394
-0.112315 0.357029 3.78323
-0.118912 0.361291 3.7837
-0.13838 0.371514 3.78227
-0.229409 0.413976 3.74921
-0.0299923 0.572802 3.8309
-0.0397005 0.615784 3.78341
-0.0549431 0.611614 3.77474
-0.0997252 0.355896 3.78171
-0.232145 0.341076 3.71232
-0.0213161 0.619885 3.81853
-0.0783891 0.245245 3.80536
0.0068495 0.542654 3.90232
-0.0143492 0.562857 3.87316
0.00720226 0.569206 3.87878
-0.0496733 0.506623 3.85548
0.0072045 0.195164 3.83708
0.00674841 0.23163 3.83576
-0.0369923 0.231305 3.82851
-0.138327 0.301727 3.76131
-0.106245 0.440704 3.80732
-0.109758 0.269108 3.78119
-0.169269 0.443494 3.7984
-0.133936 0.414734 3.79836
-0.195099 0.399605 3.77464
-0.0434018 0.195305 3.8291
-0.0659169 0.492848 3.83675
-0.155328 0.269755 3.74529
-0.120447 0.238526 3.76862
-0.16387 0.337854 3.75851
-0.255243 0.368941 3.69084
-0.195373 0.32114 3.74018
-0.264635 0.333674 3.63667
-0.160024 0.386438 3.78239
-0.0473703 0.529107 3.83633
-0.0507572 0.45461 3.8967
-0.0686429 0.450524 3.8678
-0.0384515 0.472675 3.91474
-0.0574211 0.63378 3.79037
-0.0960132 0.64514 3.79621
-0.130107 0.646452 3.79597
-0.159195 0.641048 3.78652
-0.180553 0.629084 3.772
-0.198435 0.587682 3.73333
-0.280757 0.506621 3.62284
-0.179819 0.561295 3.75175
-0.153576 0.556463 3.76673
-0.119946 0.557048 3.77671
-0.0884114 0.562011 3.7802
-0.0647981 0.569936 3.78205
-0.0491911 0.577819 3.7832
-0.281972 0.49237 3.53324
-0.0692864 0.445238 3.85513
-0.0318073 0.52444 3.87591
-0.0326231 0.452421 3.91684
-0.0199873 0.43876 3.90668
-0.0331054 0.447692 3.90461
-0.0638408 0.437687 3.84648
-0.0152111 0.436154 3.91357
-0.0127257 0.428688 3.88356
-0.0498137 0.596003 3.77116
-0.0372914 0.591622 3.78644
-0.0310686 0.588951 3.80579
-0.164624 0.605046 3.75737
-0.176949 0.609468 3.75658
0.0268931 0.537612 3.89357
0.176824 0.597866 3.75315
0.0305917 0.43315 3.88404
0.274997 0.679693 3.63848
0.105297 0.578622 3.77808
0.129999 0.577033 3.77683
0.154253 0.577445 3.77103
0.187602 0.587416 3.7502
0.0852376 0.583895 3.77606
0.139188 0.636386 3.78461
0.113573 0.635859 3.78442
0.163182 0.630867 3.77772
0.179439 0.621589 3.76863
0.210295 0.56898 3.73857
0.102755 0.211936 3.79961
0.186642 0.601728 3.74552
0.28996 0.563082 3.62896
0.239418 0.578773 3.7146
0.136504 0.472509 3.80898
0.0445579 0.367914 3.85615
0.0430583 0.347407 3.84388
0.084483 0.365798 3.83909
0.111959 0.361362 3.81349
0.07307 0.34929 3.83007
0.0976249 0.349818 3.80705
0.139523 0.320047 3.77091
0.0272037 0.448393 3.92951
0.0294529 0.476967 3.93588
0.218571 0.642319 3.76602
0.0794911 0.536376 3.80953
0.0878917 0.458963 3.86544
0.0883888 0.473795 3.85659
0.215162 0.477091 3.77558
0.0281275 0.510488 3.91947
0.156333 0.673879 3.8071
0.19243 0.662666 3.78952
0.247731 0.732409 3.68536
0.0521169 0.656675 3.82845
0.0915888 0.628342 3.77686
0.163699 0.348672 3.76394
0.271972 0.299994 3.57157
0.0712413 0.442339 3.85643
0.0501563 0.432726 3.86001
0.145666 0.351429 3.76159
0.134541 0.350273 3.76802
0.207154 0.678601 3.77699
0.0911904 0.449218 3.8517
0.109476 0.673698 3.82019
0.114857 0.696743 3.82512
0.145759 0.806802 3.77708
0.226487 0.707841 3.7366
0.127996 0.755428 3.80197
0.235079 0.651877 3.74487
0.255159 0.664979 3.69404
0.0443089 0.354288 3.85236
0.0778 0.354835 3.83495
0.104505 0.355352 3.81192
0.0660544 0.437685 3.85221
0.140522 0.351543 3.76495
0.122735 0.338945 3.78242
0.130256 0.348959 3.76906
0.0547623 0.448459 3.89249
0.0939272 0.352759 3.80296
0.0692388 0.350389 3.81993
0.040887 0.34765 3.83318
0.0453773 0.263368 3.83164
0.0431583 0.296833 3.84578
0.0423311 0.310672 3.84464
0.0418443 0.318697 3.83605
0.0401261 0.324458 3.83111
0.0946443 0.333935 3.80104
0.0978214 0.3331 3.80527
0.101795 0.328961 3.80862
0.105246 0.320731 3.80419
0.129579 0.383996 3.8075
0.295731 0.429833 3.53224
0.111147 0.338035 3.7815
0.117249 0.340094 3.78347
0.0413077 0.420049 3.86036
0.0851494 0.433033 3.83352
0.0454275 0.426162 3.86133
0.106411 0.522491 3.80113
0.150318 0.507252 3.79594
0.0945128 0.462776 3.84229
0.206346 0.776248 3.73418
0.185818 0.738737 3.77098
0.165686 0.695089 3.80187
0.114657 0.296545 3.79027
0.0605891 0.693028 3.83685
0.0713641 0.760757 3.81958
0.0820976 0.821803 3.80253
0.175434 0.580371 3.76037
0.239816 0.549037 3.72524
0.0732104 0.589518 3.77265
0.208119 0.611285 3.74948
0.0615834 0.55313 3.81853
0.0699682 0.46673 3.89072
0.269095 0.526099 3.69817
0.221924 0.53666 3.74722
0.189425 0.531232 3.76948
0.140924 0.534158 3.78154
0.104548 0.543229 3.78648
0.0787506 0.554849 3.79387
0.029793 0.590298 3.84695
0.27186 0.474392 3.70575
0.230236 0.612648 3.73923
0.0186474 0.433854 3.91759
0.0795432 0.510775 3.82135
0.298678 0.55479 3.54848
0.0602882 0.568422 3.79765
0.0983003 0.460137 3.81546
0.194583 0.597719 3.74099
0.070311 0.484909 3.8799
0.288939 0.364835 3.54628
0.0747693 0.598212 3.76569
0.0490516 0.500539 3.9045
0.21727 0.261195 3.69816
0.211307 0.219754 3.66011
0.29602 0.448636 3.61877
0.25302 0.290817 3.66913
0.273586 0.617859 3.65426
0.105358 0.180597 3.78864
0.0165168 0.425511 3.88374
0.103614 0.493059 3.81272
0.262719 0.570176 3.69011
0.150996 0.593032 3.7672
0.129403 0.59184 3.77292
0.127986 0.335039 3.77818
0.273871 0.417787 3.69899
0.058106 0.143503 3.78883
0.133824 0.170171 3.73114
0.168902 0.190331 3.69861
0.109256 0.593089 3.77417
0.0903972 0.595877 3.77078
0.0792932 0.596847 3.76639
0.250311 0.615349 3.71422
0.0960201 0.617494 3.77276
0.116784 0.625104 3.77713
0.137449 0.626375 3.7762
0.158554 0.621283 3.77081
0.172128 0.61312 3.76342
0.29126 0.6234 3.58742
0.166034 0.595261 3.75969
0.100849 0.397091 3.82868
0.0707957 0.44555 3.86678
0.0454204 0.399743 3.85634
0.177211 0.22905 3.72339
0.141579 0.204246 3.75416
0.0600679 0.16606 3.81785
0.244458 0.252261 3.61459
0.0814248 0.606021 3.76881
0.045648 0.547114 3.85472
0.0985813 0.154162 3.76549
0.291644 0.388478 3.62483
0.069644 0.328497 3.81797
0.0727066 0.324888 3.82272
0.0747809 0.318135 3.82737
0.0767149 0.305783 3.82525
0.0841705 0.276732 3.81297
0.12126 0.351273 3.78611
0.127895 0.354063 3.78536
0.134497 0.357898 3.78563
0.154463 0.369075 3.7837
0.243122 0.41305 3.74986
0.0449079 0.572647 3.83058
0.0556002 0.616467 3.78304
0.0707832 0.612124 3.7733
0.115203 0.353306 3.78347
0.246871 0.341059 3.71261
0.0363331 0.620387 3.81834
0.0935948 0.245342 3.80588
0.0286536 0.562854 3.87299
0.0631616 0.506137 3.85591
0.051451 0.231317 3.82901
0.155126 0.300606 3.76176
0.120377 0.439131 3.80888
0.12571 0.268637 3.78179
0.18326 0.442191 3.79923
0.149056 0.413191 3.79965
0.209242 0.398599 3.77536
0.0583187 0.195462 3.82879
0.0793145 0.491882 3.83772
0.171822 0.269882 3.74519
0.13654 0.238877 3.76853
0.180564 0.336486 3.7587
0.269589 0.368851 3.69138
0.210861 0.320913 3.74039
0.279107 0.334408 3.63647
0.175706 0.384754 3.78367
0.06165 0.528665 3.8365
0.0624751 0.453809 3.89745
0.0810229 0.449224 3.8692
0.0508113 0.472128 3.91521
0.0726214 0.635202 3.78975
0.110751 0.647415 3.79484
0.145054 0.648971 3.79393
0.174622 0.64324 3.78455
0.195893 0.6313 3.77015
0.213879 0.588645 3.73199
0.295801 0.506253 3.62168
0.19529 0.561036 3.75081
0.169082 0.556119 3.76574
0.135456 0.556526 3.77558
0.104123 0.561723 3.77909
0.0806658 0.56963 3.78132
0.065106 0.577803 3.78237
0.297391 0.49186 3.53175
0.0817251 0.443723 3.8567
0.045739 0.524092 3.87578
0.0445059 0.451923 3.9172
0.0310143 0.438409 3.90719
0.0446392 0.447079 3.90503
0.0764438 0.43617 3.84833
0.0265091 0.435821 3.91402
0.0248995 0.428296 3.88404
0.0660933 0.596419 3.77018
0.0530769 0.591799 3.7858
0.0464347 0.588948 3.8051
0.180285 0.606844 3.75588
0.192504 0.611278 3.75515
