ply
format ascii 1.0
comment Created by Open3D
element vertex 468
property double x
property double y
property double z
end_header
-0.00810026 0.358206 4.0741
-0.0104042 0.409307 4.13088
-0.00923472 0.392709 4.07435
-0.0280767 0.488419 4.09527
-0.0103545 0.433287 4.13828
-0.00950154 0.464825 4.12748
-0.00789134 0.542307 4.0582
-0.171999 0.553439 3.96276
-0.00716452 0.595296 4.03668
-0.00697429 0.625255 4.03822
-0.00579383 0.745134 4.00554
-0.00792928 0.347978 4.0717
-0.00742172 0.340168 4.06564
-0.0070292 0.338098 4.05694
-0.00644145 0.297462 4.0431
-0.0064695 0.287878 4.04781
-0.00630426 0.275419 4.05353
-0.00634236 0.262192 4.05042
-0.00661411 0.240907 4.03088
-0.00996237 0.396944 4.11917
-0.0310995 0.400977 4.08854
-0.243377 0.645558 3.84548
-0.105714 0.533104 3.98647
-0.128027 0.531754 3.98525
-0.14974 0.53311 3.97922
-0.18112 0.545632 3.96027
-0.0872468 0.538345 3.98399
-0.134634 0.590726 3.99388
-0.110526 0.588585 3.99266
-0.15844 0.587982 3.98742
-0.174706 0.580326 3.97785
-0.19818 0.532553 3.94953
-0.0951392 0.213288 4.00473
-0.180526 0.559082 3.9549
-0.255798 0.546827 3.84456
-0.220485 0.547044 3.9248
-0.128249 0.441615 4.02031
-0.0431569 0.361688 4.07169
-0.039431 0.340752 4.06184
-0.0784656 0.356014 4.05684
-0.100519 0.349214 4.03445
-0.0651831 0.340334 4.0497
-0.0845367 0.338931 4.02936
-0.123208 0.305065 3.99316
-0.0293552 0.409514 4.12894
-0.0315895 0.433141 4.13576
-0.204814 0.600475 3.96963
-0.0775547 0.495053 4.01763
-0.083245 0.423309 4.07239
-0.084465 0.436421 4.06483
-0.198595 0.448066 3.98956
-0.0299296 0.462987 4.12008
-0.149209 0.621214 4.00907
-0.182008 0.615291 3.99134
-0.221323 0.683876 3.8882
-0.0528202 0.60019 4.02917
-0.0901705 0.581311 3.98579
-0.142176 0.334329 3.99038
-0.232812 0.332203 3.80286
-0.0666659 0.410556 4.06354
-0.0472565 0.402986 4.06765
-0.124242 0.335309 3.98941
-0.111642 0.334155 3.99461
-0.192926 0.63081 3.97846
-0.0849885 0.415712 4.06049
-0.106915 0.617583 4.02232
-0.110195 0.63589 4.02621
-0.133402 0.73402 3.97589
-0.205943 0.657757 3.93874
-0.119308 0.687929 4.0014
-0.217115 0.611763 3.94809
-0.229857 0.627455 3.89846
-0.0419353 0.349349 4.06868
-0.0714004 0.346485 4.05375
-0.0925642 0.343904 4.0337
-0.0612345 0.407432 4.05945
-0.118331 0.334802 3.99218
-0.105682 0.31829 4.00441
-0.107205 0.333748 3.99522
-0.0539442 0.411868 4.09448
-0.0793682 0.340532 4.0266
-0.0601159 0.340554 4.04178
-0.0362627 0.338892 4.05325
-0.0430193 0.243133 4.02919
-0.0413075 0.265626 4.04739
-0.0401203 0.27932 4.04939
-0.038377 0.291683 4.04301
-0.035753 0.299696 4.03879
-0.0799628 0.312484 4.01517
-0.0842332 0.309361 4.01974
-0.0900806 0.303413 4.02338
-0.0946923 0.296206 4.01889
-0.116294 0.367586 4.0271
-0.256634 0.449874 3.76061
-0.00995117 0.394976 4.08968
-0.0925216 0.319962 4.00118
-0.0993096 0.320085 4.00437
-0.0399959 0.394144 4.06919
-0.0786411 0.405284 4.04468
-0.0435569 0.398219 4.06889
-0.103084 0.484011 4.01149
-0.142622 0.471878 4.00659
-0.0893215 0.42843 4.05212
-0.186481 0.713743 3.935
-0.170735 0.678896 3.9727
-0.156014 0.639561 4.00307
-0.103272 0.280559 4.00489
-0.0593547 0.629711 4.03684
-0.066612 0.689284 4.01799
-0.0753305 0.743009 4.00025
-0.169567 0.537434 3.96949
-0.221287 0.518044 3.93749
-0.0755502 0.544619 3.98051
-0.19793 0.572545 3.95682
-0.0606075 0.508472 4.02553
-0.0683613 0.427619 4.09449
-0.243922 0.503093 3.91343
-0.207584 0.503304 3.96003
-0.17951 0.494939 3.9819
-0.135954 0.496062 3.99273
-0.102776 0.503039 3.99697
-0.078011 0.512194 4.00259
-0.0297622 0.53688 4.04873
-0.246024 0.457326 3.92377
-0.213891 0.575196 3.94527
-0.0213297 0.397954 4.11802
-0.0768297 0.472625 4.03057
-0.26077 0.552556 3.76855
-0.0604997 0.52416 4.00498
-0.092783 0.429745 4.02821
-0.188395 0.558299 3.95079
-0.0689734 0.44399 4.0849
-0.248683 0.392686 3.77588
-0.0758913 0.553575 3.9729
-0.049483 0.45524 4.10687
-0.188639 0.275304 3.92024
-0.183128 0.247613 3.8847
-0.261634 0.451832 3.84165
-0.218446 0.306399 3.89368
-0.243727 0.590917 3.8646
-0.0964093 0.190422 3.99557
-0.0191398 0.395995 4.08832
-0.0989328 0.458206 4.0239
-0.237592 0.543784 3.90148
-0.148347 0.546866 3.97657
-0.128438 0.54513 3.98198
-0.111547 0.315344 4.00108
-0.244558 0.410406 3.9206
-0.0540395 0.157723 3.99419
-0.120422 0.193471 3.94427
-0.148792 0.216023 3.91685
-0.0064799 0.687844 4.02296
-0.00661937 0.151342 4.00095
-0.10981 0.54594 3.98254
-0.0924172 0.548925 3.97889
-0.0813423 0.551339 3.97345
-0.228243 0.581161 3.92126
-0.0941387 0.565995 3.98087
-0.11235 0.571189 3.98521
-0.131058 0.573113 3.98472
-0.151267 0.57062 3.97955
-0.165028 0.56549 3.97225
-0.255908 0.604918 3.80142
-0.162228 0.549869 3.96935
-0.00873413 0.381881 4.06864
-0.0924692 0.37764 4.04373
-0.0668644 0.412279 4.07155
-0.0440948 0.381162 4.06684
-0.0073352 0.569981 4.0382
-0.156422 0.243479 3.94216
-0.127079 0.217422 3.96775
-0.0560952 0.170683 4.01927
-0.209884 0.28333 3.8429
-0.0816353 0.558599 3.97581
-0.0452899 0.50027 4.0585
-0.00659274 0.165308 4.02457
-0.0902824 0.172884 3.97384
-0.255611 0.399598 3.84956
-0.0601406 0.305284 4.02801
-0.0643844 0.299546 4.03227
-0.0682536 0.290052 4.03612
-0.0711685 0.27804 4.0327
-0.0776474 0.258558 4.0182
-0.101565 0.337659 4.01052
-0.109581 0.340142 4.01024
-0.116605 0.343622 4.01061
-0.135165 0.354208 4.00699
-0.217401 0.397471 3.9676
-0.0445989 0.524136 4.03524
-0.0571149 0.568694 3.98989
-0.0715775 0.566082 3.97984
-0.0950736 0.340108 4.00914
-0.215761 0.341277 3.93453
-0.0367208 0.567419 4.02159
-0.0872029 0.237215 4.01051
-0.00891035 0.491217 4.10324
-0.0289551 0.511255 4.07344
-0.00845659 0.515909 4.07907
-0.062535 0.465215 4.0617
-0.0065524 0.187718 4.03415
-0.00660671 0.216408 4.0327
-0.0493291 0.219302 4.02752
-0.137794 0.293627 3.98267
-0.111702 0.413132 4.02168
-0.114683 0.262107 3.99491
-0.167211 0.416059 4.01207
-0.135041 0.391874 4.01527
-0.186281 0.38101 3.99256
-0.0551351 0.19215 4.02789
-0.0769618 0.454463 4.04625
-0.153049 0.272295 3.96507
-0.12392 0.24203 3.98258
-0.158405 0.326523 3.98202
-0.237359 0.369691 3.91455
-0.184887 0.317623 3.96172
-0.242366 0.350697 3.86282
-0.154495 0.367231 4.00295
-0.0604934 0.48644 4.04336
-0.0610936 0.415796 4.09904
-0.0763518 0.414616 4.07558
-0.0509604 0.43073 4.11604
-0.0736511 0.58683 3.99535
-0.108892 0.599441 4.00001
-0.140966 0.602351 3.99967
-0.168561 0.598924 3.99082
-0.188326 0.589376 3.97628
-0.201791 0.552483 3.94135
-0.261509 0.499993 3.8418
-0.186542 0.523251 3.96187
-0.16242 0.516503 3.97586
-0.132294 0.51525 3.98561
-0.103615 0.518991 3.98925
-0.0812774 0.525928 3.98993
-0.0664449 0.533535 3.99109
-0.259392 0.502235 3.75596
-0.0760172 0.411067 4.06432
-0.0459955 0.478862 4.07935
-0.0449838 0.412878 4.11749
-0.032226 0.40196 4.10878
-0.0448343 0.409578 4.10616
-0.0706434 0.406059 4.05696
-0.0284051 0.39956 4.11509
-0.0263155 0.397545 4.08834
-0.0676309 0.55225 3.9774
-0.0545576 0.545947 3.9929
-0.0471161 0.541138 4.0111
-0.173662 0.561669 3.96477
-0.186681 0.570867 3.96457
0.0104199 0.488308 4.0952
0.161674 0.553552 3.96021
0.0125991 0.400857 4.0877
0.241536 0.646322 3.84272
0.0944485 0.533868 3.98586
0.117183 0.53251 3.98418
0.139332 0.533783 3.97773
0.171903 0.545727 3.95777
0.0753237 0.539018 3.98336
0.123808 0.590317 3.99198
0.0990706 0.588566 3.99081
0.147884 0.587433 3.98448
0.164589 0.579799 3.97484
0.189093 0.532781 3.9468
0.0849968 0.21117 4.00239
0.170526 0.558837 3.95212
0.25375 0.546701 3.84108
0.213259 0.546872 3.92133
0.115624 0.442209 4.01788
0.0283269 0.362026 4.07089
0.0263491 0.340941 4.06131
0.0666144 0.356388 4.05519
0.0908411 0.34989 4.03265
0.0539918 0.340637 4.04917
0.0749061 0.339684 4.0285
0.116037 0.304911 3.99078
0.00922013 0.409719 4.12837
0.0118513 0.433243 4.13495
0.196098 0.598958 3.96594
0.0637404 0.495442 4.0168
0.0674409 0.4238 4.0704
0.0692954 0.437047 4.06285
0.188432 0.448803 3.98674
0.0112268 0.462903 4.11998
0.13776 0.619847 4.006
0.171771 0.613671 3.98788
0.217734 0.684774 3.88547
0.0393367 0.599795 4.02813
0.0781237 0.581425 3.9842
0.135518 0.334497 3.9878
0.232365 0.328959 3.79915
0.0500813 0.410905 4.06195
0.0302531 0.403291 4.06586
0.117488 0.335997 3.98765
0.105596 0.334959 3.99311
0.183547 0.629136 3.9746
0.0700502 0.41636 4.05834
0.0943978 0.616799 4.01996
0.0982903 0.635146 4.02336
0.125081 0.734852 3.97355
0.199827 0.657512 3.93551
0.108567 0.688096 3.99908
0.209501 0.610292 3.9445
0.22516 0.627286 3.89518
0.0279964 0.34962 4.06792
0.0598601 0.347011 4.05273
0.0831225 0.344622 4.03233
0.0447068 0.407815 4.05751
0.111855 0.335681 3.99042
0.0985477 0.318712 4.00266
0.10156 0.334421 3.9937
0.036287 0.412126 4.09375
0.0705498 0.341364 4.02611
0.0491739 0.340922 4.04135
0.0237991 0.339161 4.05311
0.0310787 0.242706 4.02833
0.0298118 0.265273 4.04724
0.028626 0.279068 4.04948
0.0264387 0.291386 4.04326
0.0239701 0.299397 4.03895
0.0714481 0.312674 4.01437
0.0758945 0.309632 4.01842
0.0820709 0.303513 4.02199
0.0865951 0.296165 4.01727
0.105534 0.368402 4.02439
0.255845 0.448274 3.75761
0.0850466 0.320326 4.0003
0.0920348 0.3205 4.00293
0.0230827 0.394304 4.06798
0.0635879 0.405798 4.042
0.0263652 0.398339 4.06746
0.0899301 0.484684 4.01039
0.130437 0.472695 4.00484
0.0747274 0.429117 4.04994
0.180706 0.71474 3.93183
0.162392 0.678634 3.96944
0.14516 0.638246 3.99967
0.0948938 0.27991 4.00327
0.0465313 0.629508 4.03526
0.0547662 0.68958 4.01626
0.0653246 0.743607 3.9985
0.159854 0.537964 3.96742
0.213334 0.51847 3.93408
0.063044 0.545093 3.97988
0.188813 0.571791 3.95351
0.0464118 0.50857 4.02516
0.0513811 0.428056 4.09293
0.238141 0.503146 3.9098
0.198136 0.504131 3.9571
0.168662 0.495919 3.9796
0.123871 0.496869 3.99137
0.0900015 0.503648 3.99615
0.0649428 0.512556 4.00191
0.0144013 0.536869 4.04855
0.238923 0.457302 3.9203
0.206365 0.574547 3.94166
0.00203516 0.397966 4.11768
0.0622841 0.472958 4.02943
0.259976 0.552309 3.76574
0.0466445 0.524345 4.00451
0.0778668 0.430698 4.02565
0.178996 0.55811 3.94782
0.0526988 0.444368 4.08337
0.248227 0.390305 3.77229
0.0634869 0.553762 3.97255
0.0320738 0.455289 4.10594
0.184075 0.271719 3.91591
0.180231 0.242609 3.88081
0.257691 0.450583 3.83775
0.215383 0.303253 3.8889
0.2402 0.591062 3.86115
0.0864064 0.187333 3.99303
-0.000657132 0.396065 4.08803
0.085177 0.458863 4.0219
0.232434 0.543496 3.89785
0.137197 0.547475 3.97488
0.117034 0.545965 3.98083
0.104621 0.315651 3.9992
0.238059 0.409677 3.91626
0.0416122 0.155457 3.99344
0.112126 0.188704 3.94173
0.143198 0.210883 3.91362
0.0981753 0.546762 3.98178
0.0806435 0.549714 3.97849
0.0690939 0.551863 3.97331
0.222581 0.580625 3.9179
0.0832037 0.565853 3.98011
0.102249 0.570719 3.984
0.120839 0.572404 3.98301
0.14114 0.570044 3.97738
0.154956 0.565117 3.9696
0.254579 0.605311 3.79861
0.151484 0.550242 3.96712
0.0797731 0.378332 4.04131
0.0499463 0.412802 4.06943
0.0283135 0.381389 4.06591
0.149857 0.239603 3.93844
0.119412 0.213344 3.96439
0.0440169 0.169006 4.01813
0.208456 0.278823 3.83949
0.069659 0.558605 3.97555
0.0292881 0.500211 4.05805
0.0796723 0.169273 3.97213
0.252521 0.397718 3.84502
0.0498012 0.305192 4.02796
0.0541199 0.299472 4.03192
0.0581862 0.289832 4.03568
0.0608826 0.277725 4.03191
0.0675008 0.257731 4.01742
0.0943054 0.338397 4.00934
0.10189 0.340856 4.00872
0.109032 0.344368 4.00876
0.1265 0.354933 4.0045
0.209576 0.397397 3.96388
0.0296715 0.524118 4.03514
0.0434899 0.56874 3.98879
0.0585725 0.566167 3.97917
0.0882604 0.340912 4.00834
0.210054 0.339888 3.93
0.0225996 0.567352 4.0209
0.0773226 0.235668 4.00834
0.0124188 0.51121 4.07304
0.0464026 0.465526 4.06029
0.0373642 0.218472 4.02621
0.130365 0.292396 3.97986
0.098507 0.41374 4.01891
0.106342 0.260549 3.99232
0.156346 0.41665 4.00857
0.123905 0.392532 4.01219
0.177218 0.3812 3.98874
0.0428922 0.190874 4.02666
0.0618625 0.454964 4.04469
0.145441 0.269866 3.96148
0.115779 0.239289 3.97939
0.151167 0.325924 3.97964
0.232141 0.368348 3.91003
0.178527 0.316061 3.9578
0.23979 0.34811 3.85827
0.145863 0.367883 3.99992
0.0451553 0.486595 4.0426
0.0436864 0.416073 4.09767
0.0602418 0.415197 4.07342
0.0324544 0.430693 4.11518
0.0604732 0.586587 3.99413
0.0963308 0.599048 3.99797
0.129233 0.601758 3.99696
0.157687 0.598082 3.98779
0.178362 0.588534 3.97273
0.19336 0.552287 3.93829
0.258332 0.499115 3.83809
0.176561 0.523852 3.95945
0.151658 0.517344 3.97406
0.12096 0.516045 3.98431
0.0916674 0.519736 3.98842
0.0689162 0.526467 3.98906
0.0534156 0.533882 3.99035
0.258266 0.501399 3.75351
0.060372 0.41165 4.06209
0.028919 0.478883 4.0789
0.0260971 0.412952 4.11662
0.0139725 0.401936 4.10791
0.0266731 0.409646 4.10515
0.0551303 0.406406 4.05473
0.00965215 0.399455 4.1143
0.00725589 0.397397 4.08758
0.0545825 0.55259 3.97673
0.0411509 0.546319 3.99222
0.0332044 0.541299 4.01041
0.163632 0.561423 3.96181
0.177026 0.570564 3.96107
