ply
format ascii 1.0
comment Created by Open3D
element vertex 468
property double x
property double y
property double z
end_header
-0.00439102 0.274278 4.19321
-0.00531079 0.351056 4.24341
-0.00490479 0.330176 4.18576
-0.0263777 0.42263 4.20942
-0.00499663 0.371815 4.25223
-0.00509401 0.399226 4.24165
-0.005812 0.47448 4.17149
-0.183953 0.485443 4.07869
-0.00609966 0.532226 4.15504
-0.00638982 0.56209 4.1578
-0.00615709 0.661128 4.11998
-0.0041863 0.263326 4.19018
-0.00431022 0.254082 4.18038
-0.00465224 0.249128 4.16912
-0.00383409 0.237196 4.16957
-0.00378909 0.227019 4.17218
-0.00406278 0.213223 4.17493
-0.00442602 0.200261 4.1686
-0.00532144 0.18039 4.14116
-0.0052888 0.339564 4.23052
-0.0231633 0.342655 4.19978
-0.275282 0.5841 3.95106
-0.115302 0.459035 4.1022
-0.140051 0.457134 4.09993
-0.163165 0.460188 4.09329
-0.192441 0.476166 4.07489
-0.0941932 0.467338 4.10023
-0.144285 0.52375 4.11723
-0.118214 0.522082 4.1163
-0.168752 0.521275 4.10924
-0.185482 0.51353 4.09824
-0.213485 0.462368 4.06185
-0.102541 0.143537 4.11735
-0.191442 0.493413 4.0712
-0.288763 0.4893 3.95227
-0.24139 0.483763 4.03701
-0.12658 0.364863 4.13019
-0.0313331 0.276681 4.18838
-0.0254539 0.252608 4.17645
-0.0587116 0.264671 4.17351
-0.0752407 0.251058 4.15636
-0.0439831 0.247596 4.16682
-0.0584973 0.242323 4.1523
-0.108577 0.212402 4.12382
-0.0241533 0.351051 4.24115
-0.0282171 0.370261 4.24841
-0.224299 0.539633 4.08482
-0.0803867 0.423709 4.13191
-0.0761472 0.354434 4.18079
-0.0787053 0.365292 4.17395
-0.202326 0.366028 4.09745
-0.0272318 0.397663 4.23336
-0.167079 0.563726 4.12881
-0.200398 0.556326 4.10788
-0.250045 0.618135 3.99806
-0.0596348 0.540698 4.14861
-0.0955702 0.515163 4.10878
-0.12501 0.233544 4.11683
-0.266062 0.2771 3.90383
-0.056972 0.344739 4.17272
-0.0374151 0.337677 4.17654
-0.0918346 0.232367 4.12156
-0.0800819 0.232638 4.12939
-0.215151 0.571925 4.09493
-0.0750509 0.343129 4.16744
-0.121253 0.559685 4.14357
-0.126061 0.576436 4.14674
-0.147978 0.655574 4.09057
-0.23267 0.593269 4.05398
-0.134935 0.617205 4.12025
-0.239725 0.551301 4.06176
-0.25771 0.565715 4.00963
-0.028717 0.262823 4.18523
-0.0507344 0.254588 4.17186
-0.0667834 0.24596 4.15691
-0.0503849 0.340877 4.16702
-0.0855169 0.232007 4.12534
-0.0778857 0.227986 4.14281
-0.0781607 0.234407 4.13053
-0.0467921 0.35337 4.20475
-0.0535508 0.242417 4.14909
-0.0389183 0.246386 4.15842
-0.0222345 0.24836 4.16643
-0.0363254 0.18058 4.14133
-0.0325535 0.201568 4.16762
-0.0299917 0.214908 4.17292
-0.0276038 0.228717 4.16971
-0.0252361 0.237372 4.16622
-0.0585677 0.235686 4.1493
-0.0621793 0.231408 4.15361
-0.0678998 0.223705 4.15765
-0.0739803 0.216336 4.15292
-0.0990579 0.277989 4.1485
-0.292359 0.402401 3.86115
-0.0052097 0.338296 4.20191
-0.0680647 0.234675 4.13897
-0.0720932 0.231892 4.14231
-0.0307963 0.327232 4.17884
-0.0663018 0.330889 4.15108
-0.033745 0.332248 4.17754
-0.106066 0.409155 4.12387
-0.146176 0.393398 4.11574
-0.0815187 0.35506 4.16021
-0.209756 0.641812 4.04881
-0.194151 0.611916 4.091
-0.176625 0.581116 4.12281
-0.0910905 0.198924 4.13361
-0.0675408 0.568435 4.15695
-0.0745065 0.613593 4.13621
-0.0823268 0.659324 4.11522
-0.182212 0.466112 4.08352
-0.241254 0.446992 4.04852
-0.0801628 0.476411 4.09746
-0.212887 0.508394 4.07365
-0.0632604 0.439284 4.14079
-0.0633943 0.363998 4.20436
-0.26808 0.434405 4.02266
-0.224556 0.426484 4.07142
-0.192267 0.414982 4.09433
-0.144217 0.419224 4.10498
-0.109328 0.429194 4.11112
-0.082815 0.440851 4.11777
-0.0297692 0.470156 4.16254
-0.26281 0.383055 4.03122
-0.233778 0.513461 4.0602
-0.0158646 0.340256 4.22909
-0.076188 0.401899 4.14371
-0.296944 0.5028 3.86971
-0.0634718 0.455737 4.12067
-0.0837005 0.355862 4.13708
-0.199984 0.492896 4.06627
-0.0651021 0.376765 4.19519
-0.284402 0.342703 3.87567
-0.0791322 0.486732 4.091
-0.0471383 0.389066 4.21877
-0.211246 0.20224 4.03312
-0.214217 0.181384 3.9899
-0.288964 0.393281 3.9468
-0.240598 0.238373 4.00185
-0.273268 0.532056 3.9734
-0.111269 0.119358 4.1035
-0.0129983 0.339307 4.20031
-0.0968687 0.383146 4.13474
-0.263458 0.482542 4.01183
-0.161353 0.474239 4.09212
-0.14061 0.470547 4.09739
-0.0846535 0.223917 4.13828
-0.255972 0.337044 4.02812
-0.065152 0.0834115 4.09522
-0.144747 0.124237 4.04966
-0.177779 0.147785 4.02394
-0.00643406 0.61081 4.14088
-0.00771291 0.076106 4.10167
-0.119923 0.471966 4.09849
-0.0999441 0.477516 4.09558
-0.0865421 0.482899 4.0905
-0.252302 0.52046 4.03404
-0.0996839 0.49853 4.10153
-0.120553 0.502559 4.10556
-0.141247 0.504161 4.10474
-0.162196 0.502106 4.09882
-0.175839 0.49802 4.09045
-0.290271 0.550193 3.90428
-0.174946 0.479996 4.08501
-0.00488982 0.3132 4.18204
-0.0783388 0.294323 4.15775
-0.0582702 0.349363 4.18009
-0.034985 0.307539 4.1793
-0.00580127 0.503426 4.15352
-0.179915 0.169733 4.05736
-0.147647 0.144924 4.08004
-0.0652635 0.0992647 4.12442
-0.241706 0.222661 3.94455
-0.0851678 0.491979 4.09521
-0.0459199 0.433731 4.17316
-0.00734513 0.0922512 4.12986
-0.108489 0.101341 4.07709
-0.280666 0.33943 3.95376
-0.0436675 0.23766 4.15863
-0.0476485 0.230776 4.16304
-0.0520044 0.219885 4.16648
-0.0563854 0.207905 4.16154
-0.0668693 0.187759 4.14085
-0.0707706 0.236311 4.13934
-0.0788874 0.237973 4.13921
-0.086855 0.240766 4.13869
-0.115278 0.257111 4.13237
-0.219266 0.318008 4.07609
-0.0462285 0.45711 4.15048
-0.059315 0.503509 4.11009
-0.0741756 0.500041 4.09972
-0.0659013 0.239258 4.13818
-0.223672 0.266092 4.0451
-0.0378157 0.501824 4.13867
-0.0861565 0.166365 4.12675
-0.00537225 0.424927 4.21781
-0.0285393 0.445156 4.18715
-0.00567038 0.449752 4.19333
-0.0607842 0.397568 4.17367
-0.00676745 0.118803 4.14279
-0.00602343 0.151943 4.14204
-0.0476665 0.154393 4.13822
-0.140861 0.205512 4.10837
-0.104553 0.335485 4.13152
-0.116817 0.181974 4.11755
-0.164047 0.33667 4.12163
-0.127947 0.310444 4.13059
-0.183792 0.29846 4.10497
-0.0593398 0.124551 4.13662
-0.0735176 0.383896 4.15739
-0.167493 0.191863 4.08526
-0.136243 0.166362 4.10031
-0.157615 0.233874 4.10382
-0.249022 0.297881 4.02254
-0.192714 0.234319 4.07862
-0.267235 0.288424 3.9685
-0.14563 0.276301 4.11988
-0.0607148 0.41844 4.15764
-0.0548072 0.355575 4.20882
-0.0681913 0.348184 4.18393
-0.0468961 0.369306 4.22766
-0.0789743 0.523807 4.11878
-0.118471 0.53717 4.12343
-0.152852 0.539412 4.12171
-0.181384 0.535081 4.11167
-0.201491 0.525232 4.09486
-0.217988 0.487573 4.05532
-0.292707 0.442384 3.94878
-0.200827 0.450494 4.07484
-0.17629 0.441987 4.08923
-0.14355 0.440333 4.09948
-0.111937 0.445521 4.10512
-0.0872886 0.455315 4.10554
-0.0701128 0.464604 4.10784
-0.29504 0.454737 3.85659
-0.0662437 0.341734 4.17159
-0.045111 0.413037 4.19293
-0.0393753 0.355214 4.22879
-0.0252804 0.343593 4.21963
-0.0381964 0.352233 4.21701
-0.0589218 0.334853 4.1636
-0.0221631 0.341519 4.2263
-0.0192804 0.340021 4.19957
-0.070257 0.486245 4.09539
-0.0563281 0.47922 4.1097
-0.0486288 0.474174 4.12665
-0.184366 0.495368 4.08185
-0.198117 0.505141 4.08271
0.015092 0.422544 4.20983
0.167445 0.484484 4.07991
0.0129549 0.34287 4.19971
0.260326 0.580288 3.95161
0.101359 0.458918 4.10308
0.125298 0.456933 4.1011
0.147836 0.459731 4.09408
0.176921 0.4749 4.07597
0.0807658 0.466926 4.10081
0.12821 0.520776 4.11764
0.10314 0.519657 4.11634
0.151886 0.518313 4.10957
0.168403 0.51066 4.09859
0.198228 0.460472 4.06305
0.089153 0.142308 4.11816
0.174817 0.491917 4.07225
0.274241 0.484561 3.95334
0.22572 0.480594 4.0376
0.113525 0.365022 4.13095
0.0215448 0.277578 4.18899
0.0162113 0.253377 4.17697
0.0484411 0.266801 4.17462
0.0648576 0.253114 4.15839
0.0347028 0.24896 4.16827
0.0490934 0.243694 4.15423
0.0983685 0.212712 4.12624
0.01389 0.35129 4.24094
0.0173634 0.370443 4.24851
0.206038 0.534371 4.08493
0.0674573 0.423633 4.13161
0.0653052 0.35539 4.18092
0.0673758 0.366139 4.17398
0.188187 0.364977 4.09946
0.0167485 0.397549 4.23367
0.149439 0.557549 4.12893
0.1819 0.550329 4.10848
0.233547 0.614987 3.99849
0.0458548 0.538146 4.1489
0.0812282 0.513324 4.1088
0.113996 0.234357 4.12028
0.253532 0.271271 3.90446
0.0463742 0.346045 4.17231
0.0271229 0.338446 4.17604
0.0820549 0.233495 4.12535
0.0709614 0.233971 4.13255
0.195911 0.565363 4.09484
0.0644505 0.344293 4.16763
0.105374 0.555326 4.1429
0.109729 0.571871 4.14585
0.133791 0.653847 4.09125
0.215076 0.588878 4.05391
0.119704 0.614022 4.12035
0.221448 0.545867 4.06148
0.241007 0.561119 4.00992
0.0194039 0.263866 4.186
0.040874 0.256126 4.1734
0.0568438 0.247824 4.15895
0.0399583 0.341944 4.16717
0.0758649 0.233264 4.12871
0.0694341 0.229298 4.14527
0.068992 0.23534 4.13373
0.0361687 0.353833 4.20521
0.0442941 0.243744 4.15111
0.0297017 0.247448 4.1599
0.0128247 0.248998 4.167
0.0252346 0.180786 4.14155
0.0234547 0.201769 4.16823
0.0221002 0.215389 4.17332
0.0196147 0.229251 4.1703
0.017261 0.237858 4.16687
0.0501796 0.236832 4.15093
0.0540751 0.232488 4.15518
0.0598729 0.224716 4.1593
0.0656298 0.217111 4.15462
0.0877918 0.279609 4.14974
0.279431 0.39598 3.8621
0.0594428 0.235587 4.14127
0.0637 0.233116 4.14469
0.0208771 0.327796 4.1788
0.0554867 0.332006 4.15146
0.0237467 0.333071 4.17722
0.093053 0.408976 4.12447
0.132428 0.39314 4.11676
0.0700655 0.356261 4.16054
0.194151 0.639123 4.0491
0.177172 0.607599 4.09067
0.158715 0.575119 4.12251
0.0807754 0.199133 4.13572
0.0531191 0.565397 4.15676
0.0607522 0.612292 4.13635
0.0696168 0.65898 4.1152
0.166751 0.465462 4.08426
0.226036 0.444699 4.04929
0.0669855 0.475716 4.09821
0.196252 0.504871 4.07461
0.0502487 0.439019 4.14081
0.052301 0.364532 4.20447
0.253117 0.43092 4.02397
0.209454 0.424995 4.07232
0.17755 0.41417 4.09502
0.130011 0.418622 4.10613
0.0957683 0.428966 4.11184
0.0695585 0.440629 4.11783
0.0176373 0.469649 4.16252
0.248091 0.380184 4.03312
0.217774 0.509396 4.06008
0.00534798 0.340149 4.22922
0.0636114 0.402146 4.14383
0.283552 0.497172 3.8709
0.0502295 0.455222 4.12118
0.072318 0.356667 4.13802
0.183862 0.490836 4.06777
0.0539544 0.37727 4.19507
0.27173 0.33652 3.87634
0.0657984 0.486003 4.09198
0.0357862 0.389348 4.21884
0.197385 0.199114 4.03436
0.200196 0.177277 3.99021
0.274681 0.388543 3.94745
0.227044 0.234489 4.00279
0.258532 0.527627 3.974
0.0968053 0.117438 4.10391
0.00280511 0.339178 4.20045
0.0843676 0.383604 4.13512
0.248423 0.478842 4.0125
0.145396 0.474013 4.09332
0.125215 0.470526 4.09866
0.0760367 0.224951 4.14084
0.241769 0.334145 4.02972
0.0494413 0.0820187 4.09543
0.129317 0.121286 4.05035
0.162797 0.144474 4.02453
0.105208 0.471889 4.09938
0.0862339 0.476942 4.09663
0.0731041 0.482292 4.09151
0.236446 0.516022 4.03417
0.0848396 0.497427 4.10183
0.104692 0.501331 4.10594
0.124451 0.502882 4.10533
0.145233 0.500794 4.09942
0.159273 0.496644 4.09135
0.276247 0.545254 3.90541
0.158638 0.479319 4.08637
0.0673842 0.296001 4.15844
0.0478224 0.35042 4.1797
0.0247527 0.308359 4.17947
0.165717 0.167469 4.0583
0.133156 0.142653 4.08075
0.0502845 0.0980347 4.12472
0.228444 0.217568 3.94457
0.0713617 0.491018 4.09577
0.0331994 0.433557 4.17297
0.0927922 0.099141 4.07749
0.267087 0.335037 3.95428
0.0356261 0.238324 4.15973
0.0395848 0.231588 4.16397
0.0436844 0.220661 4.16738
0.0475514 0.208201 4.16287
0.0563479 0.187683 4.14213
0.0612502 0.238027 4.14143
0.0691725 0.239544 4.14207
0.0765129 0.24248 4.14163
0.104022 0.258509 4.13531
0.205563 0.316604 4.07801
0.0335031 0.456583 4.15027
0.046308 0.502594 4.10918
0.0609156 0.499265 4.0999
0.0568358 0.240419 4.14077
0.209903 0.264005 4.04681
0.0255984 0.500802 4.13853
0.0743002 0.165606 4.12783
0.0166975 0.444896 4.18713
0.0485258 0.39785 4.1735
0.0353815 0.154028 4.13866
0.128727 0.204941 4.11063
0.0925897 0.336398 4.13218
0.10502 0.181475 4.11912
0.150655 0.336196 4.12319
0.115671 0.310909 4.13194
0.170358 0.297589 4.10733
0.0453426 0.123742 4.13687
0.0619773 0.384478 4.15738
0.154217 0.190298 4.08693
0.122869 0.164783 4.10121
0.145154 0.233409 4.10686
0.234795 0.295022 4.02429
0.179357 0.232729 4.08077
0.25387 0.283861 3.96906
0.132943 0.276754 4.12179
0.0480032 0.418639 4.15764
0.0442912 0.356061 4.20895
0.0577038 0.34921 4.1837
0.0359185 0.369866 4.2271
0.0651441 0.522074 4.11791
0.103398 0.534172 4.12327
0.136368 0.535708 4.12246
0.163994 0.531256 4.11239
0.184233 0.521371 4.0958
0.201978 0.485004 4.05621
0.278102 0.437449 3.94984
0.185611 0.449446 4.07574
0.16138 0.441225 4.08975
0.129174 0.439994 4.10035
0.0982052 0.445218 4.10583
0.0740874 0.454859 4.10602
0.0571193 0.464101 4.1084
0.281717 0.448732 3.85766
0.0557908 0.342866 4.17154
0.0329904 0.412991 4.19309
0.0285405 0.355334 4.22895
0.0147539 0.343718 4.21962
0.0273822 0.352443 4.2169
0.0483554 0.335797 4.16374
0.0116205 0.341465 4.2261
0.00884986 0.340019 4.19959
0.0570592 0.485605 4.09575
0.0435745 0.478383 4.10986
0.0357403 0.4735 4.1269
0.167666 0.493864 4.0829
0.181565 0.502373 4.08303
