ply
format ascii 1.0
comment Created by Open3D
element vertex 468
property double x
property double y
property double z
end_header
-0.019465 0.365061 4.00887
-0.0235478 0.433992 4.07786
-0.0232359 0.408542 4.01199
-0.0423666 0.508936 4.03871
-0.0226711 0.459082 4.08559
-0.0210827 0.489803 4.0737
-0.0205312 0.558267 4.00135
-0.196276 0.555951 3.89526
-0.0199158 0.604727 3.98245
-0.0194608 0.634349 3.98619
-0.0177446 0.751633 3.95519
-0.0185298 0.354462 4.00594
-0.0177178 0.34735 3.99843
-0.0173855 0.345539 3.98739
-0.0189155 0.311201 3.97791
-0.0190875 0.302732 3.98297
-0.018534 0.291866 3.98847
-0.0191143 0.277946 3.98479
-0.0212354 0.249355 3.96195
-0.0228482 0.420437 4.06493
-0.0467875 0.420887 4.03023
-0.287636 0.624962 3.77193
-0.121271 0.539905 3.91934
-0.1462 0.538059 3.91815
-0.171101 0.53815 3.91191
-0.205786 0.547336 3.89154
-0.101908 0.545316 3.91811
-0.155166 0.590013 3.92889
-0.129376 0.588898 3.92931
-0.180153 0.58659 3.92106
-0.197079 0.578908 3.91114
-0.226343 0.531322 3.88027
-0.120175 0.211687 3.9326
-0.205972 0.559103 3.88713
-0.298566 0.527073 3.76426
-0.252692 0.540877 3.85448
-0.150399 0.449854 3.95282
-0.0551999 0.369053 4.0057
-0.0498352 0.34839 3.99397
-0.0912676 0.36444 3.98866
-0.11448 0.356895 3.96337
-0.0764593 0.348247 3.97996
-0.0977561 0.345977 3.95696
-0.143767 0.310172 3.91682
-0.0440477 0.434628 4.07648
-0.0455306 0.458841 4.0832
-0.233664 0.598518 3.90634
-0.0954712 0.50521 3.95239
-0.101466 0.441305 4.01174
-0.101981 0.453275 4.00258
-0.227085 0.450925 3.91972
-0.043843 0.48674 4.06531
-0.17336 0.624274 3.95254
-0.20863 0.615869 3.9322
-0.260492 0.669382 3.82229
-0.0683192 0.607297 3.97454
-0.108055 0.582865 3.92166
-0.164889 0.338027 3.91273
-0.281156 0.303668 3.70336
-0.0847103 0.427397 4.00198
-0.0640163 0.419363 4.0066
-0.143316 0.340715 3.91121
-0.129377 0.34025 3.91746
-0.222456 0.629646 3.91929
-0.102874 0.432125 3.99789
-0.127049 0.622487 3.96696
-0.131459 0.641613 3.97241
-0.159069 0.732876 3.92172
-0.240381 0.650884 3.87696
-0.143625 0.690511 3.94767
-0.249402 0.606379 3.88369
-0.268494 0.614603 3.8311
-0.0529983 0.356506 4.00226
-0.0831874 0.35426 3.98472
-0.106008 0.351351 3.96213
-0.0790346 0.42335 3.99808
-0.136636 0.340791 3.91486
-0.122175 0.327208 3.93024
-0.124521 0.33975 3.91819
-0.0702339 0.433717 4.03729
-0.0922578 0.347568 3.95285
-0.0717513 0.347834 3.96969
-0.0466511 0.346398 3.9825
-0.0593227 0.252196 3.96049
-0.0548764 0.281519 3.98118
-0.0531468 0.295588 3.98342
-0.0517394 0.306168 3.97723
-0.0490139 0.313094 3.97237
-0.0952604 0.322698 3.94483
-0.0991916 0.320823 3.94944
-0.104395 0.315802 3.95294
-0.109996 0.307673 3.94796
-0.136118 0.374952 3.95701
-0.306645 0.415797 3.66242
-0.0248826 0.413885 4.03117
-0.109539 0.327617 3.92723
-0.115789 0.328743 3.93057
-0.0559931 0.409366 4.00605
-0.0971223 0.41815 3.98015
-0.0597426 0.414077 4.00725
-0.122435 0.492782 3.94416
-0.165492 0.478561 3.93917
-0.107364 0.443283 3.98825
-0.219108 0.706281 3.87552
-0.20043 0.67729 3.91521
-0.182456 0.642129 3.94707
-0.123049 0.286573 3.93134
-0.075671 0.637303 3.98432
-0.0854732 0.695215 3.96641
-0.0942358 0.746792 3.94945
-0.193077 0.540963 3.90136
-0.253054 0.514177 3.86672
-0.0907833 0.550876 3.91462
-0.225022 0.570325 3.89002
-0.0775655 0.519662 3.96155
-0.0851388 0.448962 4.03698
-0.280243 0.494537 3.838
-0.236889 0.503021 3.88963
-0.20559 0.497895 3.91316
-0.157959 0.501536 3.92466
-0.12154 0.510248 3.92938
-0.0951702 0.520597 3.9364
-0.0444977 0.551137 3.99067
-0.283011 0.449674 3.84662
-0.244365 0.571102 3.87809
-0.0353832 0.421621 4.06349
-0.0953613 0.48416 3.96496
-0.310159 0.520696 3.67826
-0.0770038 0.532588 3.94062
-0.112207 0.440881 3.9617
-0.214032 0.557262 3.88208
-0.0850785 0.463722 4.02599
-0.298704 0.360535 3.67673
-0.0923974 0.557931 3.90742
-0.0643903 0.477606 4.05039
-0.227359 0.263886 3.83667
-0.223612 0.229412 3.79429
-0.306841 0.430357 3.75503
-0.260448 0.291878 3.80675
-0.285283 0.573603 3.79007
-0.124519 0.183727 3.92068
-0.0350399 0.414974 4.02981
-0.118355 0.468232 3.95681
-0.273424 0.533498 3.82813
-0.169409 0.552176 3.90968
-0.146593 0.5511 3.91505
-0.128442 0.32377 3.92613
-0.283181 0.401808 3.8408
-0.079204 0.146163 3.9176
-0.15441 0.179342 3.86265
-0.185676 0.200515 3.83168
-0.0190077 0.69618 3.97177
-0.0249574 0.139838 3.92505
-0.125826 0.552313 3.91637
-0.107669 0.555306 3.91247
-0.0973669 0.556788 3.90759
-0.262428 0.573178 3.85211
-0.110667 0.568661 3.91574
-0.130059 0.572088 3.92087
-0.15117 0.573047 3.92001
-0.173347 0.570075 3.91421
-0.188418 0.565233 3.90658
-0.304316 0.578017 3.71917
-0.185128 0.553922 3.9019
-0.0221159 0.393752 4.00434
-0.110692 0.38755 3.97591
-0.084711 0.430628 4.01285
-0.0587247 0.393294 4.00187
-0.0199561 0.581774 3.98159
-0.191669 0.23401 3.86084
-0.158686 0.209062 3.88909
-0.0791382 0.166358 3.94732
-0.254596 0.260064 3.74711
-0.0982529 0.562649 3.91034
-0.0613779 0.515706 3.99906
-0.0236581 0.159914 3.95334
-0.120499 0.160396 3.89511
-0.300861 0.378949 3.76132
-0.0745724 0.317481 3.95992
-0.0785482 0.312658 3.96466
-0.0823131 0.304328 3.96814
-0.0862578 0.291646 3.96443
-0.0958524 0.26636 3.94723
-0.116656 0.344412 3.93558
-0.125218 0.346926 3.93508
-0.13272 0.350405 3.93571
-0.15673 0.359369 3.93368
-0.250423 0.396247 3.89327
-0.0607187 0.536399 3.97414
-0.0730805 0.5736 3.92765
-0.0879368 0.569784 3.91611
-0.109998 0.346285 3.93278
-0.253181 0.334216 3.85452
-0.0515288 0.576342 3.96315
-0.108231 0.240152 3.93881
-0.0207333 0.51324 4.04802
-0.0432886 0.529114 4.01761
-0.0208755 0.534778 4.02348
-0.07905 0.481208 4.00104
-0.022741 0.187642 3.96564
-0.021966 0.220939 3.96409
-0.0674576 0.224476 3.95862
-0.16402 0.294494 3.90591
-0.132952 0.42171 3.95372
-0.138086 0.263798 3.92042
-0.193365 0.422201 3.94364
-0.15869 0.398411 3.94545
-0.216036 0.3834 3.92076
-0.0759023 0.192991 3.95876
-0.0943854 0.468415 3.98268
-0.184438 0.268422 3.88648
-0.151766 0.238672 3.90626
-0.186359 0.327359 3.90427
-0.276913 0.359877 3.83248
-0.218082 0.314581 3.88377
-0.287186 0.331848 3.77279
-0.180129 0.371399 3.93044
-0.077719 0.499745 3.98027
-0.0774453 0.438196 4.04282
-0.0941598 0.433441 4.01592
-0.0669704 0.454516 4.06089
-0.0906775 0.590228 3.93422
-0.128512 0.601368 3.9399
-0.162664 0.603448 3.93871
-0.192385 0.598942 3.92797
-0.213451 0.58836 3.91191
-0.23023 0.549545 3.87254
-0.305603 0.479071 3.75732
-0.212671 0.524176 3.89289
-0.186333 0.51962 3.9081
-0.152512 0.520526 3.91783
-0.120586 0.525607 3.92156
-0.0970822 0.533224 3.92371
-0.0819709 0.540557 3.92562
-0.308834 0.468009 3.66065
-0.0939487 0.428031 4.00306
-0.0620153 0.497027 4.02073
-0.0606888 0.43739 4.06362
-0.0465477 0.425137 4.05348
-0.0604849 0.432935 4.05089
-0.0883217 0.421361 3.99486
-0.0425641 0.42323 4.06048
-0.0421415 0.416977 4.03005
-0.0837359 0.557253 3.91289
-0.0698872 0.552724 3.92973
-0.0625003 0.550067 3.94916
-0.198091 0.561669 3.89847
-0.210918 0.569734 3.89704
0.000188294 0.509124 4.03976
0.164378 0.556755 3.894
0.00100438 0.419903 4.02841
0.267366 0.634804 3.7702
0.0887746 0.540793 3.92261
0.115052 0.539013 3.92057
0.140782 0.539323 3.91302
0.177416 0.548698 3.89
0.0669251 0.545888 3.91994
0.125437 0.592838 3.93001
0.0978308 0.591214 3.92879
0.151049 0.589477 3.92093
0.168564 0.581621 3.90967
0.198051 0.533707 3.87645
0.0804367 0.207305 3.92813
0.174742 0.560378 3.8852
0.276962 0.532105 3.76005
0.227306 0.544099 3.84941
0.114954 0.451024 3.94768
0.0194483 0.368718 4.00448
0.0183563 0.348016 3.99304
0.0605855 0.363439 3.98584
0.0872993 0.356312 3.96056
0.0484463 0.347541 3.97951
0.071122 0.345906 3.95589
0.115606 0.309155 3.91304
-0.00148091 0.434189 4.07436
0.00221821 0.458745 4.08143
0.209282 0.602991 3.90295
0.0572568 0.506203 3.95245
0.0627284 0.441492 4.0081
0.0643292 0.453955 3.99942
0.198367 0.452904 3.91318
0.00157401 0.4869 4.06589
0.142329 0.628929 3.94786
0.180988 0.620588 3.92794
0.238604 0.679841 3.82021
0.03084 0.609272 3.97363
0.073383 0.584404 3.92174
0.139136 0.337616 3.90901
0.257127 0.299017 3.6986
0.0425632 0.426876 3.99893
0.0199469 0.419078 4.00128
0.116552 0.341051 3.90946
0.105495 0.341006 3.91529
0.195938 0.635232 3.91462
0.0653105 0.432605 3.99308
0.0925041 0.626278 3.96325
0.0979778 0.646118 3.96799
0.130041 0.740355 3.91882
0.216551 0.658735 3.87283
0.110287 0.696097 3.94471
0.226074 0.611932 3.88021
0.246334 0.622125 3.82726
0.0196448 0.356128 4.00141
0.0536505 0.353491 3.98372
0.0791197 0.350887 3.96015
0.0360484 0.422899 3.99298
0.11116 0.341347 3.91238
0.0955175 0.327329 3.92683
0.102346 0.340496 3.91626
0.0280804 0.432562 4.03719
0.0676662 0.348004 3.95193
0.043652 0.347687 3.96988
0.0161043 0.346521 3.98302
0.0198541 0.251208 3.95784
0.0199452 0.280954 3.9808
0.0188216 0.295006 3.98403
0.0163708 0.305516 3.97816
0.0140142 0.312455 3.9738
0.0668993 0.322503 3.94355
0.0713227 0.320492 3.94696
0.0770714 0.315431 3.94917
0.0810139 0.307285 3.94401
0.104477 0.375224 3.95134
0.27924 0.41706 3.65891
0.0829421 0.327852 3.927
0.0891693 0.32887 3.92816
0.0115529 0.409156 4.00337
0.0562766 0.418584 3.97272
0.0155077 0.413899 4.00334
0.0855443 0.494188 3.94351
0.131151 0.480257 3.93558
0.069916 0.444247 3.98398
0.194715 0.716019 3.87241
0.172727 0.684538 3.91045
0.151585 0.6475 3.94234
0.0912837 0.285115 3.92821
0.0392938 0.64033 3.9818
0.049203 0.698405 3.96392
0.0619573 0.750905 3.94613
0.163947 0.542116 3.9011
0.226953 0.517087 3.86105
0.0531419 0.551244 3.91727
0.198205 0.573261 3.88736
0.0386794 0.520423 3.96257
0.0446129 0.448627 4.03448
0.257185 0.497668 3.83243
0.208693 0.505814 3.88537
0.174555 0.500429 3.90974
0.123057 0.50333 3.92366
0.0847519 0.51154 3.93005
0.0575741 0.521478 3.93717
0.00358623 0.551588 3.99115
0.258153 0.451738 3.84048
0.220631 0.575182 3.87524
-0.00936037 0.421179 4.06322
0.0556554 0.485199 3.9645
0.284462 0.527052 3.67643
0.0371102 0.533306 3.94168
0.0716074 0.44193 3.95591
0.184331 0.558995 3.88024
0.0463724 0.464007 4.02354
0.273274 0.358769 3.67192
0.0546789 0.557958 3.91079
0.0246743 0.477678 4.04961
0.200722 0.256775 3.82871
0.197029 0.220088 3.78855
0.280701 0.431578 3.74875
0.237468 0.286013 3.79831
0.262211 0.580472 3.78646
0.0829039 0.177929 3.91679
-0.0146765 0.414821 4.02896
0.0806634 0.469469 3.95401
0.250766 0.537316 3.82357
0.136247 0.552671 3.91033
0.113383 0.551774 3.91747
0.101401 0.323652 3.92285
0.258381 0.401623 3.83216
0.0308874 0.14255 3.9164
0.114091 0.171362 3.85999
0.152128 0.191244 3.82809
0.0923579 0.553159 3.91909
0.0724921 0.55597 3.91627
0.0600554 0.557105 3.91157
0.240814 0.578184 3.8484
0.0784161 0.569222 3.91889
0.101442 0.573185 3.92262
0.122414 0.574096 3.92116
0.144434 0.571448 3.91429
0.159067 0.566627 3.90518
0.280323 0.586639 3.71727
0.15245 0.554506 3.90184
0.0750051 0.387933 3.9711
0.042549 0.429704 4.00815
0.0180491 0.39305 4.00014
0.15919 0.226446 3.85419
0.12229 0.201543 3.88337
0.0344752 0.162975 3.94539
0.230283 0.252712 3.74274
0.0622431 0.562756 3.91471
0.0203002 0.516263 3.99898
0.075283 0.154419 3.89402
0.277044 0.377633 3.75293
0.0424087 0.316678 3.96056
0.0468137 0.312008 3.96441
0.0506643 0.303706 3.96757
0.0530057 0.291052 3.96343
0.0602612 0.264999 3.94594
0.0932968 0.344666 3.93414
0.100288 0.346957 3.93372
0.107629 0.350439 3.93367
0.12886 0.359606 3.92928
0.225343 0.396209 3.88441
0.0202949 0.537053 3.97516
0.0326818 0.574465 3.92793
0.04997 0.570394 3.91853
0.0880053 0.347065 3.93186
0.228924 0.33113 3.84482
0.0119007 0.577175 3.96294
0.071235 0.237072 3.93464
0.00241801 0.529436 4.01715
0.03897 0.481704 3.9992
0.0262524 0.222627 3.95529
0.134565 0.291708 3.90082
0.0957601 0.422851 3.94786
0.105307 0.260503 3.91524
0.162735 0.422808 3.93479
0.125793 0.398864 3.93878
0.188816 0.383064 3.91142
0.033125 0.190504 3.95651
0.0556418 0.469296 3.9802
0.153058 0.263223 3.8801
0.116661 0.233244 3.89996
0.159422 0.32586 3.90056
0.253684 0.357638 3.82259
0.192476 0.31089 3.87602
0.264573 0.328221 3.76512
0.153061 0.371641 3.92416
0.0373299 0.500537 3.9806
0.0367016 0.437145 4.04131
0.0545497 0.432936 4.011
0.024283 0.453951 4.05998
0.0525738 0.591442 3.93502
0.093643 0.603475 3.93835
0.130363 0.606706 3.93639
0.162063 0.60262 3.9253
0.185618 0.591938 3.90875
0.202878 0.551932 3.86915
0.281429 0.482278 3.75322
0.183012 0.52636 3.89004
0.154989 0.521639 3.90637
0.119557 0.522056 3.91794
0.0859975 0.526793 3.92296
0.0605517 0.53391 3.92421
0.0434338 0.541082 3.92638
0.281248 0.47193 3.65949
0.0544845 0.427846 3.99789
0.0199784 0.497457 4.0211
0.0172369 0.436213 4.06152
0.00388984 0.423949 4.0514
0.0177066 0.431438 4.04926
0.0479691 0.421329 3.98854
-0.000950162 0.422403 4.05866
-0.00541632 0.416267 4.02841
0.0442589 0.557295 3.9144
0.0303427 0.553184 3.92995
0.0227082 0.550658 3.94913
0.16795 0.562981 3.89642
0.182633 0.57208 3.89412
