ply
format ascii 1.0
comment Created by Open3D
element vertex 468
property double x
property double y
property double z
end_header
0.0516763 0.35613 3.73451
0.0540209 0.450393 3.80145
0.0548813 0.415158 3.73709
0.0329607 0.537803 3.76385
0.0539917 0.479185 3.80789
0.0535128 0.515615 3.79575
0.0542728 0.595933 3.72833
-0.117809 0.591746 3.62791
0.0541566 0.650326 3.71177
0.053819 0.684514 3.71667
0.0537833 0.812013 3.68849
0.0511314 0.343616 3.73118
0.0505262 0.335356 3.72348
0.0504956 0.332658 3.71168
0.0507867 0.329098 3.71018
0.0506399 0.320397 3.71483
0.0495288 0.309667 3.72147
0.0491115 0.295088 3.72024
0.0500272 0.261702 3.70218
0.0534199 0.435548 3.78935
0.0299821 0.432937 3.75287
-0.216006 0.668839 3.51794
-0.0460357 0.577188 3.65381
-0.0706798 0.574911 3.65242
-0.0950554 0.573475 3.64596
-0.128585 0.581669 3.62456
-0.0257067 0.581894 3.65119
-0.0856469 0.630132 3.66014
-0.0595101 0.629623 3.65959
-0.108273 0.624936 3.65259
-0.123435 0.615971 3.64317
-0.148955 0.562264 3.61264
-0.044788 0.205754 3.66736
-0.128437 0.595221 3.62034
-0.225662 0.552945 3.50555
-0.178824 0.57263 3.5887
-0.0734178 0.467247 3.67698
0.0169178 0.360759 3.73054
0.019073 0.3364 3.7183
-0.0193395 0.355936 3.71324
-0.0427611 0.348681 3.69133
-0.00782069 0.337248 3.70618
-0.0278795 0.335943 3.6857
-0.0720067 0.307692 3.64921
0.032146 0.450905 3.79822
0.029116 0.479218 3.80391
-0.164185 0.640037 3.63954
-0.0204057 0.534104 3.68161
-0.0283552 0.455967 3.73276
-0.0294181 0.470342 3.72366
-0.148715 0.468582 3.64503
0.0309069 0.511791 3.7884
-0.104636 0.67112 3.68
-0.139554 0.660586 3.66281
-0.191382 0.721952 3.56483
0.00382862 0.654345 3.7032
-0.0352265 0.622434 3.65273
-0.0932895 0.332549 3.64255
-0.204548 0.29138 3.43953
-0.00961062 0.438506 3.72454
0.0123144 0.429159 3.72673
-0.0691024 0.33445 3.64406
-0.0588307 0.335624 3.6498
-0.154013 0.676004 3.65055
-0.0301176 0.44444 3.71819
-0.0571143 0.67072 3.69353
-0.0626614 0.693714 3.69804
-0.0900832 0.796076 3.65497
-0.172168 0.70117 3.61246
-0.0731733 0.747245 3.67781
-0.179962 0.648745 3.6189
-0.197601 0.65771 3.57096
0.0172782 0.345934 3.72763
-0.0124543 0.344128 3.71081
-0.0348238 0.342024 3.69014
-0.003193 0.433137 3.71963
-0.0637252 0.33514 3.64701
-0.0504133 0.329344 3.66225
-0.0564472 0.336162 3.65078
0.0039355 0.44904 3.76206
-0.0242835 0.33793 3.68048
-0.003268 0.336189 3.6955
0.0215442 0.33425 3.70763
0.0142692 0.262397 3.69808
0.015582 0.296857 3.71639
0.0172756 0.312057 3.71747
0.0197714 0.322309 3.71064
0.0218037 0.32938 3.70622
-0.0260793 0.331902 3.67905
-0.0297341 0.329776 3.68214
-0.0345137 0.324198 3.68419
-0.0381645 0.314694 3.68023
-0.0607767 0.374752 3.68238
-0.225526 0.418169 3.40616
0.0556481 0.424477 3.7558
-0.0398892 0.332129 3.6631
-0.0447858 0.332053 3.66395
0.0214838 0.416431 3.72862
-0.0208949 0.425543 3.69964
0.0169475 0.42262 3.72883
-0.0454173 0.518918 3.6726
-0.0870598 0.501206 3.66581
-0.0336538 0.457913 3.7093
-0.151654 0.765954 3.61206
-0.132196 0.731886 3.64574
-0.113867 0.692133 3.67522
-0.0492419 0.288439 3.66632
-0.0047783 0.68961 3.71139
-0.013337 0.751592 3.69648
-0.023964 0.80996 3.67946
-0.116315 0.575375 3.63513
-0.177117 0.5412 3.59871
-0.0131288 0.586468 3.64871
-0.150781 0.607162 3.62416
-0.00299029 0.550988 3.69081
-0.0118999 0.46622 3.75844
-0.205202 0.517848 3.57182
-0.159343 0.528426 3.62049
-0.127176 0.523271 3.64278
-0.0790163 0.52894 3.65515
-0.0437653 0.540128 3.66037
-0.019535 0.552375 3.66731
0.0305992 0.587791 3.71905
-0.204066 0.465444 3.57842
-0.173652 0.609293 3.61352
0.0400577 0.436536 3.78744
-0.0194264 0.507838 3.69191
-0.231201 0.541577 3.42709
-0.000524273 0.56524 3.67202
-0.0346652 0.452978 3.6831
-0.135749 0.591757 3.6165
-0.012965 0.484062 3.74729
-0.219672 0.354794 3.41631
-0.0155122 0.59398 3.6431
0.00831514 0.501424 3.77264
-0.15564 0.251252 3.56751
-0.151715 0.210843 3.52747
-0.225673 0.438695 3.49238
-0.186821 0.282832 3.53686
-0.211666 0.608799 3.53203
-0.0493601 0.171464 3.65547
0.0455281 0.425325 3.75327
-0.0421878 0.488554 3.68187
-0.201171 0.563313 3.56517
-0.0908765 0.588971 3.64225
-0.0694248 0.58906 3.64864
-0.0558855 0.324429 3.6582
-0.202769 0.409226 3.56867
-0.000450818 0.132436 3.65405
-0.0783605 0.15981 3.60043
-0.112765 0.180357 3.56823
0.0541169 0.750603 3.70377
0.0534528 0.131142 3.66239
-0.0495915 0.590928 3.64999
-0.0305752 0.59361 3.64716
-0.0194519 0.593556 3.64365
-0.19233 0.610755 3.58885
-0.0398374 0.612001 3.6493
-0.0628325 0.618828 3.65223
-0.0839942 0.619332 3.65107
-0.10459 0.613879 3.64538
-0.117004 0.605935 3.63772
-0.227303 0.610707 3.4669
-0.106207 0.590111 3.63479
0.0540283 0.39575 3.73053
-0.0353983 0.389446 3.69973
-0.0100861 0.442917 3.73484
0.016723 0.395489 3.72683
0.0541339 0.623356 3.71006
-0.119675 0.2187 3.59356
-0.0858378 0.193746 3.62223
-0.00388056 0.158871 3.68292
-0.180692 0.24455 3.48202
-0.0233399 0.601441 3.64659
0.0135649 0.545988 3.72606
0.0517502 0.157024 3.69062
-0.0426761 0.143124 3.6331
-0.220707 0.379993 3.49498
-0.00396372 0.330706 3.69427
-0.00774691 0.325792 3.69843
-0.0110511 0.317445 3.70234
-0.0135799 0.303224 3.70008
-0.0213406 0.27304 3.68539
-0.0475701 0.336637 3.66668
-0.0539748 0.338827 3.66658
-0.0610384 0.342825 3.66678
-0.0831845 0.355989 3.66268
-0.172722 0.405386 3.61787
0.0145947 0.570305 3.70309
0.00426783 0.61093 3.65958
-0.0122351 0.607147 3.65141
-0.0423277 0.338724 3.66352
-0.177749 0.332756 3.5811
0.0233124 0.616599 3.69218
-0.0336277 0.240276 3.67468
0.0537751 0.543203 3.77184
0.0308716 0.562155 3.74418
0.0540624 0.568503 3.74985
-0.00455326 0.504689 3.72549
0.050758 0.190769 3.70347
0.0503146 0.228822 3.70178
0.00741915 0.228817 3.69402
-0.0929855 0.289319 3.6375
-0.0567515 0.432311 3.67748
-0.0657884 0.260263 3.65416
-0.116907 0.435542 3.66567
-0.0831109 0.406072 3.67051
-0.141339 0.390366 3.64412
-0.000944122 0.192062 3.69477
-0.0201742 0.488811 3.70645
-0.112768 0.258758 3.61766
-0.0785991 0.228914 3.63796
-0.115257 0.323492 3.63456
-0.198818 0.361015 3.55926
-0.146597 0.31038 3.61231
-0.209825 0.326745 3.50446
-0.107696 0.374193 3.65731
-0.00246716 0.526993 3.70778
-0.00450633 0.454377 3.76608
-0.0209235 0.446382 3.73591
0.00736245 0.473478 3.78344
-0.0156951 0.630041 3.66694
-0.0563602 0.642003 3.67099
-0.090991 0.643968 3.6687
-0.119578 0.639311 3.65851
-0.140055 0.627689 3.64428
-0.154286 0.583143 3.60692
-0.228599 0.496276 3.49773
-0.134298 0.554421 3.6251
-0.10845 0.550297 3.64033
-0.0749638 0.552968 3.65031
-0.0438473 0.5595 3.65378
-0.0207865 0.567174 3.65558
-0.00495535 0.574258 3.65718
-0.228131 0.479153 3.4091
-0.0204468 0.439347 3.72365
0.0137243 0.523688 3.74612
0.0137887 0.453754 3.78577
0.0271206 0.440086 3.77578
0.0134607 0.448318 3.77382
-0.0135229 0.430658 3.71486
0.0319389 0.438062 3.78275
0.0364124 0.427991 3.75318
-0.00602172 0.591827 3.64646
0.00724846 0.587469 3.66104
0.0136593 0.585117 3.67879
-0.123908 0.599956 3.63043
-0.13517 0.605939 3.62925
0.0749254 0.537718 3.76321
0.221066 0.594417 3.62756
0.0788454 0.434051 3.75463
0.306169 0.663351 3.5204
0.147928 0.577861 3.64969
0.171064 0.575874 3.64863
0.19487 0.574605 3.64371
0.228499 0.583935 3.62376
0.130432 0.582704 3.64868
0.185311 0.629616 3.65938
0.160059 0.629194 3.6601
0.208273 0.624991 3.65241
0.223283 0.616559 3.64356
0.247094 0.563679 3.61434
0.143666 0.213183 3.67035
0.231124 0.598061 3.62064
0.317721 0.552879 3.509
0.274596 0.573697 3.59225
0.17425 0.468831 3.68032
0.0843483 0.36179 3.73153
0.0793889 0.337178 3.71902
0.116971 0.358235 3.71502
0.137402 0.350977 3.69281
0.103398 0.338738 3.70648
0.122707 0.337291 3.68638
0.166189 0.311535 3.65203
0.0746907 0.452119 3.79988
0.0772377 0.479929 3.80576
0.259391 0.639873 3.64251
0.124286 0.534077 3.68124
0.132502 0.457642 3.73609
0.132802 0.47171 3.72693
0.243417 0.471164 3.64879
0.0760729 0.511926 3.78838
0.205162 0.669688 3.68537
0.237369 0.659866 3.66722
0.283715 0.715484 3.56835
0.102245 0.65308 3.70454
0.139002 0.621928 3.65251
0.187429 0.33607 3.64538
0.298782 0.302156 3.4418
0.116746 0.440428 3.72776
0.0965296 0.430632 3.73158
0.164546 0.335775 3.64497
0.152542 0.336754 3.65169
0.251088 0.674513 3.65566
0.133899 0.446229 3.72277
0.160603 0.669207 3.69808
0.165943 0.691923 3.70354
0.190835 0.790688 3.65927
0.266707 0.697335 3.61755
0.176796 0.743685 3.68267
0.274145 0.647643 3.62239
0.289992 0.654769 3.57488
0.0821853 0.347045 3.72826
0.109192 0.345827 3.71153
0.129893 0.343846 3.69142
0.111151 0.435104 3.72435
0.158548 0.336489 3.64874
0.144419 0.331115 3.66487
0.148929 0.337095 3.65233
0.101431 0.450712 3.76262
0.11797 0.338839 3.68113
0.0990917 0.33687 3.69546
0.07638 0.334415 3.70709
0.0833827 0.264327 3.69963
0.0802181 0.297932 3.71681
0.0794354 0.312829 3.7172
0.0790676 0.322936 3.71019
0.0774118 0.330007 3.70561
0.120473 0.333405 3.6805
0.123499 0.331666 3.68443
0.127467 0.326344 3.68726
0.131901 0.317155 3.68319
0.159769 0.377236 3.6864
0.322384 0.421869 3.40801
0.133957 0.333024 3.66334
0.139035 0.333447 3.66563
0.0876052 0.417106 3.73096
0.127629 0.427306 3.70628
0.0918981 0.423651 3.73248
0.148137 0.519112 3.67222
0.187181 0.502042 3.6674
0.137322 0.459303 3.7131
0.247371 0.759509 3.61742
0.231147 0.727804 3.65199
0.214536 0.690019 3.68093
0.144206 0.292382 3.66834
0.110493 0.68792 3.71435
0.119688 0.749614 3.69952
0.128269 0.807116 3.68337
0.21598 0.5771 3.63366
0.272576 0.542582 3.60216
0.120815 0.587049 3.64549
0.248754 0.608306 3.62562
0.108219 0.550839 3.68996
0.116505 0.467851 3.76123
0.297947 0.51981 3.57484
0.255716 0.529524 3.62246
0.225091 0.523984 3.64404
0.180098 0.529409 3.65456
0.14713 0.540323 3.65888
0.123902 0.552419 3.66617
0.0774565 0.587639 3.71867
0.296992 0.468689 3.58125
0.268244 0.609541 3.61592
0.0661079 0.437019 3.78769
0.124457 0.507919 3.69226
0.326378 0.539751 3.42858
0.107418 0.565208 3.67065
0.140737 0.454534 3.68808
0.237091 0.594229 3.61638
0.116492 0.485095 3.75008
0.315337 0.362342 3.41906
0.123309 0.594774 3.63944
0.0963741 0.501953 3.77368
0.248792 0.26434 3.57234
0.246077 0.225464 3.53041
0.320593 0.443451 3.49542
0.278212 0.294871 3.54131
0.30495 0.606679 3.535
0.150094 0.180419 3.65803
0.0661512 0.425645 3.75428
0.145166 0.489186 3.68365
0.294553 0.564131 3.56854
0.194246 0.590594 3.64008
0.172524 0.590131 3.64494
0.150282 0.326377 3.66045
0.295594 0.415253 3.57287
0.106254 0.137588 3.65495
0.17971 0.171504 3.60155
0.210424 0.194299 3.56972
0.15292 0.591916 3.64624
0.136042 0.594284 3.64292
0.126909 0.594312 3.6391
0.285072 0.61028 3.59196
0.142393 0.612376 3.64666
0.16169 0.61962 3.65127
0.182821 0.62068 3.65043
0.204314 0.616002 3.64567
0.217602 0.608606 3.63888
0.320715 0.606747 3.46911
0.209861 0.592257 3.63331
0.137658 0.391392 3.70348
0.116464 0.445411 3.73913
0.0889044 0.39637 3.72828
0.215853 0.231725 3.59756
0.183995 0.205718 3.62594
0.105614 0.163845 3.6845
0.274277 0.257347 3.48362
0.129558 0.602095 3.64259
0.0931425 0.545996 3.7262
0.146497 0.152131 3.63378
0.313864 0.387782 3.49903
0.100882 0.331879 3.69428
0.10374 0.327222 3.69903
0.106008 0.318979 3.70283
0.10874 0.304969 3.70086
0.117146 0.275981 3.68628
0.140506 0.337728 3.66787
0.147767 0.340177 3.66746
0.154659 0.34447 3.66793
0.178972 0.358873 3.66593
0.264731 0.410746 3.62287
0.0926719 0.570023 3.70244
0.104567 0.610863 3.65876
0.119202 0.606947 3.64858
0.134766 0.339408 3.66409
0.269308 0.34171 3.58664
0.0844469 0.616141 3.69225
0.130177 0.245755 3.67723
0.0762217 0.562255 3.74463
0.109445 0.50526 3.72715
0.0913864 0.231898 3.69599
0.187801 0.296077 3.64148
0.15979 0.434066 3.6823
0.16092 0.267063 3.65781
0.213299 0.438942 3.67149
0.182413 0.408854 3.67544
0.234689 0.395803 3.65023
0.100856 0.195935 3.696
0.124111 0.489499 3.70858
0.208369 0.268936 3.62227
0.176033 0.238615 3.64248
0.209296 0.329341 3.63763
0.290501 0.369281 3.56445
0.238465 0.319591 3.61725
0.302109 0.337009 3.5083
0.202146 0.377871 3.66186
0.10834 0.526945 3.70757
0.108731 0.456421 3.768
0.125649 0.448751 3.74053
0.098458 0.474624 3.78485
0.12228 0.629666 3.66624
0.159487 0.641664 3.67227
0.19235 0.643525 3.67103
0.220106 0.63883 3.66089
0.238645 0.627958 3.64647
0.252518 0.584848 3.60872
0.32214 0.498215 3.50009
0.233048 0.555757 3.62543
0.207671 0.551089 3.64016
0.175597 0.55349 3.64856
0.146561 0.559959 3.65137
0.125775 0.567825 3.65408
0.111982 0.574719 3.65565
0.324379 0.479716 3.40989
0.125597 0.441474 3.72829
0.0934648 0.523769 3.74611
0.091826 0.455516 3.78791
0.0779997 0.441693 3.77776
0.0915578 0.45043 3.77563
0.119719 0.432469 3.72053
0.0736409 0.439185 3.78429
0.0736323 0.428999 3.75479
0.115103 0.592507 3.64427
0.100913 0.587702 3.66016
0.0940778 0.585124 3.67851
0.225333 0.602838 3.63137
0.235203 0.607694 3.63029
