ply
format ascii 1.0
comment Created by Open3D
element vertex 468
property double x
property double y
property double z
end_header
-0.0248694 0.338656 3.84264
-0.0284274 0.437861 3.91055
-0.0288652 0.39884 3.84219
-0.0491811 0.525703 3.86923
-0.0284625 0.467812 3.91704
-0.0278767 0.504398 3.90337
-0.0276039 0.585999 3.83068
-0.206152 0.581953 3.7246
-0.0263579 0.648488 3.81138
-0.0256171 0.687016 3.81632
-0.0236897 0.829873 3.78331
-0.0240772 0.32563 3.84036
-0.0236122 0.316485 3.83243
-0.0235126 0.312812 3.82022
-0.0241565 0.277795 3.81425
-0.0240595 0.266683 3.81934
-0.0237994 0.25357 3.82421
-0.0238501 0.237041 3.81887
-0.0250033 0.209701 3.79159
-0.0278723 0.422286 3.89818
-0.049707 0.418976 3.86061
-0.299903 0.663113 3.60477
-0.12854 0.562822 3.75082
-0.154207 0.560781 3.74983
-0.179719 0.560262 3.74344
-0.214744 0.570956 3.72059
-0.108645 0.568194 3.74877
-0.16662 0.627494 3.75687
-0.138843 0.626228 3.75821
-0.192082 0.621905 3.74894
-0.208914 0.61167 3.73952
-0.235586 0.549526 3.71007
-0.120359 0.174398 3.75899
-0.216403 0.586586 3.71609
-0.310147 0.539912 3.59513
-0.264227 0.561602 3.68487
-0.152886 0.448755 3.78205
-0.0581209 0.343084 3.8388
-0.0531334 0.31742 3.82805
-0.0908492 0.336765 3.82181
-0.111761 0.326232 3.79859
-0.0767564 0.316312 3.81509
-0.0959249 0.312111 3.79291
-0.143459 0.273699 3.75093
-0.0484321 0.439149 3.90849
-0.051468 0.467808 3.91451
-0.248723 0.636754 3.73552
-0.100482 0.51864 3.78288
-0.10263 0.440659 3.84144
-0.10359 0.454771 3.83161
-0.230081 0.449113 3.74975
-0.0502161 0.500269 3.89588
-0.189184 0.671049 3.78041
-0.224595 0.659816 3.76089
-0.275249 0.721863 3.6551
-0.0783474 0.651963 3.80351
-0.115484 0.616425 3.75093
-0.162857 0.303573 3.74554
-0.278675 0.269505 3.52454
-0.0854136 0.422925 3.83218
-0.0654602 0.413316 3.83549
-0.139265 0.302079 3.74714
-0.126431 0.302894 3.75422
-0.23909 0.676296 3.74841
-0.102864 0.427833 3.82698
-0.141178 0.670332 3.79499
-0.146222 0.695133 3.80049
-0.173488 0.807131 3.75158
-0.256412 0.701546 3.70748
-0.157905 0.75384 3.77795
-0.264714 0.645487 3.71388
-0.282216 0.653929 3.66343
-0.0558291 0.328105 3.83676
-0.0830976 0.324225 3.81954
-0.103904 0.319172 3.79765
-0.0793781 0.417353 3.82806
-0.132967 0.302556 3.75142
-0.120924 0.290591 3.76657
-0.12254 0.303877 3.75466
-0.0730872 0.436255 3.86944
-0.0908663 0.313494 3.78797
-0.0719571 0.314216 3.80374
-0.0498795 0.313687 3.81583
-0.0622206 0.212468 3.79016
-0.059387 0.241253 3.816
-0.0577262 0.257532 3.81977
-0.0558209 0.270174 3.81445
-0.0530461 0.279454 3.80973
-0.0959075 0.288579 3.7829
-0.100214 0.286101 3.78624
-0.106064 0.280332 3.78828
-0.111229 0.270992 3.7833
-0.133285 0.352625 3.78964
-0.308801 0.397788 3.48757
-0.0294566 0.4097 3.8624
-0.108336 0.292248 3.76574
-0.114659 0.292359 3.76759
-0.0579312 0.399558 3.83473
-0.0961254 0.407628 3.80831
-0.0613992 0.406334 3.83652
-0.126313 0.502303 3.77368
-0.169615 0.483531 3.76864
-0.107712 0.44102 3.81709
-0.235574 0.771384 3.70644
-0.217269 0.735892 3.74427
-0.198928 0.693537 3.77584
-0.123431 0.249695 3.76515
-0.0868162 0.690851 3.813
-0.0959365 0.760399 3.79666
-0.105186 0.825479 3.77766
-0.202129 0.563299 3.73223
-0.262939 0.526904 3.69733
-0.0967108 0.573469 3.74525
-0.236763 0.600472 3.71968
-0.0836353 0.536909 3.79149
-0.08863 0.453338 3.86748
-0.289377 0.502598 3.66794
-0.2455 0.512305 3.7203
-0.212361 0.506506 3.74391
-0.163166 0.512383 3.75489
-0.126621 0.52415 3.75925
-0.101076 0.5377 3.7669
-0.0513134 0.576846 3.82077
-0.286922 0.446651 3.67662
-0.257743 0.601903 3.70881
-0.0398171 0.423439 3.89625
-0.0981683 0.491932 3.79504
-0.318285 0.525615 3.50822
-0.0829325 0.551805 3.77123
-0.111131 0.435026 3.79024
-0.223561 0.583044 3.71122
-0.0887951 0.470437 3.85586
-0.298811 0.334006 3.49964
-0.0981519 0.582296 3.73885
-0.0703231 0.488884 3.88041
-0.224145 0.228379 3.66188
-0.220162 0.189846 3.61647
-0.310094 0.420171 3.58322
-0.25646 0.26027 3.6311
-0.297774 0.599535 3.62197
-0.123684 0.144956 3.74433
-0.0386207 0.410574 3.8605
-0.120277 0.471653 3.78618
-0.285596 0.551636 3.65945
-0.178488 0.576675 3.73981
-0.15529 0.575764 3.74591
-0.127223 0.286524 3.76212
-0.282267 0.389052 3.66814
-0.0784971 0.104939 3.73899
-0.15127 0.138079 3.68664
-0.182307 0.159731 3.65586
-0.0247984 0.760917 3.80178
-0.0263064 0.0993205 3.74686
-0.133646 0.577543 3.74693
-0.114214 0.580433 3.74322
-0.102865 0.580721 3.73884
-0.276478 0.603137 3.6828
-0.119458 0.604349 3.74573
-0.140921 0.613624 3.74965
-0.164255 0.614942 3.74813
-0.187408 0.609206 3.74275
-0.20168 0.600049 3.73515
-0.314377 0.599536 3.5508
-0.19476 0.579048 3.73167
-0.0276351 0.378062 3.83513
-0.109014 0.36916 3.80663
-0.0860216 0.428664 3.84394
-0.0615264 0.37709 3.83205
-0.0267368 0.617395 3.81028
-0.189684 0.195557 3.6857
-0.157471 0.170253 3.71261
-0.0798045 0.127419 3.77086
-0.25095 0.222008 3.56897
-0.105 0.591082 3.74192
-0.0676641 0.532998 3.82967
-0.0257624 0.12168 3.77696
-0.118202 0.119061 3.71808
-0.300527 0.360196 3.58739
-0.076911 0.283331 3.79787
-0.0811972 0.277464 3.80225
-0.0852928 0.267513 3.80491
-0.0890731 0.252776 3.80091
-0.0971024 0.228507 3.78069
-0.113843 0.308888 3.77226
-0.121814 0.311806 3.77184
-0.128861 0.3163 3.77215
-0.153266 0.330827 3.76845
-0.249046 0.384118 3.72213
-0.0672838 0.557862 3.80409
-0.0793298 0.602494 3.75827
-0.09436 0.597885 3.74775
-0.107671 0.311041 3.76868
-0.249336 0.309574 3.68138
-0.0585384 0.609493 3.79237
-0.109434 0.202957 3.76745
-0.0279714 0.531614 3.87777
-0.0504741 0.550504 3.84866
-0.0278497 0.557384 3.85397
-0.0833612 0.490357 3.83151
-0.0254578 0.150511 3.79043
-0.0254942 0.182596 3.78982
-0.0697016 0.185799 3.7843
-0.16478 0.259596 3.73722
-0.132475 0.412296 3.78351
-0.139366 0.227775 3.75037
-0.194687 0.414896 3.77228
-0.158059 0.384038 3.77662
-0.214555 0.367866 3.75008
-0.0772002 0.155031 3.78367
-0.0964435 0.473087 3.81223
-0.184303 0.232473 3.71448
-0.152313 0.201344 3.73195
-0.185603 0.296316 3.73593
-0.273618 0.339685 3.65856
-0.216073 0.285696 3.71333
-0.284586 0.305429 3.5972
-0.17839 0.349721 3.76286
-0.082591 0.512474 3.81071
-0.0806746 0.441959 3.87497
-0.0955057 0.431963 3.84566
-0.0716354 0.461673 3.89215
-0.0985577 0.624914 3.76536
-0.139294 0.639561 3.76996
-0.175409 0.642041 3.7672
-0.205513 0.636527 3.75613
-0.226018 0.623568 3.74075
-0.240623 0.573314 3.70262
-0.313378 0.480065 3.58715
-0.221127 0.540632 3.72311
-0.193859 0.535585 3.739
-0.158931 0.53773 3.74847
-0.12687 0.544374 3.75188
-0.103439 0.553197 3.75419
-0.0881083 0.561369 3.7556
-0.313865 0.460322 3.4893
-0.0943666 0.423668 3.83268
-0.0680556 0.510477 3.85112
-0.0646173 0.442191 3.89559
-0.0506744 0.427598 3.88505
-0.0639579 0.436489 3.8829
-0.0880918 0.414082 3.82378
-0.0468149 0.425424 3.89247
-0.0452009 0.413754 3.86089
-0.0894763 0.580346 3.74366
-0.0757075 0.576356 3.76007
-0.0686642 0.574001 3.7789
-0.210092 0.592953 3.72723
-0.221903 0.599796 3.72541
-0.00684066 0.525989 3.86957
0.15898 0.581831 3.72274
-0.00710404 0.418491 3.86004
0.26702 0.668781 3.60081
0.080936 0.563704 3.75227
0.10771 0.561573 3.75027
0.133955 0.561262 3.74337
0.169918 0.571278 3.71904
0.0585313 0.56888 3.74965
0.122366 0.628536 3.75637
0.0932939 0.627483 3.7572
0.147746 0.622699 3.74771
0.164649 0.612103 3.73765
0.191682 0.550705 3.70686
0.0709728 0.171335 3.75671
0.169641 0.58624 3.71383
0.272431 0.543086 3.59062
0.222763 0.563152 3.68027
0.103845 0.449264 3.77911
0.00970188 0.343452 3.8381
0.00749727 0.3177 3.82744
0.044973 0.337492 3.82036
0.0683344 0.327855 3.79688
0.0328645 0.317443 3.81497
0.0529505 0.314141 3.7922
0.0995802 0.27433 3.74798
-0.00745798 0.438856 3.90742
-0.00427192 0.467739 3.91328
0.208883 0.637966 3.73156
0.0497183 0.519417 3.78271
0.0493046 0.440895 3.83989
0.0512255 0.455055 3.83034
0.185927 0.450001 3.74564
-0.00544747 0.500356 3.89575
0.144482 0.672396 3.77543
0.182465 0.660953 3.75625
0.241025 0.727758 3.65058
0.0275639 0.652274 3.80222
0.0674747 0.617492 3.75056
0.118925 0.305197 3.74289
0.235696 0.267493 3.52302
0.0304136 0.422803 3.8311
0.00932705 0.412988 3.83333
0.0958629 0.305345 3.74546
0.0844625 0.306249 3.75208
0.198669 0.677763 3.74307
0.0502277 0.428079 3.82489
0.0933618 0.671221 3.79123
0.0993085 0.696451 3.79588
0.131376 0.810989 3.74744
0.219348 0.705216 3.70232
0.112085 0.756333 3.77382
0.226508 0.647372 3.70899
0.24687 0.657247 3.65851
0.00935555 0.328338 3.83618
0.0381548 0.325284 3.8189
0.0606303 0.321088 3.7964
0.0239098 0.416942 3.82582
0.0900997 0.305769 3.74905
0.0776958 0.292475 3.76377
0.0811098 0.306826 3.75288
0.018343 0.435777 3.86962
0.0486523 0.315873 3.78729
0.0281835 0.31558 3.80379
0.00465369 0.314332 3.81614
0.0135155 0.211702 3.78826
0.0128579 0.241042 3.81483
0.0113579 0.257437 3.81925
0.00851874 0.270311 3.8142
0.00569695 0.279549 3.80969
0.0521099 0.289846 3.78112
0.0565931 0.287221 3.78395
0.0625752 0.280901 3.78507
0.0671783 0.271434 3.77996
0.0855774 0.353574 3.78652
0.266502 0.399195 3.48489
0.0651922 0.294619 3.76472
0.0714146 0.294472 3.76532
0.00139119 0.399654 3.83365
0.0417685 0.407616 3.805
0.00513501 0.406396 3.835
0.0767725 0.503389 3.77339
0.121841 0.484607 3.76626
0.0554079 0.441465 3.81528
0.19783 0.776923 3.70137
0.176086 0.739338 3.73864
0.154764 0.695386 3.77044
0.0778923 0.249255 3.76244
0.0373215 0.691446 3.8102
0.0477193 0.761482 3.79405
0.0602306 0.827322 3.7742
0.156819 0.563822 3.73112
0.220689 0.528476 3.69276
0.0446353 0.573903 3.74691
0.194346 0.601445 3.71677
0.0316786 0.537573 3.79206
0.0346672 0.453022 3.86636
0.249254 0.504308 3.66386
0.201586 0.513819 3.71644
0.167026 0.508039 3.74119
0.115209 0.513742 3.75381
0.0769704 0.525315 3.75942
0.0506185 0.538368 3.76707
-0.00308305 0.577233 3.82096
0.244908 0.447804 3.6726
0.218032 0.60354 3.70502
-0.0155106 0.423284 3.89613
0.0460395 0.492642 3.79474
0.279818 0.530213 3.50494
0.0304609 0.552375 3.77175
0.0574782 0.435362 3.78724
0.178066 0.583263 3.70905
0.0358694 0.470455 3.85455
0.256443 0.3333 3.49687
0.0460169 0.58244 3.74074
0.0162103 0.489058 3.87986
0.179628 0.224513 3.65958
0.175812 0.185097 3.61565
0.267705 0.420845 3.57911
0.21348 0.257393 3.62826
0.260621 0.60328 3.61721
0.0740794 0.141449 3.74299
-0.020258 0.410578 3.86027
0.069643 0.472373 3.78467
0.246299 0.553758 3.6548
0.130446 0.576899 3.73916
0.107173 0.576383 3.7464
0.084102 0.288501 3.75941
0.239772 0.389069 3.66396
0.0264849 0.102932 3.73873
0.102433 0.133458 3.68678
0.135997 0.154505 3.65584
0.0850248 0.578272 3.74808
0.0638601 0.581174 3.74501
0.0512265 0.581362 3.7412
0.238476 0.605305 3.67845
0.0718124 0.604802 3.74719
0.0963242 0.613953 3.7498
0.119691 0.614732 3.74793
0.14248 0.608658 3.74151
0.15617 0.59962 3.73335
0.278266 0.604783 3.5469
0.146965 0.578934 3.7306
0.0581658 0.369769 3.80403
0.0313019 0.428094 3.84197
0.00830016 0.37736 3.83107
0.143 0.191045 3.68387
0.10945 0.165573 3.71086
0.0291677 0.125337 3.77009
0.207435 0.218906 3.5688
0.0541035 0.591472 3.7444
0.013642 0.533395 3.82957
0.0673582 0.115675 3.71843
0.258378 0.35942 3.58337
0.0309688 0.283961 3.79742
0.0356971 0.277918 3.80094
0.0400189 0.267702 3.80325
0.0431803 0.25268 3.79917
0.0502663 0.227846 3.77863
0.0722446 0.311844 3.77117
0.0796166 0.314493 3.77067
0.0866829 0.318952 3.77039
0.108187 0.332624 3.76565
0.206332 0.384103 3.71778
0.0137817 0.558319 3.80464
0.0264503 0.602835 3.75842
0.0428793 0.598578 3.74919
0.0664223 0.313965 3.76768
0.206094 0.308196 3.67749
0.00567822 0.609643 3.79226
0.0612629 0.200955 3.76497
-0.00430227 0.550578 3.84821
0.0301702 0.490742 3.83066
0.0197975 0.184447 3.78262
0.119127 0.258153 3.73417
0.0813544 0.412846 3.78057
0.0930052 0.225525 3.74695
0.148428 0.415006 3.76751
0.109765 0.384373 3.77306
0.170593 0.367707 3.7455
0.0271129 0.153408 3.78264
0.0443992 0.473463 3.81105
0.137812 0.229351 3.71154
0.104306 0.197638 3.7291
0.140753 0.296255 3.73356
0.231217 0.338594 3.6542
0.172314 0.283801 3.71001
0.242082 0.303869 3.59425
0.133614 0.350572 3.75967
0.0293478 0.512972 3.81083
0.026884 0.44153 3.8744
0.0418596 0.43151 3.84344
0.016543 0.461631 3.89203
0.0478784 0.625403 3.76532
0.0916634 0.640225 3.76806
0.129513 0.643015 3.7644
0.160905 0.637412 3.75301
0.183032 0.624218 3.73732
0.197582 0.574304 3.69934
0.273352 0.482047 3.58337
0.176051 0.54173 3.72056
0.147962 0.536703 3.73734
0.111812 0.538803 3.74812
0.0780074 0.545432 3.75237
0.0530435 0.55381 3.75429
0.0359945 0.561791 3.75611
0.273106 0.463639 3.48678
0.0407104 0.423405 3.83051
0.0129095 0.5109 3.8513
0.00962304 0.441677 3.89477
-0.00401542 0.427135 3.88425
0.0092432 0.43593 3.88213
0.0338939 0.413657 3.82117
-0.00813954 0.425057 3.89148
-0.0123912 0.413424 3.86015
0.0364904 0.580637 3.74485
0.0229231 0.5765 3.76031
0.0158226 0.574281 3.77886
0.163988 0.59257 3.725
0.177498 0.600098 3.72291
