ply
format ascii 1.0
comment Created by Open3D
element vertex 468
property double x
property double y
property double z
end_header
0.0641744 0.359495 3.70724
0.0719307 0.433026 3.78172
0.0705293 0.400873 3.71775
0.0471761 0.511009 3.74155
0.0714435 0.460026 3.78744
0.0690204 0.492151 3.7744
0.0670355 0.561892 3.70227
-0.121664 0.555571 3.59775
0.0655392 0.619996 3.67981
0.0647822 0.654672 3.6822
0.0614643 0.7801 3.6522
0.0626071 0.348874 3.70402
0.0606077 0.341934 3.69741
0.0594931 0.340458 3.68695
0.0637905 0.282735 3.67707
0.0637628 0.27437 3.68229
0.0622776 0.264398 3.68846
0.0623661 0.250603 3.68533
0.0636172 0.223636 3.66845
0.0704649 0.417596 3.76973
0.0459912 0.414271 3.73334
-0.229459 0.640191 3.47545
-0.0446411 0.538 3.62918
-0.0710894 0.536336 3.626
-0.0971001 0.537408 3.61776
-0.134465 0.548234 3.5929
-0.0220226 0.542398 3.62557
-0.085642 0.606558 3.62727
-0.0557768 0.603112 3.62775
-0.11215 0.601385 3.61725
-0.130139 0.590068 3.60725
-0.153256 0.532375 3.57965
-0.034062 0.185635 3.63012
-0.132786 0.5603 3.58799
-0.233444 0.525087 3.46743
-0.182678 0.543681 3.55256
-0.0742499 0.447473 3.65102
0.019888 0.362864 3.70119
0.0181615 0.342544 3.68953
-0.026797 0.357616 3.67939
-0.0567128 0.350986 3.64922
-0.0159826 0.342058 3.67302
-0.0408363 0.339646 3.64558
-0.0819002 0.295543 3.59916
0.0498866 0.432916 3.77765
0.0463698 0.459782 3.78274
-0.169665 0.616372 3.59938
-0.0134388 0.504683 3.65603
-0.0186763 0.438579 3.71108
-0.021016 0.451687 3.70193
-0.158054 0.450052 3.61409
0.0465076 0.488817 3.76717
-0.103708 0.648892 3.63907
-0.141833 0.638355 3.62031
-0.201701 0.693485 3.521
0.0103095 0.62529 3.6697
-0.0296418 0.591684 3.62337
-0.106817 0.329566 3.59428
-0.2046 0.271315 3.41524
0.00159777 0.421799 3.70374
0.0252888 0.412318 3.70513
-0.0907249 0.3328 3.59172
-0.0789079 0.331264 3.59768
-0.157527 0.654255 3.60776
-0.022427 0.42889 3.69588
-0.0535977 0.646104 3.6561
-0.0589269 0.668831 3.65977
-0.0905027 0.767155 3.61451
-0.178882 0.674728 3.56877
-0.0704531 0.719968 3.63859
-0.186762 0.625316 3.57775
-0.207282 0.630791 3.52847
0.0179684 0.350454 3.69757
-0.020698 0.347793 3.67655
-0.0487015 0.345266 3.64875
0.00804626 0.416618 3.69724
-0.0850184 0.33247 3.59417
-0.0662767 0.310218 3.61007
-0.0747107 0.330022 3.59893
0.0175219 0.429484 3.74191
-0.0379044 0.342309 3.64142
-0.0114182 0.34255 3.66346
0.0195969 0.341557 3.68001
0.0191448 0.225373 3.66098
0.0180535 0.253871 3.67862
0.0195964 0.267702 3.68091
0.0227085 0.277213 3.6751
0.0253552 0.28438 3.67073
-0.0344022 0.299789 3.63343
-0.0391179 0.298088 3.63522
-0.0456764 0.293329 3.63639
-0.0493448 0.285279 3.63172
-0.068155 0.367939 3.64341
-0.229886 0.394772 3.37625
0.0731432 0.40737 3.73735
-0.0520985 0.309319 3.6137
-0.0595006 0.31114 3.61287
0.0336525 0.40183 3.70743
-0.014537 0.412629 3.67564
0.0296859 0.406765 3.70713
-0.0420474 0.492619 3.64707
-0.0887846 0.479156 3.63798
-0.0273281 0.440774 3.68694
-0.157029 0.737105 3.56807
-0.134644 0.705745 3.60367
-0.113506 0.66964 3.63448
-0.0556052 0.265178 3.61909
0.00184494 0.661179 3.67509
-0.00723007 0.722005 3.65911
-0.0203481 0.77989 3.64112
-0.120838 0.540782 3.60509
-0.181854 0.514506 3.56447
-0.00820406 0.54746 3.62366
-0.156352 0.578074 3.58732
0.00594423 0.519598 3.66554
0.000684984 0.44724 3.73728
-0.211824 0.492102 3.53696
-0.163812 0.504431 3.58829
-0.130353 0.500362 3.61237
-0.0784273 0.502341 3.62701
-0.0399649 0.509542 3.63406
-0.0132019 0.519721 3.64091
0.0424134 0.554166 3.693
-0.213867 0.44409 3.54493
-0.178646 0.581631 3.57575
0.0567047 0.418221 3.76773
-0.0125421 0.483017 3.66886
-0.241203 0.515908 3.39084
0.00731689 0.531741 3.64555
-0.0294702 0.436772 3.65992
-0.142141 0.559313 3.58253
-0.00195897 0.46349 3.72582
-0.221991 0.333322 3.38882
-0.0100781 0.55396 3.61789
0.0217879 0.478921 3.75138
-0.149758 0.233464 3.53442
-0.143376 0.193107 3.50086
-0.233587 0.414747 3.45979
-0.187712 0.262185 3.50677
-0.220758 0.580726 3.49198
-0.0336667 0.156388 3.62205
0.0629149 0.408122 3.73482
-0.038704 0.466861 3.65809
-0.206527 0.534792 3.52854
-0.0924043 0.549847 3.61548
-0.0692403 0.548713 3.62319
-0.0723946 0.307611 3.60608
-0.215043 0.38909 3.53655
0.0160707 0.122166 3.62509
-0.0617247 0.14736 3.57024
-0.0983971 0.165694 3.53897
0.0634312 0.719839 3.66875
0.0669988 0.120821 3.63254
-0.0478745 0.549911 3.6247
-0.0275483 0.55249 3.6225
-0.0148779 0.553018 3.61847
-0.198851 0.584046 3.55035
-0.0364445 0.573105 3.62243
-0.0604672 0.581321 3.62339
-0.082607 0.58308 3.6215
-0.10483 0.578852 3.61438
-0.118851 0.571469 3.60605
-0.23976 0.583349 3.42721
-0.109049 0.552353 3.60636
0.0683216 0.385796 3.70837
-0.0366797 0.380836 3.66834
0.00233805 0.425035 3.71293
0.0244947 0.385489 3.70161
0.0656682 0.590104 3.68237
-0.106635 0.202867 3.5577
-0.0708115 0.179101 3.58742
0.011865 0.142732 3.65028
-0.177335 0.224877 3.45831
-0.0185761 0.561315 3.62085
0.0255534 0.516638 3.70161
0.0657261 0.140866 3.65777
-0.0254556 0.132077 3.60311
-0.229276 0.357128 3.46454
-0.00688563 0.290566 3.65446
-0.0116781 0.285882 3.65711
-0.0161633 0.277935 3.66011
-0.0180662 0.265106 3.65661
-0.0236727 0.240957 3.64262
-0.0663631 0.337493 3.61913
-0.0732184 0.340561 3.61749
-0.0803188 0.344557 3.61743
-0.0952142 0.352291 3.61688
-0.185653 0.386847 3.58559
0.0252352 0.537645 3.67769
0.0107813 0.576465 3.6317
-0.00633539 0.571153 3.62364
-0.0603084 0.339546 3.6174
-0.185662 0.313844 3.54776
0.0319443 0.583536 3.66479
-0.0295937 0.215208 3.6345
0.0684888 0.515551 3.74895
0.0446097 0.531351 3.71892
0.0680692 0.537114 3.72492
0.00542243 0.480629 3.70245
0.0652033 0.167379 3.66842
0.0646306 0.198151 3.66763
0.016062 0.198762 3.65727
-0.0925911 0.27643 3.59227
-0.0549146 0.416755 3.65043
-0.0633802 0.241621 3.61028
-0.123712 0.417102 3.63567
-0.0862655 0.391664 3.63729
-0.149892 0.374283 3.6106
0.0118532 0.168916 3.65929
-0.012437 0.467014 3.68374
-0.105194 0.24366 3.57773
-0.0690004 0.212523 3.59923
-0.120082 0.314951 3.59217
-0.209663 0.340883 3.52767
-0.149491 0.294747 3.57385
-0.215116 0.304814 3.47615
-0.115829 0.365207 3.61785
0.00721018 0.499284 3.68409
0.00890339 0.434986 3.74523
-0.0101847 0.429244 3.71429
0.0231766 0.45378 3.7621
-0.0102751 0.600035 3.63639
-0.0524761 0.617181 3.63558
-0.0902092 0.621409 3.63079
-0.122033 0.615747 3.61948
-0.145192 0.601647 3.60482
-0.158932 0.552212 3.57148
-0.235474 0.470025 3.46298
-0.138305 0.525123 3.59392
-0.109915 0.520213 3.6102
-0.0743648 0.519851 3.62207
-0.0411369 0.524254 3.62836
-0.0158127 0.530972 3.62899
0.000981947 0.538271 3.63125
-0.235455 0.45484 3.37676
-0.0110109 0.423468 3.70145
0.0264593 0.497947 3.7238
0.0301732 0.434389 3.76506
0.042627 0.420316 3.75533
0.0286452 0.428488 3.75335
-0.00530226 0.415805 3.69178
0.0482217 0.419034 3.76261
0.0531626 0.409949 3.73387
0.000401931 0.553868 3.62094
0.0136806 0.551644 3.63457
0.0218687 0.550762 3.6519
-0.127147 0.565422 3.59833
-0.142075 0.576518 3.59389
0.0896177 0.510333 3.7402
0.23813 0.554848 3.60207
0.0949233 0.415548 3.73643
0.317429 0.624509 3.48291
0.162309 0.53511 3.62505
0.186575 0.533799 3.62353
0.211234 0.534683 3.61768
0.245891 0.546891 3.59698
0.144661 0.540125 3.62376
0.199524 0.602209 3.62883
0.172237 0.598698 3.63021
0.22552 0.597721 3.62154
0.241893 0.587153 3.61397
0.263429 0.528844 3.58661
0.156552 0.194911 3.63507
0.248231 0.559868 3.59367
0.327106 0.51762 3.47629
0.286586 0.539016 3.56159
0.19402 0.446664 3.66105
0.103033 0.364504 3.70548
0.0965805 0.343815 3.69362
0.141256 0.361251 3.68811
0.165694 0.354307 3.65946
0.125692 0.344145 3.67835
0.14861 0.341349 3.6535
0.192375 0.299384 3.61022
0.0917235 0.433912 3.78063
0.0929149 0.460174 3.78568
0.272038 0.611586 3.60737
0.139599 0.502681 3.65708
0.148742 0.439543 3.71848
0.148856 0.45191 3.70879
0.267054 0.448504 3.627
0.0914007 0.48845 3.7668
0.218267 0.643567 3.65003
0.250541 0.633504 3.63043
0.293966 0.67668 3.52985
0.116511 0.622488 3.67355
0.151405 0.587824 3.62458
0.213433 0.332506 3.60627
0.302646 0.280933 3.41805
0.133251 0.423383 3.71066
0.112706 0.413764 3.71422
0.198691 0.334125 3.60415
0.184256 0.331936 3.60986
0.262689 0.647772 3.61863
0.150694 0.429572 3.70543
0.174774 0.641661 3.6654
0.178264 0.66353 3.67056
0.200388 0.754948 3.62311
0.277419 0.663248 3.57977
0.187894 0.711447 3.648
0.285678 0.618655 3.58685
0.301409 0.619845 3.53855
0.100243 0.352046 3.70172
0.133068 0.350751 3.68323
0.157178 0.348115 3.65805
0.1283 0.418581 3.70666
0.192066 0.33383 3.60765
0.176096 0.312167 3.62243
0.178165 0.330414 3.61001
0.117915 0.431042 3.74331
0.142783 0.342925 3.64912
0.12063 0.343483 3.66814
0.0929578 0.341917 3.68235
0.103763 0.227963 3.66631
0.101511 0.255337 3.68142
0.100845 0.268918 3.68223
0.10035 0.278498 3.67602
0.0974638 0.285449 3.6712
0.146384 0.301825 3.64041
0.150593 0.300323 3.64464
0.155973 0.296133 3.64757
0.161418 0.288313 3.64294
0.185178 0.369915 3.65644
0.330137 0.393471 3.38079
0.161886 0.310187 3.62079
0.169398 0.312547 3.6233
0.104719 0.402522 3.71257
0.146374 0.413806 3.68951
0.108552 0.407838 3.71467
0.165851 0.490272 3.64928
0.207339 0.476635 3.64488
0.154397 0.440961 3.69561
0.256986 0.721424 3.57918
0.241616 0.695129 3.616
0.226438 0.66308 3.64569
0.170402 0.269886 3.6276
0.123407 0.657208 3.68177
0.130584 0.717224 3.66539
0.137124 0.773274 3.64875
0.233195 0.538704 3.60759
0.287305 0.51014 3.57418
0.13502 0.545332 3.62053
0.264063 0.575136 3.59423
0.122313 0.517813 3.66497
0.132307 0.448181 3.74253
0.312115 0.48809 3.5464
0.27291 0.500049 3.59593
0.243588 0.496188 3.61866
0.19842 0.498967 3.62904
0.163784 0.506784 3.63383
0.138704 0.517475 3.64063
0.0902857 0.553104 3.69263
0.317217 0.442423 3.55607
0.280036 0.576606 3.58289
0.0825549 0.41866 3.76829
0.140929 0.481544 3.67132
0.336596 0.505343 3.39582
0.121944 0.529795 3.64485
0.160041 0.436883 3.67082
0.255058 0.558176 3.5881
0.131496 0.463796 3.73106
0.321217 0.337797 3.3942
0.136897 0.552305 3.61399
0.110973 0.478907 3.75307
0.253204 0.248582 3.54147
0.24545 0.210988 3.50307
0.335507 0.414726 3.46971
0.285676 0.275201 3.51604
0.316285 0.570381 3.50028
0.157443 0.16778 3.62392
0.0834526 0.408264 3.73634
0.16327 0.46556 3.66437
0.304965 0.529587 3.53704
0.211172 0.548027 3.61584
0.188344 0.546219 3.62042
0.18217 0.310024 3.61864
0.317804 0.391946 3.55101
0.115731 0.128777 3.62388
0.182605 0.162595 3.56817
0.210238 0.183571 3.53765
0.167513 0.54719 3.62157
0.150311 0.549729 3.61799
0.141133 0.550644 3.61357
0.295923 0.57709 3.55795
0.154431 0.570688 3.62017
0.173163 0.578813 3.62324
0.195006 0.581413 3.6224
0.21792 0.577893 3.61767
0.232378 0.570913 3.61135
0.332496 0.569412 3.43439
0.227049 0.551079 3.60857
0.160174 0.382735 3.67945
0.13272 0.427282 3.72115
0.106535 0.38672 3.70602
0.219193 0.218536 3.5623
0.187972 0.194207 3.59068
0.115987 0.148944 3.65108
0.275852 0.238863 3.45946
0.142834 0.559462 3.61625
0.10708 0.515715 3.70222
0.152738 0.143727 3.60107
0.328461 0.362121 3.47622
0.124703 0.29228 3.65769
0.129099 0.287857 3.66181
0.132351 0.280053 3.66513
0.135829 0.267367 3.66206
0.142622 0.244708 3.64771
0.170214 0.338628 3.62944
0.179202 0.342337 3.62826
0.185979 0.346812 3.62948
0.20567 0.354315 3.6296
0.288584 0.389622 3.60176
0.106052 0.53609 3.67689
0.119316 0.574292 3.63286
0.133184 0.568535 3.62119
0.162516 0.339807 3.62642
0.286097 0.3223 3.56261
0.0974792 0.581836 3.66607
0.148984 0.222233 3.64081
0.0893269 0.530908 3.71967
0.124906 0.480267 3.70629
0.108964 0.202989 3.6623
0.204505 0.283416 3.60074
0.179177 0.416971 3.66177
0.178093 0.249671 3.61831
0.235249 0.418074 3.65171
0.203113 0.392671 3.65033
0.256082 0.377458 3.62697
0.114811 0.174082 3.6614
0.140571 0.466396 3.68916
0.218096 0.255155 3.58484
0.186109 0.224355 3.60582
0.227767 0.319811 3.60051
0.309019 0.347792 3.54286
0.253236 0.30398 3.58548
0.313147 0.313832 3.4855
0.223444 0.366757 3.63091
0.123422 0.498095 3.68488
0.124592 0.436816 3.74871
0.141708 0.43114 3.72308
0.114248 0.454564 3.7643
0.136959 0.597289 3.6375
0.173829 0.613739 3.64055
0.207826 0.617453 3.63775
0.23644 0.611788 3.62713
0.255186 0.598172 3.6133
0.267416 0.549257 3.57858
0.333858 0.465711 3.4699
0.250769 0.521753 3.59885
0.224868 0.516674 3.61328
0.192229 0.516754 3.62232
0.161815 0.521428 3.62668
0.140239 0.52887 3.62877
0.12648 0.536503 3.631
0.333815 0.448186 3.37918
0.141995 0.425071 3.71103
0.108502 0.497248 3.72392
0.107855 0.436183 3.76855
0.0935077 0.422155 3.75888
0.107609 0.430655 3.75647
0.137304 0.41739 3.70361
0.089521 0.42033 3.76537
0.0902634 0.410946 3.73671
0.12893 0.552212 3.61941
0.11544 0.549934 3.63516
0.108178 0.549068 3.65279
0.241241 0.56503 3.60398
0.253047 0.574589 3.60158
