ply
format ascii 1.0
comment Created by Open3D
element vertex 468
property double x
property double y
property double z
end_header
0.0450237 0.359763 3.75869
0.0487613 0.440293 3.83291
0.0489683 0.40964 3.76756
0.026548 0.53132 3.79202
0.0483688 0.469796 3.83915
0.0472723 0.507473 3.82583
0.0476209 0.591585 3.75214
-0.128026 0.588809 3.64915
0.0474477 0.653336 3.72921
0.0471371 0.689415 3.73175
0.0466836 0.813627 3.70077
0.0441954 0.348422 3.75543
0.0431371 0.341664 3.74863
0.0426176 0.340694 3.73785
0.0450667 0.297487 3.73089
0.0448163 0.288492 3.73643
0.0433963 0.278066 3.74378
0.0431488 0.264062 3.74205
0.043795 0.236577 3.72475
0.0479724 0.425177 3.8208
0.0229614 0.424852 3.78368
-0.227115 0.671327 3.52982
-0.0555166 0.572454 3.67715
-0.080981 0.570697 3.67527
-0.105869 0.57037 3.66837
-0.139979 0.579076 3.64556
-0.0340207 0.57685 3.674
-0.094359 0.632532 3.67989
-0.0667318 0.631508 3.67905
-0.11867 0.626671 3.67194
-0.134964 0.616245 3.66228
-0.161104 0.560965 3.63306
-0.0519934 0.195441 3.6876
-0.138433 0.592391 3.64073
-0.240213 0.554324 3.52116
-0.190541 0.57203 3.60686
-0.0871619 0.466816 3.70415
0.00431169 0.364283 3.75406
0.00517939 0.342933 3.74246
-0.0379881 0.360944 3.73485
-0.0642329 0.355196 3.7082
-0.0256675 0.343987 3.72785
-0.0480183 0.3432 3.70356
-0.0899688 0.307083 3.66236
0.0263393 0.440785 3.82938
0.0233926 0.47024 3.83485
-0.174506 0.641243 3.65522
-0.028872 0.530473 3.70669
-0.0385713 0.451518 3.76243
-0.0397538 0.466766 3.75313
-0.166746 0.470925 3.66982
0.0248054 0.504187 3.81837
-0.11388 0.674958 3.69447
-0.149242 0.663074 3.67698
-0.201238 0.724659 3.57559
-0.00434988 0.658285 3.71968
-0.0417403 0.623006 3.67289
-0.112757 0.339009 3.65673
-0.219277 0.292646 3.4655
-0.0194045 0.433994 3.75414
0.00325245 0.42438 3.75642
-0.0945796 0.339717 3.6555
-0.0825192 0.338716 3.66118
-0.163737 0.679155 3.66398
-0.0417396 0.441592 3.74742
-0.0662091 0.675649 3.70893
-0.0717495 0.698765 3.71284
-0.0988158 0.7987 3.66641
-0.182142 0.703196 3.62428
-0.0818913 0.750473 3.69077
-0.190592 0.650754 3.63336
-0.208495 0.659527 3.58353
0.00386497 0.350898 3.75086
-0.0308914 0.350104 3.73185
-0.055934 0.349066 3.70733
-0.0132986 0.429184 3.74852
-0.0889657 0.339501 3.6582
-0.0729146 0.321596 3.67372
-0.0785863 0.338027 3.66234
-0.00391593 0.44024 3.79256
-0.044425 0.345955 3.69914
-0.0209843 0.344569 3.71796
0.00740023 0.342413 3.73233
0.00280955 0.238809 3.71944
0.0032804 0.267452 3.73654
0.00507878 0.28164 3.73776
0.00786124 0.291714 3.73035
0.0104122 0.299224 3.72541
-0.0435635 0.313573 3.69328
-0.0482773 0.311664 3.6961
-0.0544189 0.3068 3.69839
-0.0584119 0.298763 3.69407
-0.0786631 0.377219 3.70145
-0.240607 0.42238 3.42678
0.0501956 0.416214 3.78707
-0.0591216 0.321448 3.67544
-0.0663304 0.322707 3.67574
0.0125448 0.411927 3.75826
-0.0334902 0.42465 3.72774
0.00805834 0.41787 3.75857
-0.0563567 0.516791 3.69836
-0.100703 0.501516 3.69148
-0.04544 0.45554 3.73822
-0.161152 0.768669 3.62234
-0.141842 0.734505 3.65793
-0.123277 0.696194 3.68915
-0.0661344 0.278803 3.68089
-0.0128914 0.694942 3.72617
-0.0211235 0.754216 3.70989
-0.0320244 0.812314 3.69181
-0.127591 0.572786 3.65699
-0.190664 0.541366 3.61888
-0.0205135 0.581734 3.67136
-0.161622 0.605789 3.6419
-0.0102518 0.546805 3.71575
-0.020073 0.459374 3.78873
-0.220432 0.518676 3.59167
-0.172919 0.529618 3.64246
-0.140165 0.52488 3.66562
-0.0905568 0.528332 3.6789
-0.05365 0.53734 3.68421
-0.0277917 0.548692 3.69114
0.0242888 0.583434 3.74273
-0.22268 0.467611 3.60029
-0.184338 0.608888 3.63032
0.034065 0.426221 3.81874
-0.0287481 0.504904 3.71919
-0.245292 0.545787 3.44268
-0.00784451 0.561691 3.69522
-0.04719 0.452433 3.71106
-0.146921 0.589453 3.63584
-0.0212567 0.478532 3.7772
-0.235993 0.35814 3.4396
-0.0220103 0.589625 3.66517
0.00146926 0.494396 3.80269
-0.166314 0.249151 3.58954
-0.161452 0.207942 3.55351
-0.24446 0.440743 3.5126
-0.20147 0.280889 3.56132
-0.22429 0.610262 3.54597
-0.0548529 0.162712 3.67762
0.0394669 0.417137 3.78466
-0.0538555 0.487175 3.7092
-0.214225 0.563223 3.58241
-0.101191 0.585289 3.66489
-0.0794193 0.584738 3.67172
-0.0786725 0.318675 3.67006
-0.223936 0.410937 3.59234
-0.00675217 0.123882 3.67932
-0.0841454 0.153908 3.62355
-0.119577 0.176104 3.59183
0.0472049 0.752641 3.71776
0.0461166 0.121761 3.68752
-0.0587775 0.585993 3.67285
-0.038694 0.588443 3.66998
-0.0266818 0.588656 3.66585
-0.203896 0.611438 3.60457
-0.0473231 0.608595 3.671
-0.0708614 0.616054 3.67367
-0.0922845 0.616814 3.67228
-0.113266 0.611375 3.66644
-0.12615 0.603259 3.65845
-0.239978 0.614326 3.48064
-0.116618 0.586893 3.65675
0.0478537 0.393192 3.75869
-0.0509792 0.390141 3.72342
-0.0191081 0.437142 3.76414
0.00608991 0.393706 3.75353
0.0473807 0.622566 3.73123
-0.126336 0.215203 3.61382
-0.0914213 0.18826 3.64316
-0.00941221 0.147547 3.70626
-0.193046 0.243163 3.50965
-0.0301308 0.597058 3.66827
0.00703716 0.540736 3.75212
0.0448676 0.145205 3.71334
-0.0486203 0.135483 3.6567
-0.240829 0.38092 3.51772
-0.0189344 0.305275 3.7114
-0.0234515 0.300152 3.71492
-0.0277014 0.292022 3.71906
-0.0303333 0.27891 3.7164
-0.0368457 0.254807 3.70276
-0.0705011 0.343079 3.68062
-0.077774 0.345848 3.67974
-0.0849337 0.349958 3.67972
-0.102727 0.361282 3.67758
-0.193689 0.406699 3.64233
0.00809179 0.566103 3.72738
-0.00261225 0.61 3.67988
-0.0186878 0.604875 3.67168
-0.0642384 0.345498 3.67857
-0.195975 0.332777 3.60422
0.0163195 0.616188 3.71316
-0.0445262 0.227719 3.69381
0.0474783 0.53625 3.79972
0.0248999 0.55614 3.76967
0.0476705 0.562384 3.77542
-0.0126117 0.500047 3.75348
0.0444016 0.175855 3.7242
0.0441526 0.209607 3.72322
-0.00115603 0.210823 3.71472
-0.104647 0.289387 3.65259
-0.0699259 0.43234 3.70373
-0.0770698 0.254426 3.67071
-0.133685 0.435739 3.6917
-0.0978904 0.406852 3.69371
-0.158744 0.391845 3.66764
-0.00729356 0.177808 3.71615
-0.0297169 0.485571 3.73458
-0.121266 0.257132 3.63565
-0.0863488 0.224017 3.65689
-0.129516 0.327698 3.65181
-0.219082 0.361539 3.58325
-0.160869 0.310873 3.63208
-0.227664 0.326156 3.52926
-0.124174 0.378625 3.67698
-0.0100701 0.522626 3.73437
-0.012531 0.44586 3.79644
-0.0307729 0.441153 3.76563
0.000912589 0.465028 3.81417
-0.0230982 0.631521 3.68512
-0.064429 0.644836 3.68759
-0.100179 0.64661 3.68519
-0.129714 0.640863 3.67522
-0.150982 0.627621 3.66086
-0.165434 0.581306 3.6255
-0.244716 0.498022 3.51574
-0.146392 0.553522 3.64656
-0.119692 0.549201 3.66218
-0.0855514 0.550461 3.67305
-0.0534676 0.555731 3.67748
-0.0291014 0.56299 3.67864
-0.0125679 0.570436 3.68025
-0.24271 0.483596 3.4272
-0.0311912 0.435697 3.75294
0.00695532 0.518096 3.77424
0.00731334 0.443684 3.81681
0.0201541 0.430171 3.80672
0.00642279 0.438709 3.80471
-0.0251295 0.42797 3.74357
0.0254517 0.427861 3.814
0.0297997 0.419877 3.78412
-0.0123695 0.588112 3.66857
5.49046e-05 0.584452 3.683
0.00670312 0.582221 3.70148
-0.133414 0.597175 3.65103
-0.146564 0.604692 3.64852
0.0684712 0.531151 3.79103
0.21615 0.591927 3.64866
0.074406 0.425827 3.78627
0.302136 0.665088 3.5305
0.14337 0.572731 3.67275
0.167346 0.571586 3.67154
0.191456 0.571501 3.66612
0.224604 0.581673 3.64485
0.124725 0.57737 3.67114
0.179732 0.632603 3.67847
0.153467 0.631331 3.67871
0.204237 0.627375 3.67146
0.219957 0.617543 3.66299
0.244986 0.562261 3.63498
0.137842 0.202577 3.69062
0.225984 0.595691 3.64044
0.31736 0.55406 3.52527
0.271782 0.572999 3.61059
0.173927 0.468058 3.70928
0.0828349 0.365288 3.7567
0.0774311 0.343816 3.74451
0.120276 0.363289 3.7396
0.143329 0.35756 3.71331
0.105237 0.345566 3.73048
0.126802 0.344402 3.70706
0.169804 0.31031 3.66738
0.069716 0.441744 3.83169
0.0712511 0.470782 3.83672
0.255055 0.641985 3.65737
0.119682 0.530287 3.70677
0.130114 0.452933 3.76775
0.130328 0.467771 3.75801
0.24717 0.473039 3.67574
0.0697082 0.504215 3.81816
0.200495 0.67464 3.69931
0.232903 0.663556 3.68085
0.278313 0.717281 3.57733
0.0969891 0.657574 3.72088
0.131748 0.622506 3.67196
0.191305 0.341699 3.66189
0.296848 0.303644 3.46819
0.114573 0.435733 3.75923
0.0933998 0.425575 3.76284
0.173856 0.340871 3.66054
0.160289 0.339355 3.66674
0.246289 0.678613 3.66815
0.132831 0.443122 3.75438
0.155998 0.674994 3.71334
0.160781 0.697745 3.71826
0.184517 0.792754 3.67012
0.26181 0.699359 3.62829
0.171031 0.746915 3.69539
0.269861 0.650318 3.63616
0.286196 0.656425 3.58671
0.0806317 0.351992 3.75302
0.112088 0.352003 3.7352
0.135143 0.350998 3.71194
0.109322 0.430893 3.75543
0.167616 0.340438 3.66402
0.152352 0.323017 3.67988
0.155109 0.338557 3.66714
0.0978569 0.441882 3.79404
0.12146 0.346704 3.70247
0.100472 0.345402 3.71984
0.0743331 0.34273 3.73328
0.0824295 0.240526 3.72242
0.0802864 0.268579 3.73818
0.0794546 0.282528 3.73857
0.0790918 0.292518 3.73079
0.076822 0.300059 3.72578
0.124708 0.315078 3.69689
0.128678 0.313489 3.70126
0.133705 0.308847 3.70439
0.138504 0.301142 3.70015
0.163432 0.379473 3.70851
0.322419 0.426348 3.42867
0.139066 0.32226 3.67816
0.146058 0.323902 3.68066
0.0843154 0.412567 3.76179
0.127485 0.426204 3.73721
0.088646 0.418773 3.76367
0.145877 0.516747 3.69875
0.1871 0.501929 3.69422
0.136081 0.456682 3.7442
0.241692 0.761406 3.62663
0.225924 0.730649 3.66385
0.209677 0.695201 3.69439
0.147871 0.282657 3.68499
0.104949 0.693628 3.7294
0.113537 0.752169 3.71289
0.121586 0.808953 3.69569
0.212459 0.574703 3.6553
0.271982 0.542408 3.62317
0.114038 0.582109 3.66761
0.244949 0.6075 3.64318
0.102115 0.546526 3.71476
0.112556 0.460768 3.79272
0.298951 0.520348 3.59593
0.255483 0.530256 3.64521
0.224594 0.525083 3.66774
0.178454 0.528351 3.67854
0.143796 0.537284 3.68308
0.118798 0.548528 3.69007
0.0703529 0.583184 3.74216
0.301565 0.470722 3.60526
0.264099 0.609585 3.63234
0.0610124 0.426671 3.81927
0.120722 0.504778 3.72033
0.325473 0.543697 3.44341
0.10131 0.561431 3.69377
0.14056 0.453681 3.71835
0.233097 0.592388 3.63554
0.112143 0.479228 3.78087
0.315657 0.365959 3.44303
0.11588 0.590224 3.66047
0.0903646 0.4948 3.80403
0.243865 0.262158 3.59468
0.239025 0.222795 3.55582
0.325295 0.445571 3.5177
0.276499 0.2932 3.56705
0.303153 0.607806 3.5486
0.141637 0.171504 3.67966
0.0612175 0.417369 3.78581
0.143601 0.487681 3.71271
0.292759 0.563976 3.58603
0.190261 0.587005 3.66234
0.168559 0.585673 3.66766
0.158276 0.320421 3.67575
0.301899 0.417024 3.59942
0.0978195 0.128879 3.67947
0.170961 0.165765 3.62382
0.201878 0.190357 3.59261
0.148231 0.586565 3.66871
0.130222 0.588769 3.66481
0.120319 0.589113 3.6604
0.281797 0.611183 3.60735
0.135432 0.609279 3.66747
0.155222 0.617202 3.67189
0.176615 0.618819 3.67111
0.198287 0.613994 3.66599
0.211612 0.606293 3.65913
0.318589 0.609572 3.48115
0.205404 0.58931 3.655
0.139519 0.392068 3.73015
0.113908 0.439288 3.77017
0.0863764 0.394572 3.75637
0.208316 0.228171 3.61761
0.175312 0.200053 3.64649
0.0972462 0.152255 3.70708
0.269528 0.256201 3.51083
0.122158 0.597807 3.66324
0.0867426 0.540743 3.75227
0.138083 0.14445 3.65671
0.318821 0.388828 3.52448
0.103304 0.306646 3.7131
0.107067 0.30165 3.71757
0.110151 0.293569 3.72194
0.113158 0.280752 3.71956
0.120005 0.257715 3.70552
0.147187 0.343977 3.68526
0.155496 0.347095 3.68416
0.162546 0.351546 3.68504
0.18357 0.36354 3.68384
0.270417 0.412033 3.65048
0.0859002 0.565691 3.72631
0.0980703 0.609939 3.67905
0.112182 0.604759 3.66823
0.140029 0.345888 3.6822
0.271794 0.341669 3.61219
0.0778199 0.615792 3.71323
0.128198 0.233151 3.69705
0.0692847 0.556181 3.76993
0.104652 0.500446 3.75584
0.0875557 0.213826 3.71743
0.185748 0.295283 3.65729
0.159553 0.433828 3.71068
0.158806 0.2608 3.67508
0.215174 0.438875 3.69999
0.18292 0.409057 3.70085
0.237076 0.396839 3.67623
0.0945936 0.181478 3.71696
0.120943 0.48607 3.73807
0.203071 0.266925 3.64029
0.169901 0.233246 3.66137
0.208763 0.332591 3.65557
0.295113 0.370072 3.59145
0.237621 0.319514 3.63828
0.303926 0.33667 3.53501
0.203524 0.38142 3.68337
0.102846 0.52248 3.73463
0.105081 0.447719 3.79935
0.123383 0.443223 3.77218
0.0933432 0.465988 3.81576
0.116295 0.631501 3.68441
0.154312 0.645212 3.68898
0.188072 0.646817 3.68731
0.21616 0.641179 3.67737
0.235036 0.628775 3.66305
0.24897 0.583162 3.62737
0.32419 0.500058 3.51911
0.231012 0.554735 3.64736
0.205445 0.549781 3.66232
0.172698 0.550703 3.67145
0.142533 0.555919 3.67503
0.120345 0.563295 3.67705
0.10572 0.570667 3.67865
0.324072 0.484172 3.42697
0.123824 0.437528 3.7599
0.0874914 0.517916 3.77429
0.0872717 0.445384 3.81946
0.0733414 0.431675 3.80952
0.0874217 0.440546 3.80721
0.11876 0.429639 3.75178
0.0687411 0.429008 3.81624
0.0690544 0.420734 3.78642
0.107479 0.588706 3.66581
0.0941506 0.584401 3.68218
0.0873572 0.581934 3.70101
0.219647 0.600505 3.65141
0.231411 0.60699 3.64984
