ply
format ascii 1.0
comment Created by Open3D
element vertex 468
property double x
property double y
property double z
end_header
-0.00836284 0.333497 4.1229
-0.00398462 0.414159 4.18071
-0.00629582 0.390608 4.11991
-0.0259511 0.506971 4.14619
-0.00364006 0.442089 4.18981
-0.00387523 0.479 4.17956
-0.00671641 0.570159 4.10967
-0.183355 0.579609 4.00876
-0.0086105 0.631993 4.09052
-0.00913119 0.666691 4.09379
-0.0113921 0.793097 4.05863
-0.00871762 0.320838 4.11993
-0.00909179 0.311422 4.11169
-0.00924615 0.307914 4.10098
-0.00918798 0.296298 4.09986
-0.0089189 0.285939 4.10453
-0.00873485 0.271703 4.10994
-0.00875962 0.25635 4.10721
-0.008934 0.22733 4.08292
-0.00407781 0.399693 4.16758
-0.0265645 0.40395 4.1352
-0.279155 0.680535 3.88048
-0.113056 0.554688 4.03325
-0.137838 0.55237 4.03171
-0.161325 0.554092 4.02528
-0.192394 0.568448 4.00523
-0.0920891 0.562412 4.03145
-0.142886 0.617005 4.04407
-0.117628 0.61647 4.04356
-0.16696 0.613364 4.03642
-0.183579 0.605448 4.02581
-0.214593 0.551278 3.99309
-0.104863 0.178906 4.05686
-0.191572 0.58576 4.00048
-0.293714 0.567874 3.87844
-0.243668 0.56976 3.96684
-0.129917 0.44205 4.06493
-0.0381188 0.336995 4.11942
-0.0341035 0.311305 4.10792
-0.069128 0.327602 4.10512
-0.0898671 0.315541 4.08706
-0.0558052 0.308708 4.09785
-0.0739063 0.304968 4.08167
-0.121375 0.272541 4.05413
-0.0241074 0.414488 4.17872
-0.0272104 0.441307 4.18685
-0.224122 0.631117 4.01597
-0.0797751 0.510101 4.06524
-0.0803376 0.42456 4.11708
-0.0819763 0.439465 4.10969
-0.207036 0.445006 4.03279
-0.0262631 0.476431 4.17115
-0.165053 0.657821 4.06169
-0.199567 0.649124 4.04108
-0.252353 0.724815 3.92941
-0.0583802 0.63788 4.08248
-0.0954148 0.610496 4.03586
-0.141056 0.298024 4.04678
-0.278158 0.311722 3.82694
-0.062606 0.410527 4.10751
-0.0426243 0.402237 4.11282
-0.11268 0.298729 4.04872
-0.0999247 0.300034 4.05573
-0.214578 0.666911 4.02754
-0.080902 0.41333 4.10386
-0.118865 0.65594 4.07604
-0.124129 0.677008 4.08027
-0.150686 0.780156 4.02621
-0.232826 0.696383 3.98545
-0.135743 0.731406 4.05471
-0.240558 0.643918 3.9924
-0.259823 0.660873 3.93965
-0.0366762 0.321602 4.11619
-0.0618552 0.315776 4.10264
-0.0817273 0.309554 4.08688
-0.0565046 0.406415 4.10337
-0.106177 0.298984 4.05239
-0.0949805 0.293539 4.07001
-0.0967095 0.301114 4.05681
-0.049561 0.416668 4.1406
-0.0685957 0.306551 4.07831
-0.051042 0.308161 4.08895
-0.0311975 0.308091 4.09772
-0.0408206 0.227928 4.08311
-0.0379759 0.257974 4.10594
-0.0362897 0.274138 4.10816
-0.0349673 0.288146 4.10156
-0.0329904 0.296982 4.0968
-0.0725704 0.298405 4.07784
-0.0757668 0.294612 4.08335
-0.0806823 0.287229 4.08825
-0.0861017 0.278101 4.08416
-0.111078 0.344211 4.07936
-0.302739 0.453388 3.78225
-0.00564931 0.397131 4.13649
-0.0842115 0.298945 4.06536
-0.088978 0.297324 4.06938
-0.0352447 0.390501 4.1139
-0.0734705 0.398748 4.08712
-0.0387695 0.396011 4.11361
-0.106152 0.493955 4.05761
-0.147696 0.476409 4.05133
-0.086238 0.428434 4.09579
-0.211431 0.758476 3.98236
-0.193578 0.72113 4.02362
-0.175039 0.679253 4.05538
-0.1006 0.254697 4.06683
-0.0671291 0.671476 4.09187
-0.0766407 0.732295 4.07257
-0.0861198 0.789664 4.05287
-0.181173 0.559121 4.01491
-0.243236 0.532265 3.97966
-0.0787539 0.570909 4.02771
-0.213113 0.599164 4.00282
-0.0624851 0.528179 4.07433
-0.0652649 0.43295 4.14109
-0.271889 0.514167 3.95265
-0.225321 0.512641 4.00345
-0.192075 0.502243 4.02702
-0.143938 0.50642 4.03852
-0.108345 0.517549 4.04368
-0.081556 0.530619 4.05033
-0.0302269 0.563752 4.09934
-0.269333 0.456656 3.9618
-0.234975 0.603171 3.98959
-0.0161712 0.401081 4.16614
-0.0768307 0.483322 4.0767
-0.304299 0.573759 3.79285
-0.0625496 0.54642 4.05317
-0.0896683 0.428575 4.07125
-0.200145 0.583672 3.99533
-0.0660991 0.45111 4.13174
-0.296322 0.384561 3.798
-0.0786171 0.582159 4.02009
-0.0466657 0.466309 4.15608
-0.220645 0.241759 3.96293
-0.221626 0.20974 3.9188
-0.298726 0.454079 3.87188
-0.252356 0.279994 3.9302
-0.277615 0.61929 3.90132
-0.112858 0.148059 4.04328
-0.014907 0.398367 4.13509
-0.0989347 0.463164 4.06847
-0.266655 0.565644 3.94057
-0.159623 0.571128 4.02326
-0.13825 0.568314 4.02882
-0.101392 0.288337 4.06564
-0.265861 0.40155 3.95806
-0.0657163 0.106634 4.037
-0.147271 0.146722 3.98493
-0.182245 0.172464 3.95573
-0.0105521 0.731308 4.07789
-0.00900495 0.0999194 4.04402
-0.117403 0.56966 4.02991
-0.0980395 0.574773 4.02617
-0.0854667 0.578815 4.0205
-0.254303 0.609277 3.96305
-0.0989198 0.596165 4.02995
-0.119353 0.600438 4.03474
-0.140097 0.601616 4.03396
-0.161253 0.59812 4.02802
-0.175263 0.592497 4.01987
-0.296123 0.634456 3.83043
-0.17374 0.575485 4.0156
-0.00732601 0.373489 4.11482
-0.086817 0.360299 4.09138
-0.063087 0.41393 4.11634
-0.040117 0.370177 4.11331
-0.00759414 0.602094 4.08997
-0.185205 0.2052 3.98946
-0.150849 0.176212 4.01559
-0.0654125 0.127935 4.06789
-0.251761 0.253176 3.87036
-0.0848172 0.588491 4.02382
-0.0454868 0.520305 4.10846
-0.00902659 0.122259 4.07375
-0.109595 0.12365 4.01583
-0.291832 0.391829 3.87954
-0.0545824 0.298393 4.08803
-0.0578559 0.291532 4.0938
-0.0611552 0.280809 4.0989
-0.0648153 0.266592 4.0958
-0.0739587 0.2391 4.07784
-0.0894856 0.301909 4.06754
-0.0975659 0.303304 4.06755
-0.105302 0.306718 4.06726
-0.13146 0.323235 4.06228
-0.229433 0.385564 4.00987
-0.0459056 0.548124 4.08503
-0.0591033 0.599451 4.03952
-0.0740555 0.59551 4.02846
-0.0837231 0.305422 4.06586
-0.236521 0.319866 3.97577
-0.0382622 0.598654 4.0723
-0.0901625 0.209347 4.06591
-0.00472853 0.51067 4.15535
-0.0285969 0.534037 4.12485
-0.00586116 0.540027 4.13129
-0.060891 0.476643 4.10892
-0.00901599 0.154548 4.08685
-0.00907649 0.193724 4.08541
-0.0503042 0.195281 4.08098
-0.148533 0.259772 4.04036
-0.110801 0.406483 4.06628
-0.121961 0.230281 4.05283
-0.170809 0.409907 4.05754
-0.136291 0.379282 4.06391
-0.194028 0.365537 4.03916
-0.060315 0.158734 4.07995
-0.0750251 0.461447 4.09174
-0.173277 0.23798 4.01738
-0.139895 0.20653 4.03552
-0.168831 0.293697 4.0356
-0.260989 0.353903 3.95211
-0.202907 0.288679 4.01062
-0.278931 0.333758 3.89464
-0.158249 0.343048 4.05375
-0.060557 0.502248 4.0913
-0.0570448 0.420563 4.1455
-0.0728772 0.415354 4.12035
-0.0474265 0.43838 4.16502
-0.0782508 0.61944 4.04667
-0.117459 0.631089 4.05212
-0.151507 0.632236 4.05141
-0.180354 0.627965 4.04134
-0.201047 0.61739 4.02476
-0.219045 0.576328 3.98516
-0.300059 0.512274 3.8737
-0.200692 0.539742 4.00627
-0.175123 0.531964 4.02161
-0.142025 0.531413 4.03215
-0.110086 0.537571 4.03622
-0.0853236 0.54747 4.03725
-0.0687491 0.557419 4.03889
-0.30385 0.514751 3.77813
-0.072065 0.409336 4.10805
-0.0446841 0.494794 4.12877
-0.0406441 0.418755 4.16607
-0.0272638 0.4058 4.15663
-0.0402792 0.41479 4.15364
-0.0654922 0.402121 4.10034
-0.0233355 0.403014 4.1632
-0.0220701 0.400102 4.135
-0.0697483 0.580421 4.02489
-0.0554793 0.572768 4.04112
-0.0479733 0.567438 4.06027
-0.184069 0.588657 4.01135
-0.197268 0.596812 4.01125
0.0155103 0.506835 4.14721
0.167986 0.583048 4.0106
0.0168786 0.403655 4.13465
0.264148 0.685127 3.88233
0.100013 0.556292 4.03602
0.125237 0.554485 4.03428
0.148981 0.556414 4.02749
0.179191 0.571511 4.00712
0.0778878 0.563667 4.03361
0.128317 0.620957 4.04683
0.1027 0.619755 4.045
0.152444 0.617896 4.03898
0.169222 0.610023 4.02833
0.202649 0.553335 3.99366
0.088622 0.175242 4.05388
0.175853 0.589609 4.0026
0.281943 0.569049 3.8787
0.231319 0.572001 3.96715
0.11831 0.442327 4.06347
0.0210585 0.337147 4.11947
0.0158683 0.311137 4.10774
0.0516446 0.327223 4.10513
0.0704386 0.314919 4.0876
0.0380631 0.308215 4.09855
0.0547058 0.304379 4.0824
0.101601 0.27023 4.05279
0.0166747 0.414595 4.17795
0.0196788 0.441583 4.18615
0.210246 0.636402 4.01723
0.0675071 0.510889 4.06604
0.0714879 0.424792 4.11645
0.0729214 0.439875 4.10917
0.197327 0.444885 4.03158
0.0180667 0.476455 4.17172
0.148438 0.663539 4.06132
0.184019 0.654869 4.04134
0.235057 0.730591 3.93122
0.0410817 0.639759 4.08264
0.0796567 0.612918 4.03763
0.120453 0.295677 4.04661
0.271462 0.304861 3.82334
0.0525257 0.4107 4.10667
0.0319083 0.402499 4.11057
0.088658 0.296877 4.05084
0.0785511 0.298583 4.0572
0.19838 0.673039 4.0271
0.0718345 0.413272 4.10266
0.101344 0.660345 4.07523
0.106119 0.681779 4.07922
0.130418 0.785062 4.0271
0.216674 0.702278 3.98624
0.115773 0.735994 4.05521
0.226325 0.648868 3.99356
0.245352 0.665514 3.94089
0.019004 0.321603 4.11626
0.0437163 0.315452 4.10336
0.0623763 0.308976 4.08734
0.0456667 0.406497 4.10185
0.083058 0.297441 4.0541
0.0743682 0.292508 4.07015
0.0767829 0.299551 4.05816
0.0414852 0.416605 4.14147
0.0506169 0.305824 4.07916
0.0333529 0.307711 4.08966
0.0129618 0.308032 4.09833
0.0235547 0.227519 4.08133
0.0204759 0.258026 4.10519
0.0189939 0.274281 4.10775
0.0166201 0.288134 4.10161
0.0146058 0.296774 4.09686
0.053733 0.297774 4.07777
0.0573137 0.294152 4.08259
0.0624023 0.286703 4.08715
0.0672468 0.277511 4.08291
0.094585 0.343769 4.07836
0.291251 0.450152 3.78104
0.0648612 0.297585 4.06655
0.0691279 0.296223 4.06988
0.0236904 0.390529 4.11312
0.0616233 0.398664 4.08481
0.0275341 0.396076 4.11217
0.0945703 0.494805 4.05818
0.136192 0.477106 4.05089
0.0764622 0.428563 4.09504
0.193053 0.764438 3.98322
0.175866 0.727121 4.02359
0.157404 0.685486 4.05482
0.0826185 0.252796 4.06555
0.0488309 0.673989 4.0914
0.056255 0.734745 4.0727
0.0649745 0.792525 4.05251
0.168478 0.561765 4.01681
0.2322 0.533456 3.97923
0.0632999 0.571846 4.03038
0.199442 0.603032 4.00479
0.0495372 0.528727 4.07559
0.0571365 0.433357 4.1408
0.262499 0.514436 3.95231
0.214548 0.513712 4.00356
0.180908 0.503048 4.0272
0.131557 0.507372 4.0394
0.0956312 0.518572 4.04483
0.0682955 0.531462 4.05154
0.0162747 0.564017 4.09995
0.260896 0.455588 3.96157
0.222609 0.60679 3.99113
0.00813562 0.400895 4.16617
0.0651481 0.483885 4.07756
0.289481 0.574291 3.79354
0.0480523 0.547073 4.05484
0.0775748 0.428846 4.06994
0.185355 0.587216 3.99784
0.0579378 0.45168 4.13138
0.287558 0.379497 3.79503
0.0626324 0.582944 4.02363
0.0385061 0.466737 4.15626
0.209787 0.23498 3.95848
0.21297 0.201084 3.91433
0.28877 0.451855 3.87034
0.244262 0.273617 3.92589
0.264081 0.622368 3.90233
0.0969789 0.14319 4.04039
0.00376833 0.398351 4.13484
0.0877228 0.4636 4.06817
0.255177 0.567318 3.94087
0.145139 0.573939 4.0254
0.124225 0.570707 4.03139
0.0802689 0.28703 4.06604
0.257924 0.398991 3.95581
0.0482095 0.103569 4.03544
0.132826 0.139333 3.98204
0.170342 0.164112 3.952
0.103299 0.571868 4.03234
0.0831615 0.576266 4.02919
0.0695877 0.57983 4.02399
0.242399 0.612802 3.96429
0.0838862 0.597854 4.03301
0.105143 0.603004 4.03724
0.125486 0.604744 4.0364
0.146466 0.602029 4.03022
0.160319 0.596659 4.02182
0.280919 0.637209 3.83168
0.158695 0.578566 4.01762
0.0725956 0.360154 4.09017
0.0535657 0.414341 4.11479
0.0255974 0.370436 4.11279
0.172273 0.198416 3.98476
0.136439 0.169673 4.01111
0.0485738 0.125095 4.06582
0.244828 0.244769 3.86647
0.0689646 0.589391 4.02768
0.0332452 0.520608 4.1092
0.0932699 0.118101 4.01393
0.284182 0.387875 3.87664
0.036074 0.297824 4.08845
0.0396182 0.29141 4.0935
0.0432397 0.280582 4.09852
0.0464219 0.266195 4.09519
0.0566036 0.237587 4.07668
0.0691303 0.300829 4.06863
0.076174 0.302272 4.06906
0.083794 0.305644 4.06882
0.11208 0.321907 4.06248
0.220439 0.383994 4.00667
0.0322133 0.548614 4.08602
0.0420723 0.600629 4.04067
0.0575867 0.596739 4.03149
0.0647033 0.304342 4.0672
0.226309 0.31604 3.97211
0.0225665 0.599391 4.07275
0.0736057 0.206747 4.06317
0.0164611 0.53431 4.12493
0.0502133 0.477298 4.10902
0.0330653 0.19391 4.07935
0.131738 0.25631 4.03691
0.0982958 0.406519 4.06423
0.105512 0.226841 4.04939
0.159445 0.409721 4.05445
0.122287 0.378811 4.06192
0.182567 0.364225 4.03558
0.0431856 0.156713 4.07817
0.0649144 0.462046 4.09168
0.158584 0.232827 4.01328
0.124213 0.201626 4.03118
0.151737 0.290694 4.03346
0.25277 0.350387 3.94868
0.190371 0.28476 4.00664
0.272048 0.328268 3.89071
0.142158 0.341624 4.05125
0.0485563 0.502881 4.09246
0.0496526 0.420541 4.14561
0.0641203 0.41566 4.11906
0.0397694 0.438549 4.16463
0.061245 0.621418 4.04824
0.100899 0.63464 4.05306
0.135625 0.637184 4.0526
0.165029 0.633138 4.04306
0.186751 0.622333 4.02666
0.205754 0.579337 3.98639
0.289148 0.511555 3.87366
0.188676 0.541824 4.00708
0.163089 0.53364 4.02225
0.129627 0.533041 4.03348
0.0972072 0.538994 4.03793
0.0715892 0.548488 4.03882
0.0539674 0.55834 4.04069
0.290022 0.513496 3.77817
0.062441 0.409393 4.10646
0.0338054 0.49502 4.12953
0.0331664 0.418723 4.16553
0.0195788 0.405571 4.15591
0.0325914 0.414594 4.15339
0.0548154 0.40198 4.09846
0.0156405 0.402861 4.16264
0.0116134 0.399805 4.13435
0.0532957 0.581295 4.0274
0.0399522 0.57357 4.04263
0.0330543 0.568077 4.06111
0.168679 0.592753 4.01313
0.183152 0.601029 4.01294
