ply
format ascii 1.0
comment Created by Open3D
element vertex 468
property double x
property double y
property double z
end_header
0.0596838 0.328192 4.09679
0.0593976 0.399713 4.14573
0.0589866 0.381043 4.09132
0.0341524 0.480837 4.10417
0.057906 0.422462 4.15251
0.0552255 0.453309 4.13857
0.0573848 0.53849 4.05934
-0.126548 0.562674 3.96159
0.0576068 0.594304 4.03226
0.0582663 0.625121 4.02888
0.0615302 0.734309 3.97768
0.0598695 0.316601 4.0939
0.0596164 0.306718 4.08608
0.0587633 0.302442 4.0764
0.0624913 0.22957 4.03331
0.0630002 0.216138 4.03624
0.0626193 0.199991 4.03955
0.0636806 0.186331 4.03226
0.0659941 0.170043 4.01241
0.0578776 0.386683 4.13268
0.0339992 0.39261 4.10153
-0.215674 0.66685 3.82633
-0.0543703 0.536743 3.98799
-0.0795044 0.534884 3.98607
-0.104579 0.536612 3.97908
-0.140425 0.553545 3.95903
-0.033058 0.543663 3.98558
-0.0883754 0.602368 3.99812
-0.0587902 0.600683 3.99499
-0.116036 0.600684 3.99049
-0.134623 0.593697 3.97846
-0.158798 0.538564 3.94664
-0.0452453 0.155639 3.98964
-0.13599 0.570437 3.95367
-0.229689 0.56398 3.83698
-0.185268 0.558525 3.91942
-0.0772211 0.432217 4.02361
0.0191229 0.333245 4.09017
0.0251153 0.306272 4.07971
-0.02187 0.322937 4.07
-0.0438023 0.311071 4.04459
-0.00454676 0.302841 4.06465
-0.0237804 0.298512 4.04226
-0.0747112 0.253623 3.99164
0.0371395 0.400573 4.14175
0.031971 0.422416 4.14684
-0.170144 0.613579 3.96288
-0.0231403 0.492506 4.0223
-0.0298927 0.414078 4.07873
-0.0325003 0.426989 4.07077
-0.154819 0.437352 3.99197
0.0318312 0.452194 4.13061
-0.106359 0.633973 4.00313
-0.143109 0.62851 3.98469
-0.187017 0.702146 3.86658
0.00502013 0.605237 4.02482
-0.0341028 0.592973 3.98806
-0.0920185 0.287945 3.99406
-0.215603 0.318699 3.80945
-0.00788531 0.402949 4.07181
0.013985 0.393561 4.07683
-0.0667329 0.281449 3.99547
-0.05409 0.279782 4.00087
-0.156027 0.645255 3.9686
-0.0318298 0.403682 4.06596
-0.0578208 0.627791 4.01698
-0.0622015 0.645068 4.0168
-0.0820981 0.736419 3.94999
-0.171319 0.672065 3.92266
-0.0685681 0.69331 3.98416
-0.183409 0.626548 3.93828
-0.198071 0.645434 3.88235
0.0213826 0.317988 4.08694
-0.0125162 0.311246 4.06839
-0.0339213 0.304153 4.04551
-0.00120094 0.399007 4.06701
-0.0601223 0.2802 3.99772
-0.0497578 0.259675 4.00334
-0.0504541 0.280839 4.00176
0.00640343 0.405076 4.10541
-0.0195416 0.298783 4.04053
0.000736973 0.302012 4.05824
0.0274175 0.302528 4.07164
0.0195819 0.176064 4.00821
0.0190532 0.192946 4.0277
0.0211779 0.206329 4.03388
0.0253129 0.222603 4.03168
0.0285363 0.2336 4.0292
-0.0195679 0.252238 4.00986
-0.0257857 0.247873 4.01202
-0.0349295 0.240696 4.01334
-0.0417741 0.234843 4.00885
-0.0618618 0.338232 4.03609
-0.234053 0.462896 3.76316
0.059959 0.386078 4.10593
-0.033416 0.262436 4.0024
-0.0416553 0.261369 4.00381
0.0218078 0.381199 4.08192
-0.0217439 0.392027 4.04941
0.0182721 0.387093 4.07944
-0.0515384 0.479504 4.01632
-0.0934516 0.465219 4.0104
-0.0371317 0.417661 4.05726
-0.145087 0.725166 3.91102
-0.130145 0.689573 3.95574
-0.113994 0.652571 3.99352
-0.0531913 0.224755 3.99723
-0.00274449 0.633994 4.02752
-0.00748747 0.688094 3.99866
-0.0157168 0.737473 3.97157
-0.127088 0.543197 3.96792
-0.185445 0.523089 3.9337
-0.0187329 0.551568 3.98343
-0.160402 0.584943 3.95346
-0.00398434 0.505847 4.03114
-0.011968 0.420273 4.10237
-0.214952 0.5079 3.9106
-0.169461 0.503222 3.95942
-0.136897 0.491445 3.98282
-0.0869324 0.493286 3.99618
-0.0504394 0.501829 4.00085
-0.0227515 0.511962 4.00632
0.033387 0.534832 4.05076
-0.214286 0.454093 3.92462
-0.179772 0.588164 3.93932
0.0444916 0.387505 4.13138
-0.0225512 0.467908 4.03718
-0.23555 0.576085 3.76158
-0.00151847 0.525188 4.00925
-0.0373573 0.42103 4.03276
-0.148115 0.571193 3.94926
-0.0144586 0.4359 4.09124
-0.230741 0.39603 3.78003
-0.018592 0.561876 3.97561
0.00830357 0.445274 4.11542
-0.160071 0.237926 3.91696
-0.163668 0.204838 3.88311
-0.236322 0.458817 3.84174
-0.191317 0.279117 3.89435
-0.213506 0.610013 3.85268
-0.0512695 0.124463 3.98008
0.0496013 0.387544 4.10427
-0.0466437 0.451076 4.02843
-0.206416 0.556825 3.8947
-0.0999655 0.552918 3.97677
-0.0779695 0.549943 3.98339
-0.057476 0.258163 4.00072
-0.212076 0.4017 3.9232
0.00176694 0.074951 3.97936
-0.0886377 0.131651 3.93227
-0.124478 0.163601 3.90962
0.0608285 0.681352 4.00379
0.0678807 0.0660819 3.98889
-0.0573996 0.551152 3.98377
-0.0383887 0.55511 3.98078
-0.0252067 0.559331 3.97606
-0.196676 0.595658 3.91276
-0.0394422 0.570492 3.98143
-0.0602623 0.57413 3.98425
-0.0803896 0.576132 3.98427
-0.102825 0.575554 3.97916
-0.118362 0.573298 3.97066
-0.229905 0.629268 3.78841
-0.11528 0.557291 3.96898
0.0595195 0.3649 4.08727
-0.0389799 0.353434 4.05285
-0.00712592 0.407028 4.07806
0.0175003 0.362063 4.08119
0.0574679 0.567147 4.0356
-0.12643 0.19752 3.93452
-0.0916933 0.161842 3.95582
0.00184854 0.0961332 4.00275
-0.191474 0.252959 3.84739
-0.0249055 0.565358 3.97827
0.0149123 0.496296 4.06404
0.0680833 0.0858889 4.01076
-0.0482873 0.099701 3.95936
-0.232669 0.397621 3.85042
0.00201942 0.241934 4.02015
-0.00409316 0.234442 4.02199
-0.0109028 0.222864 4.02269
-0.0155177 0.211107 4.01735
-0.0236781 0.196785 4.00378
-0.0420006 0.290994 4.02087
-0.0506296 0.294369 4.02004
-0.0592622 0.298667 4.01949
-0.0796596 0.317112 4.01424
-0.175592 0.382393 3.96944
0.0157539 0.522524 4.0396
0.0050513 0.576182 3.98993
-0.0118109 0.575461 3.98218
-0.0362727 0.293965 4.02112
-0.178905 0.318302 3.9356
0.0254931 0.568765 4.01985
-0.035141 0.180997 3.99577
0.0558069 0.482759 4.1111
0.0338989 0.507472 4.07663
0.0572596 0.51108 4.08309
-0.00545287 0.459711 4.06712
0.0674443 0.115829 4.01954
0.0668047 0.147519 4.01613
0.0136299 0.155856 4.00826
-0.0967114 0.249199 3.97928
-0.0588791 0.400044 4.02572
-0.0710571 0.211997 3.98544
-0.116492 0.401822 4.0137
-0.0819685 0.372788 4.02049
-0.13746 0.360728 3.99311
0.00587041 0.126029 4.01116
-0.0231498 0.448078 4.05165
-0.118106 0.228842 3.95948
-0.0836242 0.191366 3.97228
-0.115121 0.28686 3.98372
-0.205417 0.354919 3.91646
-0.147953 0.283685 3.95908
-0.219384 0.33695 3.86656
-0.101735 0.338093 4.00644
-0.00355431 0.482527 4.05007
-0.00279129 0.408841 4.10797
-0.020826 0.406392 4.08217
0.00916834 0.422016 4.12681
-0.0147771 0.597549 3.99561
-0.0566692 0.61323 4.00014
-0.0947406 0.616425 3.99999
-0.127306 0.612058 3.99063
-0.14982 0.60225 3.9739
-0.163843 0.563732 3.93769
-0.236342 0.512386 3.83973
-0.145537 0.527085 3.96039
-0.118402 0.517847 3.97583
-0.0845075 0.515835 3.98743
-0.0518959 0.52049 3.99177
-0.0263159 0.529038 3.99216
-0.00820253 0.536903 3.99399
-0.234134 0.521619 3.75471
-0.020144 0.401128 4.0702
0.0141162 0.472306 4.08743
0.0178446 0.404916 4.12805
0.031426 0.392134 4.11967
0.0177009 0.401977 4.1165
-0.0132673 0.394283 4.0623
0.0363275 0.389485 4.12681
0.0406512 0.389231 4.10175
-0.007552 0.561294 3.98026
0.00646646 0.551074 3.99408
0.0139249 0.542939 4.01327
-0.127953 0.571196 3.96312
-0.147267 0.584123 3.96287
0.0785392 0.480801 4.10254
0.231764 0.550669 3.95944
0.0818897 0.390239 4.10342
0.319994 0.654812 3.82206
0.163229 0.530063 3.98245
0.186049 0.527213 3.98106
0.208813 0.52856 3.97531
0.239105 0.541614 3.95737
0.144388 0.537167 3.9826
0.191066 0.590171 3.9927
0.166715 0.589464 3.99145
0.215693 0.586553 3.98672
0.232618 0.578417 3.97679
0.25737 0.527879 3.94816
0.168201 0.156206 4.00362
0.240548 0.557053 3.9513
0.328621 0.556274 3.83784
0.282348 0.547641 3.92105
0.183153 0.427512 4.0307
0.0973029 0.331193 4.09421
0.0910103 0.305389 4.08182
0.135032 0.32063 4.0778
0.157992 0.30909 4.05161
0.118165 0.302609 4.06791
0.13858 0.298463 4.04646
0.189346 0.251188 4.00417
0.0793413 0.398505 4.14384
0.0813032 0.420607 4.14959
0.26114 0.598199 3.96125
0.133995 0.489406 4.02307
0.139637 0.410335 4.0851
0.14062 0.423593 4.07668
0.251712 0.43229 3.99784
0.0797602 0.452224 4.1303
0.204096 0.618128 4.00345
0.237125 0.612143 3.98388
0.292433 0.687602 3.86172
0.106473 0.599602 4.02499
0.147127 0.584177 3.98484
0.204647 0.286423 4.0028
0.31181 0.321934 3.81768
0.121683 0.399316 4.07683
0.0997661 0.389362 4.08495
0.183511 0.280985 4.00125
0.16713 0.280216 4.00636
0.249607 0.628018 3.96792
0.140083 0.400357 4.07344
0.161674 0.615373 4.01815
0.165171 0.63184 4.01858
0.192249 0.724095 3.94612
0.270001 0.656694 3.92062
0.177874 0.680956 3.98236
0.276551 0.611371 3.93648
0.298678 0.631464 3.88088
0.0950294 0.316564 4.09035
0.126895 0.30999 4.07368
0.148626 0.303258 4.05153
0.115487 0.395186 4.07409
0.175581 0.279643 4.0041
0.164979 0.257851 4.01283
0.16108 0.281498 4.00697
0.106684 0.402517 4.1053
0.130396 0.299783 4.0435
0.111394 0.302556 4.05996
0.0870689 0.302658 4.07176
0.106704 0.174376 4.01641
0.104439 0.190995 4.03359
0.101409 0.205069 4.03759
0.0985646 0.222141 4.03344
0.0945041 0.233625 4.02975
0.136969 0.252286 4.01459
0.142308 0.2466 4.01956
0.15048 0.238068 4.0241
0.159001 0.231598 4.02064
0.173185 0.335963 4.04499
0.337963 0.461483 3.76633
0.149282 0.263803 4.00543
0.157335 0.26089 4.01097
0.0929113 0.379195 4.08662
0.13392 0.388531 4.06083
0.0963626 0.383822 4.08583
0.159747 0.475685 4.01829
0.197659 0.459686 4.01439
0.145108 0.41424 4.06479
0.250043 0.709918 3.90715
0.230622 0.673403 3.95484
0.213116 0.636184 3.99342
0.170857 0.223147 4.0092
0.112408 0.626634 4.02827
0.123289 0.681099 3.99856
0.131894 0.729385 3.97189
0.228118 0.533058 3.9661
0.281781 0.513506 3.93718
0.133252 0.546065 3.97908
0.256446 0.571165 3.95224
0.115615 0.503968 4.03012
0.122759 0.416506 4.10653
0.308826 0.4998 3.91398
0.266788 0.495264 3.96213
0.237704 0.484606 3.98596
0.193586 0.487766 3.99679
0.160398 0.497308 4.00059
0.134374 0.508238 4.0057
0.0822506 0.5336 4.04965
0.309331 0.449182 3.92938
0.273869 0.575425 3.93767
0.0701315 0.386717 4.13117
0.13395 0.465529 4.03925
0.341874 0.571064 3.76028
0.116625 0.522602 4.00716
0.150378 0.417307 4.0419
0.248764 0.557121 3.94796
0.123066 0.432957 4.096
0.330702 0.395624 3.78775
0.134823 0.556759 3.96975
0.101033 0.443847 4.11677
0.265152 0.240014 3.93249
0.265589 0.209789 3.89851
0.337306 0.454073 3.8478
0.289322 0.281009 3.90696
0.31598 0.59969 3.85136
0.175337 0.126621 3.99464
0.0700006 0.386632 4.10524
0.154972 0.447388 4.03387
0.303101 0.547183 3.89585
0.207484 0.543026 3.97265
0.187029 0.54126 3.97733
0.172914 0.255878 4.01073
0.306322 0.398289 3.9315
0.129779 0.0767883 3.98795
0.209637 0.135846 3.9486
0.237612 0.168241 3.92645
0.167972 0.542991 3.97844
0.151039 0.548287 3.97564
0.140949 0.55373 3.97022
0.291014 0.583701 3.91152
0.152229 0.564084 3.97479
0.170204 0.565201 3.97907
0.188776 0.565972 3.97852
0.208762 0.563994 3.97382
0.223069 0.56022 3.9675
0.336502 0.620386 3.78585
0.221699 0.546857 3.96533
0.14975 0.350937 4.0626
0.121872 0.402058 4.08423
0.098282 0.36021 4.08563
0.238563 0.198907 3.95341
0.208686 0.163582 3.97455
0.128013 0.0971383 4.01145
0.288374 0.25806 3.85784
0.140535 0.560447 3.97108
0.0988379 0.495032 4.06427
0.17526 0.103402 3.97237
0.330466 0.3948 3.85986
0.118857 0.241921 4.02289
0.124538 0.233209 4.02655
0.131061 0.221032 4.0294
0.137615 0.208584 4.0258
0.145483 0.195185 4.01382
0.155042 0.291769 4.02511
0.165525 0.294036 4.02499
0.173539 0.297681 4.02551
0.192971 0.315623 4.02148
0.270662 0.379024 3.97875
0.0983077 0.520821 4.03866
0.113046 0.571409 3.98863
0.129218 0.570752 3.97674
0.146621 0.295695 4.02423
0.277779 0.317689 3.94694
0.0899734 0.565967 4.02
0.156308 0.18014 4.00836
0.0806698 0.506079 4.07749
0.117335 0.457116 4.07082
0.11431 0.154928 4.01678
0.209271 0.24701 3.99425
0.169449 0.396581 4.03485
0.186622 0.210428 4.00159
0.217758 0.396749 4.0232
0.190461 0.369484 4.02924
0.238359 0.357526 4.00342
0.123105 0.126756 4.01819
0.133575 0.444991 4.05688
0.229315 0.228325 3.97686
0.200199 0.190989 3.99011
0.224194 0.285787 3.994
0.300722 0.353133 3.92783
0.251935 0.282173 3.97319
0.315245 0.337326 3.87626
0.209383 0.335923 4.01443
0.115973 0.48082 4.05062
0.114578 0.405499 4.10961
0.131214 0.4018 4.08924
0.103555 0.419943 4.12857
0.129772 0.590688 3.99305
0.164718 0.601548 3.99833
0.196324 0.601783 3.99821
0.224415 0.596916 3.98877
0.244903 0.58694 3.97254
0.261851 0.551448 3.93772
0.336078 0.506697 3.84116
0.24586 0.517435 3.96118
0.222031 0.509914 3.97659
0.190969 0.508879 3.9864
0.161138 0.514716 3.98952
0.13804 0.52372 3.99096
0.1223 0.532731 3.99204
0.340611 0.519552 3.75361
0.130895 0.396979 4.07782
0.0990969 0.471517 4.08768
0.0964623 0.402513 4.13028
0.0807954 0.389796 4.12199
0.0957551 0.399236 4.118
0.124586 0.390348 4.07195
0.0767623 0.386993 4.1287
0.0772766 0.387155 4.1042
0.124964 0.556205 3.97636
0.109927 0.546995 3.99281
0.101306 0.539839 4.01271
0.232522 0.557614 3.96052
0.245108 0.568879 3.96206
