ply
format ascii 1.0
comment Created by Open3D
element vertex 468
property double x
property double y
property double z
end_header
0.0853753 0.342885 3.85884
0.0808838 0.427486 3.91285
0.0839818 0.399657 3.85633
0.0593326 0.513271 3.88228
0.0795331 0.454714 3.92087
0.0773568 0.488781 3.91045
0.0817193 0.571525 3.84756
-0.091648 0.578165 3.75291
0.0826203 0.63025 3.83127
0.0830225 0.664415 3.83555
0.0846255 0.79029 3.807
0.0858706 0.330489 3.85555
0.0859203 0.321419 3.84763
0.0853409 0.318261 3.83738
0.0862579 0.319402 3.83855
0.0865568 0.310642 3.84276
0.0847986 0.298082 3.84796
0.0836921 0.283544 3.84571
0.0829007 0.252227 3.8238
0.0794717 0.412094 3.89962
0.0601088 0.413285 3.86821
-0.192336 0.68396 3.6307
-0.025019 0.552521 3.77931
-0.0502655 0.550625 3.7762
-0.0738754 0.552767 3.76825
-0.105124 0.56836 3.74764
-0.00201541 0.560028 3.77687
-0.0561415 0.620227 3.7891
-0.0288492 0.618029 3.78718
-0.0803532 0.617853 3.77986
-0.0969919 0.609739 3.76817
-0.125078 0.551501 3.73242
-0.0106751 0.191349 3.78983
-0.0995919 0.584953 3.74502
-0.200358 0.565531 3.62246
-0.152169 0.569593 3.7065
-0.0414502 0.446513 3.79721
0.055561 0.346289 3.85504
0.0592076 0.320886 3.84358
0.023423 0.336507 3.83981
0.00241565 0.326219 3.82237
0.0342579 0.31844 3.8334
0.0167775 0.315938 3.81741
-0.0279151 0.285694 3.78584
0.060662 0.42766 3.9085
0.0567224 0.453967 3.91569
-0.13786 0.637321 3.75642
0.00783981 0.512521 3.80401
0.00406668 0.432707 3.84888
0.00171247 0.446831 3.84176
-0.121322 0.448167 3.76282
0.0564187 0.485874 3.90393
-0.0729539 0.66432 3.80003
-0.10991 0.656314 3.78014
-0.162686 0.731012 3.67933
0.0339701 0.637259 3.82408
-0.00449914 0.610142 3.78164
-0.0481794 0.308933 3.78017
-0.188266 0.30127 3.56079
0.0246875 0.418694 3.84061
0.0461612 0.410419 3.84237
-0.0184266 0.313157 3.78795
-0.0109972 0.31479 3.79162
-0.124058 0.675053 3.7668
0.00296787 0.421103 3.83478
-0.0250612 0.659308 3.81449
-0.0297819 0.681507 3.81816
-0.0569442 0.786123 3.77494
-0.143733 0.703529 3.72878
-0.0395666 0.736934 3.79927
-0.153583 0.649807 3.73447
-0.172356 0.665383 3.68471
0.0570064 0.330955 3.85203
0.0305549 0.325003 3.83867
0.0104042 0.320433 3.82205
0.0320898 0.414109 3.83515
-0.0135427 0.3142 3.78962
-0.00342037 0.311584 3.80384
-0.0104495 0.315275 3.79156
0.033676 0.426272 3.87543
0.0178059 0.317517 3.81309
0.0376309 0.318119 3.82496
0.0603515 0.318206 3.83463
0.0519357 0.250491 3.8194
0.0550313 0.283592 3.84293
0.056988 0.299337 3.84562
0.0598914 0.311543 3.84056
0.0612591 0.318933 3.83614
0.0174118 0.31719 3.81353
0.0141831 0.314583 3.81696
0.00933982 0.307631 3.82042
0.00570466 0.298166 3.8172
-0.0200484 0.353215 3.81036
-0.203899 0.44311 3.52749
0.0838222 0.407199 3.87188
0.00391204 0.315681 3.80221
0.000875721 0.315059 3.80439
0.0534036 0.398635 3.84769
0.0154834 0.406119 3.81754
0.050104 0.404298 3.84487
-0.0187662 0.49663 3.79529
-0.0587968 0.479868 3.78582
-0.00136011 0.435303 3.82804
-0.11989 0.766048 3.72969
-0.100576 0.728864 3.76577
-0.0813866 0.686441 3.795
-0.008188 0.26969 3.79976
0.0261642 0.672131 3.83191
0.0192251 0.734665 3.81719
0.00889026 0.792804 3.79894
-0.0941048 0.558252 3.75663
-0.152109 0.532722 3.71612
0.0125424 0.567697 3.77639
-0.125922 0.601617 3.7449
0.0253154 0.530008 3.8144
0.0184586 0.443041 3.87262
-0.182641 0.513222 3.68944
-0.13572 0.514067 3.74018
-0.102798 0.504254 3.76341
-0.0541411 0.508086 3.77784
-0.019194 0.518456 3.78478
0.00701741 0.531304 3.79136
0.0595162 0.565195 3.83911
-0.182179 0.455574 3.69589
-0.148265 0.605606 3.73108
0.0671891 0.412944 3.89845
0.0102085 0.487084 3.81465
-0.206614 0.56885 3.54471
0.0276632 0.546414 3.79671
-0.000342466 0.434277 3.80473
-0.11026 0.584076 3.73998
0.0162956 0.459805 3.86309
-0.20097 0.373516 3.53643
0.0125046 0.577012 3.77147
0.0353812 0.475704 3.8882
-0.129815 0.23925 3.68908
-0.131175 0.204104 3.64688
-0.203647 0.447627 3.61022
-0.16527 0.275162 3.65587
-0.186762 0.620082 3.64759
-0.0178622 0.160167 3.77723
0.0749147 0.408343 3.86997
-0.0120114 0.46719 3.8035
-0.175012 0.564597 3.68154
-0.0685491 0.568867 3.76809
-0.0479917 0.565641 3.77499
-0.00848125 0.305622 3.8
-0.180477 0.399355 3.68669
0.0291423 0.12681 3.77667
-0.0502552 0.150928 3.72071
-0.0872841 0.171106 3.68829
0.0848081 0.729834 3.82337
0.0807093 0.127859 3.78598
-0.0271953 0.566927 3.77651
-0.00743755 0.571119 3.77521
0.00616458 0.574392 3.77164
-0.167212 0.611729 3.70507
-0.00990838 0.591045 3.77839
-0.0316058 0.596365 3.77975
-0.0517851 0.598209 3.77851
-0.0724726 0.595998 3.7719
-0.0855517 0.591586 3.76333
-0.203262 0.634036 3.58194
-0.0821163 0.573262 3.76022
0.0852391 0.381752 3.85217
0.00242901 0.368533 3.82261
0.024464 0.422987 3.84785
0.0514935 0.378205 3.84849
0.0819938 0.601104 3.82989
-0.0905541 0.206221 3.7167
-0.055558 0.181355 3.74512
0.0270425 0.147779 3.80493
-0.163313 0.244531 3.60081
0.00544625 0.58293 3.77522
0.0426143 0.524227 3.846
0.0798651 0.149452 3.81481
-0.0129153 0.135395 3.75483
-0.200793 0.384827 3.6119
0.0381652 0.318911 3.82636
0.0346014 0.313193 3.83074
0.0306374 0.303401 3.83529
0.0283232 0.289089 3.83267
0.018041 0.257518 3.8131
-0.000585264 0.314451 3.80256
-0.00595903 0.316034 3.80391
-0.0130715 0.319244 3.80379
-0.0389014 0.333021 3.7956
-0.145685 0.387276 3.73405
0.0434231 0.549629 3.82537
0.0345255 0.597109 3.78507
0.0174659 0.592392 3.77855
0.00171528 0.31724 3.80062
-0.150168 0.318686 3.70051
0.0523663 0.597595 3.81463
0.00271906 0.22342 3.79873
0.0787913 0.517351 3.88848
0.0592626 0.538208 3.86098
0.0809469 0.543866 3.86696
0.0251685 0.482713 3.84349
0.0801333 0.179938 3.82793
0.0814333 0.217971 3.82684
0.0419733 0.214872 3.81805
-0.0547624 0.267892 3.76814
-0.0213716 0.412298 3.79763
-0.0286327 0.240659 3.78189
-0.0833538 0.414874 3.78369
-0.0459915 0.385614 3.79335
-0.108615 0.369335 3.76294
0.0315594 0.177591 3.81759
0.00991297 0.46714 3.82598
-0.0792423 0.242018 3.74417
-0.044187 0.213853 3.76424
-0.0770112 0.300191 3.76507
-0.175541 0.35108 3.67729
-0.114326 0.291219 3.73425
-0.190994 0.326871 3.62337
-0.0679347 0.350041 3.78139
0.0267498 0.506081 3.82977
0.0255822 0.430735 3.8779
0.0122275 0.424277 3.85035
0.0364694 0.44966 3.89594
0.0144243 0.61833 3.79291
-0.0252715 0.633319 3.79503
-0.0608857 0.637581 3.79359
-0.0913967 0.634209 3.78303
-0.114028 0.622629 3.7662
-0.128998 0.576689 3.72666
-0.205308 0.507321 3.61638
-0.111356 0.540043 3.74569
-0.0855648 0.53229 3.76089
-0.0527955 0.531422 3.77282
-0.0212738 0.536931 3.77927
0.00457635 0.546548 3.78011
0.0218843 0.555857 3.7836
-0.204358 0.506672 3.52907
0.0137142 0.41751 3.83853
0.0417489 0.500888 3.86526
0.0433505 0.430392 3.89641
0.0556385 0.416374 3.88671
0.0432521 0.42526 3.88505
0.0214166 0.409842 3.83034
0.0599601 0.414486 3.89351
0.0664308 0.409594 3.86846
0.0231727 0.57655 3.77383
0.0358828 0.57088 3.7863
0.042733 0.566924 3.80246
-0.0932101 0.58798 3.75519
-0.109676 0.599464 3.75274
0.100495 0.513572 3.87894
0.252705 0.574142 3.74944
0.101943 0.413216 3.87039
0.342879 0.666212 3.62955
0.18224 0.55042 3.77065
0.205359 0.548216 3.76851
0.228222 0.550226 3.7627
0.258678 0.564572 3.74402
0.164549 0.557752 3.77111
0.211008 0.613825 3.78141
0.186352 0.61178 3.78293
0.235193 0.610903 3.77391
0.250968 0.602603 3.76488
0.27687 0.547161 3.73302
0.165277 0.20368 3.79773
0.261238 0.580203 3.74188
0.351223 0.558922 3.62341
0.30225 0.564418 3.70832
0.197524 0.446931 3.8029
0.113302 0.347081 3.85548
0.110074 0.32226 3.84333
0.143071 0.339515 3.8407
0.164014 0.329764 3.8226
0.131334 0.321267 3.83201
0.150514 0.319595 3.81694
0.189856 0.292751 3.7911
0.0984405 0.426956 3.91135
0.100304 0.453456 3.91857
0.285143 0.629357 3.75673
0.151421 0.511781 3.80203
0.152352 0.433443 3.85272
0.153299 0.447723 3.84524
0.268201 0.448853 3.76948
0.0996368 0.486275 3.902
0.228446 0.655849 3.80366
0.26183 0.647626 3.78262
0.316245 0.711409 3.67778
0.130179 0.634782 3.82375
0.167716 0.604699 3.77695
0.212177 0.315404 3.78412
0.332865 0.315128 3.57223
0.137114 0.418833 3.8454
0.117087 0.410592 3.85156
0.190394 0.318528 3.78475
0.176543 0.31968 3.79102
0.275595 0.664801 3.77118
0.153009 0.422649 3.84097
0.185018 0.652756 3.81881
0.188969 0.673939 3.82342
0.2157 0.771308 3.77234
0.293977 0.688399 3.7316
0.201893 0.72589 3.79939
0.300807 0.640024 3.73556
0.321781 0.651271 3.68611
0.112035 0.332121 3.85159
0.13716 0.327968 3.83739
0.156961 0.323945 3.82198
0.131622 0.414768 3.84201
0.183361 0.319016 3.7888
0.16809 0.316091 3.80599
0.172488 0.320265 3.79129
0.123877 0.426476 3.87296
0.144777 0.32114 3.81255
0.127228 0.320885 3.82285
0.107559 0.319595 3.83251
0.110535 0.253399 3.82396
0.109543 0.285735 3.84359
0.109908 0.301303 3.84484
0.110836 0.313018 3.83866
0.109547 0.320151 3.8339
0.14724 0.32052 3.8147
0.148263 0.317961 3.82058
0.150579 0.311613 3.82483
0.155889 0.302921 3.82065
0.183411 0.356546 3.81718
0.362934 0.44575 3.5316
0.160353 0.320133 3.80036
0.163216 0.319469 3.80499
0.111115 0.39973 3.85112
0.147247 0.408168 3.82835
0.11374 0.404906 3.85165
0.175599 0.496281 3.79392
0.213715 0.479021 3.78802
0.157945 0.436732 3.83315
0.273567 0.746637 3.72918
0.255209 0.714379 3.76918
0.237746 0.676898 3.799
0.167865 0.277375 3.80331
0.136541 0.667939 3.83409
0.14638 0.728363 3.8177
0.153657 0.783613 3.80066
0.247314 0.555213 3.75324
0.301263 0.528567 3.71975
0.155234 0.56605 3.76839
0.277178 0.595698 3.74273
0.135703 0.529318 3.81056
0.137238 0.442672 3.87503
0.328103 0.510273 3.69233
0.285169 0.511472 3.74149
0.253766 0.502267 3.7646
0.210784 0.506633 3.77526
0.178211 0.517377 3.78094
0.153602 0.53012 3.78819
0.105373 0.564619 3.83709
0.327755 0.456821 3.70038
0.29465 0.59889 3.72958
0.0907323 0.412935 3.89775
0.149778 0.487325 3.81287
0.367101 0.561232 3.54319
0.137898 0.545398 3.79177
0.163046 0.43596 3.81156
0.268192 0.578872 3.73609
0.137142 0.459931 3.86562
0.352867 0.381442 3.54612
0.156972 0.575924 3.76109
0.118239 0.475746 3.88772
0.273568 0.256918 3.70557
0.272594 0.225619 3.66139
0.357329 0.449513 3.61714
0.30629 0.28991 3.67287
0.338633 0.608998 3.64751
0.171 0.175401 3.78466
0.0926875 0.408041 3.87096
0.168933 0.467594 3.80562
0.323487 0.559215 3.68247
0.228776 0.565539 3.7625
0.207872 0.562589 3.76674
0.174187 0.310419 3.80134
0.323858 0.403888 3.69786
0.129948 0.136306 3.77953
0.202856 0.171974 3.72733
0.235035 0.19404 3.69781
0.188035 0.564027 3.76827
0.171957 0.568984 3.76545
0.16276 0.573019 3.76114
0.31247 0.603471 3.70475
0.172146 0.588376 3.76822
0.188976 0.592385 3.77227
0.208752 0.594267 3.77151
0.229872 0.591946 3.76653
0.243807 0.586892 3.75953
0.360679 0.620251 3.58107
0.243158 0.569822 3.75574
0.160251 0.371579 3.82942
0.136594 0.422357 3.85392
0.115178 0.379362 3.85065
0.237929 0.225128 3.73221
0.204659 0.200055 3.7579
0.129029 0.156315 3.80908
0.305217 0.26296 3.61342
0.16206 0.581853 3.76343
0.119398 0.5239 3.8443
0.169225 0.152302 3.75761
0.348071 0.391044 3.62449
0.130351 0.321198 3.82527
0.131784 0.315926 3.8307
0.13275 0.306694 3.83517
0.135515 0.293514 3.83242
0.141423 0.263732 3.81521
0.166472 0.318672 3.8027
0.174383 0.320207 3.80232
0.180897 0.32328 3.80247
0.204142 0.337734 3.79952
0.288669 0.391077 3.74865
0.120431 0.548839 3.82253
0.135864 0.595063 3.78301
0.151641 0.589998 3.76944
0.160368 0.321618 3.79996
0.294656 0.328226 3.71743
0.112742 0.596444 3.81339
0.15288 0.232906 3.80574
0.102398 0.537737 3.86081
0.133348 0.482689 3.84456
0.11726 0.219923 3.82248
0.210408 0.277941 3.77974
0.182027 0.414537 3.80656
0.182276 0.251685 3.79185
0.234315 0.416073 3.79675
0.205553 0.388146 3.80345
0.256392 0.373505 3.77921
0.125643 0.184767 3.8207
0.147047 0.467566 3.82817
0.230284 0.256431 3.7583
0.196783 0.228494 3.77682
0.233964 0.308812 3.7739
0.317563 0.358593 3.69342
0.261288 0.302094 3.75083
0.333648 0.337679 3.63791
0.226165 0.354357 3.79285
0.134248 0.506021 3.82698
0.129609 0.430546 3.87829
0.144802 0.424199 3.85706
0.120649 0.44946 3.89717
0.152149 0.615184 3.78902
0.186282 0.627771 3.7938
0.218044 0.630126 3.79176
0.246211 0.625805 3.78072
0.265844 0.615045 3.76439
0.282293 0.571896 3.72591
0.358438 0.504825 3.61777
0.264172 0.53667 3.74536
0.239635 0.529541 3.76009
0.208683 0.529135 3.76948
0.179532 0.535173 3.77379
0.1579 0.544638 3.77649
0.143607 0.554357 3.77902
0.365937 0.504421 3.52776
0.144793 0.41829 3.84566
0.118558 0.501135 3.8625
0.114204 0.430011 3.89869
0.0997316 0.41639 3.8895
0.113627 0.425124 3.88654
0.138728 0.411076 3.83984
0.0966401 0.414011 3.89583
0.0982626 0.409437 3.87099
0.148221 0.575006 3.76731
0.132176 0.569278 3.78278
0.123532 0.565574 3.80043
0.25312 0.583103 3.75199
0.26382 0.593068 3.75143
