ply
format ascii 1.0
comment Created by Open3D
element vertex 468
property double x
property double y
property double z
end_header
-0.00480981 0.399342 3.94266
-0.0052342 0.471504 4.01019
-0.00522542 0.446557 3.9448
-0.0256822 0.56376 3.97017
-0.00505471 0.499618 4.01764
-0.00455006 0.537363 4.00506
-0.00366496 0.625619 3.92961
-0.176888 0.635276 3.82783
-0.0031852 0.690214 3.90656
-0.00290016 0.723979 3.90932
-0.00201826 0.827038 3.87776
-0.0045672 0.387545 3.93993
-0.00426635 0.379444 3.93253
-0.00383505 0.376843 3.92175
-0.00301706 0.346165 3.91729
-0.00305084 0.335425 3.92257
-0.00278084 0.322572 3.92904
-0.00278431 0.308267 3.92626
-0.00304756 0.283048 3.90376
-0.00511426 0.457616 3.9977
-0.0300268 0.460889 3.96231
-0.26728 0.708268 3.70526
-0.103254 0.616259 3.85297
-0.127977 0.614641 3.85193
-0.152471 0.613985 3.84577
-0.186127 0.624739 3.82461
-0.0834436 0.620865 3.85035
-0.139639 0.674292 3.85962
-0.113307 0.673349 3.8592
-0.163927 0.669174 3.85254
-0.180259 0.659696 3.84315
-0.207878 0.605136 3.81365
-0.102502 0.249802 3.87121
-0.186986 0.639662 3.81969
-0.284384 0.605027 3.70077
-0.236741 0.618156 3.78808
-0.131653 0.505371 3.88739
-0.0402507 0.404369 3.93957
-0.0349846 0.381084 3.92828
-0.0755299 0.400024 3.92354
-0.0959289 0.392523 3.90104
-0.059923 0.381812 3.91594
-0.078457 0.380007 3.89496
-0.125425 0.348423 3.85912
-0.0269545 0.472672 4.00836
-0.029746 0.500281 4.01502
-0.218127 0.682128 3.83546
-0.0773557 0.568927 3.88591
-0.086242 0.485706 3.94396
-0.0868216 0.501044 3.93525
-0.20579 0.511276 3.85495
-0.0277029 0.534669 3.99723
-0.162622 0.71362 3.87743
-0.195154 0.702528 3.85875
-0.241913 0.753549 3.75297
-0.0557004 0.697206 3.89848
-0.0904329 0.665305 3.8518
-0.145208 0.377367 3.85369
-0.266743 0.366561 3.64432
-0.068592 0.46987 3.9346
-0.0481687 0.461049 3.9381
-0.121193 0.375563 3.8538
-0.10747 0.375497 3.86006
-0.209086 0.716449 3.84609
-0.0876555 0.475867 3.93037
-0.117518 0.714674 3.89104
-0.122607 0.733831 3.89612
-0.143697 0.813705 3.84667
-0.225531 0.735097 3.80547
-0.131469 0.773596 3.87286
-0.233383 0.690616 3.8131
-0.25026 0.697429 3.7621
-0.038229 0.39051 3.93655
-0.066955 0.388597 3.9204
-0.0871906 0.385949 3.89999
-0.0629905 0.465558 3.93001
-0.114447 0.375357 3.85725
-0.102235 0.362193 3.87298
-0.103417 0.376208 3.86085
-0.0534494 0.474984 3.97029
-0.0729058 0.38175 3.89101
-0.0545981 0.38093 3.90599
-0.0315021 0.378581 3.91761
-0.0409585 0.286177 3.90176
-0.0387963 0.312179 3.92269
-0.0371854 0.327052 3.92449
-0.0351868 0.339504 3.91747
-0.0323848 0.348342 3.91257
-0.0762088 0.359053 3.88656
-0.0806672 0.356057 3.89097
-0.0867171 0.350108 3.8946
-0.0922778 0.341804 3.89003
-0.116733 0.41621 3.89355
-0.28946 0.49053 3.603
-0.00585947 0.451805 3.96344
-0.0886723 0.364241 3.87046
-0.0954819 0.364103 3.87314
-0.0391017 0.448684 3.93845
-0.0807205 0.460218 3.91215
-0.0435464 0.454444 3.93918
-0.103549 0.555229 3.87828
-0.145646 0.539762 3.87315
-0.0916514 0.490396 3.9209
-0.203722 0.789989 3.80316
-0.188827 0.76168 3.84163
-0.172442 0.731568 3.87236
-0.104791 0.323747 3.87386
-0.0637399 0.729258 3.90697
-0.0709708 0.774975 3.89045
-0.078472 0.824467 3.87237
-0.173822 0.617393 3.83511
-0.236521 0.585513 3.80152
-0.0714512 0.625927 3.84654
-0.20707 0.650295 3.82229
-0.0598505 0.584957 3.89428
-0.0696838 0.492815 3.96918
-0.264892 0.566017 3.77439
-0.218729 0.571132 3.82511
-0.186284 0.563955 3.84834
-0.137966 0.568167 3.85906
-0.102283 0.577937 3.86321
-0.0767424 0.589004 3.86975
-0.0272114 0.618728 3.9198
-0.264242 0.515862 3.7841
-0.228462 0.652607 3.81043
-0.0181856 0.459392 3.99619
-0.0772539 0.542307 3.89899
-0.291994 0.601143 3.61695
-0.0582356 0.60169 3.87272
-0.0949529 0.489155 3.89482
-0.194247 0.636455 3.81494
-0.0696665 0.511492 3.9583
-0.284026 0.429885 3.61754
-0.0728647 0.634993 3.83925
-0.0490839 0.526001 3.98249
-0.212443 0.313295 3.77665
-0.210894 0.27917 3.73498
-0.290271 0.500787 3.69337
-0.244046 0.347003 3.74674
-0.267986 0.654404 3.72407
-0.108655 0.219942 3.85893
-0.0163241 0.453018 3.96181
-0.100501 0.524757 3.891
-0.259056 0.61084 3.76296
-0.150182 0.630516 3.84209
-0.128167 0.629388 3.8479
-0.108802 0.358802 3.86883
-0.262402 0.464854 3.77807
-0.0612211 0.177901 3.85596
-0.140284 0.218658 3.80219
-0.173006 0.244536 3.77187
-0.00251131 0.773903 3.89531
-0.003186 0.171127 3.86345
-0.107742 0.630272 3.84856
-0.0887916 0.63274 3.84466
-0.0775322 0.633606 3.83966
-0.246906 0.655074 3.78426
-0.094173 0.652413 3.84761
-0.115593 0.659561 3.85209
-0.137479 0.660753 3.85135
-0.159261 0.656024 3.84604
-0.172969 0.648765 3.83848
-0.284169 0.660069 3.65505
-0.165663 0.632626 3.83469
-0.0050976 0.432217 3.93751
-0.0935278 0.427911 3.91053
-0.068478 0.472982 3.945
-0.0425184 0.432257 3.93505
-0.00325049 0.658333 3.90812
-0.178086 0.278401 3.80032
-0.14472 0.2494 3.82778
-0.0614156 0.199412 3.88546
-0.24054 0.316122 3.6882
-0.0796743 0.641889 3.84245
-0.0443008 0.576205 3.93088
-0.00288358 0.192702 3.8913
-0.104663 0.195016 3.83417
-0.284336 0.445264 3.70002
-0.0567216 0.353244 3.90081
-0.0610098 0.347171 3.90569
-0.0652068 0.337354 3.90977
-0.069135 0.323997 3.90673
-0.0775274 0.301776 3.8899
-0.0956404 0.379223 3.87614
-0.10432 0.381709 3.87585
-0.112094 0.385808 3.87642
-0.136148 0.399649 3.873
-0.228139 0.45478 3.82961
-0.0430386 0.602991 3.90502
-0.0541021 0.651726 3.85715
-0.0690655 0.648068 3.84702
-0.0889719 0.381863 3.87348
-0.233146 0.389847 3.7926
-0.0343328 0.653961 3.89041
-0.0897809 0.278331 3.8791
-0.00406909 0.567836 3.97873
-0.0271389 0.590004 3.94789
-0.00399083 0.595597 3.95349
-0.06203 0.535371 3.93381
-0.00273681 0.222789 3.90344
-0.00289301 0.256666 3.90257
-0.0481884 0.260474 3.89676
-0.147855 0.336879 3.84652
-0.115568 0.469989 3.88847
-0.121916 0.304103 3.86136
-0.172275 0.476969 3.87842
-0.138966 0.447067 3.88196
-0.194073 0.437209 3.85727
-0.0570491 0.228405 3.89638
-0.0773206 0.521579 3.91576
-0.16956 0.31261 3.82627
-0.136654 0.27978 3.84542
-0.168002 0.372075 3.8447
-0.256816 0.420038 3.77019
-0.200378 0.363756 3.82358
-0.270724 0.393119 3.71239
-0.15933 0.418591 3.8685
-0.0600763 0.559291 3.9136
-0.061487 0.479788 3.97553
-0.078686 0.476135 3.94763
-0.0512576 0.49697 3.99325
-0.0740765 0.67389 3.86322
-0.113909 0.686929 3.8677
-0.148199 0.687922 3.86659
-0.176519 0.682241 3.85715
-0.196112 0.670198 3.84238
-0.212144 0.62735 3.80567
-0.290442 0.553693 3.69551
-0.193286 0.596904 3.82689
-0.166996 0.591148 3.84221
-0.133276 0.592769 3.85175
-0.101815 0.598268 3.85543
-0.078469 0.605601 3.85631
-0.0629838 0.612803 3.85755
-0.290966 0.545952 3.60099
-0.0785937 0.47069 3.93503
-0.0449294 0.551698 3.95282
-0.044432 0.476891 3.99592
-0.030513 0.46471 3.98576
-0.0437664 0.473205 3.98336
-0.0724693 0.463455 3.92662
-0.0260394 0.461716 3.99271
-0.0245824 0.455951 3.96216
-0.063943 0.632641 3.84384
-0.050569 0.626107 3.86017
-0.043801 0.621543 3.87902
-0.180898 0.643412 3.83066
-0.192488 0.649984 3.8295
0.0173423 0.563606 3.97038
0.173201 0.635627 3.82713
0.0197605 0.459987 3.96136
0.270165 0.711918 3.7036
0.100147 0.616161 3.85407
0.125258 0.614956 3.85254
0.150221 0.61449 3.84591
0.184091 0.625265 3.82395
0.079047 0.62075 3.85099
0.137704 0.675775 3.85907
0.110653 0.674663 3.85834
0.162344 0.670681 3.85138
0.178806 0.661114 3.84189
0.206401 0.605924 3.812
0.100235 0.247081 3.86864
0.18366 0.640296 3.81854
0.286133 0.607273 3.6978
0.236636 0.619656 3.78529
0.127518 0.504787 3.88529
0.0322373 0.40343 3.9392
0.0284327 0.380247 3.92804
0.0700589 0.397789 3.92292
0.092345 0.389879 3.90091
0.0554487 0.379962 3.91639
0.0750658 0.378076 3.89558
0.125004 0.345379 3.85807
0.0171091 0.472379 4.00743
0.0203151 0.500108 4.01395
0.218813 0.684734 3.83292
0.0722162 0.568946 3.88572
0.0792206 0.484559 3.94221
0.0804413 0.500154 3.93353
0.204925 0.510935 3.85237
0.0188792 0.53451 3.99711
0.160662 0.716559 3.87367
0.194637 0.705221 3.85544
0.244364 0.757375 3.75098
0.050384 0.698345 3.89704
0.0864113 0.666168 3.85127
0.144956 0.374275 3.8527
0.269257 0.364307 3.64052
0.0603525 0.468567 3.93307
0.0387346 0.460029 3.93581
0.119566 0.3723 3.85433
0.106918 0.372671 3.86076
0.209196 0.719526 3.84247
0.0812913 0.474573 3.92805
0.113849 0.716997 3.88779
0.119424 0.736458 3.89234
0.142387 0.81648 3.84471
0.22702 0.738656 3.80263
0.128441 0.776352 3.87021
0.234661 0.693342 3.81036
0.252459 0.700651 3.75985
0.0310221 0.38947 3.9362
0.0618025 0.386753 3.92049
0.0839043 0.383707 3.90021
0.0542717 0.464229 3.92782
0.113194 0.37227 3.85775
0.101182 0.359529 3.87273
0.103414 0.373375 3.86167
0.0450484 0.473781 3.96992
0.0703383 0.380151 3.89182
0.0502751 0.379565 3.90662
0.0256909 0.378154 3.91814
0.0367472 0.285223 3.90075
0.035008 0.311574 3.92264
0.0331575 0.326186 3.92476
0.0305485 0.338592 3.91813
0.0278496 0.347412 3.9133
0.074906 0.357178 3.88707
0.0795907 0.354085 3.89088
0.0858324 0.34803 3.89406
0.0910487 0.339814 3.88937
0.112793 0.41465 3.89215
0.289698 0.49089 3.5999
0.0878927 0.36197 3.87156
0.0946055 0.361717 3.87364
0.0295123 0.448095 3.93709
0.0730427 0.45888 3.90937
0.0339996 0.453681 3.93747
0.0990889 0.555214 3.87785
0.142357 0.539746 3.87163
0.0855436 0.489381 3.91921
0.204646 0.793839 3.80077
0.188357 0.765259 3.83807
0.170684 0.734894 3.86853
0.103975 0.321525 3.87304
0.0591374 0.730788 3.90469
0.0666637 0.776467 3.88874
0.0759782 0.825993 3.87062
0.171452 0.617822 3.83469
0.2362 0.58633 3.79861
0.0658377 0.6259 3.84739
0.20631 0.651814 3.8207
0.0541089 0.584955 3.89449
0.0619003 0.491873 3.96781
0.26588 0.566892 3.77136
0.217692 0.571689 3.82295
0.184517 0.56432 3.84675
0.134684 0.568324 3.85835
0.0979122 0.577956 3.86329
0.0718799 0.588922 3.86981
0.0200842 0.618808 3.91984
0.264494 0.515904 3.78112
0.229263 0.654822 3.80815
0.00842946 0.458916 3.99591
0.0710974 0.542079 3.89879
0.292626 0.603563 3.61483
0.0523261 0.601579 3.87303
0.0879769 0.488293 3.89254
0.191866 0.637243 3.81383
0.0628054 0.510936 3.95686
0.285311 0.42904 3.61357
0.0671054 0.63488 3.84038
0.0414126 0.525639 3.98176
0.215195 0.309072 3.77219
0.214134 0.274396 3.73091
0.290396 0.500993 3.68978
0.247347 0.343558 3.74199
0.269439 0.657295 3.72151
0.106308 0.21668 3.85624
0.00468396 0.452849 3.96145
0.0953348 0.524475 3.88972
0.260121 0.612534 3.76004
0.146275 0.63069 3.84211
0.124524 0.629572 3.84849
0.107878 0.356017 3.86868
0.262927 0.463592 3.77424
0.055806 0.175886 3.85467
0.139014 0.214122 3.79935
0.174386 0.239556 3.7686
0.103904 0.630438 3.84946
0.0842193 0.632856 3.84583
0.0721876 0.633467 3.84098
0.248657 0.65752 3.78208
0.0907712 0.652768 3.84821
0.113455 0.660121 3.85204
0.135323 0.661319 3.85083
0.15699 0.656841 3.84511
0.170395 0.649523 3.83732
0.285545 0.663373 3.65287
0.161726 0.632878 3.83417
0.0876272 0.426551 3.90893
0.0602838 0.471583 3.94268
0.0338206 0.431511 3.9344
0.179126 0.273879 3.79643
0.144447 0.244791 3.82418
0.0571417 0.197544 3.88376
0.243737 0.312534 3.68479
0.0746132 0.641891 3.84386
0.0371081 0.576182 3.93062
0.101148 0.19176 3.83218
0.285658 0.444194 3.69566
0.0537671 0.351689 3.90189
0.0582746 0.345752 3.90604
0.0627311 0.335909 3.91002
0.0663677 0.322661 3.90676
0.0751644 0.300007 3.88972
0.0940729 0.376601 3.87698
0.102163 0.378739 3.87672
0.110091 0.382837 3.87664
0.134186 0.397479 3.87223
0.228463 0.453462 3.82646
0.0364237 0.603126 3.90525
0.0478735 0.651953 3.85698
0.0633489 0.648325 3.84768
0.08801 0.37965 3.87457
0.234754 0.387221 3.7885
0.0282181 0.654241 3.89038
0.088129 0.275867 3.87721
0.0194674 0.590047 3.94745
0.0550284 0.534951 3.93261
0.0439983 0.259115 3.89552
0.1481 0.333639 3.84451
0.110016 0.469108 3.8862
0.121625 0.300985 3.85895
0.1703 0.476061 3.87524
0.135423 0.445787 3.87972
0.193661 0.435464 3.85397
0.0530497 0.226933 3.89497
0.071232 0.52118 3.91459
0.170115 0.30882 3.82283
0.1362 0.275973 3.84183
0.16836 0.369268 3.84302
0.258545 0.418031 3.76591
0.202039 0.360598 3.81999
0.27325 0.391061 3.70798
0.158555 0.416945 3.86655
0.0534584 0.559165 3.9135
0.0536168 0.478582 3.97437
0.0713945 0.474889 3.94551
0.0425007 0.496216 3.99233
0.0688162 0.674622 3.86303
0.11018 0.688341 3.86624
0.145647 0.689809 3.86454
0.174872 0.684201 3.85518
0.195113 0.671947 3.84035
0.21105 0.628475 3.80384
0.291546 0.554849 3.69251
0.191431 0.597524 3.82563
0.164878 0.591691 3.84133
0.130433 0.593002 3.85183
0.0981388 0.598479 3.85581
0.0739177 0.605518 3.85662
0.0573386 0.612672 3.85794
0.290942 0.547491 3.59881
0.0712431 0.469301 3.93269
0.0370103 0.551585 3.95278
0.0355224 0.476096 3.99482
0.0215591 0.463866 3.98473
0.0351924 0.472045 3.98237
0.0647139 0.461886 3.92421
0.0168239 0.461084 3.99178
0.0138531 0.455294 3.96129
0.0578447 0.632581 3.84445
0.0444799 0.625967 3.86049
0.0375955 0.621455 3.87897
0.178127 0.644244 3.82913
0.190904 0.651115 3.82771
