ply
format ascii 1.0
comment Created by Open3D
element vertex 468
property double x
property double y
property double z
end_header
0.0862302 0.366524 3.61257
0.0954858 0.453798 3.69223
0.093328 0.41559 3.6241
0.0719068 0.547005 3.64707
0.0957 0.484454 3.69681
0.0943804 0.52317 3.68106
0.0924084 0.609902 3.60487
-0.0985989 0.614315 3.49661
0.0914295 0.683579 3.57724
0.0907646 0.723892 3.57911
0.086335 0.865531 3.54748
0.0845489 0.355053 3.60959
0.0829519 0.347343 3.60301
0.0822901 0.344482 3.59157
0.0873255 0.279493 3.58977
0.0872152 0.268654 3.59542
0.0860675 0.256688 3.60108
0.0864844 0.240558 3.59655
0.0883272 0.21396 3.57632
0.0938295 0.437617 3.68017
0.06777 0.432748 3.64159
-0.219958 0.710279 3.37251
-0.0169258 0.596693 3.52857
-0.0443424 0.594904 3.5257
-0.0721385 0.594207 3.51808
-0.111652 0.605813 3.49211
0.00598833 0.599561 3.52539
-0.0651218 0.671421 3.51942
-0.0331125 0.668649 3.52167
-0.0925628 0.664011 3.51086
-0.110441 0.650882 3.50293
-0.134034 0.584292 3.4803
-0.0119592 0.178541 3.53438
-0.112096 0.620102 3.48631
-0.226724 0.576933 3.36581
-0.167739 0.597496 3.45302
-0.0518756 0.478269 3.55531
0.0435222 0.370888 3.60635
0.0434459 0.348248 3.59566
-0.000937298 0.365902 3.585
-0.0282013 0.358071 3.55568
0.0112246 0.348132 3.57972
-0.0112906 0.344111 3.55304
-0.0565869 0.296099 3.50498
0.0727757 0.454224 3.6882
0.069696 0.485015 3.69167
-0.14917 0.676636 3.49916
0.0098096 0.548063 3.55827
0.00434082 0.462881 3.61673
0.00234012 0.479037 3.60605
-0.138082 0.483665 3.51958
0.0706599 0.519725 3.67371
-0.0828371 0.712445 3.53708
-0.120939 0.700526 3.51987
-0.189046 0.769424 3.41841
0.033948 0.68971 3.56657
-0.0048203 0.655172 3.5188
-0.0801744 0.332764 3.49928
-0.199663 0.286953 3.3126
0.0246124 0.442375 3.61057
0.0476746 0.430487 3.61201
-0.0616056 0.332568 3.49901
-0.0482561 0.331084 3.50605
-0.136833 0.717583 3.50742
0.00147191 0.451723 3.60084
-0.0322961 0.711383 3.55239
-0.0380649 0.736217 3.55593
-0.0731117 0.850208 3.50945
-0.16231 0.743955 3.46768
-0.0513796 0.793381 3.53593
-0.168093 0.686873 3.4772
-0.19372 0.696325 3.42803
0.0425833 0.357614 3.60377
0.0057773 0.354656 3.58287
-0.0197244 0.350986 3.55546
0.0306817 0.435874 3.60451
-0.0552048 0.332032 3.50247
-0.0375792 0.308082 3.51915
-0.043729 0.330801 3.50713
0.0399678 0.451739 3.65098
-0.00729756 0.3462 3.5481
0.016579 0.347151 3.5692
0.0455484 0.346174 3.58522
0.0436272 0.217133 3.56883
0.0422519 0.245153 3.58924
0.0438704 0.260467 3.59288
0.0472927 0.272378 3.58782
0.0504161 0.281459 3.58343
-0.00587636 0.298776 3.5452
-0.0108466 0.295594 3.54617
-0.0180381 0.289749 3.54601
-0.0228207 0.280976 3.54085
-0.0416208 0.379022 3.54969
-0.227584 0.429414 3.27242
0.0960516 0.423653 3.64605
-0.0223984 0.308929 3.52475
-0.0301991 0.309029 3.52286
0.0566725 0.417384 3.6133
0.00912047 0.430816 3.58059
0.0521415 0.42396 3.61408
-0.0180656 0.534393 3.54907
-0.0660501 0.517567 3.5419
-0.00338715 0.466338 3.59096
-0.142499 0.817212 3.46402
-0.116601 0.776841 3.50098
-0.0933965 0.735124 3.53267
-0.0307645 0.262216 3.52629
0.0250783 0.729331 3.57156
0.0145187 0.796327 3.55679
0.000422773 0.864634 3.53569
-0.0972501 0.597383 3.50535
-0.166931 0.562086 3.46606
0.0199396 0.603462 3.52384
-0.136603 0.636653 3.48706
0.0294055 0.564084 3.56746
0.023174 0.472174 3.64455
-0.200756 0.537283 3.43785
-0.146439 0.548812 3.49038
-0.109915 0.543243 3.51501
-0.0545443 0.547367 3.52894
-0.014878 0.556949 3.53486
0.0110271 0.56812 3.54191
0.0673939 0.601824 3.59597
-0.201873 0.480561 3.44774
-0.161454 0.640677 3.47564
0.0794444 0.438595 3.67784
0.0105694 0.519444 3.57177
-0.237346 0.567868 3.28668
0.0314776 0.579982 3.54736
-0.00588164 0.461028 3.56362
-0.121118 0.618135 3.48163
0.0210758 0.492501 3.63112
-0.22009 0.358812 3.28552
0.0171607 0.611162 3.51818
0.0452362 0.509669 3.65723
-0.13614 0.23679 3.43866
-0.133207 0.194133 3.40338
-0.228787 0.449271 3.35979
-0.175963 0.273035 3.41017
-0.211238 0.640057 3.39067
-0.0135963 0.144879 3.52537
0.0851424 0.424453 3.6434
-0.0154919 0.500913 3.56088
-0.194997 0.587859 3.42891
-0.0662382 0.608485 3.5145
-0.0420889 0.60848 3.5219
-0.0445018 0.306184 3.51452
-0.201628 0.417699 3.43979
0.0373066 0.102838 3.52864
-0.046299 0.137208 3.47378
-0.085584 0.160555 3.4424
0.0886921 0.795035 3.56652
0.0927662 0.0995923 3.53699
-0.0201919 0.6101 3.52344
0.00120247 0.612264 3.52134
0.0137393 0.611237 3.51854
-0.184214 0.643067 3.44934
-0.0118228 0.63805 3.51852
-0.0383249 0.650131 3.51688
-0.0632069 0.651529 3.51405
-0.0868289 0.645029 3.50823
-0.100255 0.634694 3.50189
-0.23418 0.644682 3.32374
-0.0843782 0.610879 3.5055
0.09114 0.398324 3.61381
-0.0118639 0.393841 3.57355
0.0247431 0.446533 3.62148
0.0480045 0.398318 3.60641
0.0913011 0.647024 3.58162
-0.0910352 0.200137 3.46103
-0.0532191 0.171533 3.48975
0.0344753 0.127786 3.55418
-0.169608 0.232998 3.35894
0.00771287 0.621011 3.51986
0.0492671 0.556446 3.60641
0.0912821 0.12298 3.56199
-0.00740217 0.116944 3.5067
-0.224234 0.383839 3.36512
0.019835 0.288448 3.56694
0.0146699 0.282156 3.56912
0.00966721 0.27242 3.5711
0.00690828 0.257728 3.56718
0.000804898 0.235269 3.55091
-0.0351598 0.340359 3.52716
-0.0430883 0.34395 3.52528
-0.0508449 0.3492 3.52448
-0.067823 0.36001 3.52388
-0.166415 0.413111 3.49121
0.0493832 0.583403 3.58031
0.0367581 0.633156 3.53157
0.0195183 0.630194 3.52298
-0.0282375 0.34212 3.52488
-0.168254 0.330049 3.4529
0.0572199 0.640122 3.56438
-0.00622162 0.210119 3.53966
0.0939132 0.551846 3.65449
0.0688733 0.572976 3.6244
0.0933131 0.578865 3.63021
0.0284794 0.514262 3.60752
0.0902603 0.154148 3.57219
0.0895255 0.187304 3.57143
0.0409011 0.190024 3.56107
-0.0706352 0.278086 3.496
-0.0317783 0.43926 3.55483
-0.0416848 0.239851 3.51438
-0.100933 0.443359 3.54179
-0.0619545 0.410489 3.54341
-0.126809 0.394914 3.51697
0.0359677 0.158812 3.56296
0.0107219 0.498897 3.58718
-0.086672 0.243734 3.48156
-0.0493261 0.207927 3.502
-0.0970078 0.321693 3.49637
-0.195141 0.363116 3.43094
-0.1304 0.30402 3.47962
-0.20745 0.323403 3.37726
-0.0897392 0.379552 3.52435
0.0303913 0.537571 3.58767
0.0313453 0.458326 3.65436
0.0128231 0.451564 3.62096
0.0457756 0.478794 3.67069
0.0143408 0.661549 3.53439
-0.0302593 0.680303 3.53273
-0.0696504 0.683583 3.52704
-0.101781 0.676823 3.51648
-0.124645 0.661567 3.50398
-0.140055 0.608423 3.47184
-0.229677 0.513283 3.36189
-0.117246 0.57594 3.49493
-0.0873085 0.570439 3.51177
-0.0489608 0.571944 3.52292
-0.0145601 0.577756 3.52812
0.0102431 0.584076 3.52954
0.0270098 0.590097 3.53196
-0.232259 0.498227 3.27276
0.0124024 0.444863 3.60777
0.0502019 0.532749 3.62905
0.0525317 0.456323 3.67532
0.0646067 0.441232 3.66505
0.0509574 0.450554 3.66327
0.0181935 0.435395 3.59796
0.0706793 0.43944 3.67245
0.0748815 0.427366 3.64264
0.0276599 0.609093 3.52153
0.0397407 0.604284 3.53565
0.0469091 0.601198 3.55335
-0.107512 0.62677 3.49566
-0.121342 0.635964 3.49165
0.115383 0.546146 3.64627
0.265597 0.615081 3.49962
0.119828 0.434225 3.64508
0.35133 0.696379 3.38426
0.184616 0.593411 3.52323
0.210103 0.591941 3.52209
0.236307 0.591542 3.51726
0.273054 0.605542 3.49468
0.1662 0.597379 3.52185
0.229851 0.669843 3.52174
0.199332 0.666589 3.52404
0.256588 0.663782 3.51547
0.272953 0.651503 3.50948
0.292563 0.582173 3.48716
0.184387 0.187231 3.53841
0.276955 0.621657 3.49083
0.363908 0.571293 3.37921
0.318654 0.595597 3.4629
0.219536 0.477036 3.56467
0.12445 0.371883 3.61045
0.11678 0.348594 3.59842
0.160704 0.367741 3.59223
0.182553 0.358181 3.56384
0.144085 0.348004 3.58353
0.164913 0.342379 3.55887
0.214179 0.297153 3.51504
0.116145 0.45575 3.69079
0.118443 0.485711 3.69445
0.302548 0.67665 3.50532
0.164893 0.545845 3.55993
0.173056 0.463416 3.62436
0.173498 0.478472 3.6135
0.294359 0.481939 3.53129
0.117228 0.519141 3.67417
0.250079 0.712655 3.54583
0.281647 0.701178 3.52737
0.326726 0.755169 3.43041
0.144704 0.689126 3.56967
0.17595 0.652675 3.51929
0.234451 0.332321 3.50959
0.344213 0.296546 3.31994
0.157434 0.443593 3.61711
0.137389 0.431746 3.62057
0.215286 0.329267 3.50955
0.200451 0.327404 3.51634
0.293789 0.71706 3.51583
0.174465 0.451367 3.61021
0.206104 0.711327 3.56064
0.210293 0.736018 3.5659
0.231724 0.840712 3.51998
0.309587 0.736828 3.47889
0.218913 0.788542 3.54595
0.317196 0.685111 3.48508
0.333889 0.689143 3.43953
0.120942 0.358353 3.60684
0.151872 0.355461 3.58805
0.174035 0.35069 3.56275
0.152268 0.437445 3.61354
0.208622 0.328759 3.51349
0.194571 0.306664 3.53022
0.1949 0.327027 3.51632
0.142636 0.453576 3.65286
0.159233 0.343445 3.55365
0.138972 0.345804 3.5726
0.113216 0.345353 3.58666
0.128678 0.219869 3.57355
0.125885 0.246249 3.59239
0.124466 0.261409 3.59464
0.122994 0.272821 3.58892
0.119724 0.281806 3.58404
0.165396 0.298058 3.5512
0.170436 0.295664 3.55432
0.176931 0.290682 3.55597
0.182794 0.282446 3.55131
0.205782 0.379299 3.56132
0.36969 0.428365 3.28242
0.179523 0.306032 3.53085
0.187459 0.307178 3.53202
0.128425 0.41739 3.61808
0.170053 0.430979 3.59383
0.132785 0.424431 3.62125
0.190095 0.531267 3.55128
0.232592 0.514514 3.54789
0.178272 0.465477 3.59967
0.28992 0.80489 3.47764
0.273928 0.771196 3.51367
0.258622 0.734601 3.54238
0.193465 0.265463 3.53413
0.152839 0.728124 3.57739
0.158996 0.793546 3.56303
0.166136 0.860053 3.54415
0.259511 0.596009 3.50651
0.319416 0.559384 3.47705
0.156064 0.601119 3.51934
0.293691 0.636937 3.49287
0.148093 0.562272 3.56772
0.157666 0.473558 3.65013
0.346854 0.534772 3.44969
0.303283 0.545217 3.49901
0.271323 0.539262 3.5217
0.22274 0.543482 3.53057
0.187321 0.553768 3.53424
0.163405 0.565817 3.54192
0.115856 0.600885 3.59572
0.351173 0.47944 3.46062
0.311511 0.639239 3.48298
0.106686 0.439111 3.67859
0.165814 0.517503 3.57505
0.373658 0.557643 3.29781
0.14674 0.578111 3.54677
0.183355 0.460137 3.57449
0.283531 0.619117 3.48561
0.157011 0.49257 3.63695
0.362987 0.363816 3.29615
0.158627 0.609438 3.513
0.137167 0.509683 3.65971
0.288568 0.250757 3.44616
0.284782 0.210584 3.40777
0.374333 0.450729 3.37359
0.322581 0.285163 3.42028
0.351151 0.632019 3.40268
0.188166 0.155392 3.52719
0.10711 0.424713 3.64507
0.187782 0.498982 3.5673
0.339085 0.584871 3.4396
0.235898 0.606948 3.51344
0.211749 0.605729 3.51796
0.201076 0.30536 3.52558
0.351119 0.421101 3.45473
0.145732 0.108728 3.52837
0.217315 0.150674 3.47318
0.246911 0.176884 3.4432
0.18996 0.607278 3.51884
0.17147 0.60906 3.51505
0.161763 0.608476 3.51178
0.328968 0.63969 3.45825
0.178991 0.636653 3.51557
0.200478 0.649548 3.51672
0.225395 0.652595 3.516
0.249654 0.646992 3.51207
0.263459 0.637012 3.50703
0.368537 0.631749 3.33627
0.253181 0.610206 3.50624
0.182671 0.394338 3.58422
0.156866 0.449045 3.62922
0.12973 0.398957 3.61069
0.253096 0.21459 3.46585
0.220861 0.185711 3.49338
0.14446 0.133524 3.5547
0.316252 0.245881 3.36327
0.165369 0.619359 3.51428
0.132911 0.555696 3.6075
0.185275 0.127308 3.50585
0.368529 0.390235 3.38007
0.145253 0.288397 3.5698
0.15019 0.282639 3.57336
0.154576 0.273364 3.57605
0.158685 0.259272 3.57306
0.166459 0.237829 3.55604
0.18556 0.337192 3.53527
0.194768 0.341403 3.53378
0.201997 0.347136 3.53425
0.224874 0.359306 3.53479
0.316555 0.415567 3.50557
0.131888 0.581962 3.57987
0.142577 0.632236 3.53188
0.155962 0.628112 3.51974
0.178169 0.338066 3.53162
0.316746 0.337831 3.46626
0.122991 0.639492 3.56524
0.174997 0.216368 3.54501
0.115184 0.57267 3.62533
0.150196 0.51402 3.61195
0.134468 0.194163 3.56514
0.23102 0.28361 3.50427
0.203142 0.438456 3.5663
0.205124 0.246984 3.52213
0.260574 0.444302 3.55545
0.226188 0.410545 3.55527
0.280855 0.39766 3.53058
0.14145 0.163129 3.56419
0.165311 0.497884 3.59339
0.248468 0.254416 3.48822
0.216159 0.218999 3.50807
0.252845 0.324419 3.50411
0.342676 0.370131 3.44593
0.282156 0.312085 3.49013
0.352549 0.332964 3.38939
0.2452 0.379324 3.53549
0.149034 0.536276 3.58955
0.149634 0.460644 3.65799
0.166074 0.453382 3.62939
0.139826 0.47973 3.67325
0.161979 0.660607 3.53501
0.202049 0.680222 3.5368
0.238202 0.683633 3.53315
0.26712 0.676623 3.523
0.284916 0.662253 3.51058
0.297063 0.607993 3.47834
0.37154 0.510372 3.37341
0.278422 0.573463 3.49954
0.250872 0.567074 3.51465
0.21594 0.568522 3.52226
0.184549 0.574836 3.52587
0.163486 0.582178 3.52828
0.149721 0.58851 3.53093
0.371343 0.491462 3.2813
0.165963 0.445845 3.61696
0.134441 0.532066 3.63011
0.132944 0.45889 3.67868
0.11877 0.443751 3.66852
0.132739 0.45328 3.6662
0.16116 0.436086 3.60918
0.114252 0.441262 3.67527
0.114763 0.428554 3.6456
0.150539 0.607692 3.51852
0.138425 0.603092 3.53551
0.132706 0.600042 3.5538
0.271365 0.628824 3.50054
0.282548 0.637544 3.49808
