ply
format ascii 1.0
comment Created by Open3D
element vertex 468
property double x
property double y
property double z
end_header
0.0142961 0.355331 3.84511
0.0148884 0.423505 3.90667
0.0152815 0.395849 3.84528
-0.00527939 0.492136 3.87135
0.0146091 0.447171 3.91334
0.0139658 0.475362 3.90204
0.0136255 0.538484 3.83663
-0.157616 0.536303 3.74035
0.0126971 0.589095 3.81965
0.0122283 0.620597 3.82423
0.0119573 0.743832 3.79497
0.014116 0.345361 3.84307
0.0139994 0.337794 3.8365
0.0139732 0.334615 3.82611
0.015407 0.302425 3.81853
0.0155503 0.293806 3.8227
0.0154408 0.28336 3.82722
0.0157869 0.27059 3.82168
0.0167694 0.250442 3.79721
0.0147126 0.411023 3.89514
-0.00432295 0.40898 3.86171
-0.249184 0.613439 3.62629
-0.0886617 0.516699 3.7681
-0.112789 0.515719 3.76595
-0.135766 0.517169 3.75892
-0.166897 0.528136 3.7368
-0.0680534 0.521088 3.76505
-0.121684 0.576928 3.7717
-0.0951789 0.574495 3.77246
-0.145962 0.572684 3.7632
-0.162185 0.563956 3.75382
-0.186102 0.512445 3.72465
-0.0680409 0.222753 3.76959
-0.166221 0.541111 3.73179
-0.254631 0.510812 3.61766
-0.212819 0.523566 3.70003
-0.106096 0.43218 3.79171
-0.0174207 0.358451 3.84187
-0.0149026 0.338409 3.83282
-0.0498215 0.351904 3.82735
-0.0707762 0.343046 3.80735
-0.0381148 0.336662 3.82236
-0.0560051 0.333004 3.80314
-0.0956514 0.299783 3.76436
-0.00373806 0.424072 3.90423
-0.00683583 0.447001 3.91027
-0.200969 0.584776 3.74637
-0.0566381 0.485294 3.79451
-0.0565109 0.426072 3.84515
-0.0584384 0.437079 3.83717
-0.180687 0.432437 3.76063
-0.00621405 0.472365 3.89507
-0.142105 0.611503 3.78721
-0.176866 0.602968 3.7687
-0.227785 0.661007 3.67185
-0.0365174 0.592354 3.81146
-0.0721983 0.565112 3.76661
-0.114614 0.324168 3.76057
-0.216143 0.294974 3.55947
-0.0389215 0.412293 3.83658
-0.0193893 0.405418 3.83811
-0.0940051 0.324975 3.76239
-0.0829047 0.325387 3.76864
-0.19123 0.617631 3.75663
-0.0576048 0.416339 3.83188
-0.0958227 0.609246 3.80198
-0.100953 0.630172 3.80653
-0.130725 0.728835 3.76266
-0.208741 0.641038 3.71985
-0.112795 0.682351 3.78641
-0.215852 0.593185 3.7256
-0.232373 0.602898 3.67909
-0.016829 0.346935 3.83998
-0.0433203 0.342726 3.82588
-0.0634335 0.33805 3.80704
-0.0331701 0.408083 3.83129
-0.0886347 0.325223 3.76569
-0.0770867 0.314219 3.77854
-0.0796474 0.325675 3.7694
-0.0276512 0.421426 3.87054
-0.0519591 0.334417 3.79931
-0.0335152 0.3356 3.81319
-0.0120502 0.335484 3.8233
-0.0175427 0.251565 3.79555
-0.0170353 0.273274 3.81959
-0.0158838 0.286283 3.82372
-0.0139247 0.296581 3.81913
-0.011642 0.303771 3.81534
-0.0533146 0.311609 3.79204
-0.0574621 0.309751 3.79501
-0.0631494 0.304832 3.79706
-0.0672032 0.297404 3.79246
-0.087891 0.3612 3.79831
-0.246465 0.398959 3.52243
0.0156655 0.402748 3.86321
-0.0652864 0.315696 3.77821
-0.0711313 0.315902 3.77953
-0.0125845 0.396149 3.83841
-0.0499613 0.401894 3.81336
-0.0157473 0.400695 3.83923
-0.0822087 0.472815 3.78638
-0.123017 0.458962 3.7794
-0.0626611 0.426653 3.82357
-0.190373 0.70059 3.71951
-0.17061 0.668656 3.75432
-0.151225 0.630906 3.78289
-0.0759873 0.280687 3.77604
-0.0452388 0.625091 3.81957
-0.0543127 0.686252 3.80523
-0.0654849 0.742135 3.78752
-0.155671 0.520782 3.7476
-0.211615 0.495318 3.71164
-0.0547038 0.526099 3.76225
-0.1882 0.554186 3.73338
-0.0398788 0.499917 3.80269
-0.0426593 0.435399 3.86851
-0.235544 0.476967 3.68532
-0.195575 0.483168 3.73397
-0.164406 0.477853 3.75656
-0.117753 0.480882 3.76816
-0.0832657 0.488924 3.77371
-0.0582096 0.499317 3.7805
-0.00864676 0.531708 3.82775
-0.232208 0.431846 3.69391
-0.208309 0.556067 3.72262
0.00367799 0.411892 3.89369
-0.0535169 0.465526 3.80562
-0.259581 0.503366 3.53897
-0.0397574 0.511253 3.78417
-0.0649181 0.422571 3.79869
-0.174225 0.538894 3.72699
-0.0441182 0.448773 3.85851
-0.235406 0.346722 3.53447
-0.0547439 0.533802 3.75629
-0.0259449 0.463299 3.88108
-0.165524 0.262063 3.68319
-0.15974 0.232743 3.64266
-0.249572 0.413572 3.60846
-0.198246 0.285541 3.65529
-0.244118 0.559245 3.64181
-0.0681726 0.202642 3.75686
0.00742484 0.403568 3.86139
-0.0755297 0.449778 3.79672
-0.232938 0.516855 3.67659
-0.133715 0.52962 3.7561
-0.113011 0.527563 3.76276
-0.0827443 0.3108 3.7748
-0.22704 0.3858 3.68755
-0.0256112 0.176309 3.75198
-0.0911421 0.197281 3.70507
-0.121733 0.211559 3.6779
0.0122808 0.685058 3.81188
0.0182528 0.173248 3.75849
-0.0927441 0.528235 3.76406
-0.073162 0.530456 3.761
-0.0605218 0.531555 3.75665
-0.225923 0.558595 3.69832
-0.0765471 0.553986 3.76311
-0.0976368 0.562873 3.76559
-0.118681 0.564942 3.7639
-0.139762 0.560556 3.75757
-0.152791 0.553128 3.74982
-0.258275 0.562826 3.57694
-0.14771 0.532768 3.7477
0.0150344 0.381519 3.8386
-0.0639892 0.373659 3.81303
-0.0395818 0.416054 3.8458
-0.0177572 0.380598 3.83599
0.0132295 0.563809 3.81895
-0.13058 0.238078 3.70481
-0.099748 0.220579 3.72896
-0.0294067 0.190124 3.78033
-0.189971 0.257198 3.60014
-0.0614383 0.541694 3.75954
-0.0233509 0.497612 3.83571
0.017566 0.187817 3.78578
-0.0604514 0.185256 3.73353
-0.240398 0.364711 3.61337
-0.0344215 0.307124 3.80517
-0.0383889 0.302428 3.80865
-0.0423021 0.294343 3.8114
-0.044795 0.282782 3.80729
-0.0506893 0.263895 3.78886
-0.0728904 0.329975 3.78506
-0.0800721 0.332063 3.78448
-0.0867208 0.335262 3.78449
-0.106801 0.34507 3.77987
-0.198035 0.380996 3.73636
-0.0236543 0.516948 3.81346
-0.0369759 0.552299 3.77231
-0.0515622 0.547828 3.76364
-0.0675297 0.332129 3.78253
-0.194502 0.323392 3.70005
-0.0169879 0.557964 3.80289
-0.0606961 0.24367 3.77692
0.0138664 0.496372 3.87893
-0.00721223 0.510867 3.85198
0.0137972 0.516121 3.85725
-0.0389566 0.464313 3.83676
0.0171141 0.206908 3.79793
0.0169224 0.230061 3.7971
-0.0236017 0.23081 3.79171
-0.112622 0.287621 3.75157
-0.0855112 0.404976 3.79233
-0.0886096 0.262646 3.76256
-0.145994 0.405603 3.78134
-0.110575 0.383144 3.78599
-0.164589 0.369245 3.76195
-0.0291137 0.208304 3.79175
-0.0522091 0.451033 3.81992
-0.127958 0.266307 3.73088
-0.0974881 0.243397 3.74612
-0.133727 0.316167 3.75152
-0.218153 0.346797 3.67933
-0.161778 0.305913 3.72952
-0.225018 0.321108 3.62424
-0.130333 0.357271 3.77407
-0.0379206 0.481452 3.81937
-0.0352195 0.425726 3.87483
-0.0493458 0.418794 3.848
-0.0255238 0.442089 3.89067
-0.0556261 0.571398 3.77874
-0.0944418 0.584983 3.78098
-0.129175 0.588168 3.77774
-0.158172 0.584049 3.76719
-0.178529 0.573428 3.75261
-0.19091 0.531771 3.71725
-0.255003 0.462161 3.61171
-0.172779 0.504621 3.7377
-0.147697 0.499419 3.75271
-0.115577 0.499252 3.76313
-0.0852784 0.503481 3.76803
-0.0617842 0.510257 3.76924
-0.0459668 0.517649 3.7708
-0.253518 0.450388 3.52299
-0.0486356 0.412765 3.83625
-0.0229234 0.480424 3.85518
-0.0190613 0.426154 3.89296
-0.00675784 0.414639 3.88344
-0.0190733 0.421411 3.88161
-0.0426396 0.405937 3.82754
-0.00304385 0.413184 3.8899
0.000532487 0.405343 3.86155
-0.046341 0.532615 3.7597
-0.0337411 0.530169 3.77395
-0.0264412 0.529151 3.79047
-0.160324 0.546955 3.74204
-0.173875 0.553411 3.7402
0.0332214 0.491655 3.87078
0.181067 0.532044 3.74192
0.0342126 0.408867 3.86188
0.269092 0.605793 3.62817
0.112967 0.51433 3.76787
0.136569 0.513003 3.76614
0.159225 0.514057 3.75958
0.189259 0.523758 3.73829
0.0934523 0.519045 3.76531
0.14374 0.57205 3.77237
0.118434 0.570681 3.7734
0.16745 0.567161 3.7645
0.183101 0.558175 3.75564
0.20878 0.508358 3.72712
0.0988974 0.222879 3.76961
0.189384 0.536392 3.73353
0.276585 0.504962 3.62025
0.234384 0.518735 3.7031
0.132415 0.430532 3.79316
0.0447029 0.358185 3.84134
0.0413105 0.338163 3.83212
0.0753993 0.351369 3.82653
0.0950658 0.342151 3.80624
0.063101 0.336077 3.82105
0.080555 0.332048 3.80159
0.121439 0.298452 3.76378
0.0329743 0.423935 3.90476
0.0351962 0.446652 3.91072
0.218795 0.577853 3.74918
0.0835398 0.483954 3.7944
0.0841896 0.424836 3.84523
0.0856025 0.435692 3.83722
0.204699 0.429797 3.76291
0.0341382 0.471868 3.89465
0.162028 0.605341 3.79049
0.195227 0.59604 3.77192
0.246744 0.653227 3.67457
0.060818 0.590378 3.8124
0.0971634 0.562192 3.76691
0.138947 0.32244 3.75973
0.243051 0.292311 3.55825
0.0680294 0.411417 3.83665
0.0493259 0.40483 3.83911
0.118746 0.323223 3.76095
0.106816 0.323759 3.76735
0.208854 0.609943 3.76009
0.0852647 0.415072 3.83235
0.117946 0.604885 3.8046
0.122128 0.625397 3.80927
0.151168 0.723688 3.76524
0.227063 0.633799 3.72324
0.134213 0.677525 3.78899
0.233728 0.58582 3.72857
0.2516 0.595617 3.68215
0.04343 0.346673 3.83941
0.0686929 0.342308 3.82472
0.0878479 0.337222 3.80571
0.0626447 0.40731 3.8322
0.112999 0.323574 3.76447
0.102377 0.312888 3.77788
0.102966 0.323963 3.76793
0.0561563 0.420778 3.86969
0.0758281 0.333301 3.79779
0.0587056 0.334818 3.8116
0.0384708 0.335025 3.82219
0.0493336 0.25145 3.7958
0.0467121 0.27303 3.81903
0.0455663 0.285899 3.82267
0.0436277 0.296293 3.81797
0.0409885 0.303498 3.81391
0.0796603 0.310818 3.79074
0.0836873 0.308814 3.79434
0.0891739 0.303879 3.79684
0.0938731 0.296486 3.7922
0.11333 0.360096 3.79833
0.273182 0.394387 3.52293
0.0905783 0.314358 3.77643
0.0965491 0.314521 3.77858
0.0427398 0.395741 3.83871
0.0789482 0.400771 3.81492
0.0457147 0.400143 3.83982
0.108962 0.471243 3.78661
0.14896 0.456893 3.78082
0.090113 0.425263 3.82397
0.209235 0.693807 3.72277
0.189578 0.661973 3.75789
0.170506 0.624272 3.78601
0.103475 0.279986 3.77567
0.0683437 0.622504 3.82107
0.0775562 0.683776 3.80676
0.0877111 0.739404 3.78967
0.178504 0.517074 3.74864
0.233842 0.491299 3.71468
0.0810999 0.524139 3.76184
0.208603 0.548517 3.73586
0.0669747 0.498774 3.80221
0.0704775 0.434352 3.86859
0.25753 0.472587 3.68797
0.218345 0.479669 3.73629
0.18854 0.475024 3.75845
0.143548 0.478711 3.76905
0.109726 0.487248 3.7739
0.0849083 0.49786 3.78043
0.0359872 0.531155 3.82771
0.255286 0.428113 3.69583
0.227852 0.550065 3.72499
0.0252976 0.411749 3.89354
0.0811332 0.464162 3.80529
0.284016 0.496865 3.53991
0.0670764 0.510004 3.78402
0.0935694 0.42122 3.79963
0.196661 0.533746 3.72882
0.071205 0.447645 3.8587
0.262316 0.343137 3.53435
0.0810141 0.531719 3.75537
0.0530368 0.462602 3.88096
0.191697 0.261304 3.68317
0.187142 0.232404 3.64143
0.274641 0.4093 3.60998
0.223536 0.283903 3.65529
0.265539 0.552768 3.64421
0.100222 0.203152 3.75617
0.0239384 0.403419 3.86153
0.102701 0.44836 3.79728
0.25421 0.51168 3.67925
0.15781 0.526272 3.757
0.137341 0.524595 3.76302
0.10814 0.309377 3.77421
0.250881 0.382739 3.68918
0.0611251 0.176666 3.75089
0.123148 0.197748 3.70299
0.15137 0.211828 3.67581
0.117232 0.525537 3.7641
0.0985538 0.528161 3.76063
0.0868022 0.529409 3.75595
0.245351 0.552328 3.70081
0.100748 0.551371 3.76267
0.120466 0.559603 3.76574
0.141197 0.560995 3.76447
0.162217 0.556225 3.7588
0.175286 0.548524 3.75158
0.281065 0.555576 3.57838
0.171677 0.528954 3.74879
0.0911525 0.372723 3.81303
0.0684141 0.415332 3.84639
0.0466956 0.38026 3.83594
0.1588 0.238139 3.70457
0.129636 0.220993 3.72851
0.0628095 0.190472 3.7799
0.216938 0.255471 3.59838
0.0870543 0.539483 3.75851
0.050864 0.496861 3.83558
0.0943875 0.185669 3.73166
0.265469 0.36137 3.61458
0.0623843 0.306671 3.80371
0.0665467 0.301871 3.80749
0.0703269 0.293613 3.81035
0.0734232 0.282028 3.8064
0.080118 0.263374 3.78822
0.0964969 0.328581 3.78344
0.103928 0.330562 3.78288
0.110556 0.333856 3.78311
0.131258 0.343602 3.77931
0.221538 0.378555 3.7384
0.0510978 0.516053 3.8131
0.0637224 0.550729 3.77242
0.0776864 0.545802 3.76317
0.0906173 0.33057 3.78077
0.218936 0.321549 3.70123
0.043335 0.55696 3.80317
0.090475 0.243684 3.77694
0.0345101 0.510376 3.852
0.0663196 0.46333 3.83695
0.0556898 0.231018 3.79221
0.138552 0.286685 3.75147
0.112946 0.403539 3.79324
0.11616 0.262397 3.76255
0.170868 0.403741 3.78382
0.136161 0.381606 3.78706
0.188524 0.367316 3.76404
0.061555 0.208492 3.79163
0.0795115 0.449788 3.82008
0.154857 0.265902 3.73086
0.126483 0.243499 3.74649
0.158366 0.314726 3.75074
0.242153 0.344243 3.6808
0.18619 0.304756 3.73005
0.250295 0.318443 3.62433
0.154098 0.35565 3.77437
0.0654578 0.480405 3.81895
0.0631039 0.425049 3.87461
0.0774205 0.417818 3.84869
0.0538686 0.441348 3.89046
0.0811072 0.568979 3.77901
0.117968 0.581116 3.78254
0.150918 0.583024 3.77998
0.178797 0.578232 3.76963
0.198417 0.567243 3.75527
0.212678 0.526873 3.71979
0.278427 0.45711 3.61339
0.195959 0.500971 3.73947
0.1718 0.496565 3.75417
0.140366 0.496844 3.76387
0.11066 0.50153 3.76821
0.0879403 0.508622 3.76949
0.0727234 0.516207 3.77081
0.279212 0.444809 3.52317
0.0768321 0.411761 3.83689
0.0508574 0.479647 3.85481
0.047702 0.425815 3.89309
0.0352239 0.414517 3.88378
0.0474113 0.421157 3.88162
0.071365 0.404859 3.82875
0.0318425 0.413043 3.89015
0.0300439 0.405269 3.86183
0.0732982 0.530878 3.7596
0.0606793 0.528882 3.77409
0.0535182 0.528095 3.7906
0.183015 0.542303 3.74381
0.194986 0.547834 3.7424
