ply
format ascii 1.0
comment Created by Open3D
element vertex 468
property double x
property double y
property double z
end_header
0.0170349 0.333744 3.97154
0.0168144 0.426772 4.02644
0.0181696 0.400297 3.9677
-0.00371369 0.507444 3.99237
0.0165373 0.451653 4.03431
0.0159868 0.484108 4.02404
0.0173719 0.563731 3.95564
-0.151309 0.569216 3.86134
0.0178562 0.625716 3.93741
0.0181134 0.658346 3.9407
0.0188284 0.763522 3.90799
0.0170859 0.320632 3.968
0.0169634 0.310836 3.95938
0.0167444 0.306887 3.94856
0.016178 0.302632 3.949
0.0159483 0.291556 3.95298
0.0153814 0.277673 3.95781
0.0149072 0.263552 3.9547
0.0147324 0.243455 3.93204
0.0165305 0.413824 4.01408
-0.00395983 0.415509 3.98148
-0.23276 0.658757 3.74293
-0.0842626 0.547118 3.88718
-0.108201 0.544543 3.8852
-0.130711 0.54533 3.87827
-0.15979 0.559344 3.85817
-0.0633499 0.55464 3.88449
-0.114922 0.61038 3.89519
-0.0892425 0.609427 3.89431
-0.138356 0.606221 3.88736
-0.154129 0.597272 3.87696
-0.178076 0.542178 3.84584
-0.0753372 0.208457 3.90228
-0.15907 0.57594 3.85365
-0.243443 0.556202 3.73855
-0.203553 0.559943 3.82056
-0.100038 0.442392 3.91236
-0.0112812 0.337714 3.96788
-0.00678853 0.310824 3.95582
-0.0404899 0.328219 3.95335
-0.0590903 0.316635 3.93654
-0.0281231 0.308342 3.94678
-0.0445857 0.305473 3.93127
-0.0922135 0.279641 3.90178
-0.00299778 0.427198 4.02358
-0.00702686 0.450562 4.03053
-0.190355 0.621778 3.86748
-0.0536127 0.506841 3.91466
-0.0569951 0.430638 3.96344
-0.0591504 0.443309 3.95612
-0.169078 0.443639 3.88124
-0.0056898 0.481295 4.01595
-0.136001 0.649991 3.90775
-0.167857 0.640233 3.88929
-0.210378 0.700733 3.7884
-0.0324903 0.632503 3.92971
-0.0663837 0.602097 3.88764
-0.107881 0.302387 3.89524
-0.220802 0.330615 3.68496
-0.0386294 0.418187 3.95453
-0.0194171 0.410658 3.95774
-0.0802672 0.299613 3.89993
-0.0703583 0.301846 3.90665
-0.180762 0.655578 3.87691
-0.0570886 0.418467 3.95043
-0.0917825 0.649834 3.92159
-0.0964336 0.668592 3.92554
-0.11661 0.753607 3.87829
-0.19594 0.678229 3.83906
-0.104105 0.711841 3.90342
-0.203816 0.632442 3.84593
-0.218588 0.644194 3.79724
-0.00952195 0.321823 3.96468
-0.0333371 0.316018 3.95145
-0.051775 0.310401 3.93618
-0.0323436 0.413352 3.94989
-0.0747459 0.300042 3.90321
-0.0673282 0.29665 3.9189
-0.0683495 0.303882 3.90779
-0.0274023 0.428206 3.98856
-0.040251 0.306728 3.92773
-0.0233422 0.307212 3.93782
-0.00397555 0.307434 3.94604
-0.0170171 0.243283 3.93027
-0.0152284 0.264939 3.95272
-0.0129593 0.27971 3.95552
-0.00984876 0.293694 3.9504
-0.00743049 0.303002 3.94643
-0.0462433 0.302899 3.9278
-0.0501249 0.299137 3.93185
-0.0562189 0.291896 3.93564
-0.0613785 0.283577 3.93138
-0.0792882 0.348545 3.92762
-0.241607 0.452748 3.64529
0.0181157 0.409512 3.98352
-0.0569299 0.302639 3.91674
-0.0615522 0.300299 3.91915
-0.0116168 0.398921 3.96086
-0.0476686 0.402906 3.93367
-0.0152579 0.404672 3.95948
-0.0781441 0.49125 3.90695
-0.115862 0.473366 3.89943
-0.0620502 0.43159 3.94267
-0.174059 0.733096 3.83672
-0.159849 0.702108 3.87336
-0.144385 0.668689 3.90259
-0.0732812 0.26546 3.91425
-0.0403088 0.663663 3.93792
-0.0465732 0.711922 3.92078
-0.0544908 0.762014 3.90231
-0.149431 0.549948 3.86741
-0.20286 0.523895 3.83242
-0.0496651 0.562197 3.88134
-0.179336 0.589803 3.85591
-0.0371993 0.523701 3.92349
-0.0433076 0.441403 3.98714
-0.227322 0.507619 3.80719
-0.187332 0.505358 3.85529
-0.15743 0.495742 3.8779
-0.112419 0.501025 3.88936
-0.0794468 0.51264 3.89461
-0.0546757 0.525425 3.90083
-0.00512572 0.557534 3.9465
-0.222883 0.455208 3.8157
-0.198719 0.593508 3.84334
0.00475124 0.414787 4.01283
-0.0511763 0.482508 3.92573
-0.246834 0.559729 3.65909
-0.035683 0.539811 3.9042
-0.0629976 0.430163 3.919
-0.166336 0.574019 3.84921
-0.0450132 0.456607 3.97768
-0.23594 0.39342 3.65817
-0.0494143 0.57218 3.87523
-0.0264359 0.47162 4.00149
-0.173805 0.265764 3.81255
-0.173204 0.241278 3.77101
-0.243174 0.453456 3.73023
-0.200717 0.300831 3.78191
-0.231198 0.604211 3.761
-0.0814631 0.185341 3.88903
0.00902507 0.410417 3.98165
-0.0721007 0.462807 3.91685
-0.222997 0.555577 3.79654
-0.12849 0.560894 3.87592
-0.108017 0.558793 3.88203
-0.0731501 0.291864 3.91444
-0.217049 0.406584 3.8099
-0.0379442 0.153303 3.88399
-0.109494 0.186271 3.83509
-0.139495 0.2084 3.80715
0.018592 0.709964 3.92618
0.0134678 0.149811 3.89183
-0.0876157 0.560684 3.883
-0.068415 0.565501 3.88038
-0.0556279 0.569143 3.87554
-0.214823 0.598531 3.81828
-0.070861 0.588358 3.88345
-0.0920035 0.594172 3.88694
-0.112797 0.595061 3.88583
-0.133535 0.59088 3.87964
-0.146287 0.584411 3.87191
-0.243376 0.615074 3.69505
-0.141983 0.564975 3.86803
0.0180441 0.379435 3.96342
-0.0590998 0.364579 3.93911
-0.0393814 0.422926 3.96285
-0.0145421 0.375221 3.96104
0.0174812 0.594682 3.93706
-0.144418 0.233456 3.83686
-0.114588 0.209105 3.86155
-0.0394566 0.16818 3.91286
-0.198708 0.279365 3.72605
-0.0559334 0.578833 3.87865
-0.0215178 0.517764 3.95592
0.0131002 0.16539 3.92007
-0.0769181 0.166869 3.86436
-0.236136 0.399297 3.7356
-0.0283941 0.30344 3.93808
-0.0325976 0.296578 3.94267
-0.0374007 0.285864 3.94672
-0.0410112 0.272739 3.94362
-0.0489876 0.252468 3.92566
-0.059571 0.303255 3.91783
-0.0665373 0.304604 3.91809
-0.0735449 0.308145 3.91784
-0.0968106 0.326603 3.91171
-0.185671 0.391399 3.85769
-0.0206155 0.542448 3.93315
-0.0305735 0.589719 3.89077
-0.0452287 0.585477 3.88258
-0.054626 0.306597 3.91605
-0.188791 0.333349 3.82502
-0.0118988 0.590992 3.92096
-0.0626873 0.23113 3.91193
0.0165039 0.5114 4.00039
-0.00511368 0.531159 3.97113
0.0170084 0.536794 3.9769
-0.0377741 0.478202 3.95596
0.0134361 0.189301 3.93276
0.0143381 0.218463 3.93197
-0.0256191 0.218966 3.92629
-0.116117 0.272719 3.88663
-0.0829618 0.408823 3.91372
-0.0927393 0.248352 3.89858
-0.135736 0.412309 3.90309
-0.103952 0.382837 3.91119
-0.154844 0.371595 3.8857
-0.0348595 0.19131 3.92501
-0.0514368 0.463303 3.9394
-0.136607 0.257681 3.86399
-0.106744 0.231597 3.88026
-0.132926 0.302813 3.88263
-0.210636 0.364945 3.80268
-0.162156 0.302989 3.858
-0.224228 0.348638 3.74854
-0.121707 0.347687 3.90077
-0.0360316 0.50062 3.93992
-0.0354074 0.431571 3.99257
-0.0495599 0.423383 3.96626
-0.0263557 0.447767 4.00985
-0.0499759 0.611183 3.89786
-0.0889476 0.623623 3.90152
-0.122566 0.624906 3.90018
-0.150276 0.619945 3.89074
-0.169402 0.608612 3.87571
-0.182678 0.566709 3.83862
-0.246859 0.505481 3.73376
-0.16573 0.531307 3.85873
-0.142328 0.523958 3.87348
-0.111351 0.524783 3.88409
-0.081246 0.531394 3.88874
-0.0575 0.540913 3.88914
-0.0409556 0.549908 3.89099
-0.243913 0.507061 3.64402
-0.048337 0.415917 3.95444
-0.0217972 0.495528 3.97551
-0.0194284 0.431029 4.01173
-0.00641268 0.418871 4.00247
-0.0187358 0.427225 4.00016
-0.0410386 0.407883 3.94661
-0.00234716 0.416514 4.009
0.00131016 0.411897 3.98128
-0.0405548 0.570714 3.87838
-0.0277631 0.564143 3.89298
-0.0212679 0.559857 3.90956
-0.153517 0.57974 3.8638
-0.165686 0.587797 3.8629
0.037044 0.50763 3.99208
0.18475 0.569729 3.86174
0.0388939 0.415583 3.98236
0.26281 0.658835 3.74105
0.116934 0.546311 3.88587
0.140154 0.544097 3.88439
0.162325 0.545582 3.87805
0.191172 0.560439 3.85814
0.0974909 0.553468 3.88346
0.147173 0.610837 3.89419
0.122235 0.609202 3.89412
0.170652 0.607135 3.88696
0.186393 0.598301 3.87761
0.208682 0.54359 3.84659
0.102598 0.212925 3.90528
0.192812 0.576798 3.85382
0.272983 0.55875 3.73833
0.233306 0.562085 3.82163
0.131276 0.443922 3.91474
0.0449761 0.338147 3.96818
0.0397649 0.311315 3.9558
0.0731551 0.329557 3.95384
0.0909623 0.318538 3.93674
0.0599783 0.309442 3.94612
0.0761476 0.306817 3.93094
0.12175 0.282835 3.90393
0.0359944 0.427277 4.02454
0.0390166 0.450653 4.03182
0.219952 0.624584 3.86826
0.0864547 0.50704 3.91489
0.0898218 0.431365 3.96536
0.0914562 0.444499 3.95798
0.197079 0.446228 3.88253
0.0380642 0.481393 4.0162
0.168432 0.651257 3.90992
0.199021 0.642488 3.89112
0.241485 0.69995 3.78771
0.068071 0.632545 3.93004
0.100979 0.601215 3.88697
0.138694 0.305846 3.89662
0.249795 0.338031 3.68464
0.073271 0.418705 3.95692
0.0546726 0.410942 3.96084
0.1125 0.30223 3.89889
0.100945 0.30413 3.90634
0.211477 0.657815 3.8789
0.0902201 0.41952 3.95271
0.12602 0.650253 3.92422
0.130473 0.669094 3.92825
0.150522 0.752126 3.8783
0.226153 0.679245 3.84022
0.138695 0.711268 3.90476
0.233302 0.635058 3.84672
0.248182 0.645555 3.79713
0.042723 0.32239 3.96469
0.0658906 0.317323 3.95124
0.0836386 0.312189 3.93608
0.0675193 0.413866 3.95235
0.106446 0.30253 3.90299
0.0970827 0.298972 3.91987
0.0982701 0.306311 3.90724
0.0603684 0.428358 3.98854
0.0708545 0.308122 3.92713
0.0549679 0.308152 3.93697
0.0365025 0.307816 3.94543
0.045817 0.24438 3.93191
0.0442886 0.265657 3.95359
0.0429093 0.280488 3.95602
0.0414073 0.294292 3.95019
0.0392969 0.303607 3.94591
0.0760964 0.304748 3.92828
0.0793578 0.300898 3.93306
0.084577 0.293851 3.93741
0.0900364 0.285761 3.93304
0.111406 0.350706 3.92974
0.274825 0.457666 3.6441
0.0866831 0.304748 3.91629
0.0912752 0.302483 3.91953
0.0471225 0.399476 3.96212
0.0826719 0.404148 3.93689
0.0506247 0.404923 3.9618
0.110428 0.4918 3.90704
0.146702 0.474655 3.90056
0.0950895 0.432854 3.94498
0.205884 0.731578 3.83718
0.191889 0.702131 3.87544
0.177076 0.670056 3.90486
0.101655 0.268621 3.91627
0.0755525 0.663627 3.93923
0.0823139 0.711363 3.92153
0.0899018 0.761081 3.90299
0.180734 0.550558 3.86777
0.231897 0.525793 3.83377
0.0853815 0.561098 3.87984
0.209937 0.591482 3.85611
0.0705024 0.523765 3.92317
0.0756553 0.441763 3.9886
0.255018 0.510418 3.80775
0.216485 0.507092 3.85627
0.187063 0.497099 3.87883
0.144044 0.501777 3.88926
0.112373 0.512835 3.89423
0.0880075 0.525204 3.90069
0.0398167 0.557403 3.94636
0.250318 0.458725 3.81595
0.227887 0.59583 3.84386
0.0280671 0.414742 4.01263
0.0844338 0.483021 3.92606
0.279935 0.562282 3.65664
0.0702879 0.539385 3.90334
0.0976878 0.431381 3.9213
0.199124 0.575053 3.84904
0.076547 0.457088 3.97915
0.267315 0.399632 3.65802
0.0857224 0.571225 3.87279
0.0578617 0.472043 4.0022
0.200169 0.273187 3.81543
0.199449 0.249731 3.77291
0.273524 0.458121 3.73023
0.227046 0.308033 3.78366
0.261404 0.605858 3.76059
0.108011 0.190705 3.89159
0.0272465 0.410476 3.98223
0.104395 0.463735 3.91824
0.251889 0.558104 3.79706
0.161886 0.560601 3.87559
0.141398 0.557998 3.88108
0.103295 0.294379 3.91551
0.244242 0.411066 3.81097
0.0648071 0.156343 3.88532
0.136897 0.1935 3.83677
0.166531 0.216545 3.80902
0.121387 0.559405 3.88186
0.103186 0.564338 3.87846
0.0917532 0.567976 3.87317
0.243736 0.600879 3.81879
0.104583 0.587871 3.88178
0.123978 0.594076 3.88636
0.14488 0.595761 3.8853
0.165841 0.592051 3.87993
0.179047 0.585605 3.87226
0.275539 0.615947 3.69319
0.175459 0.56501 3.86819
0.0922961 0.366267 3.94124
0.0736054 0.423168 3.96532
0.0492205 0.375881 3.96208
0.171308 0.240568 3.8407
0.141164 0.215816 3.86541
0.0656505 0.17106 3.91477
0.225902 0.287601 3.72659
0.0914887 0.578146 3.87624
0.0550733 0.517909 3.95608
0.104013 0.172308 3.86598
0.265139 0.405071 3.73643
0.0595479 0.304619 3.93798
0.0629138 0.297795 3.94277
0.0666076 0.287362 3.94745
0.0700311 0.274465 3.94447
0.07694 0.254781 3.92703
0.0904371 0.305226 3.9176
0.0980813 0.306899 3.91791
0.104904 0.310367 3.91777
0.128181 0.329465 3.91289
0.212208 0.395262 3.86022
0.0548932 0.542435 3.93302
0.0672658 0.588928 3.89067
0.0813296 0.584665 3.8804
0.0849593 0.308529 3.91519
0.215651 0.338767 3.82729
0.0472994 0.590775 3.92086
0.0902907 0.2345 3.91465
0.0389635 0.531236 3.97147
0.0704462 0.478645 3.95715
0.0536535 0.220897 3.92824
0.144687 0.277039 3.89043
0.116161 0.410723 3.91687
0.12009 0.252483 3.90237
0.164576 0.414683 3.90668
0.135331 0.385182 3.91429
0.182719 0.375059 3.88902
0.0619329 0.193704 3.92667
0.0840193 0.463954 3.94087
0.164188 0.263476 3.868
0.134262 0.236982 3.88448
0.162146 0.30703 3.88549
0.237375 0.370387 3.80493
0.188823 0.30828 3.86151
0.251819 0.355299 3.74959
0.1517 0.350617 3.90372
0.0694066 0.500977 3.93989
0.0676194 0.431712 3.99341
0.0826746 0.423968 3.96868
0.058852 0.447993 4.01106
0.086054 0.610623 3.89781
0.123355 0.623634 3.90247
0.155611 0.625431 3.90082
0.182502 0.62111 3.89123
0.20077 0.610411 3.8763
0.213703 0.568362 3.83925
0.276719 0.509044 3.733
0.19663 0.532558 3.85954
0.173418 0.524948 3.87409
0.143211 0.524945 3.88405
0.114051 0.531105 3.8881
0.0915316 0.540199 3.88883
0.0758547 0.549054 3.89008
0.277554 0.51055 3.64163
0.0819215 0.416705 3.95697
0.0551377 0.495999 3.9756
0.0520471 0.431055 4.01274
0.038908 0.418796 4.00357
0.0515912 0.427271 4.00103
0.075358 0.40879 3.94954
0.0350325 0.41643 4.00993
0.0342072 0.411766 3.98233
0.0773128 0.569557 3.87709
0.0635698 0.563231 3.89205
0.0564438 0.559182 3.90932
0.186791 0.580887 3.86421
0.197469 0.589104 3.86384
