ply
format ascii 1.0
comment Created by Open3D
element vertex 468
property double x
property double y
property double z
end_header
0.08963 0.319201 3.6317
0.0934287 0.424223 3.69454
0.0949407 0.382939 3.62998
0.0707539 0.511197 3.65485
0.0932719 0.453238 3.70043
0.0922112 0.48938 3.6868
0.0929521 0.571357 3.61575
-0.0913784 0.566687 3.51389
0.0929643 0.64865 3.5905
0.0921747 0.690128 3.59393
0.0880925 0.816106 3.56912
0.0889776 0.305711 3.62852
0.088319 0.295513 3.62019
0.0883507 0.290552 3.60781
0.090823 0.284043 3.60322
0.0906118 0.272924 3.60788
0.0891292 0.260536 3.61333
0.0885301 0.245407 3.61014
0.0895567 0.222214 3.58606
0.0927138 0.408963 3.68226
0.070338 0.402915 3.64507
-0.196414 0.662753 3.38927
-0.0160217 0.548915 3.54608
-0.0427843 0.546383 3.54283
-0.0684385 0.54597 3.53431
-0.101424 0.557552 3.50878
0.00779586 0.553822 3.5427
-0.0596247 0.62345 3.54148
-0.0294358 0.621171 3.54363
-0.0847011 0.616434 3.53163
-0.101042 0.603946 3.52246
-0.121526 0.537315 3.49523
0.00155149 0.181979 3.54696
-0.101478 0.572393 3.50376
-0.196804 0.536344 3.38074
-0.151092 0.554212 3.46662
-0.0377197 0.434618 3.56592
0.0568105 0.323704 3.62664
0.059415 0.296443 3.61487
0.0223505 0.316607 3.60868
0.000659669 0.30859 3.58766
0.0336763 0.296388 3.6033
0.015544 0.294268 3.58316
-0.028636 0.266661 3.54012
0.0717481 0.424724 3.69021
0.067632 0.45276 3.69525
-0.141334 0.635796 3.51031
0.013819 0.505197 3.57064
0.00972916 0.423981 3.6236
0.00742436 0.438684 3.61404
-0.115532 0.435647 3.53059
0.068836 0.485456 3.67945
-0.0819145 0.674405 3.5482
-0.116807 0.660597 3.53002
-0.173583 0.721588 3.43593
0.0337971 0.65523 3.57898
-0.00148696 0.609317 3.54047
-0.0476818 0.290779 3.53536
-0.15005 0.272706 3.31197
0.0303612 0.405869 3.61686
0.0535607 0.395052 3.61741
-0.023619 0.290421 3.54057
-0.0134938 0.291894 3.54683
-0.132304 0.678645 3.51762
0.00948901 0.410569 3.60904
-0.0334458 0.675252 3.56447
-0.0393817 0.700648 3.56783
-0.0681603 0.802029 3.53006
-0.153497 0.700889 3.48215
-0.0501706 0.750388 3.5528
-0.157961 0.646011 3.48853
-0.177645 0.652908 3.44292
0.0571116 0.308226 3.62435
0.0290769 0.304368 3.60763
0.00842357 0.301082 3.58703
0.0378777 0.39883 3.61109
-0.018049 0.290749 3.54368
-0.0069999 0.285067 3.55706
-0.0110471 0.293129 3.54725
0.0421443 0.421066 3.65431
0.0196894 0.295802 3.57762
0.0390047 0.294086 3.59272
0.0620924 0.292584 3.60409
0.0551474 0.222658 3.58147
0.0544321 0.248072 3.60591
0.056399 0.263197 3.60881
0.0598597 0.275753 3.60375
0.0625657 0.284951 3.59914
0.0160414 0.288749 3.57326
0.0121147 0.28574 3.57541
0.00621617 0.279272 3.57673
0.00219436 0.270141 3.57277
-0.0162169 0.336817 3.57605
-0.180592 0.39839 3.279
0.096251 0.39477 3.64915
0.00359812 0.289614 3.55923
-0.00127817 0.288137 3.55934
0.0626755 0.382271 3.62031
0.0210254 0.389039 3.5906
0.0582801 0.388574 3.61998
-0.0121918 0.488553 3.56088
-0.0540492 0.468935 3.55227
0.00466831 0.424598 3.59996
-0.133388 0.769533 3.4835
-0.112998 0.734465 3.51639
-0.0926867 0.697979 3.5438
-0.0062866 0.249248 3.556
0.0245353 0.695656 3.58485
0.0152689 0.75272 3.57605
0.00341885 0.816045 3.55719
-0.0899466 0.549227 3.52126
-0.149604 0.51581 3.48019
0.0228154 0.559076 3.54154
-0.125978 0.593174 3.50217
0.0322135 0.523242 3.57958
0.0251588 0.437496 3.64911
-0.176511 0.493876 3.45103
-0.132222 0.49957 3.50491
-0.0990723 0.492966 3.52993
-0.0480225 0.498835 3.54311
-0.0117719 0.511005 3.54924
0.0137722 0.524179 3.55605
0.0685416 0.563121 3.60715
-0.171368 0.437552 3.45997
-0.149387 0.5987 3.48894
0.0792754 0.409756 3.68008
0.0162975 0.478146 3.58258
-0.199143 0.526161 3.29967
0.0345936 0.538127 3.56185
0.00481512 0.418227 3.5747
-0.109272 0.571071 3.49824
0.022933 0.455288 3.63724
-0.169837 0.335283 3.28821
0.0214165 0.56782 3.53713
0.0448123 0.474356 3.66279
-0.101143 0.227938 3.44868
-0.0940506 0.194127 3.40307
-0.187279 0.415517 3.36969
-0.133399 0.259583 3.41581
-0.188098 0.597234 3.40584
6.5584e-05 0.154985 3.53124
0.0864052 0.395403 3.64649
-0.00655915 0.457134 3.5717
-0.173798 0.546155 3.44198
-0.0640637 0.560076 3.53214
-0.0412906 0.559552 3.54014
-0.0129122 0.280562 3.55282
-0.163249 0.381046 3.4502
0.0460962 0.121953 3.52537
-0.0241607 0.147517 3.47562
-0.0560032 0.166139 3.44488
0.0897855 0.750592 3.58634
0.0943609 0.120795 3.53239
-0.0190812 0.561836 3.54186
0.00278852 0.565573 3.54004
0.0163322 0.566376 3.53722
-0.168341 0.601389 3.46205
-0.00692177 0.591984 3.54002
-0.0331257 0.60168 3.53901
-0.0573364 0.602255 3.53605
-0.0792912 0.595524 3.52894
-0.091732 0.586252 3.52169
-0.202544 0.599055 3.33892
-0.0798313 0.562867 3.52253
0.0935753 0.361643 3.62468
0.00710463 0.351829 3.59196
0.0293953 0.411562 3.62671
0.0571864 0.359561 3.61987
0.0924749 0.609279 3.59437
-0.0654816 0.19704 3.47346
-0.0334715 0.17487 3.49966
0.0408695 0.142118 3.55719
-0.124004 0.226549 3.35573
0.0123804 0.577187 3.53981
0.0500534 0.518834 3.61616
0.0913348 0.140724 3.56418
0.00821534 0.132313 3.50658
-0.1769 0.356857 3.37201
0.0374081 0.286647 3.58788
0.0329599 0.280537 3.59143
0.0281497 0.270886 3.59493
0.0255689 0.256723 3.59218
0.0201418 0.234458 3.5724
-0.00268275 0.294112 3.56372
-0.00958495 0.296626 3.5636
-0.0169613 0.301275 3.56312
-0.0371965 0.316401 3.55757
-0.133022 0.373988 3.50199
0.0511829 0.544024 3.59181
0.0395805 0.592348 3.54935
0.0233887 0.586769 3.54282
0.00330207 0.296078 3.56054
-0.129248 0.303949 3.4642
0.0593247 0.601898 3.57829
0.0101943 0.208855 3.55738
0.0926151 0.516455 3.66231
0.0683934 0.535927 3.63406
0.0927697 0.542002 3.63979
0.0310168 0.47588 3.61574
0.0902518 0.166782 3.5799
0.0901015 0.196223 3.58184
0.04957 0.196197 3.57405
-0.0473605 0.253281 3.52509
-0.0171948 0.397026 3.56803
-0.0213463 0.227579 3.53897
-0.0787446 0.401473 3.55325
-0.0415718 0.370296 3.56168
-0.0994268 0.356592 3.53225
0.0425685 0.16793 3.57218
0.0158405 0.458408 3.59658
-0.0635082 0.229332 3.50167
-0.0300708 0.202507 3.51883
-0.0694394 0.286073 3.52396
-0.153038 0.333759 3.4402
-0.0989058 0.278999 3.49837
-0.160495 0.303829 3.38163
-0.0627586 0.336686 3.54864
0.0334484 0.49862 3.59808
0.0330823 0.426431 3.65775
0.018098 0.414567 3.62664
0.0454795 0.446434 3.67384
0.0155811 0.620691 3.55299
-0.029136 0.637361 3.55082
-0.0662209 0.639612 3.54461
-0.0958388 0.632999 3.53284
-0.116378 0.618142 3.51917
-0.127254 0.56358 3.48652
-0.195239 0.475923 3.37451
-0.107365 0.527638 3.51009
-0.0807723 0.521966 3.52685
-0.0454677 0.524053 3.53839
-0.0127551 0.531349 3.5445
0.012758 0.539281 3.54534
0.0302207 0.5472 3.54813
-0.189591 0.461553 3.28265
0.0193651 0.405918 3.61472
0.0504594 0.496318 3.63696
0.0526826 0.426986 3.6776
0.0662039 0.412222 3.66752
0.0523329 0.421061 3.66576
0.0275859 0.395552 3.60585
0.0712756 0.410736 3.67469
0.0769492 0.397999 3.64588
0.0315015 0.566016 3.53958
0.0435042 0.56272 3.55211
0.0503245 0.560709 3.56747
-0.0979425 0.5791 3.51406
-0.110713 0.590227 3.50916
0.114535 0.510326 3.65428
0.26678 0.565212 3.51728
0.118642 0.404153 3.64846
0.345175 0.643946 3.39874
0.189235 0.54571 3.54166
0.214065 0.542833 3.54014
0.238607 0.54252 3.53435
0.271308 0.555144 3.51066
0.171246 0.551638 3.53963
0.228752 0.61956 3.54432
0.199715 0.617648 3.54658
0.254942 0.613247 3.53645
0.270526 0.601351 3.52863
0.288241 0.533516 3.50021
0.174969 0.191297 3.5486
0.276253 0.571304 3.50795
0.350987 0.525632 3.38688
0.312718 0.549584 3.47389
0.211015 0.434168 3.57336
0.119662 0.324191 3.62845
0.11378 0.296737 3.61564
0.149431 0.318239 3.61148
0.167475 0.308962 3.58975
0.135513 0.296648 3.6034
0.153331 0.293585 3.5842
0.198154 0.269571 3.54531
0.113198 0.425977 3.69329
0.116093 0.453474 3.69875
0.304836 0.632944 3.519
0.164346 0.503375 3.57218
0.169824 0.425561 3.63058
0.170321 0.439344 3.62087
0.278649 0.434221 3.53746
0.115563 0.484962 3.68006
0.25647 0.672531 3.5624
0.286499 0.658587 3.54229
0.325008 0.703279 3.44832
0.149709 0.654266 3.58476
0.177233 0.605488 3.54125
0.217312 0.291923 3.53931
0.321727 0.278679 3.30545
0.155163 0.40787 3.62333
0.135319 0.397078 3.62604
0.194632 0.288016 3.54197
0.181926 0.289591 3.5494
0.299197 0.675368 3.53099
0.170329 0.411838 3.61746
0.212715 0.674161 3.57817
0.216882 0.699126 3.58326
0.232662 0.790204 3.54241
0.311638 0.69046 3.4961
0.222865 0.743885 3.56619
0.318549 0.641104 3.49874
0.331552 0.64158 3.45419
0.116925 0.308813 3.62519
0.14187 0.305185 3.60869
0.160377 0.301284 3.58905
0.149473 0.401118 3.61935
0.188268 0.288769 3.54646
0.176586 0.285068 3.56184
0.178508 0.291129 3.54927
0.140827 0.422725 3.65591
0.147985 0.294022 3.57798
0.130853 0.293066 3.5921
0.110793 0.291827 3.60299
0.121151 0.225286 3.5847
0.119387 0.249534 3.60765
0.118861 0.264085 3.6096
0.118214 0.27609 3.60364
0.115953 0.284994 3.59902
0.154129 0.288691 3.57633
0.157244 0.286601 3.58019
0.161783 0.281307 3.58299
0.166844 0.272632 3.57853
0.190948 0.338018 3.58263
0.351466 0.392616 3.27654
0.166104 0.287794 3.56031
0.170876 0.287196 3.5627
0.126788 0.382753 3.62471
0.164468 0.390682 3.60197
0.130804 0.389744 3.62665
0.188221 0.486086 3.56247
0.226088 0.466481 3.55672
0.174152 0.42523 3.60739
0.290238 0.753683 3.49894
0.27841 0.72599 3.53317
0.265526 0.695354 3.55951
0.177342 0.253421 3.55921
0.157163 0.694096 3.59357
0.160962 0.749 3.58403
0.166514 0.809944 3.56682
0.259517 0.546147 3.5227
0.310725 0.511175 3.48777
0.160812 0.556844 3.5366
0.292468 0.590404 3.50747
0.148524 0.52152 3.5798
0.155188 0.439204 3.65502
0.3337 0.488563 3.45656
0.295822 0.495228 3.51113
0.265494 0.489068 3.53506
0.221259 0.495208 3.54432
0.188644 0.508215 3.549
0.165228 0.52203 3.55629
0.116429 0.562166 3.60683
0.331154 0.434409 3.46402
0.30946 0.594185 3.49564
0.104803 0.410017 3.68068
0.163219 0.476576 3.58477
0.360235 0.510713 3.30248
0.148286 0.53616 3.56098
0.177795 0.419005 3.58369
0.281478 0.569022 3.50128
0.15492 0.456018 3.64332
0.341498 0.335796 3.28461
0.16204 0.565421 3.53075
0.135573 0.474382 3.66569
0.268107 0.240721 3.44653
0.265869 0.207824 3.39613
0.351628 0.412781 3.37168
0.297787 0.269688 3.41374
0.343573 0.584798 3.4143
0.178998 0.165684 3.5301
0.106712 0.395623 3.64792
0.18268 0.456075 3.57678
0.330256 0.539561 3.44873
0.240256 0.55743 3.53274
0.217155 0.555976 3.53753
0.182627 0.280726 3.55692
0.325035 0.382186 3.4542
0.141118 0.127759 3.52367
0.205192 0.160422 3.46904
0.231825 0.180773 3.43671
0.19517 0.558575 3.538
0.177028 0.562317 3.5337
0.166929 0.563425 3.52999
0.32525 0.594606 3.47017
0.180527 0.589303 3.53626
0.201065 0.599375 3.5389
0.225411 0.600907 3.53839
0.249089 0.594997 3.53369
0.262613 0.585932 3.52729
0.358429 0.580839 3.34611
0.256205 0.560689 3.52443
0.17213 0.353196 3.59911
0.154703 0.414585 3.63448
0.126684 0.360404 3.62298
0.237912 0.211474 3.47151
0.208861 0.189125 3.49836
0.139979 0.148226 3.55701
0.295311 0.236361 3.34721
0.167953 0.574634 3.53304
0.132836 0.518112 3.61742
0.176169 0.142204 3.50154
0.340961 0.359042 3.3732
0.137273 0.286895 3.58893
0.140435 0.281367 3.59364
0.143323 0.272557 3.59768
0.146181 0.259025 3.595
0.152209 0.237771 3.5743
0.169676 0.292193 3.56546
0.177229 0.294918 3.56493
0.183647 0.299761 3.56519
0.207704 0.316677 3.56194
0.293207 0.376158 3.50853
0.132757 0.542638 3.5916
0.145229 0.591058 3.54956
0.158293 0.583617 3.53881
0.163809 0.293602 3.56113
0.292124 0.310733 3.46729
0.124359 0.600896 3.57941
0.1634 0.216088 3.56006
0.11511 0.535647 3.63521
0.148726 0.476016 3.62028
0.128365 0.200417 3.57665
0.21775 0.26049 3.53007
0.196092 0.397753 3.57774
0.192152 0.235963 3.54335
0.245711 0.403003 3.56332
0.215454 0.371477 3.57063
0.26262 0.360207 3.54117
0.136631 0.172712 3.57253
0.162371 0.458185 3.60197
0.23471 0.240711 3.50404
0.204486 0.214538 3.52141
0.238173 0.290555 3.52749
0.315335 0.338598 3.4435
0.262275 0.287351 3.50185
0.325495 0.310124 3.37995
0.230719 0.338165 3.55566
0.148019 0.497378 3.59939
0.147216 0.42861 3.66164
0.163181 0.417362 3.63519
0.137683 0.447332 3.67712
0.16558 0.619059 3.55467
0.205511 0.635738 3.55724
0.240307 0.637141 3.55309
0.268422 0.630024 3.5415
0.285318 0.615628 3.52685
0.293967 0.560563 3.4917
0.354326 0.468345 3.37688
0.275501 0.523965 3.51405
0.250312 0.518339 3.52992
0.21797 0.520585 3.53848
0.188058 0.528557 3.54271
0.166944 0.537516 3.5447
0.152671 0.545552 3.54699
0.355545 0.450019 3.28111
0.162747 0.407996 3.6233
0.133589 0.495605 3.63807
0.130524 0.428821 3.68129
0.116593 0.414098 3.67098
0.130509 0.423418 3.66899
0.156785 0.397465 3.6159
0.112111 0.411978 3.67744
0.113521 0.399014 3.64882
0.154018 0.564328 3.53608
0.140502 0.561198 3.5514
0.133866 0.559215 3.56752
0.270188 0.578505 3.51917
0.280486 0.588566 3.5152
