ply
format ascii 1.0
comment Created by Open3D
element vertex 468
property double x
property double y
property double z
end_header
0.0288001 0.317703 3.92223
0.0313112 0.40021 3.97622
0.0311936 0.374005 3.92017
0.0101341 0.481899 3.94371
0.0310186 0.426044 3.98353
0.0299682 0.459201 3.97371
0.0302763 0.537419 3.90812
-0.138976 0.537232 3.81782
0.0298314 0.604999 3.88982
0.029607 0.639291 3.89292
0.0295724 0.737219 3.86586
0.0285857 0.305227 3.91883
0.0282182 0.295713 3.91105
0.0278276 0.292147 3.90095
0.0279406 0.287807 3.90264
0.0279005 0.27714 3.90689
0.0270678 0.263499 3.91206
0.0265545 0.249157 3.90971
0.0263704 0.226169 3.88988
0.0303602 0.386608 3.96445
0.00950009 0.387725 3.93324
-0.217199 0.624819 3.70569
-0.0724449 0.516835 3.84398
-0.0956609 0.514424 3.84112
-0.117788 0.515488 3.83384
-0.14817 0.528822 3.81382
-0.0518021 0.523953 3.84038
-0.103682 0.582139 3.85053
-0.0786442 0.580121 3.84965
-0.126954 0.578554 3.84182
-0.142674 0.569094 3.83169
-0.164586 0.513009 3.80135
-0.0622273 0.188038 3.8573
-0.147129 0.543508 3.80961
-0.226319 0.52231 3.69932
-0.188798 0.530755 3.77676
-0.0896355 0.418575 3.866
-0.00211369 0.322001 3.91876
0.000703397 0.296383 3.90719
-0.0345296 0.314519 3.90369
-0.0554533 0.305977 3.88585
-0.0231354 0.295596 3.89767
-0.0408669 0.294261 3.8808
-0.0846751 0.269012 3.85043
0.0112146 0.4005 3.97322
0.00766366 0.425358 3.97976
-0.178824 0.60165 3.82048
-0.0414605 0.479518 3.86847
-0.0454024 0.405563 3.91639
-0.0478008 0.418641 3.90927
-0.158954 0.421053 3.8338
0.00857255 0.456198 3.96639
-0.125897 0.633713 3.85772
-0.156794 0.622775 3.83967
-0.196236 0.669356 3.74908
-0.0228805 0.612733 3.88158
-0.0563791 0.571487 3.84416
-0.102511 0.293089 3.8448
-0.200493 0.298745 3.64548
-0.0273039 0.392135 3.90881
-0.00707137 0.38439 3.90995
-0.0781378 0.29342 3.84783
-0.0683849 0.294484 3.85399
-0.169966 0.639039 3.8287
-0.0467757 0.39455 3.90379
-0.082787 0.632784 3.87239
-0.0871389 0.652683 3.87639
-0.104256 0.726949 3.83611
-0.183785 0.653753 3.79434
-0.0928314 0.689731 3.85732
-0.191891 0.611609 3.8008
-0.204719 0.616078 3.75602
-0.00133131 0.307111 3.91564
-0.0280379 0.30292 3.90168
-0.0479597 0.2997 3.88518
-0.0209003 0.387552 3.90284
-0.0728486 0.293813 3.85071
-0.0628425 0.287952 3.86542
-0.0662401 0.295468 3.8545
-0.0145364 0.400426 3.94067
-0.0371822 0.295844 3.87744
-0.0186329 0.294466 3.88891
0.00315065 0.293268 3.89828
-0.0067763 0.226361 3.8866
-0.00521088 0.25077 3.90687
-0.0032071 0.266109 3.90894
-0.000389682 0.279602 3.90345
0.00176309 0.288379 3.89962
-0.0406504 0.291139 3.87744
-0.0444982 0.28799 3.88102
-0.0501782 0.281056 3.88432
-0.0544224 0.272241 3.88017
-0.0737858 0.33278 3.87666
-0.221176 0.415991 3.60964
0.0320583 0.381506 3.93535
-0.0524995 0.29215 3.86416
-0.0573037 0.291065 3.8663
0.000694698 0.373413 3.91326
-0.0379017 0.37965 3.88732
-0.00288333 0.378589 3.91172
-0.0664262 0.465021 3.86044
-0.104375 0.449101 3.85202
-0.0517001 0.407493 3.89633
-0.161036 0.704565 3.79492
-0.14881 0.679892 3.82718
-0.134584 0.652946 3.85389
-0.0649241 0.251786 3.864
-0.0304994 0.645969 3.88906
-0.0350432 0.688472 3.87499
-0.0425242 0.735912 3.85962
-0.137124 0.519837 3.82307
-0.188063 0.495685 3.78824
-0.0387178 0.53133 3.83818
-0.166865 0.562421 3.81047
-0.0246739 0.495955 3.87691
-0.0304234 0.415338 3.9389
-0.211543 0.478529 3.76351
-0.173268 0.479375 3.81033
-0.144305 0.470922 3.83212
-0.0999489 0.474878 3.8431
-0.0671078 0.484983 3.84927
-0.0423548 0.496938 3.85508
0.00798828 0.530601 3.89942
-0.208945 0.428597 3.771
-0.185512 0.56778 3.79866
0.0185603 0.387627 3.96311
-0.0395677 0.456123 3.87977
-0.22837 0.522497 3.62508
-0.0235132 0.51101 3.8587
-0.0531634 0.405947 3.87362
-0.154483 0.543096 3.805
-0.0325836 0.431059 3.92976
-0.214787 0.358473 3.62091
-0.0391368 0.540002 3.833
-0.0127514 0.446375 3.9524
-0.157904 0.242827 3.7678
-0.153624 0.21582 3.72797
-0.225374 0.420961 3.69001
-0.185455 0.274863 3.73811
-0.215285 0.571951 3.72141
-0.0653949 0.164628 3.84497
0.0228807 0.382511 3.93345
-0.0613769 0.437649 3.87106
-0.207267 0.525325 3.75424
-0.115548 0.529842 3.83259
-0.095405 0.528064 3.8388
-0.0685669 0.28296 3.86133
-0.204802 0.380373 3.76467
-0.0216058 0.133878 3.84161
-0.0899679 0.164164 3.79266
-0.119443 0.184995 3.76413
0.0297828 0.685943 3.88131
0.0262519 0.130965 3.84947
-0.0756245 0.529743 3.83983
-0.0571352 0.534237 3.83734
-0.0449392 0.537458 3.83282
-0.200854 0.572113 3.77544
-0.0604964 0.552908 3.84107
-0.0812597 0.557396 3.84366
-0.100893 0.558432 3.84238
-0.120734 0.555377 3.83594
-0.133877 0.550242 3.82818
-0.226165 0.578797 3.65977
-0.129292 0.53336 3.82458
0.0304892 0.356242 3.91563
-0.0512741 0.345816 3.88974
-0.0271914 0.396121 3.91596
-0.00352455 0.353501 3.91305
0.0297122 0.570094 3.89069
-0.127005 0.211684 3.79141
-0.0974905 0.187848 3.81684
-0.0249214 0.148301 3.86925
-0.179065 0.251074 3.68459
-0.0455734 0.545528 3.83641
-0.00835398 0.4911 3.9084
0.0255651 0.146146 3.87649
-0.0587261 0.146221 3.82203
-0.218926 0.368057 3.69448
-0.0211169 0.290046 3.88969
-0.0251359 0.283698 3.89392
-0.0293072 0.273157 3.89815
-0.0323752 0.259514 3.89508
-0.0396673 0.236728 3.87796
-0.0575386 0.294341 3.86589
-0.0642229 0.296353 3.8659
-0.0710825 0.300153 3.86599
-0.0927746 0.314857 3.86061
-0.17715 0.368392 3.81065
-0.007794 0.51484 3.88662
-0.0203548 0.560978 3.84745
-0.0348622 0.554462 3.83954
-0.0528729 0.297218 3.86435
-0.17833 0.309826 3.77934
-0.000673324 0.565153 3.8759
-0.0518396 0.212631 3.86618
0.029975 0.486036 3.9512
0.00847931 0.504844 3.92305
0.0303461 0.510705 3.92882
-0.0253808 0.452061 3.90908
0.0253864 0.169769 3.88919
0.0258977 0.199777 3.88982
-0.0144126 0.200003 3.88283
-0.104589 0.257746 3.83719
-0.0732679 0.386165 3.86741
-0.0809475 0.231475 3.85028
-0.127479 0.390197 3.85593
-0.0961292 0.362715 3.86268
-0.148019 0.350976 3.83866
-0.0224485 0.171019 3.88113
-0.0401079 0.437586 3.89325
-0.12208 0.238617 3.81629
-0.0922305 0.211959 3.83381
-0.123711 0.288586 3.83402
-0.198708 0.339077 3.75779
-0.151153 0.283885 3.81056
-0.207616 0.319223 3.70627
-0.116301 0.332179 3.85214
-0.0235915 0.473771 3.89316
-0.0224808 0.404422 3.94429
-0.0378377 0.397614 3.91889
-0.0122682 0.421563 3.95981
-0.0407493 0.584997 3.85346
-0.0787566 0.599687 3.85477
-0.111521 0.602224 3.852
-0.13866 0.597014 3.84244
-0.157654 0.584393 3.82789
-0.169351 0.537263 3.7944
-0.229146 0.471905 3.69418
-0.152509 0.50302 3.81422
-0.128775 0.496183 3.82815
-0.0984366 0.496452 3.83859
-0.0692543 0.502187 3.84454
-0.0455045 0.511109 3.8442
-0.0294662 0.520017 3.84658
-0.224601 0.469733 3.61031
-0.0374084 0.391022 3.90758
-0.00823014 0.469577 3.9277
-0.00548487 0.403642 3.96199
0.00697503 0.391243 3.95307
-0.00543468 0.399365 3.9512
-0.03064 0.383523 3.89987
0.0113811 0.389124 3.95928
0.0151185 0.383975 3.93307
-0.0300404 0.539384 3.83576
-0.0169103 0.534406 3.84896
-0.00955337 0.531255 3.8641
-0.141575 0.546433 3.81997
-0.154067 0.558705 3.81799
0.050055 0.482072 3.94326
0.190115 0.538796 3.82043
0.0520958 0.388021 3.93458
0.262504 0.623125 3.70594
0.124292 0.517263 3.84316
0.14639 0.515199 3.84114
0.167744 0.516656 3.83476
0.196504 0.530399 3.81615
0.106529 0.523891 3.84063
0.152961 0.581791 3.8507
0.129904 0.579436 3.85099
0.175733 0.578517 3.84309
0.190841 0.569179 3.83422
0.212528 0.514442 3.80492
0.109716 0.192442 3.86109
0.198072 0.545021 3.81261
0.27179 0.523621 3.70172
0.235147 0.532103 3.78088
0.142351 0.419692 3.87024
0.0580323 0.322419 3.91913
0.0534074 0.29674 3.90744
0.0874578 0.315603 3.90488
0.105684 0.306846 3.8867
0.0747525 0.296296 3.89714
0.0914917 0.294779 3.88076
0.131617 0.270654 3.85339
0.050026 0.400801 3.97474
0.0526109 0.425545 3.98169
0.223665 0.601583 3.8246
0.0971792 0.47985 3.8691
0.102376 0.406389 3.91946
0.103767 0.419491 3.91248
0.206242 0.423266 3.83836
0.0513693 0.456441 3.9664
0.176091 0.632309 3.86412
0.204526 0.622121 3.84513
0.24249 0.666614 3.75082
0.0802103 0.612288 3.88427
0.110553 0.570716 3.84465
0.149797 0.294651 3.84721
0.245917 0.3055 3.64609
0.0864862 0.392701 3.91157
0.0679759 0.384714 3.91404
0.127427 0.293542 3.84778
0.115871 0.294603 3.85438
0.216442 0.637764 3.83469
0.103095 0.39523 3.90758
0.136381 0.63162 3.87838
0.140206 0.651208 3.88284
0.155985 0.724018 3.83838
0.229764 0.652066 3.79924
0.146835 0.687484 3.86147
0.236358 0.611249 3.80508
0.249807 0.615152 3.75932
0.0560493 0.307463 3.91557
0.0805469 0.303912 3.9019
0.098588 0.300577 3.88574
0.0812199 0.388052 3.90662
0.121612 0.293856 3.85138
0.110816 0.288231 3.86741
0.112622 0.295677 3.85484
0.073624 0.401122 3.94093
0.0862188 0.296135 3.87706
0.0698376 0.294859 3.88814
0.0502181 0.293495 3.89731
0.0571161 0.227323 3.8888
0.055843 0.251599 3.90771
0.0553231 0.266813 3.90906
0.0543075 0.280167 3.90309
0.0520665 0.288916 3.89882
0.0898461 0.29182 3.87835
0.0929399 0.288662 3.88292
0.0972953 0.281743 3.88738
0.101942 0.273103 3.88292
0.125724 0.33414 3.8803
0.271582 0.419698 3.60985
0.100722 0.292574 3.86408
0.105511 0.29137 3.86735
0.0601611 0.373823 3.91519
0.0963164 0.380358 3.89271
0.0638898 0.37888 3.91505
0.12083 0.465721 3.86176
0.156929 0.450172 3.85519
0.107604 0.408319 3.90001
0.208638 0.701217 3.79836
0.197669 0.677467 3.83327
0.184379 0.651244 3.86049
0.112138 0.253971 3.86664
0.0867176 0.644888 3.89285
0.0921882 0.687145 3.87747
0.0978707 0.734082 3.8623
0.186145 0.521495 3.8249
0.234209 0.497311 3.79286
0.0958999 0.531175 3.83714
0.21368 0.563175 3.81354
0.0815035 0.496199 3.8768
0.0882595 0.415954 3.9412
0.255768 0.480705 3.76714
0.220367 0.481019 3.81392
0.193217 0.472374 3.83556
0.152577 0.47586 3.8449
0.121489 0.485491 3.84991
0.0979991 0.497127 3.85541
0.0521818 0.530526 3.89933
0.253732 0.431765 3.77429
0.230198 0.568552 3.80168
0.0416184 0.387783 3.96312
0.0963357 0.456587 3.88072
0.27813 0.523278 3.62439
0.0814527 0.511108 3.85829
0.110658 0.406689 3.87829
0.204062 0.544348 3.80744
0.0888532 0.431729 3.93241
0.262958 0.363596 3.62189
0.096369 0.540249 3.83107
0.0703404 0.446863 3.95354
0.200335 0.250045 3.77199
0.196796 0.224185 3.73052
0.273034 0.42483 3.69264
0.227433 0.281766 3.7419
0.261667 0.572038 3.72356
0.113348 0.170107 3.84784
0.0410541 0.382552 3.93424
0.115957 0.438334 3.87372
0.252175 0.526874 3.75766
0.167653 0.53099 3.83382
0.147729 0.528697 3.83866
0.116492 0.283463 3.8633
0.24905 0.384481 3.7689
0.0730598 0.137098 3.84256
0.137905 0.171423 3.79357
0.164912 0.193207 3.76559
0.128787 0.529916 3.83945
0.112113 0.534257 3.8362
0.102017 0.537487 3.83108
0.245005 0.572679 3.77837
0.112937 0.553094 3.83977
0.130856 0.557593 3.84371
0.149986 0.559189 3.84247
0.17021 0.556662 3.83726
0.183476 0.551698 3.83067
0.274542 0.578086 3.66006
0.181076 0.534758 3.82669
0.106027 0.347097 3.89313
0.0866824 0.396698 3.91968
0.0619216 0.354098 3.91433
0.17137 0.218947 3.79591
0.143147 0.194732 3.82088
0.0741507 0.151436 3.87127
0.222943 0.258691 3.68557
0.101665 0.545878 3.83416
0.0671507 0.49123 3.90893
0.108528 0.151957 3.82308
0.264349 0.373239 3.6978
0.072978 0.290717 3.8897
0.0762415 0.284545 3.89446
0.0790866 0.274165 3.89915
0.0818117 0.260737 3.89628
0.0879623 0.238602 3.87952
0.106026 0.294548 3.86582
0.11342 0.296853 3.8659
0.120012 0.300553 3.86649
0.142182 0.3164 3.86321
0.221239 0.371903 3.81605
0.0666935 0.51493 3.88647
0.0792965 0.560767 3.8481
0.092171 0.554314 3.83827
0.100323 0.29741 3.86367
0.221284 0.315028 3.78428
0.0594163 0.564962 3.87649
0.0988292 0.215885 3.86942
0.0514541 0.50499 3.92366
0.0826738 0.452591 3.91113
0.0638572 0.201844 3.88544
0.150172 0.261481 3.84169
0.1282 0.387472 3.87227
0.126231 0.235322 3.85476
0.176168 0.39231 3.86219
0.147783 0.364491 3.86774
0.193336 0.354163 3.84495
0.0713094 0.173638 3.88311
0.0962683 0.438131 3.89575
0.16682 0.244503 3.82136
0.138296 0.217388 3.83908
0.169556 0.291976 3.83757
0.241523 0.344092 3.76255
0.194084 0.288992 3.81567
0.251133 0.325379 3.70925
0.163963 0.334389 3.85659
0.0812851 0.474081 3.89353
0.0804638 0.40511 3.9457
0.0954482 0.398376 3.92278
0.072124 0.42203 3.96129
0.0977486 0.584764 3.85478
0.132664 0.599202 3.85791
0.162689 0.601494 3.85576
0.188004 0.596647 3.84592
0.205158 0.584481 3.8316
0.216972 0.538485 3.79781
0.275352 0.474424 3.69565
0.201268 0.504387 3.81726
0.17896 0.497448 3.83071
0.15015 0.497144 3.83981
0.122111 0.502521 3.84497
0.100994 0.511299 3.84468
0.0866222 0.520024 3.8465
0.275095 0.471918 3.60891
0.0948769 0.391717 3.91165
0.0676267 0.470024 3.928
0.0653542 0.404215 3.96382
0.0517917 0.391727 3.95479
0.0646423 0.400104 3.95255
0.0888583 0.384178 3.9046
0.04829 0.389394 3.9606
0.0477503 0.384171 3.93441
0.0886721 0.539331 3.83528
0.0752227 0.534305 3.84915
0.068428 0.531114 3.86419
0.191632 0.547926 3.82271
0.202039 0.559497 3.82153
