ply
format ascii 1.0
comment Created by Open3D
element vertex 468
property double x
property double y
property double z
end_header
0.0939272 0.323553 3.68539
0.0972853 0.408228 3.75749
0.0976419 0.375118 3.69243
0.0726498 0.484073 3.71678
0.0965125 0.434584 3.76349
0.0941047 0.46578 3.74995
0.0928468 0.533503 3.67785
-0.0915935 0.528145 3.56738
0.0921122 0.586337 3.65618
0.0914693 0.618716 3.65913
0.0907133 0.739588 3.62644
0.0928387 0.312036 3.68228
0.0913642 0.304083 3.67514
0.0903565 0.301679 3.66416
0.0977713 0.242908 3.65229
0.0976746 0.233093 3.65781
0.0961957 0.222159 3.66352
0.0961636 0.207699 3.65936
0.096649 0.186681 3.63839
0.0958792 0.393603 3.74539
0.0724187 0.389778 3.70802
-0.18405 0.606723 3.44804
-0.0169577 0.512026 3.59887
-0.042838 0.510074 3.59617
-0.0678822 0.51029 3.5884
-0.10348 0.520313 3.56303
0.00549976 0.516466 3.59612
-0.0573929 0.57541 3.59887
-0.0270156 0.572208 3.59959
-0.0838296 0.570959 3.58874
-0.101223 0.560708 3.57755
-0.119573 0.503572 3.55023
0.00157177 0.15915 3.59799
-0.101789 0.532729 3.55751
-0.185011 0.497968 3.44039
-0.145688 0.514906 3.52392
-0.0400349 0.418168 3.62188
0.0533557 0.327085 3.67918
0.0535437 0.304265 3.66771
0.01136 0.32125 3.65804
-0.0145762 0.312883 3.62969
0.0228045 0.303338 3.65217
0.00137791 0.300359 3.62612
-0.038509 0.259225 3.57813
0.0753948 0.408418 3.75316
0.0712788 0.434043 3.75817
-0.138785 0.58429 3.57051
0.0147811 0.476635 3.62884
0.00867616 0.411412 3.68436
0.00638295 0.423908 3.67483
-0.118647 0.420081 3.58549
0.0715146 0.462495 3.74255
-0.0750693 0.614687 3.61251
-0.112924 0.605324 3.59283
-0.160267 0.658221 3.49344
0.0387608 0.591739 3.64464
-0.00059943 0.561668 3.59489
-0.0602223 0.292407 3.57331
-0.147753 0.259824 3.38676
0.0296404 0.395374 3.67674
0.0533325 0.385996 3.67944
-0.0424125 0.291153 3.57381
-0.0312999 0.290143 3.57971
-0.126546 0.620351 3.57989
0.00637628 0.400481 3.66922
-0.0247967 0.61138 3.6306
-0.0297207 0.633267 3.6346
-0.0561419 0.728953 3.58748
-0.142207 0.640231 3.54093
-0.0385949 0.683424 3.61276
-0.152619 0.592457 3.54901
-0.167153 0.598001 3.50027
0.0526089 0.313536 3.67604
0.0178425 0.310285 3.65582
-0.00653808 0.306653 3.62944
0.0367203 0.389908 3.67118
-0.0370779 0.290856 3.57643
-0.02107 0.27013 3.59108
-0.0274923 0.290021 3.58074
0.0433336 0.405162 3.71609
0.00493748 0.302524 3.62169
0.02769 0.302968 3.64221
0.0551976 0.302478 3.65766
0.0544033 0.189067 3.63066
0.0536518 0.211547 3.65244
0.0558799 0.225166 3.65611
0.0596627 0.23649 3.65078
0.062305 0.244902 3.64634
0.00841115 0.26095 3.61212
0.00356957 0.258556 3.6139
-0.00332764 0.25342 3.61442
-0.00755163 0.246001 3.60974
-0.0273429 0.33479 3.6224
-0.17264 0.375447 3.34897
0.0997538 0.383152 3.71251
-0.00712959 0.270769 3.59477
-0.0142032 0.271234 3.59367
0.0622099 0.375116 3.68187
0.0170452 0.383197 3.64932
0.0578757 0.38035 3.68174
-0.0124322 0.463854 3.61894
-0.0555095 0.449057 3.60948
0.00163667 0.412219 3.65973
-0.119333 0.700358 3.54084
-0.100652 0.669909 3.57646
-0.0834247 0.634757 3.60753
-0.0144665 0.230874 3.59553
0.03022 0.626171 3.65087
0.0229019 0.685282 3.6339
0.0116194 0.740819 3.61475
-0.0906966 0.51313 3.57541
-0.144345 0.485575 3.5356
0.0196425 0.521361 3.59463
-0.125122 0.549101 3.5574
0.033377 0.491851 3.639
0.026381 0.421399 3.7111
-0.170097 0.464979 3.50854
-0.128439 0.474466 3.55949
-0.0966165 0.469786 3.58362
-0.0475328 0.473033 3.599
-0.0112638 0.481378 3.60582
0.0147309 0.492022 3.61365
0.0689509 0.526159 3.66823
-0.169798 0.417642 3.51707
-0.144808 0.551485 3.54655
0.0821047 0.394251 3.7432
0.0162627 0.455039 3.64132
-0.186852 0.488239 3.36437
0.035194 0.504025 3.61894
0.00166043 0.407541 3.63226
-0.1112 0.531719 3.55179
0.0239418 0.436792 3.69916
-0.164817 0.318578 3.36068
0.0184601 0.528177 3.58872
0.0469455 0.452485 3.72562
-0.101324 0.215455 3.50432
-0.0951214 0.180588 3.47005
-0.182089 0.393289 3.43216
-0.133932 0.246906 3.47732
-0.176324 0.550426 3.46444
0.000876903 0.132142 3.58841
0.0895293 0.383896 3.70969
-0.00813262 0.43805 3.62974
-0.165386 0.506798 3.50001
-0.0638419 0.523119 3.58504
-0.041596 0.52278 3.59309
-0.0273956 0.268056 3.58707
-0.166358 0.365855 3.50845
0.0479057 0.0975693 3.59011
-0.0259766 0.127456 3.53734
-0.0577112 0.149464 3.50732
0.0916422 0.681767 3.64405
0.0983356 0.0952879 3.59799
-0.0203364 0.524213 3.59473
-1.31054e-07 0.52683 3.59277
0.0130686 0.527218 3.58922
-0.16104 0.553185 3.52131
-0.00748021 0.545007 3.59354
-0.0316463 0.552402 3.595
-0.0535576 0.553865 3.59278
-0.0753547 0.549911 3.58541
-0.0887724 0.543042 3.57634
-0.189697 0.552092 3.40041
-0.0798188 0.525219 3.57588
0.0965275 0.356797 3.68398
-0.000707287 0.349437 3.6452
0.0297252 0.39942 3.68633
0.0550589 0.355515 3.67724
0.0919132 0.559489 3.65747
-0.0651502 0.182387 3.52722
-0.0329078 0.156795 3.55537
0.0441513 0.116824 3.61609
-0.123659 0.214295 3.42924
0.0100509 0.534907 3.59187
0.0520611 0.489189 3.67597
0.0969207 0.1139 3.62382
0.0075375 0.109453 3.56922
-0.174918 0.33934 3.43646
0.0331619 0.251326 3.63145
0.0281601 0.245638 3.63415
0.0228888 0.236975 3.63643
0.020041 0.224518 3.6325
0.0141461 0.206338 3.61585
-0.0202982 0.297561 3.60116
-0.027476 0.300612 3.60008
-0.0344446 0.30504 3.59962
-0.0499229 0.316681 3.59698
-0.138923 0.36085 3.55714
0.0524011 0.509897 3.65192
0.0400058 0.547283 3.60447
0.0223994 0.543376 3.59561
-0.0141663 0.299781 3.59899
-0.134553 0.292187 3.51911
0.0600555 0.553475 3.63863
0.00746442 0.185498 3.60419
0.0937017 0.48851 3.72462
0.0704271 0.503917 3.69419
0.0936815 0.509567 3.70051
0.0322122 0.453339 3.67585
0.0966141 0.138598 3.63487
0.0968195 0.165504 3.63537
0.0505719 0.167523 3.62479
-0.051089 0.245516 3.56733
-0.0209201 0.387408 3.62346
-0.0244127 0.211765 3.58275
-0.0832392 0.387905 3.6065
-0.047052 0.36176 3.61208
-0.104556 0.345963 3.58202
0.0449094 0.141497 3.62584
0.0155302 0.439269 3.65624
-0.0643238 0.21801 3.54964
-0.0303578 0.18644 3.56872
-0.0755902 0.28325 3.56772
-0.157787 0.320214 3.49888
-0.102662 0.269426 3.54637
-0.159835 0.289793 3.44789
-0.0715056 0.332947 3.59432
0.0347185 0.471881 3.65752
0.0344744 0.410363 3.71916
0.0171367 0.402779 3.68767
0.0481093 0.428662 3.73739
0.0190144 0.568459 3.60937
-0.0238532 0.584541 3.60864
-0.0621289 0.589003 3.60313
-0.0939123 0.584327 3.59133
-0.116182 0.571252 3.5758
-0.125791 0.523879 3.54175
-0.18635 0.445959 3.43567
-0.10594 0.496054 3.56417
-0.0787093 0.491571 3.58141
-0.0449407 0.492402 3.59363
-0.0129179 0.497235 3.59899
0.0119679 0.504148 3.60087
0.0293441 0.511133 3.60331
-0.179276 0.430955 3.35011
0.0175059 0.396086 3.6749
0.0524591 0.470997 3.69823
0.0554661 0.410128 3.7399
0.0683553 0.396156 3.73026
0.0543386 0.404426 3.72779
0.0246774 0.387767 3.66544
0.0738459 0.394942 3.73769
0.0797481 0.385535 3.70862
0.0291134 0.527457 3.59231
0.0423719 0.524093 3.60714
0.049937 0.522807 3.62576
-0.0963449 0.537566 3.56791
-0.112048 0.548225 3.56351
0.114925 0.482826 3.71561
0.261023 0.517986 3.57321
0.121512 0.390693 3.71182
0.334532 0.582376 3.45125
0.188175 0.503855 3.5958
0.211271 0.501498 3.59491
0.234533 0.501308 3.58918
0.267305 0.509673 3.56795
0.170688 0.509785 3.59562
0.22348 0.562055 3.60236
0.196924 0.560733 3.60377
0.248378 0.55695 3.59539
0.264157 0.547061 3.58684
0.282647 0.492954 3.55728
0.183031 0.166326 3.60346
0.27035 0.521344 3.56477
0.339132 0.481403 3.44271
0.303649 0.501913 3.53119
0.214514 0.41562 3.63247
0.129821 0.328256 3.68333
0.123591 0.305369 3.67131
0.165309 0.324438 3.66616
0.188526 0.315794 3.63897
0.150457 0.3054 3.65667
0.172457 0.301847 3.63298
0.216021 0.262348 3.58951
0.116548 0.40899 3.75644
0.117676 0.434149 3.76162
0.292412 0.567065 3.58048
0.16461 0.473043 3.63075
0.173927 0.411427 3.69288
0.173912 0.423355 3.68276
0.280778 0.415041 3.59724
0.116525 0.461639 3.74242
0.24063 0.598401 3.62686
0.27195 0.587933 3.60639
0.312948 0.633083 3.49946
0.141423 0.585428 3.64966
0.176984 0.552448 3.59721
0.234476 0.294282 3.58472
0.315189 0.25964 3.37996
0.159491 0.396285 3.6847
0.138743 0.387424 3.68984
0.22073 0.292544 3.58528
0.206449 0.291172 3.59115
0.283123 0.600852 3.59325
0.175353 0.400776 3.6798
0.198104 0.599254 3.64253
0.201533 0.620151 3.64747
0.224337 0.711643 3.59581
0.296776 0.618752 3.55135
0.211641 0.668645 3.62231
0.305068 0.573408 3.55875
0.31949 0.576989 3.50836
0.127186 0.314781 3.67983
0.157814 0.312928 3.66168
0.180738 0.309194 3.63785
0.153927 0.391336 3.68179
0.21413 0.292185 3.58912
0.200838 0.272376 3.60393
0.200614 0.2908 3.59074
0.144378 0.405819 3.71819
0.165855 0.303186 3.62816
0.145193 0.303856 3.64594
0.120014 0.302915 3.65935
0.133944 0.191801 3.63736
0.133374 0.213603 3.65678
0.132706 0.226931 3.65872
0.131945 0.237753 3.65215
0.128942 0.245872 3.64694
0.173175 0.262809 3.61905
0.177444 0.261029 3.62356
0.183061 0.256575 3.62669
0.188595 0.249376 3.62213
0.205464 0.336103 3.63417
0.343091 0.365052 3.34459
0.186882 0.271414 3.60106
0.19426 0.272904 3.60427
0.131348 0.375883 3.68747
0.170588 0.384473 3.66373
0.134697 0.381494 3.69028
0.189522 0.4595 3.62219
0.227142 0.44418 3.61726
0.179116 0.411893 3.66946
0.277856 0.677248 3.55075
0.26261 0.650124 3.58907
0.24856 0.616956 3.62139
0.195431 0.234958 3.6046
0.148236 0.618141 3.65869
0.156491 0.677472 3.64043
0.163567 0.731439 3.62254
0.255097 0.503511 3.5787
0.303163 0.474758 3.54355
0.161347 0.515103 3.5923
0.285303 0.535315 3.56563
0.147794 0.488535 3.63886
0.157855 0.421388 3.71747
0.325053 0.453638 3.51439
0.290198 0.46484 3.56606
0.262867 0.461777 3.58969
0.220556 0.466466 3.60183
0.188468 0.475937 3.60671
0.164298 0.487429 3.61397
0.115761 0.524248 3.66786
0.328167 0.409814 3.52371
0.299417 0.536003 3.55335
0.107947 0.394214 3.74372
0.165767 0.452337 3.6442
0.349622 0.468985 3.36141
0.147853 0.500085 3.61852
0.184231 0.407307 3.64384
0.276922 0.519736 3.55916
0.156911 0.436298 3.70555
0.334417 0.313549 3.35692
0.163182 0.521782 3.5851
0.13608 0.451601 3.72805
0.269557 0.222969 3.50679
0.263529 0.188995 3.46652
0.345877 0.384721 3.43509
0.296626 0.251135 3.47903
0.332082 0.530928 3.46845
0.18504 0.140472 3.59081
0.110111 0.383887 3.71157
0.186424 0.435488 3.63651
0.319377 0.492765 3.50503
0.235703 0.513784 3.58697
0.213627 0.513323 3.5918
0.206765 0.270587 3.59993
0.326157 0.362366 3.51783
0.145938 0.102503 3.58973
0.210044 0.137279 3.53461
0.234146 0.159678 3.50341
0.193255 0.515389 3.59297
0.176596 0.518832 3.58944
0.167708 0.520106 3.58494
0.313371 0.536063 3.52771
0.179646 0.536836 3.59166
0.196956 0.542605 3.59611
0.218278 0.543479 3.59537
0.240352 0.5391 3.59046
0.254411 0.532013 3.58345
0.347806 0.529775 3.40145
0.250883 0.515537 3.5797
0.182438 0.350923 3.65596
0.158912 0.400772 3.69612
0.133299 0.35664 3.68185
0.241271 0.192195 3.53011
0.213584 0.166834 3.55821
0.145091 0.121863 3.61749
0.289805 0.218355 3.42186
0.168692 0.527999 3.58746
0.132463 0.487337 3.67699
0.182133 0.117552 3.56715
0.337488 0.335578 3.43998
0.153945 0.253014 3.6348
0.158211 0.24782 3.63925
0.162145 0.239464 3.64285
0.165673 0.227316 3.63975
0.169979 0.209806 3.62238
0.19248 0.298693 3.61048
0.201409 0.30224 3.60966
0.207937 0.306849 3.61031
0.225272 0.317791 3.60813
0.297895 0.359059 3.5704
0.131757 0.507089 3.65154
0.145348 0.542097 3.60571
0.159131 0.536782 3.59343
0.184949 0.300147 3.60648
0.296673 0.294495 3.52892
0.123197 0.550369 3.63989
0.175423 0.191222 3.61138
0.114727 0.502865 3.69519
0.150335 0.452158 3.68046
0.138427 0.171176 3.63047
0.227149 0.250366 3.57648
0.201678 0.386815 3.63535
0.202973 0.218066 3.5915
0.250372 0.386343 3.62204
0.222497 0.361449 3.62464
0.268893 0.346142 3.59687
0.143439 0.145556 3.62842
0.165695 0.437913 3.6626
0.240066 0.225518 3.55638
0.211176 0.194946 3.57574
0.247303 0.285697 3.5757
0.317582 0.320262 3.50834
0.268514 0.273948 3.55605
0.322117 0.289785 3.44842
0.240305 0.332856 3.60624
0.148849 0.469558 3.65867
0.150563 0.411069 3.72377
0.167176 0.403798 3.69795
0.139391 0.428653 3.74057
0.162671 0.561238 3.61098
0.198533 0.573819 3.61558
0.231611 0.575412 3.61329
0.259432 0.569472 3.6021
0.277367 0.556336 3.58667
0.287386 0.511702 3.54929
0.345106 0.432644 3.43579
0.271112 0.486413 3.57005
0.246566 0.483127 3.58531
0.215978 0.484829 3.5949
0.187356 0.490477 3.59839
0.166157 0.498842 3.60173
0.152593 0.506642 3.60347
0.346532 0.415511 3.34385
0.167209 0.397098 3.68571
0.134106 0.469455 3.69873
0.133287 0.411148 3.74421
0.119165 0.397571 3.73436
0.133547 0.405591 3.73184
0.161905 0.38902 3.6783
0.114931 0.395857 3.74124
0.116884 0.386242 3.71221
0.154962 0.52186 3.59114
0.141131 0.519896 3.60802
0.133749 0.519506 3.62693
0.263148 0.526451 3.5756
0.275071 0.535289 3.57332
