ply
format ascii 1.0
comment Created by Open3D
element vertex 468
property double x
property double y
property double z
end_header
-0.00676747 0.358971 3.87338
-0.00760323 0.443671 3.93089
-0.00757816 0.413974 3.8698
-0.0275485 0.527603 3.89464
-0.00780067 0.470297 3.93718
-0.00795178 0.504771 3.92558
-0.00778253 0.585021 3.86064
-0.171095 0.593792 3.76446
-0.0075042 0.638617 3.84577
-0.00732183 0.67192 3.85082
-0.00717191 0.805584 3.81907
-0.00666126 0.346721 3.87109
-0.00652323 0.337931 3.86352
-0.00635678 0.334225 3.85261
-0.00543427 0.322413 3.8499
-0.00529289 0.312482 3.85417
-0.00520748 0.300269 3.85924
-0.00500474 0.286302 3.85522
-0.00498427 0.261087 3.83173
-0.00779549 0.430494 3.91936
-0.0291522 0.430156 3.88561
-0.264805 0.677546 3.65498
-0.102877 0.572725 3.78907
-0.125994 0.57134 3.78811
-0.148879 0.571382 3.78225
-0.179778 0.583581 3.76182
-0.0840006 0.57737 3.78715
-0.136754 0.627289 3.79594
-0.112285 0.626245 3.79622
-0.158713 0.623506 3.78902
-0.173466 0.616331 3.78007
-0.200575 0.564177 3.75167
-0.0934106 0.22196 3.8048
-0.180282 0.599004 3.75721
-0.275792 0.565795 3.64685
-0.229642 0.577186 3.72862
-0.122082 0.46346 3.81635
-0.0350094 0.362894 3.86978
-0.0300811 0.338371 3.85996
-0.0632555 0.354971 3.85637
-0.0804402 0.343686 3.83959
-0.0502948 0.336507 3.85066
-0.0657234 0.332429 3.83434
-0.109428 0.302396 3.80258
-0.0270926 0.444593 3.92866
-0.030312 0.470359 3.93439
-0.212815 0.637998 3.77659
-0.076023 0.528783 3.81828
-0.0807456 0.450112 3.86812
-0.0819614 0.463972 3.85965
-0.191488 0.465809 3.78837
-0.0289806 0.501689 3.91842
-0.156493 0.662407 3.81797
-0.189461 0.655012 3.80064
-0.241232 0.725822 3.70114
-0.0544026 0.642559 3.83783
-0.0903957 0.618867 3.78905
-0.127137 0.325067 3.79678
-0.251927 0.321306 3.58762
-0.0637512 0.434374 3.85939
-0.0445545 0.42674 3.86283
-0.100248 0.323115 3.80021
-0.0897908 0.325736 3.80629
-0.203802 0.670988 3.78838
-0.0814019 0.438851 3.85512
-0.112054 0.659914 3.8304
-0.1174 0.681849 3.83474
-0.145466 0.791046 3.78901
-0.22202 0.700684 3.75045
-0.129179 0.739138 3.81398
-0.228658 0.648003 3.7559
-0.246701 0.662262 3.7087
-0.0329296 0.348428 3.8679
-0.0558823 0.343322 3.85498
-0.072925 0.337498 3.83895
-0.0579507 0.42979 3.85575
-0.0946613 0.323943 3.80366
-0.0851757 0.320371 3.8173
-0.0875766 0.327728 3.80698
-0.0515588 0.444138 3.89358
-0.0613659 0.334 3.82994
-0.0456569 0.335085 3.8409
-0.0269836 0.33486 3.84966
-0.0357224 0.262088 3.83056
-0.0332724 0.288329 3.85353
-0.0318484 0.303069 3.85634
-0.0301498 0.314881 3.85107
-0.0281709 0.323043 3.84681
-0.0646067 0.324615 3.82782
-0.0680689 0.322001 3.83132
-0.0730045 0.315924 3.83366
-0.0776523 0.307305 3.82969
-0.101782 0.371471 3.83023
-0.277376 0.44382 3.55031
-0.00763498 0.422394 3.88718
-0.0752833 0.3246 3.81578
-0.0798216 0.323435 3.81759
-0.0364845 0.414723 3.86318
-0.0731275 0.421552 3.83827
-0.0404913 0.420514 3.86401
-0.0992127 0.514133 3.8103
-0.136869 0.496524 3.80542
-0.0856335 0.452182 3.84645
-0.203723 0.764713 3.74822
-0.184739 0.727173 3.7837
-0.166019 0.683358 3.81279
-0.0906125 0.286993 3.8139
-0.0627977 0.676445 3.84683
-0.072058 0.742427 3.83133
-0.0820868 0.803468 3.8125
-0.168476 0.575232 3.77209
-0.227702 0.543665 3.73968
-0.0722395 0.581993 3.78394
-0.200976 0.609223 3.76177
-0.0600856 0.545033 3.82631
-0.0666132 0.459872 3.89159
-0.254045 0.523928 3.71413
-0.209769 0.5274 3.7614
-0.177914 0.519334 3.78302
-0.132187 0.524747 3.79373
-0.0996096 0.535777 3.79754
-0.0764142 0.547683 3.80422
-0.0298073 0.578019 3.85174
-0.248848 0.470627 3.72278
-0.222875 0.611019 3.75145
-0.0194359 0.431644 3.91776
-0.0743046 0.502672 3.82816
-0.283282 0.560309 3.56707
-0.0589536 0.559992 3.80779
-0.0873562 0.448604 3.82207
-0.187188 0.595405 3.75339
-0.0674324 0.476697 3.88134
-0.269702 0.383157 3.56275
-0.0732799 0.590881 3.77766
-0.0488463 0.492249 3.90407
-0.197361 0.272088 3.7156
-0.197284 0.240341 3.67402
-0.274375 0.455699 3.63696
-0.227448 0.304059 3.6855
-0.261951 0.617796 3.67094
-0.0990744 0.19509 3.79163
-0.0167714 0.423312 3.88536
-0.0944267 0.483949 3.81986
-0.251522 0.570387 3.70523
-0.146474 0.587235 3.7782
-0.12618 0.585523 3.7842
-0.0909378 0.315406 3.81338
-0.243692 0.418364 3.71574
-0.055456 0.159241 3.78599
-0.12827 0.189837 3.7388
-0.160326 0.210422 3.7109
-0.00704313 0.741573 3.83632
-0.00478073 0.15493 3.793
-0.106964 0.586639 3.78516
-0.0889327 0.589133 3.78223
-0.0778535 0.589601 3.77815
-0.241504 0.614271 3.7272
-0.0938469 0.611588 3.78405
-0.114274 0.620233 3.78762
-0.135044 0.62187 3.78638
-0.155562 0.617287 3.78111
-0.167826 0.609753 3.7739
-0.277941 0.624589 3.60546
-0.160774 0.590332 3.77091
-0.00724379 0.396497 3.86459
-0.0821697 0.386762 3.84185
-0.0643018 0.438836 3.8694
-0.0385363 0.395004 3.86258
-0.00761769 0.61284 3.84315
-0.16487 0.241093 3.73947
-0.133342 0.217629 3.76385
-0.056711 0.179359 3.81509
-0.226545 0.273743 3.62925
-0.0796062 0.599103 3.78067
-0.0449911 0.537966 3.85926
-0.00470572 0.175418 3.82114
-0.0943443 0.172164 3.76731
-0.266549 0.399829 3.64157
-0.0480828 0.324078 3.83826
-0.05139 0.318516 3.84267
-0.0548941 0.309175 3.8457
-0.0579578 0.295983 3.8427
-0.066248 0.272977 3.8256
-0.0798398 0.329253 3.82002
-0.0866554 0.330663 3.82026
-0.0935688 0.334207 3.82029
-0.118391 0.350094 3.81464
-0.210162 0.408902 3.76459
-0.0444962 0.562726 3.83707
-0.0551467 0.605458 3.7948
-0.0699462 0.602913 3.78602
-0.0750892 0.332396 3.81657
-0.214231 0.344345 3.72992
-0.0364449 0.607821 3.826
-0.0807852 0.248004 3.81297
-0.00791209 0.53213 3.90254
-0.0292968 0.552076 3.87585
-0.00778712 0.557671 3.88113
-0.0607474 0.497873 3.85977
-0.00478416 0.202927 3.8336
-0.00487436 0.234315 3.83173
-0.0440177 0.235507 3.82678
-0.134455 0.291966 3.78858
-0.105854 0.428544 3.818
-0.110141 0.266603 3.79978
-0.158279 0.43312 3.80833
-0.12638 0.403275 3.81512
-0.177714 0.390919 3.79042
-0.0527036 0.205649 3.82709
-0.0740765 0.483155 3.84256
-0.156092 0.271276 3.76634
-0.125208 0.244494 3.78189
-0.152624 0.322461 3.78583
-0.237321 0.374 3.70793
-0.183765 0.318356 3.76227
-0.253241 0.348673 3.65274
-0.14391 0.369653 3.80592
-0.0593323 0.520638 3.84249
-0.0590354 0.448776 3.89817
-0.0738437 0.441617 3.87137
-0.0497432 0.466136 3.91468
-0.0731443 0.623842 3.80241
-0.110707 0.635915 3.80753
-0.143335 0.638682 3.80596
-0.170662 0.635853 3.79644
-0.189881 0.626804 3.78239
-0.20554 0.586784 3.74518
-0.278558 0.511184 3.64034
-0.186296 0.554391 3.76362
-0.161696 0.547967 3.77865
-0.12986 0.549508 3.78783
-0.100581 0.555388 3.79032
-0.0787162 0.562934 3.7924
-0.0638334 0.569866 3.79333
-0.280726 0.501521 3.55093
-0.0730525 0.434636 3.85983
-0.0451575 0.515068 3.87809
-0.0431744 0.447914 3.91689
-0.0304781 0.435821 3.90754
-0.0428798 0.443548 3.90535
-0.0663208 0.426452 3.85185
-0.0264273 0.433507 3.91407
-0.0241587 0.425782 3.88555
-0.0651436 0.587937 3.78154
-0.0521311 0.582437 3.79648
-0.0456884 0.578888 3.81411
-0.174879 0.604015 3.76692
-0.185586 0.608305 3.76663
0.0117827 0.52729 3.89468
0.155289 0.591335 3.76493
0.0133431 0.430056 3.88559
0.250383 0.674224 3.65522
0.0870095 0.571212 3.78937
0.11039 0.569565 3.78839
0.133296 0.569558 3.78296
0.163611 0.581048 3.76246
0.0677131 0.576123 3.78746
0.121654 0.625386 3.79637
0.0969255 0.62491 3.79669
0.143495 0.621077 3.78952
0.158031 0.613646 3.78085
0.184608 0.561899 3.75258
0.082412 0.220977 3.80491
0.164315 0.596227 3.75777
0.259575 0.562971 3.64734
0.213808 0.574889 3.72945
0.106943 0.46241 3.81693
0.0212691 0.362818 3.86992
0.0170882 0.338408 3.85988
0.0498289 0.354728 3.85642
0.0674945 0.34358 3.83967
0.0373563 0.336481 3.85093
0.0532457 0.332421 3.83452
0.0976672 0.301852 3.80288
0.0117294 0.444585 3.92863
0.0146355 0.470236 3.93452
0.198257 0.635403 3.77728
0.0605235 0.527943 3.81862
0.0644423 0.449321 3.86824
0.0656148 0.463169 3.85993
0.176131 0.464191 3.78906
0.0131649 0.501384 3.91841
0.142278 0.660669 3.8182
0.175088 0.652697 3.80109
0.227459 0.722736 3.70145
0.0395129 0.642038 3.83777
0.0750026 0.617743 3.78937
0.114449 0.324569 3.79691
0.234214 0.319178 3.58721
0.0476814 0.43379 3.85956
0.0288361 0.426266 3.86294
0.0884289 0.322901 3.80012
0.0778791 0.325719 3.80626
0.18987 0.668466 3.78882
0.0650443 0.438022 3.85535
0.0975741 0.658691 3.83056
0.103002 0.680752 3.83489
0.130688 0.78923 3.78926
0.208328 0.697971 3.75088
0.11478 0.737729 3.81411
0.214281 0.645318 3.7563
0.232567 0.659187 3.70919
0.0197311 0.348391 3.86797
0.0428182 0.343247 3.85502
0.0603447 0.337563 3.83921
0.0419041 0.429235 3.8559
0.0828344 0.32393 3.80379
0.0738407 0.32014 3.81747
0.0755236 0.327548 3.80707
0.0355017 0.443811 3.89351
0.0487045 0.334143 3.83014
0.0328647 0.335007 3.84106
0.0142245 0.334869 3.84969
0.025499 0.261806 3.83078
0.0230472 0.288112 3.85368
0.021431 0.302811 3.85661
0.0194229 0.314583 3.85116
0.0172378 0.322779 3.84703
0.0534437 0.324488 3.82806
0.0568982 0.32177 3.83162
0.0619734 0.315647 3.83404
0.0666738 0.306874 3.82984
0.0877629 0.370977 3.83045
0.259649 0.441272 3.55044
0.0637644 0.324483 3.81587
0.0683846 0.323111 3.81794
0.0210218 0.41454 3.86326
0.0570583 0.420765 3.83853
0.0247833 0.420372 3.86423
0.0838273 0.512989 3.81084
0.121798 0.495195 3.80599
0.0693213 0.451391 3.84692
0.189458 0.762524 3.74879
0.170621 0.725149 3.78403
0.151721 0.681616 3.81293
0.0793574 0.286433 3.81423
0.0481493 0.675667 3.84652
0.0576355 0.741562 3.83117
0.0675213 0.802557 3.81272
0.152655 0.573096 3.77271
0.211582 0.54151 3.7405
0.0560031 0.580996 3.78405
0.18559 0.606565 3.76236
0.0447266 0.544379 3.8266
0.0504791 0.459193 3.89169
0.237411 0.521591 3.71487
0.193675 0.525333 3.76202
0.162452 0.51774 3.78396
0.116941 0.523378 3.79421
0.0841499 0.534678 3.79806
0.0608009 0.546737 3.80458
0.0144928 0.577827 3.85172
0.232035 0.46834 3.72317
0.207668 0.608562 3.75196
0.00394891 0.431581 3.91758
0.0587144 0.501861 3.82846
0.266833 0.557146 3.56747
0.043465 0.559248 3.80796
0.0712138 0.447826 3.8223
0.17115 0.592672 3.75396
0.0511599 0.47601 3.88151
0.251595 0.380781 3.5624
0.0571458 0.589752 3.77764
0.0329313 0.491893 3.90426
0.182674 0.270499 3.71571
0.182218 0.238828 3.67391
0.256926 0.453224 3.63711
0.211318 0.302241 3.68541
0.246754 0.614924 3.6714
0.0883394 0.194207 3.79144
0.00147845 0.42333 3.88548
0.0788383 0.483062 3.82021
0.235353 0.567786 3.70576
0.130992 0.585133 3.77866
0.110587 0.583586 3.7844
0.0796014 0.315189 3.81371
0.22698 0.416325 3.71611
0.0454543 0.158763 3.78593
0.116359 0.188568 3.73859
0.147108 0.209052 3.71063
0.0910843 0.584981 3.78556
0.0727768 0.587805 3.78233
0.061777 0.588342 3.77819
0.226258 0.611745 3.72781
0.0779908 0.610228 3.7844
0.0986437 0.618553 3.78808
0.119563 0.619635 3.78691
0.139846 0.614731 3.78197
0.151947 0.607081 3.77483
0.262619 0.621259 3.60573
0.145149 0.587995 3.77133
0.0673707 0.386259 3.84214
0.0481521 0.43832 3.8695
0.0240333 0.394854 3.86269
0.15165 0.239686 3.73954
0.121344 0.216415 3.76384
0.0466286 0.178821 3.81504
0.209834 0.272051 3.6292
0.0635847 0.598064 3.78094
0.0295893 0.537477 3.85947
0.083715 0.171222 3.76727
0.248738 0.397614 3.64159
0.0370897 0.323845 3.83879
0.040591 0.318242 3.84288
0.044211 0.308898 3.84617
0.0474873 0.295623 3.84303
0.0556094 0.272437 3.82585
0.0676514 0.329227 3.82014
0.0743756 0.330455 3.82036
0.081205 0.334035 3.82028
0.10508 0.349667 3.81482
0.194248 0.407307 3.76533
0.0292315 0.562286 3.83721
0.0397073 0.604748 3.79505
0.054018 0.602012 3.78627
0.0626226 0.332367 3.81683
0.198593 0.342705 3.7303
0.0212807 0.607355 3.82624
0.0696639 0.24737 3.81308
0.0136828 0.551765 3.87597
0.0448478 0.497307 3.86
0.0337551 0.235137 3.82685
0.121663 0.291078 3.78889
0.09032 0.427704 3.8186
0.0983207 0.265784 3.80006
0.143428 0.431879 3.80914
0.111629 0.402326 3.81559
0.162994 0.389624 3.79121
0.0426126 0.205073 3.82694
0.0581196 0.482376 3.84278
0.143012 0.270233 3.76652
0.113238 0.243413 3.78204
0.139201 0.321632 3.78596
0.220858 0.372064 3.70822
0.169219 0.317164 3.76276
0.236051 0.346724 3.65271
0.129836 0.36883 3.80642
0.0437638 0.51999 3.84256
0.0429801 0.448372 3.89819
0.0576087 0.440849 3.87166
0.0338863 0.465717 3.91485
0.0578812 0.622914 3.80245
0.0958149 0.634604 3.80776
0.12855 0.636706 3.80643
0.155691 0.633313 3.79705
0.17482 0.623989 3.78284
0.18979 0.584303 3.74591
0.261742 0.508583 3.64072
0.170446 0.552379 3.76442
0.146075 0.546187 3.77931
0.114368 0.54787 3.78846
0.0848795 0.55414 3.79078
0.0628998 0.561895 3.79271
0.0480041 0.569066 3.79366
0.263534 0.498741 3.551
0.0567468 0.433871 3.86005
0.0294969 0.514703 3.87827
0.0275488 0.447708 3.917
0.0147966 0.43583 3.90755
0.0270466 0.443419 3.90533
0.0501677 0.425681 3.85225
0.0109385 0.433492 3.91398
0.00862784 0.425637 3.8856
0.0490524 0.586978 3.78198
0.0363504 0.581643 3.79683
0.0303118 0.578292 3.81416
0.158968 0.601121 3.76758
0.169852 0.605556 3.76738
