ply
format ascii 1.0
comment Created by Open3D
element vertex 468
property double x
property double y
property double z
end_header
-0.0255668 0.365248 3.90525
-0.0315286 0.446035 3.9741
-0.0302477 0.415558 3.91101
-0.0514054 0.530749 3.93229
-0.0314514 0.473532 3.9799
-0.0306942 0.508408 3.96626
-0.0300228 0.587148 3.89144
-0.198784 0.589329 3.79375
-0.0296192 0.651579 3.86562
-0.0292448 0.685007 3.86766
-0.0280864 0.783252 3.84033
-0.0246952 0.353756 3.90263
-0.023883 0.346272 3.89626
-0.0234648 0.344181 3.88602
-0.0256738 0.285143 3.87612
-0.0254797 0.274485 3.88172
-0.0249201 0.262686 3.88814
-0.024894 0.248397 3.88489
-0.0261187 0.22729 3.86511
-0.0307469 0.43171 3.9626
-0.056253 0.432057 3.92835
-0.267356 0.653441 3.67808
-0.125093 0.570681 3.81833
-0.148671 0.569072 3.81735
-0.172155 0.568555 3.81156
-0.205003 0.580148 3.79026
-0.107105 0.574994 3.81577
-0.164024 0.636052 3.81986
-0.136648 0.633305 3.82042
-0.189088 0.630942 3.8134
-0.205176 0.620136 3.80569
-0.219882 0.560477 3.77999
-0.121961 0.208324 3.82885
-0.208765 0.595132 3.78523
-0.278856 0.554228 3.67339
-0.243543 0.572867 3.75524
-0.151711 0.470252 3.85349
-0.0639647 0.370573 3.9028
-0.0577308 0.347911 3.89194
-0.101053 0.36735 3.88612
-0.122263 0.36018 3.86007
-0.0847954 0.348692 3.87823
-0.104748 0.346323 3.85463
-0.15075 0.309646 3.81269
-0.052365 0.447627 3.97268
-0.0549807 0.474371 3.97775
-0.233372 0.642562 3.79806
-0.100745 0.529817 3.85062
-0.111746 0.456782 3.91089
-0.112202 0.470426 3.90154
-0.218508 0.475332 3.81992
-0.0533171 0.505435 3.95932
-0.184722 0.67557 3.8365
-0.214398 0.664456 3.81882
-0.248111 0.700453 3.72245
-0.0826224 0.658071 3.85825
-0.113753 0.622321 3.81447
-0.169216 0.343212 3.80744
-0.253815 0.326995 3.61867
-0.0954106 0.440896 3.90234
-0.0747647 0.430664 3.90547
-0.151857 0.338682 3.8079
-0.138164 0.337177 3.81423
-0.225338 0.677041 3.80705
-0.113422 0.44638 3.89786
-0.142622 0.676281 3.85048
-0.146556 0.695688 3.85547
-0.161921 0.767125 3.81058
-0.236446 0.688848 3.77007
-0.152362 0.730895 3.83477
-0.245048 0.649099 3.77746
-0.255922 0.648975 3.73077
-0.061331 0.356963 3.89983
-0.0923772 0.35574 3.88234
-0.113714 0.353242 3.85879
-0.0899704 0.435564 3.89814
-0.14562 0.338004 3.81168
-0.132179 0.316469 3.82615
-0.13317 0.337271 3.81438
-0.0798898 0.448407 3.93635
-0.0990111 0.348204 3.8505
-0.0791787 0.347904 3.86824
-0.0541735 0.346085 3.88147
-0.0667901 0.232747 3.86226
-0.0648196 0.25432 3.88116
-0.0631377 0.267958 3.88287
-0.0611236 0.279495 3.87602
-0.0581185 0.288426 3.87127
-0.104235 0.306449 3.84298
-0.109116 0.303906 3.84635
-0.115633 0.298907 3.84926
-0.121311 0.291869 3.8447
-0.140631 0.383211 3.85436
-0.276622 0.440294 3.58159
-0.0317676 0.422598 3.92953
-0.117338 0.316392 3.82528
-0.125327 0.316953 3.82718
-0.0656775 0.417752 3.90507
-0.107374 0.429414 3.88082
-0.0701545 0.423952 3.9065
-0.125012 0.51699 3.84301
-0.163895 0.502537 3.83802
-0.116913 0.45928 3.88831
-0.21578 0.739907 3.76866
-0.20475 0.71728 3.80412
-0.192972 0.692979 3.83247
-0.130427 0.279549 3.82866
-0.0899342 0.690371 3.8657
-0.0951359 0.733193 3.85196
-0.101127 0.780241 3.83536
-0.192884 0.57214 3.80105
-0.242414 0.541665 3.76863
-0.096271 0.579738 3.81214
-0.223999 0.607734 3.78635
-0.0841843 0.545093 3.85792
-0.0953465 0.465556 3.93471
-0.265293 0.522107 3.74226
-0.227886 0.529565 3.79087
-0.199609 0.524105 3.81322
-0.156193 0.52777 3.82337
-0.123557 0.536516 3.8278
-0.100143 0.54728 3.83415
-0.0526221 0.579577 3.88233
-0.26633 0.476161 3.75199
-0.239445 0.609822 3.77526
-0.0436859 0.433349 3.96116
-0.101514 0.506053 3.86475
-0.282885 0.545121 3.59573
-0.0831421 0.559199 3.83713
-0.120329 0.456106 3.86301
-0.21459 0.592206 3.78032
-0.0952752 0.482346 3.92343
-0.270405 0.385641 3.59464
-0.0979996 0.587848 3.80501
-0.0741518 0.496789 3.94583
-0.212952 0.277628 3.73893
-0.207716 0.24428 3.70226
-0.283342 0.456141 3.66733
-0.238854 0.311056 3.71296
-0.268139 0.603635 3.69532
-0.125887 0.179985 3.81853
-0.0424118 0.423753 3.92821
-0.123117 0.489341 3.85747
-0.260294 0.564178 3.73194
-0.172334 0.582983 3.80798
-0.150588 0.58205 3.81306
-0.138809 0.31507 3.82235
-0.264319 0.427145 3.74561
-0.0828714 0.136708 3.81874
-0.152498 0.18102 3.7662
-0.178436 0.208742 3.73688
-0.0288589 0.732403 3.85647
-0.0297225 0.128413 3.82609
-0.130511 0.583397 3.81372
-0.112388 0.585629 3.80992
-0.102092 0.586086 3.80503
-0.253149 0.610275 3.7511
-0.118698 0.609193 3.81085
-0.139041 0.619038 3.81401
-0.16135 0.621416 3.81335
-0.183553 0.616612 3.80879
-0.196672 0.607989 3.80232
-0.279642 0.603489 3.63165
-0.187765 0.585599 3.80047
-0.0286403 0.398921 3.90329
-0.119099 0.395783 3.87508
-0.0950657 0.444739 3.91271
-0.0675102 0.399122 3.90057
-0.0294906 0.61875 3.86978
-0.185058 0.241498 3.75976
-0.156644 0.211295 3.78673
-0.0826523 0.157491 3.84436
-0.231351 0.279957 3.66017
-0.104726 0.595914 3.80745
-0.0694073 0.539606 3.89419
-0.0285666 0.148021 3.85024
-0.122296 0.155502 3.79736
-0.276489 0.404239 3.6729
-0.083752 0.295999 3.85882
-0.0887422 0.290109 3.8627
-0.0932821 0.281082 3.86644
-0.0972806 0.268724 3.86336
-0.104097 0.252286 3.84758
-0.12437 0.344231 3.83272
-0.133129 0.347629 3.83136
-0.140273 0.352478 3.83197
-0.159297 0.366066 3.82973
-0.236166 0.419762 3.79437
-0.0680439 0.563031 3.86817
-0.0800516 0.606912 3.82199
-0.0942422 0.602663 3.81188
-0.117011 0.346316 3.82991
-0.236661 0.35405 3.75698
-0.0602286 0.612758 3.85351
-0.112251 0.234477 3.83651
-0.030535 0.535148 3.94012
-0.0523512 0.553986 3.91025
-0.0303934 0.559663 3.91521
-0.0870972 0.501998 3.89884
-0.0277228 0.175606 3.85983
-0.0269768 0.205127 3.86034
-0.072057 0.211923 3.85432
-0.166107 0.300143 3.80081
-0.138352 0.436855 3.85532
-0.142233 0.26436 3.81671
-0.188291 0.442212 3.84295
-0.15856 0.412952 3.84547
-0.206684 0.402862 3.81957
-0.0792402 0.184165 3.85315
-0.102395 0.488231 3.88205
-0.181991 0.275377 3.78295
-0.152311 0.240677 3.80178
-0.184837 0.338139 3.80004
-0.257221 0.383442 3.73716
-0.209982 0.328594 3.78235
-0.262367 0.354757 3.68276
-0.176636 0.385602 3.82801
-0.0849034 0.522494 3.87798
-0.0875434 0.453745 3.94159
-0.104544 0.448124 3.91491
-0.076715 0.470431 3.95725
-0.0995972 0.630989 3.82624
-0.138451 0.646662 3.82917
-0.172456 0.648938 3.8266
-0.199609 0.64311 3.81734
-0.216932 0.629977 3.80422
-0.225404 0.5825 3.77166
-0.28353 0.505278 3.66857
-0.207607 0.553183 3.79294
-0.18301 0.54789 3.80772
-0.151988 0.549338 3.81688
-0.123308 0.554651 3.82048
-0.102115 0.56151 3.82155
-0.0878186 0.568279 3.82266
-0.279767 0.492109 3.5804
-0.104662 0.441742 3.90297
-0.070316 0.518338 3.91649
-0.0700036 0.451489 3.96077
-0.0560642 0.438061 3.95109
-0.069812 0.447119 3.94896
-0.0990659 0.433514 3.89485
-0.0514395 0.435333 3.95778
-0.0504715 0.426895 3.92853
-0.0895478 0.586173 3.80989
-0.0762293 0.581529 3.82539
-0.0694346 0.578791 3.8431
-0.203758 0.601062 3.79498
-0.214344 0.608058 3.79322
-0.00954552 0.530708 3.93236
0.145299 0.585053 3.79184
-0.00546712 0.431044 3.92634
0.226622 0.655075 3.67837
0.0720632 0.569221 3.81967
0.0965705 0.567307 3.81796
0.120639 0.566544 3.81143
0.154139 0.576297 3.78861
0.0517223 0.573619 3.81641
0.11223 0.633404 3.81897
0.0836648 0.631581 3.81939
0.137405 0.627332 3.81138
0.153756 0.615992 3.80277
0.170078 0.558361 3.77788
0.0699772 0.203619 3.82573
0.155709 0.590022 3.78284
0.235001 0.553171 3.67214
0.195729 0.570599 3.75225
0.0997226 0.46934 3.8494
0.0148296 0.369776 3.90052
0.0126548 0.347323 3.8905
0.0557034 0.366188 3.88186
0.0799097 0.35964 3.85582
0.0421296 0.348232 3.87623
0.0633643 0.346491 3.8521
0.107722 0.308124 3.80827
-0.0095908 0.446879 3.97096
-0.0062487 0.473856 3.97603
0.185855 0.638702 3.79514
0.0447523 0.529291 3.84956
0.0543955 0.455443 3.90632
0.0556238 0.469361 3.89716
0.170692 0.474167 3.8164
-0.00777213 0.505161 3.95909
0.132356 0.672443 3.83191
0.164423 0.660622 3.81511
0.205306 0.702688 3.72157
0.0250292 0.657068 3.85631
0.0590598 0.621265 3.81392
0.126967 0.342472 3.80348
0.206852 0.320571 3.61962
0.0363618 0.439362 3.89843
0.0149945 0.429364 3.90099
0.11068 0.338832 3.80383
0.0977684 0.337619 3.81008
0.176735 0.673593 3.8035
0.0572532 0.445112 3.89265
0.0875828 0.674171 3.84604
0.0922235 0.69382 3.85054
0.111184 0.769111 3.80829
0.190919 0.688174 3.76703
0.0987058 0.730805 3.83134
0.198848 0.645943 3.77481
0.212207 0.648135 3.729
0.0146523 0.356291 3.89811
0.0483237 0.354948 3.8796
0.0718375 0.352957 3.85534
0.0306113 0.433977 3.89317
0.104672 0.33829 3.80693
0.0899684 0.316198 3.82137
0.093277 0.337561 3.8111
0.0200518 0.446798 3.93474
0.0586813 0.348833 3.84848
0.0368756 0.347838 3.86678
0.00999313 0.345899 3.88098
0.0164655 0.231399 3.86014
0.0172432 0.2535 3.87941
0.0153603 0.267093 3.8818
0.012059 0.278649 3.87533
0.0088028 0.287655 3.87066
0.0602225 0.306184 3.83979
0.0654472 0.303479 3.84256
0.0725837 0.298041 3.84436
0.0775403 0.290702 3.83966
0.0927556 0.38219 3.84871
0.229561 0.437288 3.58249
0.0747765 0.31662 3.82271
0.0829109 0.317012 3.82308
0.00610085 0.417153 3.90231
0.0500865 0.428134 3.87446
0.010361 0.42302 3.90269
0.0707698 0.516516 3.84185
0.112031 0.502106 3.83556
0.0611997 0.458249 3.88345
0.16964 0.742297 3.7662
0.15556 0.716785 3.79978
0.140971 0.69009 3.82777
0.0849161 0.277422 3.82469
0.0333446 0.689456 3.86258
0.0390267 0.733217 3.8495
0.0473661 0.781361 3.83268
0.141831 0.569324 3.80012
0.19448 0.540131 3.76566
0.0388266 0.578255 3.8132
0.174553 0.604008 3.78396
0.0270216 0.54471 3.85784
0.0363734 0.463973 3.93137
0.219142 0.520412 3.74
0.178919 0.528469 3.78801
0.149444 0.523653 3.81091
0.103397 0.527286 3.82253
0.0688853 0.536121 3.82738
0.0443007 0.54663 3.83388
-0.00665874 0.579495 3.88245
0.218886 0.474129 3.74918
0.192735 0.607 3.77298
-0.0172629 0.432949 3.96072
0.0447627 0.505517 3.86304
0.238478 0.545092 3.59668
0.0253747 0.558615 3.83738
0.0633584 0.455176 3.85742
0.16259 0.587909 3.77833
0.0375415 0.481239 3.92013
0.223259 0.380509 3.59473
0.0404041 0.58595 3.80673
0.0151087 0.496116 3.94415
0.16612 0.270327 3.73652
0.160416 0.235482 3.7013
0.235313 0.452705 3.66564
0.192896 0.304293 3.71105
0.223878 0.603057 3.69382
0.0720139 0.174049 3.81575
-0.0211523 0.423546 3.92734
0.068655 0.488807 3.85412
0.214702 0.562524 3.7297
0.118339 0.57993 3.80718
0.0966632 0.579854 3.81366
0.0967044 0.314567 3.81723
0.217196 0.423809 3.74239
0.0247302 0.133136 3.81786
0.0986952 0.173139 3.76484
0.127872 0.199804 3.73571
0.0760723 0.581435 3.8148
0.056602 0.584071 3.81163
0.0448253 0.584482 3.8072
0.208009 0.608297 3.74884
0.0649532 0.606957 3.81198
0.0875275 0.616113 3.8139
0.109972 0.617509 3.81258
0.131821 0.611834 3.80679
0.144692 0.602979 3.79989
0.236584 0.604568 3.63196
0.133855 0.581938 3.79945
0.0673037 0.394881 3.86985
0.0358772 0.442799 3.90793
0.012731 0.398472 3.89809
0.135339 0.233906 3.75689
0.105178 0.204123 3.78387
0.0271535 0.154106 3.84303
0.184381 0.272539 3.66096
0.0481807 0.593996 3.80949
0.0102569 0.539138 3.89345
0.0659164 0.149513 3.79626
0.229124 0.399437 3.67066
0.0368646 0.295313 3.85722
0.0422006 0.289237 3.86045
0.0473506 0.280237 3.86358
0.0509333 0.267476 3.86035
0.0562758 0.250308 3.84465
0.0849236 0.344636 3.82952
0.0927361 0.347836 3.82835
0.0997325 0.352486 3.82798
0.115064 0.365557 3.82532
0.190398 0.417172 3.791
0.0094743 0.562802 3.86859
0.021499 0.605787 3.82146
0.0368801 0.601467 3.81274
0.0778593 0.346956 3.82735
0.191097 0.349402 3.75332
0.0019708 0.612254 3.85314
0.0632149 0.231071 3.83317
-0.00753571 0.553736 3.90976
0.0291061 0.501335 3.89638
0.0200555 0.209786 3.85212
0.120151 0.296768 3.79667
0.0848905 0.435849 3.85004
0.0952616 0.260508 3.81244
0.140093 0.440617 3.83827
0.109385 0.411699 3.84074
0.160985 0.400342 3.81522
0.0255494 0.181626 3.85184
0.0456929 0.487508 3.87867
0.133802 0.269843 3.77921
0.102422 0.234933 3.79796
0.140241 0.335941 3.79754
0.210876 0.378929 3.73385
0.164985 0.324072 3.77888
0.215471 0.349141 3.68142
0.132157 0.384491 3.82413
0.0266926 0.522127 3.87702
0.0285987 0.452102 3.93889
0.0469126 0.446336 3.90978
0.0160222 0.469448 3.95562
0.0425058 0.62978 3.82582
0.0835529 0.644377 3.82687
0.118941 0.646092 3.82345
0.147509 0.639749 3.81422
0.166322 0.625951 3.80109
0.17586 0.57941 3.76924
0.237452 0.503322 3.6678
0.156957 0.551269 3.79093
0.131696 0.546745 3.80638
0.0996443 0.548297 3.81641
0.0693224 0.553813 3.82085
0.0463464 0.560477 3.8215
0.030483 0.567394 3.82287
0.233772 0.490876 3.58249
0.0473855 0.440235 3.89773
0.0102008 0.518068 3.91584
0.00910944 0.450066 3.95865
-0.00387596 0.437025 3.94928
0.00970671 0.445389 3.94679
0.04164 0.431948 3.88914
-0.00899757 0.434474 3.95628
-0.0119676 0.426235 3.92676
0.0311115 0.584613 3.81042
0.0181243 0.580539 3.82523
0.011215 0.578236 3.84277
0.151356 0.595865 3.7925
0.163363 0.603623 3.79021
