ply
format ascii 1.0
comment Created by Open3D
element vertex 468
property double x
property double y
property double z
end_header
-0.0501993 0.375538 3.96632
-0.0530989 0.464213 4.03986
-0.053959 0.428604 3.96976
-0.0717203 0.547069 3.99528
-0.0519967 0.492716 4.04668
-0.0494505 0.527143 4.03203
-0.0482226 0.604803 3.954
-0.232289 0.597731 3.84336
-0.0478776 0.673077 3.92948
-0.0471282 0.710978 3.93274
-0.0419117 0.83637 3.90151
-0.0488786 0.363132 3.96336
-0.0474789 0.354227 3.95533
-0.0466179 0.35075 3.9429
-0.0486046 0.303393 3.93448
-0.0490528 0.292094 3.93977
-0.0480016 0.279078 3.94489
-0.0487222 0.263037 3.93937
-0.0518355 0.239444 3.91293
-0.0518907 0.449048 4.0269
-0.0769099 0.446488 3.99005
-0.322965 0.668639 3.71444
-0.151094 0.580084 3.86802
-0.177229 0.577881 3.86697
-0.203934 0.577434 3.86085
-0.240014 0.588003 3.83794
-0.131682 0.585586 3.86736
-0.190684 0.64945 3.8742
-0.160901 0.64754 3.87627
-0.218121 0.643178 3.86622
-0.235384 0.631238 3.85752
-0.26075 0.567151 3.82755
-0.147532 0.214919 3.87793
-0.242709 0.602176 3.83448
-0.333976 0.555889 3.70572
-0.286775 0.579124 3.79988
-0.181337 0.475499 3.90769
-0.0857111 0.380319 3.96276
-0.0789569 0.355575 3.95041
-0.120676 0.375596 3.94393
-0.142959 0.36608 3.91614
-0.10492 0.355101 3.93459
-0.126053 0.351213 3.90971
-0.174044 0.311848 3.86453
-0.0727993 0.465729 4.03858
-0.0744328 0.492607 4.04452
-0.270104 0.654992 3.84968
-0.125776 0.540267 3.90474
-0.12972 0.468167 3.96931
-0.130165 0.481396 3.95885
-0.259349 0.475627 3.87124
-0.0730201 0.522999 4.0238
-0.213183 0.693033 3.89844
-0.246937 0.680002 3.87612
-0.295772 0.724572 3.7666
-0.103412 0.676241 3.92292
-0.138248 0.636409 3.86989
-0.194018 0.343304 3.85962
-0.310537 0.308588 3.63559
-0.114005 0.451504 3.96072
-0.093442 0.442005 3.9655
-0.173979 0.341532 3.8597
-0.158302 0.340831 3.86629
-0.260389 0.694493 3.86338
-0.130395 0.456359 3.95488
-0.167008 0.694051 3.9151
-0.170697 0.716431 3.9208
-0.192564 0.808232 3.86936
-0.277066 0.710507 3.82176
-0.180322 0.762849 3.89732
-0.285811 0.662054 3.82709
-0.304336 0.66402 3.77536
-0.0827938 0.366135 3.95939
-0.11259 0.363314 3.93994
-0.134767 0.358883 3.91478
-0.108507 0.446098 3.95689
-0.166316 0.341482 3.86408
-0.152532 0.324779 3.88052
-0.152915 0.341019 3.8663
-0.099676 0.462787 3.99681
-0.119396 0.352104 3.90443
-0.0996667 0.352988 3.92312
-0.0754658 0.351866 3.93716
-0.090506 0.24392 3.91201
-0.0868841 0.268602 3.93576
-0.0852189 0.283934 3.93908
-0.0836947 0.29665 3.93319
-0.0801026 0.305846 3.92821
-0.124733 0.318794 3.89723
-0.129137 0.316461 3.90175
-0.135184 0.311219 3.90506
-0.141555 0.302717 3.89971
-0.164833 0.387689 3.91043
-0.341596 0.426677 3.59726
-0.0559878 0.437451 3.99157
-0.138856 0.324769 3.87774
-0.145895 0.325586 3.88071
-0.0862013 0.429176 3.9633
-0.126107 0.438046 3.9375
-0.0893887 0.435476 3.96575
-0.153208 0.525132 3.8955
-0.197557 0.507833 3.89094
-0.135283 0.468785 3.94427
-0.254505 0.772629 3.82152
-0.238243 0.744763 3.86199
-0.222349 0.713039 3.89402
-0.153824 0.285056 3.88027
-0.11106 0.712611 3.93241
-0.117495 0.76979 3.91667
-0.123171 0.82836 3.89758
-0.226846 0.580387 3.84948
-0.287367 0.545998 3.81467
-0.121098 0.590879 3.86402
-0.26075 0.617668 3.83533
-0.107925 0.557024 3.91345
-0.114177 0.479591 3.996
-0.315066 0.522733 3.78308
-0.271584 0.533273 3.83888
-0.238908 0.528675 3.86414
-0.190101 0.534295 3.87463
-0.152553 0.545197 3.87941
-0.12579 0.557854 3.88708
-0.0731272 0.595667 3.94327
-0.318018 0.472111 3.79312
-0.279235 0.619156 3.82284
-0.0642718 0.45032 4.0249
-0.125202 0.515644 3.91901
-0.347421 0.542818 3.61682
-0.107765 0.571281 3.89186
-0.141027 0.463789 3.91767
-0.250163 0.600162 3.8282
-0.113351 0.495741 3.98345
-0.331775 0.368427 3.6106
-0.122868 0.598753 3.85689
-0.0932765 0.512611 4.00808
-0.250406 0.270715 3.77632
-0.246933 0.234067 3.72945
-0.342794 0.446734 3.69684
-0.284848 0.299789 3.74606
-0.321928 0.611451 3.73328
-0.150851 0.18815 3.86316
-0.0660693 0.438566 3.99022
-0.147933 0.497054 3.91091
-0.307681 0.568963 3.77276
-0.203852 0.592469 3.85867
-0.17928 0.591562 3.86379
-0.159517 0.321851 3.87592
-0.315405 0.41967 3.78653
-0.108803 0.14787 3.86027
-0.180073 0.183897 3.80162
-0.209318 0.205606 3.76864
-0.0449564 0.773097 3.92016
-0.0557905 0.139467 3.86935
-0.156704 0.593312 3.86463
-0.138018 0.596269 3.86056
-0.127678 0.597201 3.8563
-0.297545 0.61919 3.79549
-0.140937 0.617616 3.86379
-0.161276 0.625653 3.86779
-0.185953 0.627093 3.8672
-0.210118 0.621966 3.86199
-0.225479 0.61389 3.85478
-0.342128 0.609798 3.66055
-0.220869 0.594701 3.85057
-0.0531755 0.409899 3.96142
-0.140045 0.402466 3.93099
-0.113529 0.456837 3.97306
-0.0894288 0.409242 3.95825
-0.0472115 0.638358 3.93125
-0.215389 0.239973 3.80036
-0.183268 0.214934 3.82916
-0.107486 0.168149 3.89187
-0.280505 0.264048 3.68052
-0.128921 0.60611 3.85941
-0.0909687 0.55373 3.95424
-0.0534859 0.159598 3.8987
-0.148047 0.163782 3.83615
-0.333815 0.39182 3.70256
-0.105315 0.311502 3.91441
-0.110022 0.305647 3.91922
-0.114478 0.295683 3.9222
-0.11888 0.281777 3.91831
-0.12709 0.26105 3.89755
-0.144761 0.347866 3.88574
-0.154344 0.351537 3.88532
-0.161752 0.356338 3.88592
-0.184966 0.368355 3.88466
-0.279762 0.415268 3.84273
-0.0905229 0.577177 3.92663
-0.103894 0.621928 3.87895
-0.118461 0.616002 3.86573
-0.137556 0.349344 3.88184
-0.279098 0.346198 3.79913
-0.0807898 0.630069 3.91394
-0.136849 0.240541 3.88598
-0.049101 0.552887 4.00484
-0.071794 0.570304 3.97354
-0.0489257 0.57691 3.97928
-0.108285 0.514334 3.95788
-0.0523654 0.186155 3.91157
-0.0521997 0.215617 3.91135
-0.0972189 0.221282 3.90597
-0.192645 0.299553 3.85154
-0.162415 0.441961 3.9092
-0.166721 0.267153 3.86644
-0.223125 0.444034 3.89792
-0.187889 0.415522 3.89989
-0.243505 0.400929 3.87263
-0.1046 0.193248 3.90431
-0.123048 0.498567 3.93806
-0.211147 0.274439 3.82945
-0.178484 0.2439 3.84923
-0.214303 0.335446 3.85029
-0.305494 0.374105 3.77637
-0.243535 0.32442 3.82967
-0.316326 0.341258 3.71181
-0.207107 0.384961 3.88171
-0.107805 0.53444 3.93479
-0.106241 0.468398 4.00281
-0.1224 0.459992 3.9745
-0.0964555 0.486989 4.02057
-0.123939 0.647006 3.88424
-0.164544 0.663218 3.88817
-0.200869 0.664865 3.885
-0.231196 0.657159 3.87278
-0.250708 0.641955 3.85664
-0.264933 0.590555 3.81831
-0.34161 0.501045 3.69837
-0.246959 0.559267 3.84138
-0.219354 0.554899 3.85762
-0.18381 0.556977 3.86653
-0.150812 0.563718 3.87087
-0.127313 0.572191 3.87369
-0.112417 0.580126 3.87607
-0.345125 0.483522 3.59731
-0.121993 0.452346 3.96109
-0.0920535 0.532813 3.97732
-0.089791 0.468514 4.02504
-0.0751141 0.454305 4.01429
-0.0894397 0.463199 4.01167
-0.11667 0.443455 3.95305
-0.0712113 0.452226 4.0217
-0.0725384 0.441601 3.99055
-0.113846 0.598339 3.86338
-0.0994528 0.595014 3.88114
-0.0920079 0.593025 3.90045
-0.234843 0.60766 3.8465
-0.247476 0.617848 3.8433
-0.0272719 0.548091 3.99722
0.147161 0.604065 3.84163
-0.0297645 0.44425 3.98784
0.27042 0.695546 3.70531
0.0669542 0.585538 3.87519
0.0953171 0.583948 3.87179
0.123086 0.584222 3.86282
0.161428 0.595285 3.83624
0.0416764 0.589708 3.87178
0.111074 0.659448 3.87355
0.0785009 0.656361 3.87464
0.138974 0.653304 3.86318
0.157532 0.640822 3.85195
0.184233 0.576055 3.82072
0.0522789 0.205775 3.87237
0.158673 0.609095 3.83084
0.272469 0.572561 3.69676
0.217106 0.590217 3.79048
0.0919812 0.477836 3.89831
-0.00942078 0.379412 3.96005
-0.0100657 0.354948 3.94848
0.0328966 0.372692 3.9388
0.0597631 0.363898 3.91117
0.0208291 0.353727 3.93366
0.0428685 0.350557 3.90747
0.0910574 0.308431 3.85614
-0.0306894 0.464253 4.03559
-0.0262124 0.492096 4.04121
0.202747 0.668388 3.84044
0.0332724 0.543244 3.90455
0.0346861 0.467126 3.96457
0.0373778 0.481564 3.95451
0.181783 0.480642 3.85916
-0.0259552 0.52369 4.0246
0.132433 0.705487 3.88409
0.173173 0.69283 3.86389
0.240321 0.751494 3.75588
0.0100953 0.681321 3.91755
0.0497987 0.643636 3.87015
0.113601 0.341605 3.85187
0.234813 0.305498 3.63376
0.0124962 0.449151 3.95677
-0.0119646 0.439454 3.95745
0.0911398 0.341697 3.85429
0.0795091 0.34128 3.86079
0.190358 0.709565 3.85003
0.0364931 0.455446 3.9482
0.0788385 0.70367 3.90233
0.0852472 0.72718 3.90652
0.121067 0.826221 3.85961
0.215103 0.730982 3.80838
0.0986726 0.77693 3.88602
0.221748 0.677745 3.81684
0.245802 0.684508 3.76393
-0.00891751 0.365051 3.95746
0.0259498 0.361182 3.93757
0.0512241 0.357301 3.91117
0.0047935 0.443382 3.9499
0.0852401 0.341641 3.8573
0.0703748 0.323387 3.87226
0.0761612 0.341363 3.86155
-0.000274238 0.460315 3.99806
0.0393146 0.352694 3.90257
0.0157173 0.352895 3.9229
-0.0119086 0.35219 3.93761
-0.00767861 0.241363 3.90598
-0.00537581 0.266827 3.93298
-0.00658889 0.282571 3.93807
-0.0100057 0.29556 3.93358
-0.0128736 0.305029 3.92934
0.0413488 0.317625 3.89383
0.0464093 0.31476 3.89575
0.0531757 0.308576 3.89614
0.0576839 0.299859 3.89094
0.0755397 0.386727 3.9008
0.264208 0.436417 3.59385
0.056667 0.32479 3.87562
0.06348 0.325051 3.87496
-0.0200997 0.427885 3.95964
0.0253343 0.43654 3.92646
-0.0162492 0.433585 3.95974
0.0623041 0.529097 3.89433
0.110446 0.51249 3.88421
0.0421297 0.468876 3.93848
0.192811 0.79673 3.80865
0.167965 0.763192 3.84698
0.143979 0.727026 3.87928
0.0666133 0.281127 3.87332
0.0196434 0.719368 3.92382
0.0305052 0.777277 3.90934
0.0455389 0.837712 3.88906
0.147572 0.587414 3.8489
0.216144 0.555715 3.804
0.0258464 0.594839 3.87058
0.187254 0.627995 3.82961
0.0137279 0.559798 3.91472
0.0171784 0.47798 3.99258
0.248502 0.533362 3.77316
0.195927 0.542085 3.83065
0.158535 0.536262 3.85724
0.102281 0.540065 3.87312
0.0615749 0.549753 3.88058
0.0336441 0.56115 3.88828
-0.023268 0.59712 3.94444
0.246141 0.479648 3.78277
0.213271 0.631715 3.81561
-0.0382662 0.449558 4.02481
0.0300353 0.51813 3.91849
0.279997 0.563829 3.61089
0.01156 0.574167 3.89381
0.0424717 0.464098 3.90931
0.169418 0.608215 3.82468
0.0200318 0.495551 3.97988
0.254922 0.37137 3.606
0.0274604 0.602706 3.8651
-0.00183571 0.512837 4.00708
0.174169 0.258375 3.77017
0.169714 0.22016 3.72865
0.268214 0.454547 3.68725
0.213823 0.291311 3.7382
0.260203 0.631401 3.7235
0.0534397 0.177022 3.86056
-0.046099 0.438039 3.98908
0.0558896 0.499597 3.90625
0.243698 0.58185 3.76358
0.116709 0.598528 3.86048
0.0927324 0.597735 3.86906
0.0770212 0.320253 3.86762
0.24231 0.422378 3.7735
8.94916e-05 0.141448 3.86085
0.0838699 0.170007 3.80402
0.122859 0.190252 3.77124
0.0697013 0.598902 3.87096
0.0473336 0.601441 3.86902
0.0329201 0.601785 3.8655
0.235981 0.634309 3.78668
0.0566459 0.623673 3.86998
0.0835667 0.63253 3.87029
0.107715 0.633571 3.86761
0.130907 0.628397 3.86009
0.145099 0.62049 3.85111
0.28053 0.63482 3.65115
0.134056 0.600888 3.85068
0.0451358 0.401373 3.92276
0.0126708 0.453346 3.9668
-0.0120011 0.408181 3.95516
0.130365 0.225522 3.79606
0.092682 0.200551 3.82537
0.00508661 0.161792 3.89036
0.205398 0.25519 3.68091
0.0368399 0.6107 3.86833
-0.00595865 0.555145 3.95419
0.0448905 0.15313 3.83848
0.261236 0.394021 3.69128
0.0165309 0.310024 3.91409
0.021762 0.303775 3.91687
0.026821 0.293477 3.9188
0.029502 0.279457 3.91415
0.0353036 0.25787 3.89332
0.0659758 0.348038 3.8822
0.0734422 0.350996 3.88129
0.0812207 0.355562 3.88076
0.10129 0.367985 3.87643
0.206838 0.416396 3.82818
-0.00580182 0.579348 3.92795
0.0065143 0.62563 3.87938
0.0241664 0.62116 3.87123
0.0600015 0.350346 3.87953
0.206701 0.34163 3.78705
-0.0133819 0.632586 3.91334
0.0445369 0.233741 3.87947
-0.02452 0.570953 3.97294
0.0128386 0.515055 3.95491
-0.00236408 0.2171 3.90062
0.108927 0.292766 3.84315
0.0683948 0.442667 3.89975
0.0797898 0.259106 3.85769
0.140705 0.445129 3.88223
0.0992005 0.415526 3.88828
0.166356 0.399988 3.8576
0.0043269 0.188293 3.90174
0.0291979 0.499795 3.93462
0.126341 0.2636 3.82201
0.0888993 0.23215 3.84159
0.134553 0.331984 3.84408
0.23431 0.372394 3.76315
0.168872 0.317429 3.81925
0.244756 0.338541 3.70346
0.127273 0.384777 3.871
0.0115634 0.536432 3.93521
0.00902095 0.465755 4.00152
0.0253756 0.45719 3.96786
-0.00334466 0.485866 4.01953
0.0298254 0.652538 3.88425
0.0761279 0.67099 3.88273
0.116738 0.674816 3.87702
0.1509 0.668203 3.86495
0.174978 0.653131 3.84886
0.190127 0.599862 3.81226
0.273191 0.513921 3.69144
0.167634 0.5675 3.83635
0.137576 0.562054 3.85435
0.0989515 0.563039 3.86761
0.0631946 0.568595 3.87421
0.035823 0.575563 3.8753
0.0173234 0.583032 3.87824
0.271502 0.499598 3.59471
0.0248173 0.450131 3.95407
-0.00662288 0.534024 3.97798
-0.0112727 0.465962 4.0224
-0.024894 0.4518 4.01143
-0.0108565 0.460039 4.00984
0.0173359 0.441182 3.94387
-0.0298991 0.450373 4.01917
-0.0365054 0.43982 3.98826
0.0161335 0.601685 3.86797
0.00328605 0.597618 3.88223
-0.00388832 0.595383 3.9004
0.153154 0.614263 3.84233
0.169841 0.62661 3.8371
