ply
format ascii 1.0
comment Created by Open3D
element vertex 468
property double x
property double y
property double z
end_header
0.00280976 0.340263 3.76791
0.00289151 0.432292 3.82123
0.00360863 0.396965 3.76173
-0.0172931 0.509982 3.78549
0.00272022 0.457648 3.827
0.00259159 0.489848 3.8148
0.00306076 0.564679 3.7495
-0.168068 0.572104 3.65923
0.00252753 0.638593 3.72482
0.00198615 0.676759 3.72798
0.00142241 0.796952 3.7036
0.00278527 0.328657 3.76581
0.00301438 0.319378 3.75833
0.00324568 0.314269 3.74746
0.0040919 0.299103 3.74314
0.00422165 0.28841 3.74733
0.00422896 0.276204 3.75149
0.00463539 0.262273 3.74644
0.00582381 0.241975 3.72089
0.00289944 0.419968 3.80996
-0.0168747 0.415791 3.77694
-0.253326 0.661448 3.54919
-0.0941286 0.552906 3.68668
-0.118474 0.55081 3.68466
-0.142575 0.550771 3.67792
-0.175261 0.564496 3.65516
-0.0747981 0.556446 3.68272
-0.135886 0.626876 3.68133
-0.10778 0.623454 3.68412
-0.160331 0.621135 3.6738
-0.175616 0.609534 3.66675
-0.193138 0.545414 3.64488
-0.0746942 0.218198 3.68721
-0.178042 0.579261 3.65015
-0.260585 0.548088 3.54205
-0.219936 0.562815 3.6201
-0.113464 0.447417 3.71067
-0.0253358 0.344709 3.76429
-0.0204831 0.320753 3.75502
-0.0523248 0.339358 3.75086
-0.0680989 0.331951 3.73381
-0.0397877 0.3208 3.74632
-0.0541451 0.318522 3.73027
-0.0958218 0.294647 3.69234
-0.0157572 0.433842 3.81897
-0.0196551 0.458 3.82397
-0.210729 0.638682 3.65731
-0.0673273 0.509786 3.71113
-0.0660335 0.435739 3.76094
-0.0681277 0.44829 3.75279
-0.184044 0.450243 3.68115
-0.0188449 0.48681 3.80842
-0.160546 0.67085 3.69222
-0.190923 0.660352 3.67527
-0.234135 0.712928 3.59226
-0.0540162 0.64638 3.71656
-0.0833513 0.609898 3.68064
-0.112671 0.316506 3.68792
-0.219931 0.311456 3.47599
-0.0488936 0.419764 3.75419
-0.0305678 0.409477 3.75425
-0.0871681 0.313823 3.69401
-0.0764561 0.315048 3.70091
-0.204016 0.676971 3.66489
-0.0651658 0.423888 3.74833
-0.116923 0.668888 3.70608
-0.121698 0.691161 3.71033
-0.142683 0.78304 3.67518
-0.21948 0.695486 3.63434
-0.129496 0.735564 3.69659
-0.225074 0.648398 3.63857
-0.239555 0.653779 3.59873
-0.0235086 0.331621 3.76286
-0.0456078 0.328262 3.74999
-0.0613386 0.325294 3.73371
-0.042945 0.413361 3.7487
-0.0814864 0.314016 3.69792
-0.0730935 0.30766 3.7098
-0.074021 0.316617 3.70083
-0.0392861 0.432638 3.78572
-0.0491786 0.319236 3.72523
-0.0346947 0.317726 3.73649
-0.0170988 0.316188 3.74486
-0.0249417 0.24568 3.71931
-0.0249396 0.266832 3.74434
-0.0240524 0.280437 3.74841
-0.0218108 0.292407 3.74436
-0.0192324 0.301135 3.74049
-0.0534754 0.308526 3.72213
-0.0574254 0.305733 3.72438
-0.0629359 0.300619 3.726
-0.0675167 0.292855 3.72154
-0.0892734 0.35832 3.72368
-0.250371 0.425788 3.44515
0.003394 0.40761 3.77859
-0.0625859 0.310638 3.7104
-0.067585 0.309478 3.71108
-0.0234556 0.397592 3.75507
-0.0579161 0.404561 3.73249
-0.0268412 0.403493 3.7554
-0.090205 0.495787 3.70276
-0.129244 0.47877 3.69693
-0.0704655 0.436062 3.74033
-0.200284 0.754836 3.63562
-0.185695 0.723948 3.6656
-0.169852 0.691823 3.6892
-0.0779792 0.276401 3.70341
-0.0625606 0.682739 3.72325
-0.0685733 0.736266 3.71536
-0.0772628 0.795978 3.69792
-0.163602 0.554949 3.66659
-0.21847 0.526107 3.63394
-0.0629956 0.560313 3.67994
-0.197489 0.599387 3.64993
-0.0516319 0.524995 3.71823
-0.0545807 0.446935 3.7835
-0.242125 0.50731 3.60741
-0.202187 0.509462 3.65595
-0.17108 0.50193 3.67837
-0.12414 0.506121 3.68694
-0.0910554 0.516738 3.69117
-0.0684376 0.527943 3.69722
-0.0196799 0.557932 3.74178
-0.236784 0.45531 3.61608
-0.216833 0.604545 3.63933
-0.00818432 0.421021 3.80838
-0.0638543 0.484427 3.72253
-0.263037 0.539604 3.46547
-0.0510818 0.539156 3.70097
-0.0725377 0.430796 3.71803
-0.184189 0.578339 3.64489
-0.0560253 0.462515 3.77343
-0.240106 0.368888 3.45428
-0.0642829 0.56866 3.67525
-0.0386322 0.478166 3.7948
-0.170594 0.266495 3.60377
-0.166815 0.237545 3.5593
-0.255778 0.439064 3.5316
-0.200394 0.296264 3.57461
-0.250887 0.602832 3.56479
-0.0772895 0.194668 3.67109
-0.00512731 0.408351 3.77671
-0.0837739 0.466761 3.71429
-0.239849 0.555999 3.59806
-0.141356 0.56365 3.675
-0.119297 0.562664 3.68117
-0.079065 0.304597 3.70573
-0.228647 0.405132 3.60784
-0.0367393 0.160115 3.66399
-0.101761 0.192113 3.62025
-0.130973 0.211161 3.59446
0.00155824 0.73465 3.72097
0.00945218 0.154498 3.67093
-0.0985713 0.564469 3.68196
-0.0794101 0.567152 3.67868
-0.0683291 0.567284 3.67488
-0.233872 0.607242 3.61572
-0.0871936 0.594348 3.67901
-0.109829 0.606023 3.67893
-0.133275 0.607998 3.67682
-0.155144 0.602487 3.67167
-0.167287 0.593264 3.6662
-0.262586 0.604253 3.50273
-0.156765 0.567194 3.6668
0.00340427 0.378001 3.75805
-0.0700377 0.371116 3.7354
-0.0501805 0.425145 3.76318
-0.0274891 0.376726 3.75563
0.00302285 0.601733 3.72898
-0.137871 0.238288 3.62394
-0.108375 0.216663 3.64494
-0.0390097 0.178137 3.69362
-0.194653 0.268023 3.51613
-0.071748 0.578047 3.67768
-0.0356301 0.518843 3.75172
0.00866327 0.171393 3.69954
-0.0716171 0.174406 3.64682
-0.245088 0.386462 3.5346
-0.0384454 0.304555 3.73269
-0.0422806 0.299007 3.73588
-0.0463759 0.29032 3.73867
-0.0490474 0.2778 3.73519
-0.0549735 0.259705 3.71482
-0.0670026 0.317742 3.71487
-0.0740513 0.32058 3.71459
-0.0808181 0.325221 3.71402
-0.104591 0.339946 3.70831
-0.198023 0.396557 3.65626
-0.0356343 0.542135 3.72837
-0.0483327 0.589645 3.68901
-0.0620098 0.585987 3.6811
-0.0616521 0.319283 3.71152
-0.194267 0.334528 3.62076
-0.0285328 0.595958 3.71532
-0.0660332 0.240143 3.69864
0.00275858 0.514475 3.7925
-0.0190489 0.53294 3.76736
0.0029298 0.537719 3.77171
-0.0507379 0.48119 3.75307
0.00785885 0.194223 3.71308
0.00697248 0.219322 3.715
-0.0304403 0.223785 3.70988
-0.117271 0.284919 3.67638
-0.0932516 0.41252 3.71323
-0.0942694 0.260551 3.68592
-0.149959 0.418296 3.70185
-0.115019 0.389001 3.7096
-0.165976 0.379323 3.68438
-0.0367712 0.200413 3.70675
-0.0624768 0.466365 3.73649
-0.134672 0.265402 3.65262
-0.104888 0.239902 3.66513
-0.136456 0.314487 3.67579
-0.218175 0.363037 3.59907
-0.165062 0.310531 3.65261
-0.228 0.338057 3.54312
-0.130334 0.359032 3.69932
-0.0498152 0.501725 3.73576
-0.0467672 0.437576 3.79028
-0.0591025 0.427827 3.76406
-0.0384203 0.453394 3.80445
-0.0699379 0.61815 3.69279
-0.110878 0.636996 3.69165
-0.145462 0.640417 3.68652
-0.172418 0.635047 3.67664
-0.18976 0.622054 3.66504
-0.199024 0.57152 3.63635
-0.261089 0.493286 3.53564
-0.179777 0.535398 3.65834
-0.154585 0.528513 3.67327
-0.121665 0.529862 3.68189
-0.0918064 0.536368 3.68659
-0.0704113 0.542713 3.68642
-0.0557395 0.548903 3.68829
-0.256524 0.482027 3.44851
-0.0573944 0.419982 3.75306
-0.0354285 0.497859 3.77042
-0.0313694 0.436964 3.80778
-0.0190289 0.424436 3.79795
-0.0309633 0.432474 3.79672
-0.0510713 0.410478 3.74548
-0.0150144 0.422536 3.8043
-0.0120565 0.41103 3.77702
-0.0562219 0.566479 3.67817
-0.0440217 0.562036 3.69152
-0.0373694 0.558671 3.70556
-0.173625 0.585955 3.65945
-0.184816 0.596747 3.65581
0.0229469 0.509221 3.78533
0.173217 0.568185 3.65855
0.0235631 0.414944 3.77683
0.255677 0.653409 3.54834
0.10045 0.550946 3.6855
0.124463 0.548494 3.68346
0.14803 0.547758 3.67682
0.180319 0.56018 3.65418
0.0815507 0.554854 3.68223
0.139416 0.621738 3.68132
0.11183 0.619441 3.6843
0.163418 0.615416 3.6738
0.178922 0.60386 3.66685
0.198397 0.540636 3.64471
0.0898813 0.216765 3.68642
0.183182 0.574727 3.64969
0.266705 0.541041 3.54167
0.224613 0.556683 3.61997
0.1202 0.444487 3.71032
0.0305585 0.343814 3.76389
0.0261134 0.319702 3.75431
0.057893 0.33707 3.74971
0.0741922 0.328988 3.73258
0.0454238 0.318905 3.74498
0.0601785 0.315821 3.72878
0.106188 0.290803 3.69135
0.0214046 0.433438 3.81908
0.0246447 0.457429 3.82412
0.211062 0.63059 3.65805
0.0739703 0.508017 3.71067
0.072688 0.433177 3.76061
0.0747655 0.44584 3.75242
0.190396 0.445982 3.68066
0.0241373 0.486109 3.80818
0.160942 0.663894 3.69427
0.190949 0.652435 3.67688
0.234878 0.704842 3.59166
0.0578225 0.644159 3.71779
0.0885387 0.606812 3.68067
0.121898 0.312114 3.68664
0.236009 0.306339 3.47398
0.0562249 0.417509 3.75365
0.0380311 0.408155 3.75435
0.0959615 0.309183 3.69232
0.0844259 0.310841 3.69958
0.203136 0.667943 3.66634
0.0725577 0.421252 3.74818
0.11891 0.66391 3.70807
0.123028 0.685832 3.71229
0.143568 0.777939 3.6761
0.21926 0.687338 3.63529
0.130463 0.730409 3.69792
0.225326 0.639675 3.63881
0.24078 0.645826 3.59873
0.0287497 0.330468 3.76236
0.0509607 0.326136 3.7488
0.0674407 0.322346 3.7323
0.0505106 0.411466 3.74887
0.0899805 0.309714 3.69649
0.0815006 0.304012 3.7091
0.0818098 0.312543 3.69939
0.0454478 0.430958 3.78534
0.055244 0.316723 3.72408
0.0404856 0.315855 3.73538
0.0230036 0.315165 3.74411
0.0364246 0.244768 3.71904
0.0338765 0.26553 3.74391
0.0321263 0.279088 3.74767
0.0296453 0.291198 3.74362
0.0269381 0.299948 3.73983
0.0611197 0.305889 3.72098
0.065052 0.303022 3.72347
0.0709125 0.297689 3.72536
0.0762428 0.289901 3.72118
0.0959825 0.355389 3.72295
0.262945 0.419303 3.44364
0.0705933 0.307398 3.7091
0.0755463 0.306001 3.71016
0.0307677 0.396686 3.75495
0.0658884 0.402261 3.73277
0.0340135 0.402369 3.75559
0.0972355 0.493528 3.70224
0.135919 0.475813 3.69664
0.0775833 0.433579 3.74007
0.200513 0.747787 3.63616
0.185146 0.716466 3.66693
0.169497 0.684173 3.6913
0.0887553 0.273664 3.70269
0.0652929 0.680023 3.72459
0.0709058 0.733706 3.7161
0.0792789 0.793354 3.69867
0.168714 0.551155 3.66538
0.223975 0.520668 3.63353
0.0698522 0.558843 3.67937
0.200549 0.593016 3.65003
0.058055 0.523431 3.71788
0.0603741 0.444996 3.7833
0.248338 0.501376 3.60695
0.20769 0.504686 3.65523
0.176908 0.498028 3.67796
0.13068 0.503378 3.68635
0.0980186 0.514763 3.69083
0.0752177 0.526228 3.69659
0.025703 0.557191 3.7415
0.244207 0.449702 3.61524
0.219348 0.597179 3.63891
0.0140749 0.420467 3.80812
0.0707976 0.48256 3.72189
0.27155 0.532064 3.46421
0.0577319 0.537677 3.70075
0.0803389 0.428492 3.71813
0.189138 0.573522 3.64483
0.0619242 0.460579 3.7732
0.254458 0.363093 3.45246
0.0710849 0.566855 3.67433
0.044033 0.476893 3.79455
0.185097 0.262996 3.60266
0.183737 0.234425 3.55761
0.26586 0.432908 3.53053
0.214332 0.291964 3.57308
0.254936 0.595377 3.56407
0.0942847 0.193393 3.67028
0.0122081 0.408023 3.77668
0.090794 0.464423 3.71393
0.24494 0.549415 3.5978
0.146811 0.560927 3.67413
0.125157 0.560312 3.67992
0.0880125 0.300757 3.70479
0.237747 0.399993 3.60673
0.0554682 0.159284 3.66344
0.120111 0.190107 3.61859
0.148749 0.208663 3.59302
0.104845 0.562554 3.68093
0.086281 0.56539 3.67756
0.0752015 0.565612 3.67398
0.236496 0.599622 3.6155
0.0931502 0.591651 3.67834
0.115038 0.602913 3.67873
0.137975 0.604177 3.67653
0.159645 0.598006 3.67148
0.171811 0.588763 3.66617
0.26797 0.596421 3.50148
0.162124 0.563805 3.66587
0.076862 0.368777 3.73489
0.0569434 0.423157 3.76318
0.0339811 0.37581 3.75528
0.153648 0.235494 3.62282
0.124902 0.214508 3.64401
0.0559825 0.177365 3.69305
0.21143 0.263709 3.51394
0.0781212 0.575969 3.67665
0.04153 0.517703 3.75154
0.0903283 0.173036 3.6457
0.256751 0.380844 3.53325
0.0459066 0.302579 3.73157
0.0498503 0.296925 3.73495
0.0543525 0.288169 3.73804
0.0578417 0.275668 3.73498
0.0659762 0.257744 3.71416
0.0737936 0.314011 3.71319
0.081078 0.316631 3.71283
0.0879965 0.321056 3.71244
0.111876 0.336038 3.70685
0.205895 0.392106 3.6553
0.0417942 0.540939 3.72806
0.0546573 0.587928 3.68886
0.0681284 0.583951 3.68057
0.0682472 0.315748 3.70987
0.205247 0.330107 3.61939
0.0344305 0.59477 3.71539
0.0791978 0.238524 3.69802
0.0248497 0.532237 3.76731
0.0568358 0.479643 3.75291
0.0441547 0.223 3.70963
0.128675 0.281688 3.67563
0.100549 0.409703 3.71283
0.106913 0.257922 3.68541
0.156494 0.414839 3.70157
0.121747 0.385996 3.70893
0.173548 0.375557 3.68376
0.0519606 0.199363 3.70604
0.0692413 0.464393 3.73618
0.14782 0.262306 3.65154
0.119613 0.237576 3.66439
0.146219 0.310486 3.67434
0.228686 0.358007 3.59767
0.175773 0.306641 3.65148
0.241333 0.332697 3.54137
0.137583 0.355252 3.69798
0.0562554 0.500168 3.73534
0.0527008 0.435722 3.79006
0.0658011 0.425542 3.7639
0.0439998 0.451942 3.80393
0.0746033 0.615237 3.6928
0.113865 0.632746 3.69261
0.147713 0.635079 3.68793
0.174467 0.628813 3.67757
0.19182 0.615649 3.6658
0.203734 0.566026 3.63609
0.269402 0.486723 3.53482
0.185353 0.531367 3.65794
0.160408 0.525225 3.67258
0.128065 0.527343 3.68118
0.0986266 0.534469 3.68586
0.0774851 0.541085 3.68608
0.0626377 0.547434 3.68795
0.267325 0.474982 3.44696
0.0644779 0.417516 3.75299
0.0414995 0.496641 3.77003
0.0371566 0.435812 3.80784
0.0248786 0.423615 3.79813
0.0368601 0.431327 3.79669
0.058555 0.408295 3.7457
0.0207464 0.42193 3.80455
0.0190244 0.410488 3.77717
0.0629601 0.564913 3.67789
0.0506305 0.560821 3.69143
0.0437606 0.5575 3.70559
0.178584 0.58141 3.65924
0.188547 0.591214 3.65568
