ply
format ascii 1.0
comment Created by Open3D
element vertex 468
property double x
property double y
property double z
end_header
-0.0428343 0.329958 4.13086
-0.0475385 0.41021 4.20021
-0.0481157 0.380498 4.13647
-0.0663527 0.500067 4.15835
-0.045954 0.439834 4.20786
-0.0435956 0.475961 4.19494
-0.0451393 0.561128 4.11872
-0.222238 0.563718 4.00891
-0.0452026 0.62791 4.09477
-0.0446083 0.665318 4.09626
-0.0436569 0.796112 4.0619
-0.0420557 0.316837 4.12749
-0.0405013 0.307612 4.1203
-0.0395386 0.304972 4.10963
-0.0426887 0.25863 4.09835
-0.0427841 0.247566 4.10361
-0.0416267 0.233709 4.10943
-0.042075 0.217201 4.10657
-0.0455438 0.191026 4.08661
-0.0462974 0.393708 4.18721
-0.0717029 0.394848 4.15409
-0.309318 0.651121 3.87709
-0.149832 0.542338 4.03292
-0.173407 0.540474 4.03152
-0.197441 0.541198 4.02525
-0.231645 0.553791 4.00479
-0.131055 0.548688 4.03288
-0.179019 0.608693 4.04119
-0.153827 0.606415 4.04222
-0.204354 0.60472 4.0335
-0.221656 0.594731 4.02363
-0.252813 0.535254 3.99456
-0.144009 0.158778 4.05685
-0.231787 0.568263 4.00007
-0.324517 0.537726 3.87645
-0.277169 0.549563 3.96717
-0.178384 0.433526 4.07531
-0.0802474 0.33481 4.12823
-0.0750566 0.309244 4.1157
-0.118855 0.330462 4.11077
-0.144698 0.323151 4.08336
-0.103987 0.310186 4.10008
-0.127905 0.309254 4.07561
-0.174478 0.269488 4.03523
-0.0673522 0.410577 4.19905
-0.0684347 0.439163 4.20571
-0.252777 0.619568 4.01383
-0.123439 0.499027 4.07106
-0.129 0.419774 4.13604
-0.130253 0.434581 4.12627
-0.256015 0.437865 4.03942
-0.0672355 0.472678 4.18639
-0.193932 0.652689 4.0601
-0.228047 0.641719 4.0388
-0.279898 0.701675 3.92507
-0.0941262 0.632847 4.08629
-0.134205 0.597746 4.03548
-0.19482 0.30411 4.03168
-0.307107 0.281599 3.82553
-0.112344 0.40333 4.12727
-0.0896568 0.393197 4.13275
-0.177698 0.305976 4.02925
-0.162428 0.304204 4.03463
-0.240465 0.657941 4.02533
-0.130549 0.408819 4.12283
-0.150418 0.651669 4.07753
-0.153547 0.673343 4.08182
-0.179771 0.773372 4.02482
-0.259 0.680242 3.98125
-0.165942 0.725814 4.05367
-0.268389 0.628874 3.9912
-0.289029 0.638223 3.93691
-0.0783328 0.319787 4.12402
-0.111212 0.318412 4.10544
-0.136253 0.316338 4.08133
-0.106564 0.398411 4.1237
-0.170561 0.305302 4.03263
-0.15476 0.286248 4.04782
-0.156191 0.303199 4.03436
-0.0964141 0.410245 4.15947
-0.12104 0.310965 4.07186
-0.0988737 0.309736 4.09043
-0.0716658 0.306809 4.10382
-0.0854321 0.194909 4.0852
-0.0808512 0.222878 4.10232
-0.0797218 0.239536 4.10348
-0.0791526 0.253275 4.09652
-0.0762029 0.262519 4.09155
-0.125795 0.278363 4.06171
-0.129576 0.275681 4.06705
-0.13481 0.269274 4.07161
-0.140644 0.260526 4.06641
-0.164838 0.345578 4.07764
-0.336184 0.414768 3.78135
-0.0498894 0.387281 4.15515
-0.141495 0.286601 4.04267
-0.14833 0.287625 4.04739
-0.0817136 0.381316 4.13155
-0.125075 0.393147 4.10688
-0.0853324 0.386892 4.13321
-0.151821 0.484872 4.06329
-0.194225 0.468547 4.05843
-0.135793 0.423027 4.11281
-0.237958 0.743159 3.97821
-0.219236 0.710601 4.0203
-0.202098 0.673138 4.05399
-0.152364 0.240481 4.04993
-0.100107 0.669167 4.09434
-0.109656 0.730721 4.07355
-0.116872 0.789236 4.05484
-0.219064 0.545484 4.01485
-0.279934 0.515745 3.98203
-0.120296 0.556117 4.02926
-0.248156 0.584182 4.00089
-0.104232 0.515946 4.07938
-0.111411 0.428541 4.16025
-0.308141 0.494901 3.95384
-0.264767 0.500663 4.00578
-0.233593 0.493383 4.03004
-0.186656 0.496929 4.04145
-0.150728 0.506515 4.04653
-0.123422 0.51829 4.05327
-0.0690533 0.553271 4.10749
-0.31398 0.442043 3.96528
-0.266275 0.585907 3.98778
-0.058574 0.395041 4.18587
-0.123917 0.473583 4.08617
-0.338462 0.535279 3.79136
-0.105074 0.532958 4.05697
-0.142419 0.42163 4.08691
-0.240161 0.567451 3.99495
-0.111423 0.44659 4.14906
-0.326642 0.349832 3.79818
-0.121513 0.565313 4.02161
-0.0884043 0.462344 4.17196
-0.248937 0.226634 3.95852
-0.244264 0.190168 3.91707
-0.337809 0.425989 3.87407
-0.284187 0.260524 3.92948
-0.30961 0.591306 3.89893
-0.146299 0.130425 4.04576
-0.0600897 0.38841 4.15411
-0.147232 0.454822 4.07915
-0.298484 0.542279 3.94037
-0.196175 0.558167 4.02336
-0.174217 0.556313 4.02833
-0.161466 0.282503 4.04367
-0.313261 0.386505 3.96202
-0.102717 0.0890732 4.04461
-0.175899 0.130277 3.98586
-0.206521 0.155683 3.95382
-0.0452794 0.731954 4.07976
-0.0511648 0.079094 4.05326
-0.154277 0.557183 4.02996
-0.137312 0.560818 4.02663
-0.127346 0.563273 4.0216
-0.284354 0.589081 3.96117
-0.137683 0.576379 4.0289
-0.155608 0.580214 4.03302
-0.176031 0.581603 4.03205
-0.197972 0.578875 4.02662
-0.213097 0.574161 4.0193
-0.330194 0.599124 3.82889
-0.211383 0.560759 4.01572
-0.0465666 0.363541 4.12831
-0.138349 0.358844 4.09911
-0.111823 0.407013 4.13741
-0.0843453 0.363127 4.12606
-0.0449051 0.594483 4.09676
-0.212554 0.191055 3.98281
-0.179615 0.161365 4.01244
-0.102156 0.107311 4.0733
-0.278294 0.227793 3.86961
-0.126959 0.570214 4.02355
-0.0868378 0.509886 4.11789
-0.0487912 0.0988004 4.07994
-0.142963 0.107068 4.02008
-0.32983 0.365539 3.88292
-0.103946 0.26973 4.07787
-0.107927 0.263403 4.0834
-0.111528 0.252857 4.08707
-0.115502 0.238281 4.08335
-0.124346 0.214349 4.0677
-0.148772 0.308787 4.05301
-0.158418 0.312398 4.05262
-0.16581 0.316802 4.05381
-0.186909 0.328551 4.0523
-0.27918 0.375985 4.0148
-0.0862287 0.53595 4.09139
-0.100934 0.586228 4.04284
-0.11627 0.580898 4.02954
-0.140431 0.310968 4.04991
-0.278972 0.3062 3.97657
-0.07702 0.589009 4.078
-0.134193 0.187994 4.06156
-0.0440509 0.504527 4.16847
-0.0674428 0.524848 4.13605
-0.0451395 0.531141 4.14247
-0.105932 0.468666 4.12277
-0.0472176 0.126979 4.09095
-0.0463084 0.161795 4.08965
-0.0923265 0.166671 4.08435
-0.190171 0.254394 4.02479
-0.161626 0.399836 4.07734
-0.163841 0.217394 4.04117
-0.220036 0.402177 4.06627
-0.18603 0.373837 4.06715
-0.242107 0.359017 4.04241
-0.0998336 0.133739 4.08385
-0.122776 0.453951 4.10555
-0.207538 0.227337 4.00701
-0.174824 0.192211 4.02901
-0.212661 0.293526 4.02333
-0.304539 0.337991 3.95469
-0.242004 0.280963 4.00405
-0.314099 0.309517 3.89521
-0.206648 0.343562 4.05022
-0.104902 0.491542 4.10023
-0.103248 0.415172 4.16552
-0.121147 0.410186 4.14059
-0.0914248 0.434798 4.18333
-0.117981 0.609494 4.04737
-0.15347 0.623815 4.0514
-0.186029 0.626058 4.04902
-0.215209 0.62017 4.03775
-0.235891 0.606712 4.02126
-0.255146 0.558731 3.98491
-0.334862 0.482501 3.8724
-0.239987 0.526056 4.00781
-0.213767 0.519705 4.02283
-0.180348 0.519958 4.03262
-0.149478 0.525362 4.03689
-0.125868 0.534036 4.03936
-0.11069 0.543215 4.04171
-0.338502 0.475241 3.77608
-0.121339 0.403762 4.12815
-0.0872698 0.486858 4.14122
-0.0847201 0.414072 4.18617
-0.0697847 0.398997 4.17618
-0.0848047 0.408777 4.17351
-0.115476 0.395985 4.12097
-0.0655796 0.396687 4.18314
-0.0669824 0.390411 4.15446
-0.112589 0.56475 4.02824
-0.0978584 0.558656 4.04543
-0.0890787 0.554422 4.06553
-0.223278 0.570557 4.01116
-0.235322 0.583208 4.00976
-0.0230872 0.500221 4.16104
0.137088 0.564891 4.01237
-0.0229312 0.394177 4.15121
0.244423 0.665494 3.88034
0.0641559 0.543684 4.04145
0.0905379 0.541813 4.03887
0.11629 0.542931 4.03082
0.152141 0.5551 4.00762
0.0404934 0.549945 4.0379
0.0995216 0.61312 4.04839
0.0700595 0.610987 4.04612
0.126243 0.608742 4.03886
0.144175 0.598504 4.02646
0.173995 0.538447 3.99276
0.0560984 0.147314 4.04979
0.146743 0.569414 4.00292
0.252528 0.542746 3.87408
0.202651 0.554059 3.96429
0.09413 0.434645 4.06798
-0.000424503 0.33399 4.12566
-0.000337884 0.30802 4.11334
0.044461 0.328009 4.10434
0.0732252 0.320909 4.07582
0.0327423 0.307861 4.09781
0.0567476 0.307505 4.07133
0.0995954 0.265179 4.02585
-0.025182 0.410459 4.19604
-0.0208859 0.439453 4.20278
0.187746 0.625249 4.01488
0.033365 0.500112 4.07224
0.0415681 0.419978 4.12947
0.0436536 0.434979 4.1209
0.179254 0.439063 4.0305
-0.0208677 0.472929 4.18787
0.119155 0.659532 4.05848
0.158451 0.64774 4.03856
0.214197 0.71852 3.92904
0.0065895 0.635637 4.08619
0.0445518 0.601732 4.03976
0.124047 0.301514 4.02319
0.22805 0.267246 3.82209
0.02065 0.402865 4.12072
-0.00368313 0.393224 4.12298
0.105332 0.30418 4.02121
0.0942758 0.303046 4.0261
0.173849 0.665882 4.02433
0.0444063 0.408986 4.11413
0.0686916 0.657318 4.07499
0.0739417 0.680507 4.07845
0.103398 0.787853 4.02656
0.193138 0.692895 3.98155
0.0840861 0.736865 4.05318
0.204448 0.636637 3.99187
0.223184 0.649258 3.93686
0.000426406 0.318534 4.12162
0.0376746 0.316082 4.10185
0.0649523 0.314038 4.07539
0.013178 0.398068 4.1144
0.099915 0.304037 4.02313
0.0830071 0.284311 4.03752
0.0908139 0.302098 4.02702
0.00659116 0.409388 4.15927
0.0538832 0.309775 4.06769
0.0280382 0.308142 4.08864
-0.00197169 0.30623 4.10402
-0.000894435 0.19179 4.07989
0.00159928 0.22071 4.10033
0.000518369 0.237246 4.10345
-0.00266868 0.250905 4.09756
-0.00546018 0.260267 4.09304
0.0525007 0.275998 4.05683
0.0575364 0.273311 4.06003
0.0638536 0.266659 4.06213
0.0673002 0.257441 4.05705
0.0857064 0.344467 4.06744
0.252132 0.410559 3.77947
0.069382 0.284865 4.03857
0.0764117 0.28584 4.03936
-0.011836 0.380919 4.12669
0.0342322 0.393053 4.09387
-0.00805168 0.386493 4.12551
0.0633839 0.486142 4.06354
0.109853 0.470588 4.05443
0.0492215 0.42328 4.10538
0.169232 0.760885 3.97987
0.148363 0.723507 4.01891
0.128596 0.681895 4.05271
0.0739017 0.234949 4.04342
0.0148607 0.673319 4.09233
0.0225647 0.737074 4.0721
0.0351596 0.797902 4.0526
0.139215 0.547107 4.01858
0.203767 0.51948 3.97659
0.0255075 0.55683 4.03619
0.174144 0.587835 4.00217
0.0139718 0.516955 4.08236
0.0233456 0.428576 4.15605
0.234637 0.497679 3.94815
0.187044 0.504363 4.00237
0.153014 0.496729 4.02759
0.100416 0.49902 4.04291
0.0609926 0.507982 4.04963
0.0326825 0.519574 4.05642
-0.0215806 0.553949 4.10921
0.236979 0.441928 3.95758
0.197587 0.59129 3.9886
-0.0324988 0.394681 4.18551
0.0331194 0.47439 4.08582
0.260104 0.540683 3.7933
0.0112471 0.534167 4.06074
0.0499 0.422054 4.07781
0.158321 0.569196 3.99723
0.0256202 0.446996 4.14466
0.244551 0.340337 3.79316
0.0259549 0.565487 4.02991
0.00298932 0.462498 4.17139
0.172105 0.209629 3.94931
0.166405 0.168625 3.91221
0.255276 0.423375 3.86681
0.210422 0.245734 3.91894
0.238456 0.600076 3.89873
0.0554094 0.116452 4.04141
-0.039734 0.388369 4.15274
0.0591525 0.455772 4.07506
0.226743 0.546736 3.93768
0.110149 0.559438 4.02919
0.0878502 0.557698 4.03655
0.0890914 0.280335 4.03366
0.236785 0.382324 3.95007
0.00287702 0.0798951 4.04511
0.0831395 0.111005 3.98569
0.120556 0.134047 3.95246
0.0664241 0.558804 4.03773
0.0457381 0.562062 4.03489
0.0321353 0.563924 4.03067
0.218075 0.59573 3.96144
0.050077 0.577869 4.03782
0.0733472 0.58231 4.0409
0.0939294 0.583428 4.03981
0.115641 0.580583 4.03306
0.13045 0.575669 4.02359
0.256874 0.609882 3.8302
0.125753 0.562074 4.02076
0.0545895 0.357895 4.09042
0.0200901 0.406485 4.12905
-0.00387255 0.362605 4.1227
0.129207 0.173193 3.97554
0.0933639 0.144033 4.00638
0.00836099 0.0991611 4.07155
0.200564 0.209561 3.86654
0.0335621 0.570505 4.034
-0.00394596 0.510566 4.11902
0.0459451 0.0918078 4.02125
0.251157 0.358355 3.87204
0.0260064 0.266827 4.07722
0.0311045 0.260392 4.08085
0.0355839 0.249723 4.08386
0.0370641 0.234961 4.07985
0.0419016 0.209137 4.06421
0.0814774 0.307181 4.04601
0.088266 0.310628 4.04586
0.0955198 0.314834 4.04576
0.112415 0.326992 4.04284
0.205655 0.372567 4.00152
-0.00496573 0.536976 4.09427
0.00490036 0.588042 4.04475
0.0211015 0.582562 4.0368
0.0761314 0.30987 4.04503
0.2057 0.297129 3.96319
-0.0136659 0.590378 4.07918
0.0498699 0.179731 4.05472
-0.0222265 0.525323 4.13596
0.016682 0.469212 4.11985
0.00394024 0.161834 4.07836
0.11279 0.246742 4.01711
0.0744585 0.399936 4.06832
0.0836794 0.208328 4.03256
0.14283 0.401898 4.05328
0.105362 0.373052 4.0565
0.168855 0.355817 4.02904
0.00911374 0.127117 4.08048
0.0342483 0.454575 4.10146
0.126932 0.214678 3.99905
0.0909779 0.179141 4.02014
0.139418 0.288165 4.0178
0.230719 0.330114 3.94112
0.168984 0.271189 3.99367
0.237987 0.29808 3.88575
0.134576 0.341963 4.04012
0.0138232 0.492465 4.10168
0.0154001 0.414663 4.16232
0.0331153 0.409888 4.132
0.00201 0.434544 4.18144
0.0254829 0.612127 4.05082
0.0673658 0.627891 4.05248
0.105552 0.631187 4.05019
0.13837 0.625199 4.03945
0.162058 0.611217 4.02264
0.177812 0.561904 3.98493
0.256713 0.483777 3.87021
0.159338 0.528916 4.00726
0.131311 0.52255 4.02378
0.0955356 0.521767 4.03622
0.0615041 0.526898 4.04211
0.0347401 0.535393 4.04264
0.016994 0.544281 4.0452
0.255824 0.476088 3.77872
0.0329982 0.403711 4.11888
-0.00315335 0.487187 4.14267
-0.00558524 0.413173 4.18281
-0.0188421 0.398178 4.17279
-0.00455806 0.407623 4.17051
0.0260425 0.395623 4.10932
-0.0240122 0.396125 4.18036
-0.030031 0.389907 4.15164
0.0154013 0.565448 4.03337
0.00326596 0.559731 4.04789
-0.00345123 0.555579 4.06694
0.139627 0.572 4.01446
0.157918 0.586034 4.01063
