ply
format ascii 1.0
comment Created by Open3D
element vertex 468
property double x
property double y
property double z
end_header
0.0497967 0.377451 3.85233
0.0515476 0.459288 3.91905
0.0517417 0.429569 3.85471
0.0299514 0.545847 3.87948
0.0515259 0.4877 3.92616
0.0509775 0.523123 3.91384
0.052162 0.603435 3.83937
-0.132342 0.600677 3.73593
0.0522555 0.664996 3.81769
0.0522681 0.700132 3.82068
0.0538452 0.821035 3.78907
0.0494072 0.36507 3.84949
0.0486975 0.356215 3.84246
0.0482172 0.353483 3.8318
0.0510566 0.308149 3.82051
0.0507981 0.297378 3.82577
0.0499377 0.284146 3.83175
0.049627 0.268908 3.82753
0.0492737 0.242911 3.8057
0.0508759 0.444139 3.90675
0.0275283 0.444132 3.87084
-0.223069 0.685374 3.61327
-0.0570877 0.580754 3.76487
-0.0831138 0.578611 3.76267
-0.108366 0.579308 3.75521
-0.143396 0.591467 3.73224
-0.0352159 0.586857 3.76128
-0.0936866 0.648476 3.76881
-0.0655478 0.646184 3.76844
-0.119802 0.643878 3.76016
-0.137505 0.633323 3.74974
-0.162505 0.573471 3.71966
-0.0502448 0.207458 3.77112
-0.142348 0.606214 3.72691
-0.235166 0.571945 3.60618
-0.190061 0.58711 3.69285
-0.083571 0.478051 3.79273
0.0111344 0.381375 3.84786
0.0131123 0.356631 3.83721
-0.0288257 0.374764 3.83025
-0.053457 0.36608 3.80546
-0.0156314 0.355748 3.82386
-0.0365666 0.353494 3.80077
-0.0816902 0.313876 3.75799
0.0297449 0.459698 3.91611
0.0266328 0.487338 3.9225
-0.176204 0.660387 3.74105
-0.0262844 0.54188 3.79441
-0.0325433 0.466386 3.85167
-0.0342969 0.480404 3.84276
-0.163135 0.480235 3.75828
0.0281931 0.51964 3.90597
-0.114304 0.693093 3.78252
-0.150541 0.682348 3.76345
-0.197654 0.73679 3.66038
-0.00190755 0.670662 3.80845
-0.0408435 0.636369 3.76199
-0.102675 0.34672 3.7539
-0.208527 0.317562 3.55067
-0.0131113 0.450706 3.84254
0.00881446 0.441817 3.84485
-0.081307 0.347076 3.75465
-0.0688437 0.346766 3.76094
-0.164883 0.69843 3.75059
-0.0348878 0.455387 3.8373
-0.0654827 0.690875 3.79808
-0.0702599 0.712828 3.80267
-0.0933724 0.806603 3.75525
-0.181128 0.718256 3.7108
-0.0787372 0.761498 3.78003
-0.191211 0.669556 3.71888
-0.207012 0.675762 3.66845
0.0113607 0.366595 3.84523
-0.021517 0.363099 3.82773
-0.045047 0.359635 3.8048
-0.00688209 0.445802 3.83678
-0.0752389 0.347042 3.7578
-0.0610782 0.329462 3.77174
-0.0649758 0.346848 3.76165
0.00149626 0.458607 3.87942
-0.0324412 0.35562 3.79711
-0.0107809 0.355482 3.81435
0.0156675 0.35442 3.82727
0.0081543 0.245125 3.80167
0.00988443 0.272402 3.82316
0.0120706 0.287996 3.82608
0.015104 0.300903 3.8201
0.0180095 0.309781 3.81565
-0.0323428 0.322894 3.78765
-0.0372866 0.320217 3.7907
-0.0442644 0.31414 3.79325
-0.0492799 0.305472 3.78853
-0.0704829 0.389525 3.79692
-0.231874 0.446283 3.5099
0.0524053 0.436569 3.87312
-0.0469189 0.330601 3.77185
-0.0541407 0.331176 3.77309
0.0172961 0.430129 3.84666
-0.026726 0.438983 3.81796
0.0133566 0.435628 3.8466
-0.0543038 0.527455 3.78619
-0.0990867 0.511412 3.77877
-0.0396389 0.468586 3.82816
-0.15676 0.778502 3.70983
-0.140375 0.748389 3.74667
-0.123163 0.713613 3.77754
-0.0595986 0.285844 3.77264
-0.0100351 0.706224 3.81598
-0.0166362 0.763466 3.7994
-0.0254969 0.819159 3.78138
-0.130641 0.583011 3.74354
-0.189915 0.554053 3.70576
-0.0215287 0.593389 3.75838
-0.164079 0.622625 3.7281
-0.00743364 0.558664 3.80346
-0.0152023 0.475841 3.87693
-0.217534 0.532492 3.67845
-0.17318 0.540516 3.72995
-0.140675 0.534207 3.75372
-0.0908401 0.537914 3.76628
-0.0533144 0.54757 3.77205
-0.0262747 0.559478 3.77885
0.0279004 0.595444 3.82965
-0.218067 0.480665 3.68772
-0.184607 0.625472 3.71618
0.0376598 0.445051 3.9051
-0.0251737 0.517539 3.80756
-0.239203 0.566052 3.52494
-0.00598683 0.57345 3.78245
-0.0418557 0.465858 3.80117
-0.150828 0.604422 3.72194
-0.0166205 0.493093 3.86593
-0.225532 0.38303 3.52342
-0.0225256 0.601773 3.75167
0.00527068 0.509254 3.89079
-0.15871 0.267475 3.6776
-0.154006 0.230324 3.63854
-0.237427 0.460433 3.59819
-0.191418 0.300528 3.64895
-0.221073 0.626957 3.63051
-0.0534542 0.177943 3.76003
0.042338 0.437587 3.87103
-0.0502033 0.498959 3.79829
-0.211714 0.578986 3.66792
-0.105201 0.594415 3.75232
-0.0825033 0.59291 3.7592
-0.0676531 0.325974 3.76781
-0.216511 0.425646 3.68076
-0.00579494 0.139111 3.75906
-0.0822577 0.173834 3.70576
-0.115281 0.197158 3.67555
0.0531263 0.761906 3.80653
0.0478072 0.135293 3.76728
-0.0610022 0.594424 3.76031
-0.0406362 0.597972 3.75698
-0.0279356 0.599761 3.75211
-0.202633 0.628266 3.6904
-0.0462262 0.619134 3.75914
-0.0690341 0.626157 3.76233
-0.0909252 0.627873 3.76095
-0.113247 0.623605 3.75458
-0.12772 0.616448 3.746
-0.235234 0.631286 3.56302
-0.120876 0.597246 3.74362
0.051291 0.412273 3.84748
-0.0437309 0.403596 3.81606
-0.0130717 0.454456 3.8518
0.011445 0.410609 3.84361
0.0521829 0.633861 3.81898
-0.122263 0.232844 3.70068
-0.0888629 0.205376 3.72847
-0.00809854 0.159503 3.78704
-0.183346 0.266738 3.59432
-0.0299454 0.608799 3.75507
0.0102005 0.554155 3.83951
0.0476475 0.155569 3.79413
-0.0475852 0.153311 3.73749
-0.231672 0.401458 3.60399
-0.00940295 0.3155 3.8032
-0.0143868 0.309231 3.80691
-0.0193947 0.299159 3.81042
-0.0229988 0.285154 3.80651
-0.030961 0.261613 3.78962
-0.0568042 0.351826 3.77944
-0.0647209 0.354675 3.77847
-0.0721325 0.358773 3.77878
-0.0924753 0.371163 3.77475
-0.185938 0.418219 3.73148
0.0110273 0.578404 3.8147
-0.0017767 0.622757 3.76795
-0.0181104 0.617474 3.7589
-0.0506631 0.354617 3.77748
-0.186388 0.347583 3.69367
0.0194084 0.627764 3.80128
-0.0410203 0.236767 3.77846
0.0513209 0.550698 3.88768
0.0284857 0.569396 3.85661
0.0517996 0.575808 3.8625
-0.00893698 0.513831 3.84164
0.0480382 0.183928 3.80563
0.0486726 0.216535 3.80497
0.00196998 0.218782 3.79712
-0.0993584 0.298669 3.74553
-0.0645899 0.444532 3.79358
-0.0731063 0.263758 3.75985
-0.128319 0.446244 3.78077
-0.0917709 0.41828 3.7851
-0.151267 0.402459 3.75854
-0.00540543 0.187184 3.79764
-0.0253282 0.498873 3.82361
-0.11729 0.270237 3.72562
-0.0836016 0.237299 3.74435
-0.122028 0.336835 3.74537
-0.209905 0.377736 3.67206
-0.153207 0.3232 3.72295
-0.217672 0.347094 3.61621
-0.115637 0.387582 3.77021
-0.00681808 0.53571 3.82238
-0.00703552 0.463581 3.88369
-0.0245193 0.457313 3.8548
0.00483729 0.482401 3.9011
-0.022333 0.645852 3.77385
-0.0639395 0.661586 3.776
-0.10078 0.664831 3.77342
-0.131595 0.659521 3.76279
-0.153569 0.645977 3.74757
-0.167292 0.596144 3.71132
-0.239296 0.516518 3.60111
-0.148584 0.564742 3.73359
-0.121565 0.5589 3.74936
-0.0870991 0.559447 3.76049
-0.0542776 0.565091 3.76555
-0.0290178 0.573445 3.76617
-0.0119878 0.582138 3.76788
-0.23549 0.505999 3.50936
-0.0244731 0.450838 3.84203
0.0100277 0.532227 3.86188
0.0115729 0.462578 3.90358
0.0249352 0.448848 3.89368
0.0114383 0.457583 3.89149
-0.018224 0.442906 3.83302
0.029682 0.446649 3.90085
0.0336682 0.439686 3.87076
-0.0126884 0.600951 3.75541
0.00122904 0.596669 3.77062
0.00895619 0.59414 3.78884
-0.136131 0.610765 3.73785
-0.150067 0.621035 3.73526
0.072533 0.545987 3.87874
0.229145 0.603444 3.73725
0.0750965 0.444622 3.87187
0.316265 0.683563 3.61391
0.154202 0.581932 3.76295
0.178826 0.580419 3.76155
0.203268 0.581352 3.75502
0.237612 0.594033 3.73335
0.134733 0.587733 3.76058
0.1895 0.647937 3.76849
0.162727 0.645535 3.76883
0.215296 0.643911 3.76081
0.232377 0.633871 3.7515
0.25591 0.575815 3.72204
0.143468 0.21299 3.77416
0.238877 0.60877 3.72858
0.326533 0.5739 3.60841
0.282422 0.58891 3.6958
0.178313 0.480469 3.79626
0.0869021 0.382538 3.84924
0.0818437 0.357775 3.83848
0.123877 0.377579 3.83274
0.146946 0.36942 3.80795
0.108729 0.357874 3.8251
0.129815 0.355882 3.80262
0.175001 0.31802 3.76162
0.0723845 0.460128 3.91737
0.0746535 0.487673 3.92376
0.268201 0.659975 3.74395
0.125144 0.542485 3.79453
0.131044 0.467982 3.85383
0.131979 0.481837 3.84488
0.252057 0.484163 3.76266
0.073673 0.51991 3.9058
0.210856 0.690912 3.78719
0.244973 0.681079 3.76766
0.292408 0.733575 3.66179
0.104002 0.669585 3.80997
0.140583 0.635982 3.76183
0.195079 0.351148 3.75701
0.295942 0.32653 3.55114
0.113935 0.452196 3.84503
0.0933506 0.44285 3.84848
0.17603 0.350328 3.757
0.162298 0.349517 3.76349
0.258699 0.696577 3.75506
0.132884 0.457243 3.84058
0.164961 0.689013 3.80216
0.16957 0.710662 3.8071
0.194693 0.803267 3.75745
0.275149 0.716009 3.71446
0.180213 0.758727 3.78321
0.283222 0.668842 3.72196
0.299802 0.674627 3.671
0.0849225 0.367815 3.84641
0.115824 0.365653 3.82946
0.138537 0.362697 3.80727
0.108467 0.447277 3.84021
0.169569 0.350071 3.76061
0.155927 0.332246 3.7752
0.157567 0.349244 3.76393
0.0988212 0.459638 3.8793
0.124171 0.357779 3.79872
0.103491 0.357024 3.81512
0.0784996 0.355295 3.82776
0.0884906 0.246792 3.80439
0.0873469 0.273678 3.82495
0.0862826 0.289099 3.82722
0.0849045 0.301841 3.82083
0.0820313 0.310729 3.81596
0.128489 0.325314 3.78946
0.132912 0.322651 3.79388
0.138928 0.316658 3.7973
0.144183 0.308401 3.79242
0.165781 0.392883 3.80067
0.326023 0.451131 3.51015
0.142043 0.332847 3.77284
0.14925 0.333658 3.77563
0.0851478 0.430873 3.84856
0.126733 0.440919 3.82298
0.0889935 0.43654 3.84939
0.151711 0.528794 3.78683
0.193541 0.513492 3.7813
0.137341 0.470434 3.83108
0.253875 0.774749 3.71279
0.237441 0.745399 3.7513
0.220208 0.711014 3.78223
0.153721 0.289947 3.77594
0.11217 0.704378 3.81871
0.120963 0.761931 3.80143
0.130307 0.817142 3.78385
0.224922 0.585509 3.74388
0.281087 0.556735 3.70908
0.123079 0.593906 3.7566
0.257768 0.623789 3.73042
0.107701 0.55902 3.80288
0.11445 0.476906 3.8786
0.306741 0.535872 3.68123
0.264483 0.543136 3.73224
0.233356 0.536559 3.75594
0.186799 0.539651 3.76715
0.151467 0.548561 3.77194
0.125687 0.560087 3.77847
0.0756698 0.595379 3.82941
0.305784 0.485407 3.69058
0.27649 0.626199 3.71826
0.0634406 0.445335 3.90505
0.124357 0.518286 3.80796
0.334922 0.567138 3.52492
0.107614 0.573789 3.78177
0.141487 0.467874 3.8051
0.246454 0.606801 3.72344
0.114748 0.494036 3.86769
0.316322 0.389871 3.52449
0.124472 0.602551 3.74928
0.0941785 0.509833 3.89134
0.244598 0.277579 3.68047
0.239486 0.241273 3.63985
0.328279 0.465873 3.60071
0.275675 0.31044 3.65187
0.314465 0.627061 3.63203
0.146163 0.184255 3.76197
0.0625559 0.43766 3.87171
0.147326 0.500581 3.8002
0.302655 0.581152 3.67056
0.202487 0.596424 3.75196
0.180063 0.594636 3.75771
0.162395 0.329058 3.77123
0.302865 0.432281 3.68493
0.100709 0.142783 3.75969
0.173686 0.182317 3.70598
0.203804 0.207551 3.67612
0.159075 0.595575 3.75881
0.140643 0.598872 3.75506
0.12979 0.600522 3.74959
0.29395 0.628785 3.69238
0.144581 0.619683 3.75768
0.164628 0.626674 3.76203
0.186099 0.628709 3.76097
0.208519 0.625039 3.75522
0.22307 0.618378 3.74774
0.330635 0.630815 3.56344
0.218159 0.599696 3.74408
0.140767 0.406383 3.8195
0.113753 0.455847 3.85486
0.0888871 0.411819 3.84513
0.211189 0.242617 3.70364
0.179249 0.214004 3.73102
0.101736 0.162992 3.78848
0.268752 0.276917 3.59442
0.130915 0.609608 3.75264
0.0913398 0.554381 3.83955
0.140919 0.159863 3.73799
0.319089 0.408949 3.60727
0.107679 0.317099 3.80431
0.112148 0.311078 3.80874
0.116106 0.301113 3.81258
0.119642 0.287287 3.80897
0.125959 0.264653 3.79205
0.14942 0.354484 3.78147
0.157932 0.357613 3.7807
0.165304 0.36204 3.78115
0.186092 0.375096 3.77783
0.271689 0.424296 3.7371
0.0912808 0.578414 3.81433
0.105473 0.622681 3.76779
0.120237 0.617662 3.7569
0.142491 0.356799 3.77881
0.271715 0.355762 3.69858
0.0840042 0.627366 3.80156
0.134534 0.241265 3.78172
0.0741025 0.569545 3.85673
0.108349 0.514565 3.84275
0.0935753 0.221166 3.79974
0.190991 0.304593 3.74936
0.161871 0.447045 3.79764
0.165145 0.269343 3.76363
0.218824 0.45029 3.78664
0.186202 0.421589 3.78949
0.239305 0.407894 3.76423
0.0998895 0.190261 3.79915
0.123788 0.499973 3.82526
0.207396 0.278383 3.72923
0.17535 0.244522 3.74816
0.212553 0.34263 3.74825
0.294817 0.385676 3.6769
0.239984 0.331153 3.72741
0.303044 0.356181 3.61877
0.206729 0.391968 3.77424
0.107081 0.536119 3.82219
0.106475 0.464782 3.88464
0.123631 0.45888 3.85775
0.0959999 0.483142 3.90192
0.124321 0.645467 3.77398
0.163231 0.660796 3.77792
0.19816 0.663915 3.77592
0.22768 0.658919 3.76554
0.247992 0.646092 3.75048
0.261158 0.598276 3.7138
0.330449 0.520078 3.60258
0.242355 0.567173 3.73514
0.216076 0.560994 3.75054
0.183165 0.561028 3.76058
0.152034 0.56618 3.76483
0.128852 0.574296 3.76584
0.113462 0.582665 3.76731
0.330847 0.508778 3.50853
0.123588 0.452587 3.84545
0.09145 0.532736 3.8617
0.0892411 0.463508 3.90485
0.0750401 0.449679 3.89507
0.0889641 0.458459 3.89247
0.117957 0.444624 3.8373
0.0709142 0.447199 3.90187
0.0701017 0.440153 3.87183
0.115684 0.601564 3.75417
0.101467 0.59685 3.77045
0.0938085 0.594226 3.78888
0.231952 0.61309 3.73955
0.244756 0.622515 3.73785
