ply
format ascii 1.0
comment Created by Open3D
element vertex 468
property double x
property double y
property double z
end_header
-0.017501 0.369735 3.96057
-0.0152878 0.452119 4.02035
-0.0166354 0.423692 3.95944
-0.0331364 0.539523 3.98262
-0.0147313 0.480127 4.02704
-0.0137537 0.51583 4.01501
-0.0121801 0.599218 3.94613
-0.17928 0.602681 3.85018
-0.0116393 0.659356 3.92701
-0.0114108 0.693951 3.93017
-0.0115547 0.821894 3.89855
-0.0174595 0.357449 3.9587
-0.0170542 0.348429 3.95191
-0.0164504 0.344972 3.9418
-0.0164681 0.304213 3.93358
-0.0167084 0.292934 3.93819
-0.0163724 0.279219 3.94318
-0.0163379 0.263949 3.9382
-0.0160121 0.239202 3.91434
-0.0155716 0.437836 4.00895
-0.0371641 0.438481 3.97583
-0.274875 0.686916 3.73551
-0.10808 0.582306 3.87423
-0.132142 0.580119 3.87321
-0.156121 0.580337 3.86743
-0.188552 0.592684 3.84735
-0.0888841 0.588311 3.87194
-0.142969 0.645413 3.88008
-0.117324 0.644504 3.88043
-0.166427 0.640135 3.87326
-0.182438 0.630592 3.86446
-0.210003 0.573251 3.83734
-0.105338 0.207919 3.88815
-0.188989 0.607821 3.84268
-0.287312 0.573953 3.73066
-0.238421 0.586455 3.81341
-0.133492 0.473608 3.90584
-0.0490702 0.374123 3.95718
-0.0442808 0.349348 3.94793
-0.0806798 0.36783 3.94254
-0.0999605 0.357818 3.92193
-0.0666044 0.348411 3.93659
-0.0837645 0.344963 3.9171
-0.127953 0.306874 3.88125
-0.0346352 0.452884 4.0187
-0.0368422 0.479749 4.02462
-0.219498 0.651954 3.85931
-0.0825821 0.539521 3.90449
-0.0876262 0.460529 3.95821
-0.0884295 0.474907 3.9499
-0.20577 0.475587 3.87692
-0.0349171 0.512578 4.00758
-0.162385 0.681459 3.90059
-0.195471 0.671744 3.88256
-0.248573 0.736035 3.78096
-0.059883 0.662812 3.92023
-0.0954416 0.63622 3.87328
-0.145861 0.337071 3.8769
-0.264223 0.320169 3.6784
-0.0711358 0.444862 3.94939
-0.0527657 0.436556 3.95335
-0.123592 0.335921 3.87795
-0.110541 0.33621 3.88384
-0.209661 0.687127 3.87046
-0.088644 0.449708 3.94551
-0.118075 0.680462 3.9132
-0.122988 0.701591 3.91755
-0.149958 0.803835 3.86966
-0.228783 0.712817 3.83152
-0.13464 0.75466 3.8951
-0.235668 0.661609 3.83811
-0.255421 0.672964 3.78987
-0.0472972 0.359569 3.9552
-0.0730955 0.355951 3.9403
-0.0919595 0.351238 3.92145
-0.0658174 0.44031 3.94555
-0.117285 0.335867 3.88133
-0.106472 0.321719 3.89458
-0.106479 0.337031 3.8844
-0.0583423 0.452459 3.98288
-0.078529 0.346475 3.9133
-0.061559 0.347261 3.92738
-0.0408821 0.346095 3.938
-0.0509221 0.242311 3.91358
-0.049405 0.268032 3.93545
-0.047913 0.283634 3.93881
-0.0458384 0.29718 3.93351
-0.0430102 0.306431 3.9292
-0.0820443 0.317811 3.90619
-0.0864391 0.314742 3.91005
-0.0925874 0.308619 3.91279
-0.0980874 0.300116 3.90853
-0.118486 0.382232 3.91374
-0.29114 0.450177 3.63806
-0.0167161 0.430688 3.97714
-0.0933773 0.323821 3.89241
-0.0999539 0.32363 3.89466
-0.0457131 0.424575 3.95329
-0.0826437 0.4333 3.9285
-0.0490167 0.430198 3.9543
-0.107535 0.524776 3.89754
-0.148041 0.507461 3.89338
-0.0930941 0.463315 3.93655
-0.209196 0.776253 3.82856
-0.190602 0.741242 3.86549
-0.171695 0.701502 3.89534
-0.109141 0.281533 3.89293
-0.0679429 0.696737 3.92825
-0.0771264 0.758658 3.91173
-0.086297 0.817705 3.89363
-0.176654 0.584201 3.85739
-0.237554 0.553005 3.82584
-0.0772888 0.594458 3.86844
-0.209226 0.620086 3.84553
-0.0658357 0.556211 3.91234
-0.0727218 0.469451 3.98169
-0.265136 0.531913 3.80022
-0.22008 0.537865 3.84786
-0.188295 0.53067 3.86971
-0.141626 0.535552 3.87971
-0.107098 0.546326 3.8835
-0.0824133 0.55862 3.88982
-0.0345317 0.591415 3.93708
-0.263271 0.478449 3.80966
-0.230307 0.621827 3.83457
-0.0270072 0.438973 4.00757
-0.0816944 0.513749 3.91606
-0.297335 0.569724 3.65109
-0.0647012 0.572071 3.89275
-0.096639 0.460817 3.91195
-0.196703 0.605207 3.83829
-0.0730756 0.486982 3.97123
-0.283578 0.386183 3.65242
-0.0783084 0.6034 3.86145
-0.0544061 0.502585 3.99372
-0.20926 0.267516 3.80324
-0.207876 0.232128 3.76416
-0.290123 0.461802 3.72412
-0.240377 0.3012 3.77524
-0.272844 0.627057 3.75306
-0.110243 0.178665 3.87673
-0.0258034 0.431767 3.97563
-0.103389 0.49503 3.9088
-0.260864 0.579012 3.78965
-0.153608 0.596095 3.86414
-0.132084 0.594644 3.8696
-0.11275 0.318253 3.8911
-0.260382 0.424314 3.80459
-0.0666651 0.13744 3.87319
-0.139824 0.175329 3.82511
-0.171097 0.199242 3.79809
-0.0116993 0.759652 3.91606
-0.0140564 0.130827 3.87992
-0.112217 0.596202 3.87041
-0.0939019 0.599802 3.8667
-0.0830218 0.601545 3.86193
-0.249537 0.62504 3.81018
-0.0983088 0.621973 3.86901
-0.118729 0.629358 3.87303
-0.139888 0.630466 3.87226
-0.160962 0.625518 3.86712
-0.174514 0.618009 3.86007
-0.291215 0.634248 3.68778
-0.168591 0.599084 3.85678
-0.0168698 0.406012 3.95306
-0.0959493 0.397248 3.9285
-0.0712535 0.448589 3.95928
-0.0499251 0.404671 3.95067
-0.0116147 0.629932 3.92687
-0.175919 0.233701 3.82471
-0.143877 0.206521 3.84893
-0.0670328 0.158746 3.90053
-0.237284 0.268575 3.72035
-0.0846624 0.61088 3.86451
-0.0506309 0.549577 3.94622
-0.0142407 0.152501 3.90547
-0.106433 0.153639 3.85382
-0.282826 0.40305 3.73094
-0.0646458 0.311494 3.91881
-0.0688556 0.305139 3.92297
-0.0732452 0.294732 3.92583
-0.0772448 0.280778 3.92232
-0.0843289 0.258711 3.90549
-0.0994607 0.341996 3.89951
-0.107729 0.344655 3.89911
-0.115044 0.348843 3.89929
-0.13692 0.362583 3.89523
-0.226463 0.415061 3.85374
-0.0497743 0.57513 3.92285
-0.0606793 0.621358 3.87883
-0.0749281 0.618037 3.86899
-0.093426 0.344791 3.89686
-0.230114 0.346217 3.81877
-0.0414529 0.624045 3.91048
-0.094821 0.235659 3.89484
-0.013086 0.544374 3.99066
-0.0342248 0.564265 3.96245
-0.0127925 0.57069 3.96773
-0.0669895 0.508786 3.94853
-0.0146506 0.181653 3.91631
-0.0153478 0.213911 3.91449
-0.0568897 0.21756 3.90969
-0.148306 0.294023 3.86906
-0.116566 0.439292 3.90643
-0.12422 0.261489 3.88051
-0.172523 0.441447 3.89816
-0.139867 0.412568 3.9014
-0.192791 0.397754 3.87905
-0.0637515 0.186789 3.91054
-0.0809575 0.494216 3.93164
-0.168221 0.268773 3.84951
-0.137093 0.237118 3.86552
-0.167255 0.32991 3.86811
-0.253932 0.377184 3.79762
-0.198002 0.320071 3.84781
-0.267967 0.348532 3.74283
-0.159097 0.380106 3.89004
-0.0656755 0.531728 3.9298
-0.0653827 0.457256 3.98775
-0.0805849 0.45145 3.96184
-0.0560719 0.475479 4.00424
-0.0789509 0.642626 3.88499
-0.116824 0.656346 3.88992
-0.150163 0.658126 3.88885
-0.178219 0.652786 3.87931
-0.197993 0.640505 3.86538
-0.214152 0.596101 3.82976
-0.291737 0.518433 3.72563
-0.195767 0.564045 3.84953
-0.170357 0.558021 3.86408
-0.13753 0.559255 3.8732
-0.106946 0.56549 3.87615
-0.0842771 0.573923 3.87744
-0.0693153 0.58216 3.87843
-0.29447 0.509886 3.63613
-0.0801829 0.445234 3.95
-0.0512361 0.526475 3.96643
-0.0500599 0.45609 4.00688
-0.0376644 0.443226 3.99768
-0.0496677 0.451473 3.99526
-0.0745764 0.43749 3.94219
-0.0338779 0.440786 4.00419
-0.0326899 0.434028 3.97571
-0.069963 0.601795 3.86583
-0.0574816 0.596099 3.88121
-0.0510097 0.592387 3.8992
-0.182417 0.612284 3.8527
-0.194714 0.619818 3.85168
0.00675199 0.539883 3.98293
0.159094 0.609629 3.84863
0.00547528 0.438138 3.97514
0.261033 0.69802 3.73145
0.0881871 0.586299 3.8751
0.112949 0.585061 3.8736
0.137239 0.585768 3.8671
0.169848 0.599582 3.84581
0.0675735 0.591509 3.87253
0.123217 0.653737 3.8787
0.0965309 0.651221 3.87881
0.147627 0.649491 3.8712
0.164093 0.639954 3.86219
0.191717 0.579598 3.83455
0.0805369 0.205339 3.88505
0.168705 0.615704 3.84034
0.272051 0.58272 3.72624
0.221234 0.594536 3.80935
0.110133 0.474156 3.90294
0.0158045 0.373059 3.95703
0.0122287 0.348219 3.94774
0.049827 0.36465 3.94225
0.0706092 0.353883 3.92207
0.0363598 0.345849 3.93738
0.0545315 0.341678 3.91782
0.101911 0.302949 3.87932
0.00472178 0.452868 4.01782
0.00815891 0.480042 4.0236
0.204983 0.664483 3.85499
0.058984 0.540846 3.90446
0.0600523 0.459723 3.95738
0.0619561 0.474167 3.94902
0.186846 0.478033 3.87305
0.00752318 0.512788 4.00767
0.144634 0.693685 3.89433
0.179906 0.684514 3.87684
0.234025 0.747601 3.77675
0.0376458 0.666967 3.91783
0.0732764 0.641 3.87261
0.120409 0.333121 3.8749
0.248303 0.321608 3.67452
0.0414117 0.443808 3.94867
0.0218038 0.435431 3.9513
0.095132 0.330892 3.87801
0.0834723 0.331467 3.88411
0.194903 0.701036 3.86432
0.061225 0.448201 3.94419
0.0977085 0.689529 3.90842
0.103108 0.711258 3.91245
0.130149 0.811388 3.86639
0.214412 0.725302 3.82625
0.114052 0.763166 3.89131
0.221484 0.674315 3.83358
0.241433 0.68476 3.78537
0.0144743 0.358315 3.95511
0.0421984 0.35311 3.94085
0.0626615 0.347696 3.92175
0.0356215 0.438902 3.94397
0.0892303 0.330943 3.88126
0.0784546 0.317682 3.89409
0.080374 0.332509 3.88493
0.029212 0.452435 3.98314
0.0504669 0.343601 3.91413
0.0319312 0.345053 3.92809
0.00994375 0.345254 3.93843
0.0211812 0.24113 3.91195
0.0189109 0.267116 3.93531
0.0167685 0.282649 3.93919
0.0140216 0.296073 3.93426
0.0113822 0.305263 3.93019
0.0539093 0.315111 3.90698
0.0584522 0.311846 3.90988
0.0647585 0.305665 3.91207
0.0700723 0.297212 3.90741
0.0912584 0.380128 3.91232
0.273128 0.455856 3.63406
0.0659797 0.320224 3.8934
0.0721213 0.31978 3.89494
0.0138891 0.423587 3.95222
0.0531115 0.431278 3.92634
0.0176017 0.429312 3.95271
0.0846687 0.526321 3.89695
0.126601 0.509545 3.891
0.0663414 0.462217 3.93571
0.192466 0.786831 3.82422
0.173907 0.752943 3.86008
0.154265 0.714391 3.88941
0.0830407 0.278768 3.89131
0.0463008 0.701991 3.92512
0.0547605 0.762778 3.90937
0.0647408 0.821456 3.89115
0.157996 0.590397 3.85621
0.220304 0.559126 3.82187
0.0546542 0.597345 3.86925
0.191969 0.6296 3.84277
0.0420386 0.557549 3.91263
0.0451105 0.469353 3.9809
0.249021 0.538269 3.7962
0.202025 0.542915 3.84462
0.169097 0.534659 3.86721
0.120421 0.538518 3.87855
0.0846931 0.548706 3.88345
0.0595787 0.560389 3.88986
0.0103467 0.592294 3.93701
0.24597 0.482967 3.80563
0.214682 0.632081 3.83124
-0.00349616 0.43886 4.00737
0.0565062 0.514373 3.91637
0.280398 0.578369 3.64689
0.0409071 0.573638 3.89306
0.0686026 0.459716 3.9103
0.177406 0.613389 3.83608
0.046729 0.486925 3.9706
0.266491 0.389969 3.64787
0.055515 0.606622 3.86284
0.0279266 0.502906 3.99354
0.191444 0.26517 3.79791
0.191983 0.229432 3.7599
0.272409 0.467172 3.71944
0.223966 0.300494 3.76987
0.257408 0.637444 3.74873
0.0863897 0.175628 3.87384
-0.00761921 0.431702 3.97532
0.0789368 0.495511 3.90761
0.24458 0.587469 3.78549
0.133485 0.601978 3.86339
0.112218 0.600001 3.86971
0.0847991 0.314108 3.89031
0.242681 0.426943 3.79993
0.0400522 0.135548 3.87178
0.118357 0.171522 3.82252
0.152513 0.195604 3.79496
0.0918651 0.600878 3.87096
0.072661 0.603801 3.86794
0.0607191 0.604952 3.86334
0.234788 0.635622 3.80626
0.077886 0.626437 3.86952
0.0994491 0.634905 3.87277
0.120473 0.637043 3.87134
0.141641 0.633044 3.86542
0.15496 0.625711 3.85792
0.275508 0.644293 3.68293
0.148387 0.605456 3.85551
0.0671821 0.395085 3.92725
0.041905 0.447839 3.95773
0.0180679 0.40365 3.95012
0.15591 0.230478 3.82021
0.122444 0.202706 3.84493
0.0407763 0.156959 3.89842
0.221972 0.267737 3.71677
0.0625594 0.614368 3.86602
0.0254135 0.550337 3.9462
0.082356 0.150527 3.8519
0.265839 0.406465 3.72557
0.0347231 0.309525 3.92012
0.0391029 0.303228 3.92369
0.0438938 0.292813 3.92638
0.0477734 0.278981 3.92228
0.0568583 0.256585 3.90462
0.0717763 0.33779 3.9001
0.0792862 0.340065 3.89969
0.0867293 0.344257 3.89946
0.110482 0.359509 3.89403
0.207889 0.416548 3.8488
0.0255739 0.576375 3.92303
0.0368484 0.624068 3.87873
0.0517816 0.621385 3.86979
0.0664504 0.34096 3.89762
0.211469 0.346047 3.81339
0.0181531 0.625752 3.91009
0.0692804 0.233153 3.89223
0.00911876 0.564893 3.96221
0.0410112 0.509181 3.94794
0.0283632 0.216139 3.90773
0.124876 0.291026 3.8658
0.0899708 0.438294 3.90429
0.100166 0.258424 3.87714
0.150848 0.442252 3.89319
0.114812 0.411668 3.89855
0.171956 0.397899 3.87384
0.0366782 0.185427 3.90855
0.0552049 0.49429 3.93121
0.146465 0.266041 3.84518
0.114077 0.233754 3.86132
0.144547 0.327648 3.86495
0.236442 0.378465 3.79232
0.17808 0.318499 3.84276
0.251471 0.35028 3.73797
0.135844 0.378742 3.88676
0.0403294 0.532492 3.93015
0.0371573 0.457156 3.98728
0.0523173 0.450505 3.96042
0.0277985 0.475602 4.00378
0.0558343 0.646942 3.88472
0.0954633 0.663793 3.88736
0.130433 0.667672 3.88507
0.160063 0.663056 3.87579
0.180836 0.650985 3.86157
0.196394 0.604188 3.82679
0.27536 0.525541 3.72159
0.177103 0.569805 3.84739
0.151028 0.562735 3.8623
0.117244 0.563177 3.87251
0.0857021 0.568709 3.87638
0.0622455 0.576477 3.87752
0.0462331 0.584286 3.87881
0.276602 0.517117 3.63228
0.0515993 0.443784 3.94856
0.0248499 0.527079 3.96661
0.0208427 0.456218 4.00602
0.00793132 0.443109 3.99686
0.0204387 0.451416 3.99467
0.0454355 0.435551 3.94036
0.00385889 0.440783 4.00346
0.0003424 0.433711 3.97509
0.0465151 0.604552 3.8666
0.0339618 0.597999 3.88138
0.0272238 0.593848 3.89883
0.162729 0.620166 3.85027
0.176317 0.628871 3.84885
