ply
format ascii 1.0
comment Created by Open3D
element vertex 468
property double x
property double y
property double z
end_header
0.0710938 0.32173 3.68634
0.0783971 0.41152 3.74468
0.0787987 0.373676 3.68187
0.0572953 0.481356 3.70837
0.0783466 0.436759 3.7503
0.0773676 0.46588 3.73813
0.0771347 0.529189 3.67306
-0.10079 0.51885 3.57554
0.0754338 0.585866 3.65569
0.0742433 0.620603 3.65974
0.0719751 0.751436 3.62656
0.0696809 0.310429 3.68468
0.0685932 0.300643 3.67769
0.068281 0.294622 3.66672
0.0708181 0.241381 3.65674
0.0706906 0.229336 3.66103
0.0700741 0.215447 3.66347
0.0712233 0.198973 3.65408
0.0752211 0.180028 3.62244
0.0775899 0.397357 3.73313
0.0597468 0.390327 3.69903
-0.210046 0.601381 3.45421
-0.0295989 0.504032 3.60573
-0.0549519 0.501453 3.6031
-0.0795442 0.501289 3.59542
-0.111859 0.51017 3.57197
-0.0073194 0.509306 3.60263
-0.0685944 0.569142 3.60396
-0.0398568 0.567783 3.60563
-0.0931128 0.562375 3.5951
-0.108948 0.551254 3.5857
-0.13305 0.491799 3.55977
-0.0123019 0.159533 3.59286
-0.110688 0.522944 3.56677
-0.210769 0.486228 3.44846
-0.162889 0.503547 3.5331
-0.0468854 0.406382 3.6259
0.0409948 0.323739 3.6819
0.0426368 0.299966 3.67438
0.00975753 0.313149 3.66791
-0.0104342 0.300147 3.64969
0.0206014 0.295926 3.66562
0.00441912 0.289093 3.64763
-0.040294 0.242802 3.60197
0.059216 0.411252 3.7414
0.0556718 0.435712 3.74628
-0.150037 0.572531 3.57828
0.00204131 0.46944 3.63082
0.00613793 0.405385 3.68097
0.00312964 0.416761 3.67226
-0.125378 0.402409 3.59721
0.0563316 0.461833 3.73139
-0.0879491 0.605159 3.61886
-0.124406 0.593686 3.60025
-0.185582 0.65572 3.49927
0.0231123 0.588816 3.64689
-0.0139514 0.557812 3.6013
-0.0566261 0.270905 3.60033
-0.169219 0.241514 3.39089
0.0260192 0.389597 3.67368
0.0460918 0.381981 3.6741
-0.0336417 0.270405 3.6073
-0.0222588 0.272259 3.61387
-0.139925 0.608832 3.58748
0.00648899 0.392693 3.6676
-0.039001 0.604997 3.63446
-0.0447865 0.627705 3.6376
-0.0793819 0.734148 3.59033
-0.162321 0.634473 3.54881
-0.0584122 0.683211 3.61645
-0.167073 0.580754 3.55619
-0.188636 0.590715 3.50861
0.0408508 0.310852 3.68135
0.0155128 0.30317 3.66828
-0.00328139 0.29484 3.6506
0.0328467 0.383945 3.66822
-0.0278212 0.270775 3.61076
-0.0189446 0.256688 3.62026
-0.0191244 0.273903 3.61401
0.0347619 0.40482 3.70829
0.00857866 0.290119 3.64328
0.0254361 0.293339 3.65625
0.0451524 0.295067 3.66507
0.0394993 0.182169 3.62016
0.0361228 0.202912 3.65182
0.0375642 0.218342 3.65966
0.0413033 0.232652 3.65783
0.0445298 0.242796 3.65436
0.00516493 0.253585 3.63322
8.68525e-05 0.250058 3.63446
-0.00731304 0.243503 3.63416
-0.0128924 0.235452 3.62897
-0.0260063 0.322741 3.63813
-0.199759 0.357481 3.35365
0.080481 0.384715 3.70117
-0.00615982 0.260274 3.62251
-0.0122208 0.258752 3.62229
0.0526087 0.371587 3.67446
0.0164825 0.373681 3.64845
0.0495571 0.376939 3.67541
-0.0233726 0.454227 3.62254
-0.0654012 0.4358 3.61545
0.000175531 0.403522 3.65889
-0.144015 0.701462 3.54635
-0.120116 0.666027 3.58261
-0.0977343 0.625726 3.61374
-0.0213878 0.219994 3.61052
0.0139089 0.624122 3.65289
0.00327403 0.68885 3.63673
-0.00997012 0.749557 3.61557
-0.100454 0.503383 3.58328
-0.16128 0.471853 3.54572
0.00723797 0.514573 3.60062
-0.135981 0.538893 3.5668
0.0191843 0.485937 3.63924
0.0189508 0.41881 3.70427
-0.1884 0.450365 3.51888
-0.143765 0.458721 3.56908
-0.110801 0.454417 3.59308
-0.0604799 0.460893 3.60535
-0.0244562 0.472303 3.61081
0.000623683 0.484791 3.61713
0.0533915 0.52153 3.6648
-0.182599 0.399373 3.52917
-0.159208 0.540905 3.55508
0.0660272 0.397799 3.73159
0.00640372 0.447361 3.64183
-0.215888 0.474973 3.36901
0.0202151 0.497701 3.62181
-0.000503848 0.396331 3.63408
-0.119646 0.521271 3.5619
0.0164429 0.432632 3.69346
-0.189328 0.299554 3.36511
0.00641157 0.521934 3.59572
0.0348469 0.450856 3.71649
-0.115763 0.202297 3.51473
-0.113043 0.169719 3.4736
-0.203369 0.375884 3.44142
-0.148293 0.230763 3.48732
-0.200632 0.541231 3.47228
-0.0142056 0.135965 3.57926
0.0723339 0.385107 3.69917
-0.0154597 0.428101 3.63196
-0.186145 0.495411 3.50897
-0.0748111 0.514055 3.59261
-0.0534915 0.513668 3.60005
-0.0254524 0.253732 3.61629
-0.175231 0.347329 3.52207
0.0304106 0.104688 3.57338
-0.0412779 0.129532 3.53194
-0.0744171 0.145846 3.50763
0.0730091 0.688354 3.64576
0.0783867 0.102589 3.57932
-0.0327784 0.515783 3.60167
-0.012205 0.51945 3.59957
0.0010474 0.520464 3.59637
-0.179076 0.542647 3.52914
-0.0190285 0.542976 3.59984
-0.0429375 0.5512 3.60029
-0.0653053 0.55135 3.59792
-0.0863791 0.544854 3.59138
-0.0988107 0.536159 3.58409
-0.217573 0.54266 3.40583
-0.0897336 0.516138 3.58371
0.0767991 0.354885 3.67599
-0.00125249 0.339547 3.65069
0.0246125 0.395032 3.68281
0.0444791 0.351373 3.67241
0.0761567 0.55718 3.6551
-0.080508 0.175158 3.5335
-0.0482878 0.15517 3.55357
0.0266247 0.12254 3.60072
-0.142905 0.19841 3.43265
-0.00171451 0.530192 3.59874
0.0374051 0.484818 3.67262
0.0761083 0.119949 3.60637
-0.0078228 0.115192 3.55728
-0.194014 0.321392 3.44543
0.0229596 0.24706 3.6455
0.0177719 0.240179 3.64759
0.0117947 0.229459 3.64818
0.00805315 0.215888 3.64261
0.00377586 0.199197 3.61938
-0.0116199 0.282289 3.63015
-0.019142 0.284269 3.62963
-0.0264251 0.288022 3.62887
-0.0457137 0.300016 3.62191
-0.141985 0.343523 3.57156
0.0368212 0.504774 3.65043
0.0246238 0.542504 3.6096
0.00887535 0.538618 3.60206
-0.00612696 0.284649 3.62698
-0.139842 0.27541 3.53418
0.0443556 0.549922 3.63928
-0.00492361 0.180539 3.60189
0.077431 0.486572 3.71543
0.0547164 0.500353 3.689
0.0774939 0.506395 3.69432
0.021262 0.448185 3.67256
0.0753746 0.141107 3.61853
0.0756861 0.162531 3.61875
0.0346359 0.164331 3.61241
-0.0592306 0.230685 3.58538
-0.0232135 0.375074 3.62738
-0.0353204 0.202671 3.59117
-0.0866877 0.373097 3.61489
-0.049395 0.348384 3.62225
-0.105365 0.329635 3.59676
0.0285518 0.143774 3.61223
0.00823284 0.431771 3.65519
-0.0762827 0.20696 3.56214
-0.0444562 0.180851 3.57169
-0.0785521 0.264113 3.58838
-0.165705 0.302824 3.51286
-0.108634 0.253464 3.56415
-0.177072 0.272096 3.4562
-0.0699768 0.315026 3.61214
0.0220349 0.466172 3.65595
0.0267081 0.409557 3.71186
0.0140934 0.397696 3.6838
0.0364518 0.42871 3.72705
0.00413847 0.564565 3.6153
-0.0377561 0.578381 3.61542
-0.0745267 0.580459 3.61056
-0.104486 0.573996 3.59915
-0.125525 0.560721 3.585
-0.138488 0.513189 3.55152
-0.2099 0.431221 3.44426
-0.118899 0.483902 3.5734
-0.0928754 0.479834 3.58917
-0.0584079 0.482124 3.60016
-0.0262618 0.488947 3.60495
-0.00181942 0.497105 3.60607
0.0148769 0.504706 3.60801
-0.207653 0.415166 3.35438
0.015867 0.389377 3.67238
0.0384792 0.46732 3.69189
0.0433495 0.411977 3.73003
0.0552242 0.398924 3.72038
0.0432536 0.405784 3.71888
0.0230718 0.38053 3.66354
0.0591824 0.398226 3.72704
0.0648775 0.386572 3.69911
0.0160624 0.520962 3.59832
0.0277128 0.518413 3.61163
0.0345353 0.517413 3.62743
-0.105643 0.529377 3.57671
-0.119971 0.537924 3.57266
0.0977179 0.481143 3.70731
0.246806 0.522976 3.57846
0.098138 0.391885 3.69974
0.332021 0.591847 3.46566
0.173959 0.505287 3.60284
0.197238 0.503053 3.6015
0.22087 0.502893 3.59574
0.25326 0.513735 3.5742
0.156446 0.510489 3.60132
0.208063 0.569986 3.60519
0.180729 0.567858 3.60766
0.233166 0.564745 3.59785
0.249155 0.554413 3.59011
0.271233 0.493825 3.56541
0.156297 0.169421 3.59358
0.256141 0.527868 3.57006
0.338954 0.483663 3.45839
0.296118 0.50539 3.54147
0.190138 0.40803 3.63033
0.0979138 0.324845 3.68131
0.0899481 0.300541 3.67239
0.122359 0.315688 3.66604
0.136253 0.302001 3.64575
0.106934 0.296651 3.66076
0.120317 0.288962 3.64159
0.166109 0.246575 3.60045
0.0958173 0.412655 3.743
0.0984341 0.436528 3.74817
0.281798 0.575869 3.58521
0.145924 0.469625 3.63146
0.143639 0.407673 3.68241
0.145224 0.418366 3.674
0.258759 0.404632 3.60224
0.0983261 0.46184 3.73094
0.22679 0.607348 3.62746
0.259415 0.597077 3.60842
0.308406 0.645961 3.51184
0.125195 0.588818 3.64908
0.159934 0.557022 3.60211
0.181078 0.273446 3.59695
0.307209 0.251896 3.39094
0.128714 0.392006 3.67438
0.110956 0.383842 3.67749
0.155374 0.269689 3.60048
0.142122 0.271155 3.60723
0.272326 0.611224 3.59682
0.143049 0.394476 3.66957
0.182902 0.606217 3.6418
0.186697 0.628547 3.64648
0.213399 0.72741 3.60085
0.288999 0.631041 3.56052
0.197954 0.680274 3.62578
0.296458 0.582299 3.56491
0.314159 0.587254 3.51992
0.0941116 0.311725 3.6799
0.114111 0.304833 3.66458
0.128542 0.295966 3.64564
0.123181 0.38633 3.67079
0.148756 0.270149 3.60469
0.141632 0.25761 3.61704
0.138674 0.272879 3.60672
0.118501 0.407181 3.70676
0.114752 0.288952 3.63683
0.102096 0.292889 3.6509
0.0865465 0.294568 3.66142
0.106752 0.184909 3.62206
0.101617 0.204665 3.65201
0.0990403 0.219637 3.65826
0.0962578 0.233475 3.6552
0.0931461 0.243333 3.65109
0.121537 0.254392 3.62843
0.126159 0.251504 3.63164
0.132888 0.246025 3.63339
0.139335 0.238431 3.62879
0.161183 0.324898 3.63857
0.340685 0.359004 3.35808
0.129726 0.259553 3.61527
0.135588 0.258877 3.61737
0.104552 0.372389 3.67536
0.137395 0.375418 3.65318
0.107355 0.378175 3.6778
0.169276 0.45456 3.62301
0.206984 0.436513 3.61851
0.148469 0.404951 3.66093
0.270841 0.692667 3.55983
0.252501 0.662924 3.59491
0.235247 0.627174 3.62311
0.152419 0.224782 3.60958
0.132074 0.623809 3.65789
0.140128 0.687022 3.64279
0.149082 0.746089 3.62377
0.241433 0.505993 3.58507
0.294763 0.473128 3.55434
0.146195 0.515144 3.59806
0.272895 0.542363 3.57207
0.130769 0.485837 3.63889
0.131933 0.42122 3.70595
0.318459 0.451693 3.52667
0.279146 0.459787 3.57601
0.24819 0.454985 3.59801
0.203453 0.461247 3.60665
0.171064 0.472803 3.61033
0.147801 0.485084 3.61719
0.100022 0.521336 3.66459
0.314694 0.402049 3.53512
0.290213 0.542962 3.56194
0.0880009 0.398279 3.73143
0.143008 0.447463 3.64201
0.350016 0.468241 3.37696
0.131456 0.497713 3.62131
0.152457 0.397589 3.63751
0.262827 0.525524 3.56513
0.132422 0.434148 3.69552
0.329783 0.306045 3.36875
0.147107 0.522725 3.5917
0.11611 0.451627 3.71733
0.246605 0.217753 3.5146
0.247754 0.186796 3.47202
0.339777 0.379764 3.44837
0.278352 0.244159 3.48828
0.329177 0.536914 3.48267
0.160377 0.147642 3.5784
0.088974 0.385367 3.69966
0.161943 0.428729 3.6341
0.315403 0.495922 3.51767
0.221438 0.516752 3.59324
0.199642 0.515444 3.59837
0.148158 0.255072 3.61323
0.307172 0.353136 3.52734
0.124484 0.110816 3.57199
0.187111 0.144517 3.5283
0.213481 0.163251 3.50396
0.179352 0.517307 3.59935
0.162246 0.520205 3.59575
0.15207 0.520973 3.59172
0.307458 0.542918 3.5378
0.163721 0.543668 3.59702
0.182388 0.552883 3.59964
0.204898 0.554648 3.59851
0.227634 0.549685 3.59377
0.241242 0.54139 3.58737
0.346726 0.533576 3.41641
0.236562 0.519441 3.58523
0.144848 0.341498 3.65192
0.129261 0.398534 3.68532
0.1056 0.352698 3.6728
0.216548 0.191557 3.53312
0.188604 0.170845 3.55336
0.123201 0.129006 3.60048
0.278253 0.212006 3.43036
0.152477 0.53082 3.59394
0.114842 0.485074 3.67297
0.158733 0.12649 3.5543
0.328746 0.329092 3.45202
0.109459 0.248049 3.64101
0.114206 0.241546 3.6444
0.119696 0.231493 3.64633
0.124584 0.218461 3.64168
0.13341 0.202885 3.61847
0.132021 0.281366 3.62302
0.140205 0.284044 3.62273
0.147202 0.288153 3.623
0.173231 0.3017 3.61918
0.271566 0.348836 3.57561
0.115627 0.504612 3.65007
0.128779 0.542889 3.61039
0.142561 0.538324 3.59971
0.126589 0.282972 3.6191
0.26862 0.28508 3.53608
0.107265 0.549976 3.63999
0.145891 0.188086 3.60307
0.098351 0.500605 3.68979
0.128797 0.449303 3.67466
0.113575 0.16886 3.61455
0.189587 0.238872 3.58593
0.170049 0.376891 3.63112
0.169688 0.211789 3.59268
0.22304 0.376722 3.62093
0.188423 0.350991 3.62563
0.236188 0.335172 3.60043
0.120337 0.149168 3.61261
0.140508 0.432663 3.65708
0.209479 0.219861 3.5625
0.182957 0.19375 3.57329
0.206429 0.269954 3.58628
0.295684 0.311493 3.51705
0.235479 0.263742 3.56466
0.310195 0.282554 3.45935
0.199483 0.317795 3.61245
0.128989 0.466329 3.656
0.12456 0.412458 3.71209
0.137162 0.400967 3.68652
0.116933 0.430114 3.7276
0.145402 0.564921 3.61605
0.182109 0.580014 3.61908
0.215967 0.582612 3.61576
0.244509 0.576814 3.60508
0.263308 0.56442 3.59132
0.276353 0.516386 3.55728
0.342298 0.431378 3.451
0.2585 0.485741 3.57779
0.233336 0.481017 3.59239
0.201072 0.483235 3.60061
0.171949 0.48987 3.604
0.151075 0.498126 3.60627
0.13715 0.505252 3.60797
0.345644 0.411819 3.359
0.135777 0.391917 3.67487
0.115218 0.467626 3.69179
0.110414 0.414273 3.73103
0.0976697 0.400935 3.72175
0.109872 0.408678 3.7195
0.130212 0.382468 3.66705
0.0943482 0.399714 3.72829
0.0944103 0.387767 3.70022
0.139089 0.521708 3.59666
0.125401 0.518719 3.61202
0.11793 0.517454 3.62813
0.249291 0.534634 3.58005
0.26065 0.542404 3.57784
