ply
format ascii 1.0
comment Created by Open3D
element vertex 468
property double x
property double y
property double z
end_header
0.00926488 0.349113 3.92371
0.0115862 0.427267 3.99034
0.0106403 0.399622 3.9283
-0.00794091 0.510452 3.95301
0.0117209 0.454662 3.99765
0.0116603 0.488508 3.98665
0.0124699 0.565735 3.9155
-0.158133 0.55837 3.8141
0.0126279 0.614543 3.89593
0.0127609 0.646813 3.89875
0.0134486 0.772931 3.86719
0.00897632 0.337171 3.92079
0.00881534 0.329795 3.91428
0.00864256 0.329071 3.90433
0.0101213 0.285355 3.89218
0.00983335 0.276537 3.89759
0.00922706 0.265082 3.90415
0.00884155 0.250501 3.90167
0.00861585 0.221674 3.88245
0.0107372 0.412206 3.97805
-0.0122411 0.413293 3.94386
-0.250582 0.639077 3.69579
-0.0878956 0.54158 3.83946
-0.112232 0.539226 3.8378
-0.136187 0.539706 3.8314
-0.169836 0.548762 3.81079
-0.0676519 0.548266 3.83678
-0.120424 0.595579 3.84718
-0.0957749 0.595387 3.84578
-0.144064 0.591179 3.83968
-0.160592 0.582783 3.82943
-0.18996 0.533203 3.7987
-0.0899307 0.179544 3.84972
-0.167443 0.561726 3.80611
-0.262802 0.529455 3.68808
-0.217227 0.543169 3.7733
-0.116849 0.4456 3.86841
-0.0297664 0.353661 3.9201
-0.0279095 0.331204 3.90909
-0.0699971 0.348678 3.90224
-0.0962973 0.34143 3.87609
-0.0576324 0.331345 3.89472
-0.0804763 0.330171 3.87088
-0.123291 0.289619 3.83007
-0.00951206 0.42744 3.98766
-0.0114889 0.45407 3.99448
-0.200512 0.605108 3.82413
-0.0603676 0.506182 3.86925
-0.0696376 0.435633 3.92535
-0.0705151 0.449113 3.91686
-0.193589 0.447256 3.83579
-0.00976252 0.485226 3.97872
-0.138854 0.633845 3.86635
-0.174638 0.624014 3.84816
-0.224741 0.687898 3.74248
-0.0338727 0.617064 3.88851
-0.0737108 0.589686 3.83831
-0.144936 0.322315 3.82631
-0.246252 0.277852 3.63395
-0.0518715 0.420824 3.916
-0.0310575 0.412208 3.91963
-0.12685 0.325658 3.82439
-0.115112 0.324754 3.83012
-0.188907 0.6397 3.83504
-0.0728937 0.425798 3.91171
-0.0920189 0.632979 3.87985
-0.0969237 0.65441 3.88436
-0.124552 0.756078 3.83548
-0.206061 0.665642 3.79381
-0.108091 0.709498 3.85994
-0.215682 0.614666 3.80224
-0.232948 0.625961 3.7506
-0.0295005 0.33952 3.91676
-0.062901 0.337612 3.89883
-0.0881775 0.33556 3.87513
-0.0463221 0.416605 3.91121
-0.121316 0.325732 3.82745
-0.105481 0.30781 3.84154
-0.110938 0.32357 3.83104
-0.0363773 0.426811 3.9515
-0.0768029 0.332438 3.8675
-0.0531883 0.332112 3.88567
-0.0251448 0.330283 3.8995
-0.0323088 0.223124 3.87883
-0.0302832 0.253557 3.89716
-0.0284032 0.268749 3.8988
-0.0259588 0.27991 3.89165
-0.0234449 0.287402 3.88713
-0.0763591 0.30022 3.85747
-0.0807852 0.29823 3.86139
-0.0866571 0.292779 3.86455
-0.0910926 0.28431 3.85985
-0.110939 0.362247 3.8688
-0.26647 0.40514 3.59383
0.0112121 0.405815 3.94578
-0.0920427 0.307646 3.84037
-0.0990613 0.309185 3.84239
-0.0231854 0.40081 3.92119
-0.0658406 0.41118 3.89325
-0.0268782 0.40629 3.92122
-0.0876067 0.492613 3.86177
-0.130723 0.477503 3.85591
-0.0765485 0.438339 3.90262
-0.184559 0.728035 3.79161
-0.165948 0.694592 3.82907
-0.147556 0.654075 3.86045
-0.100267 0.262141 3.84539
-0.0418725 0.650563 3.89631
-0.0509758 0.714198 3.87754
-0.0610032 0.76956 3.86033
-0.157433 0.542254 3.82064
-0.216953 0.515184 3.78493
-0.0553506 0.554945 3.83382
-0.189324 0.573965 3.80859
-0.0423655 0.522206 3.87856
-0.0517678 0.443618 3.94997
-0.244329 0.493366 3.75838
-0.200221 0.503906 3.80764
-0.169118 0.498919 3.83013
-0.122033 0.502195 3.84246
-0.085888 0.511201 3.84746
-0.059692 0.522669 3.85412
-0.0102078 0.55764 3.90552
-0.246984 0.444331 3.7666
-0.210192 0.575621 3.7969
-0.0018361 0.413235 3.97654
-0.0604086 0.483478 3.88143
-0.270049 0.523699 3.60871
-0.0408414 0.536412 3.85789
-0.0792921 0.436444 3.87585
-0.176239 0.559257 3.80171
-0.0524901 0.460077 3.93948
-0.2612 0.342132 3.60774
-0.0564725 0.562645 3.82697
-0.0311271 0.47496 3.96409
-0.196909 0.234942 3.75577
-0.191661 0.195148 3.71902
-0.268561 0.421468 3.67927
-0.229537 0.265324 3.72853
-0.248232 0.581529 3.7123
-0.0924952 0.149328 3.83965
0.0013251 0.40701 3.94395
-0.0847232 0.466015 3.873
-0.238581 0.535388 3.74859
-0.132517 0.554542 3.8288
-0.111192 0.55352 3.83498
-0.111314 0.304063 3.83771
-0.249119 0.390005 3.7597
-0.0447382 0.112113 3.83954
-0.119961 0.142811 3.78514
-0.152609 0.164353 3.75487
0.0132968 0.714015 3.88353
0.0077509 0.108867 3.84734
-0.0914878 0.555119 3.83598
-0.0728646 0.558918 3.83265
-0.0616737 0.561 3.82778
-0.228362 0.578728 3.77207
-0.0772979 0.575084 3.83482
-0.097846 0.578706 3.83938
-0.117007 0.579129 3.83852
-0.137556 0.575211 3.83283
-0.151788 0.569369 3.82456
-0.26415 0.587675 3.64643
-0.147414 0.556336 3.82113
0.0104062 0.382452 3.92088
-0.0827944 0.376182 3.88967
-0.0514553 0.423939 3.92521
-0.0286875 0.381805 3.9175
0.0124954 0.590242 3.89574
-0.160386 0.201851 3.77919
-0.127488 0.175285 3.80763
-0.0473036 0.1326 3.86698
-0.221456 0.229041 3.67595
-0.0630224 0.568277 3.83028
-0.0263353 0.518336 3.91367
0.0075808 0.129922 3.87361
-0.0856918 0.124466 3.81756
-0.265275 0.362927 3.6851
-0.0520642 0.293011 3.87376
-0.0565857 0.287695 3.87798
-0.0605814 0.278838 3.88185
-0.0637594 0.265482 3.87851
-0.0713524 0.238923 3.86376
-0.102381 0.329072 3.84881
-0.109553 0.331814 3.84801
-0.116451 0.335574 3.8484
-0.134666 0.345535 3.84553
-0.219778 0.384892 3.80916
-0.025436 0.541166 3.8901
-0.0367589 0.580919 3.84323
-0.0522254 0.575844 3.83413
-0.0964963 0.331368 3.84714
-0.223603 0.314187 3.77179
-0.0172825 0.584117 3.87777
-0.0809821 0.210618 3.85565
0.0120857 0.515178 3.96129
-0.00938038 0.533111 3.93101
0.0123712 0.539643 3.93689
-0.0446758 0.479802 3.91522
0.00773549 0.158904 3.8852
0.00811629 0.193291 3.88422
-0.0387643 0.194215 3.87667
-0.138283 0.271474 3.81999
-0.100791 0.41492 3.86823
-0.11192 0.236704 3.83538
-0.162221 0.414612 3.8575
-0.128659 0.388536 3.85888
-0.187175 0.371046 3.83428
-0.0455473 0.160542 3.87725
-0.0611439 0.466022 3.89767
-0.155194 0.241319 3.80226
-0.122297 0.208743 3.82247
-0.161148 0.309171 3.81952
-0.245261 0.342223 3.7513
-0.190842 0.292852 3.79892
-0.253868 0.309628 3.69693
-0.154642 0.358745 3.84357
-0.0424638 0.500663 3.89621
-0.0443853 0.43152 3.95591
-0.0622994 0.426645 3.92855
-0.0324971 0.449503 3.97376
-0.0546069 0.59797 3.84968
-0.0928665 0.608863 3.85465
-0.126947 0.610553 3.85443
-0.156209 0.60554 3.84465
-0.177855 0.593848 3.82923
-0.193979 0.551679 3.79158
-0.26811 0.4761 3.6824
-0.175831 0.525538 3.81138
-0.150186 0.521099 3.82613
-0.117477 0.52156 3.83634
-0.0861049 0.526983 3.84036
-0.0619915 0.53562 3.84166
-0.0461664 0.544427 3.84327
-0.26831 0.464442 3.59271
-0.0627875 0.421175 3.91619
-0.0266971 0.497345 3.93519
-0.0265706 0.430477 3.97547
-0.0138062 0.417011 3.96593
-0.0267829 0.425502 3.96354
-0.0572985 0.414225 3.90776
-0.00948036 0.414849 3.97274
-0.00666797 0.408961 3.94375
-0.0474169 0.562068 3.83091
-0.0341015 0.558028 3.8462
-0.0271553 0.555683 3.86517
-0.160504 0.564908 3.81672
-0.174286 0.572723 3.81529
0.0322552 0.510815 3.95247
0.182756 0.564904 3.8132
0.0340394 0.413424 3.94431
0.273527 0.643267 3.69474
0.111778 0.545111 3.83748
0.135667 0.543419 3.83626
0.159521 0.544225 3.83017
0.192928 0.555098 3.81003
0.092573 0.551107 3.83577
0.143981 0.60077 3.84534
0.119696 0.599421 3.84466
0.167842 0.597303 3.83799
0.184355 0.589103 3.82829
0.212554 0.538282 3.7986
0.105413 0.182858 3.85075
0.192057 0.568938 3.80522
0.28505 0.535495 3.68793
0.239331 0.549039 3.77353
0.138013 0.447363 3.86941
0.0479371 0.353947 3.92118
0.0448141 0.331309 3.90999
0.0873046 0.348963 3.90432
0.113408 0.341482 3.87827
0.0738959 0.331408 3.89616
0.0974911 0.330106 3.87262
0.140354 0.290648 3.83196
0.0319767 0.427805 3.98821
0.0342987 0.454406 3.99505
0.222774 0.612437 3.82361
0.0837005 0.507559 3.86902
0.0910683 0.436466 3.9267
0.0919808 0.450004 3.91816
0.213 0.450897 3.83691
0.0331525 0.485641 3.97856
0.162223 0.640312 3.86567
0.19758 0.631325 3.84724
0.248388 0.691585 3.7416
0.0587759 0.619247 3.88746
0.0987807 0.592636 3.83728
0.162426 0.323293 3.82788
0.262892 0.286025 3.63422
0.0737173 0.421321 3.91759
0.0527837 0.41249 3.92153
0.144764 0.325346 3.82635
0.132904 0.324351 3.83235
0.212028 0.647159 3.8346
0.0937871 0.426424 3.91361
0.11613 0.63755 3.87948
0.121172 0.659022 3.88417
0.149031 0.757682 3.83467
0.229499 0.671018 3.79367
0.133093 0.71235 3.85979
0.23815 0.621631 3.802
0.256045 0.631519 3.75039
0.0469245 0.339635 3.91769
0.0798727 0.337937 3.90055
0.105336 0.335613 3.87725
0.06829 0.416958 3.91311
0.139274 0.325226 3.82957
0.123317 0.307582 3.84413
0.128574 0.323336 3.83297
0.0579939 0.427459 3.95156
0.0931782 0.332482 3.86943
0.0694637 0.332101 3.88683
0.0419887 0.330392 3.90012
0.0489353 0.223882 3.88003
0.0473415 0.254076 3.89829
0.0463707 0.269013 3.89955
0.0452402 0.280022 3.89244
0.0428104 0.287397 3.8877
0.0946251 0.300377 3.85939
0.098616 0.298364 3.86385
0.103851 0.292932 3.86718
0.108246 0.284874 3.86223
0.130276 0.363204 3.87139
0.287445 0.412076 3.5933
0.11035 0.3075 3.84182
0.11719 0.30896 3.84458
0.0445534 0.400949 3.92216
0.0873355 0.411548 3.89599
0.0483606 0.406372 3.92271
0.110212 0.49433 3.8615
0.152358 0.47974 3.85621
0.0979837 0.439185 3.9044
0.208149 0.730849 3.79131
0.190014 0.699151 3.82914
0.171407 0.66045 3.85996
0.117267 0.263782 3.84693
0.0668233 0.653036 3.89583
0.0768564 0.715468 3.8774
0.0866277 0.770092 3.8607
0.180549 0.547744 3.81983
0.238604 0.520229 3.78542
0.0812771 0.557563 3.8323
0.212345 0.580642 3.80793
0.0663187 0.523422 3.878
0.0735331 0.444391 3.95076
0.265249 0.498867 3.75861
0.221793 0.508104 3.80767
0.190851 0.50218 3.83017
0.14475 0.504807 3.84195
0.109269 0.513234 3.84674
0.0835253 0.524399 3.85353
0.0352245 0.558266 3.90508
0.266811 0.449922 3.767
0.232299 0.582129 3.79672
0.0231223 0.41338 3.97645
0.0835688 0.484504 3.8817
0.292837 0.529228 3.60733
0.0655891 0.53785 3.857
0.101637 0.437398 3.87778
0.200143 0.566353 3.80054
0.0740801 0.460817 3.94039
0.280025 0.34988 3.60787
0.0828147 0.565793 3.82508
0.0534843 0.475547 3.96402
0.212167 0.241759 3.75707
0.206352 0.20283 3.71981
0.289383 0.428337 3.6798
0.245029 0.27283 3.72982
0.271294 0.587055 3.71174
0.107567 0.153299 3.84028
0.020995 0.407076 3.94414
0.10682 0.467297 3.87362
0.260401 0.541363 3.74874
0.157245 0.559627 3.82734
0.135836 0.558075 3.83294
0.128995 0.304033 3.84016
0.267432 0.396023 3.76105
0.060231 0.114358 3.83961
0.135507 0.148406 3.7852
0.168002 0.171114 3.75506
0.116041 0.55911 3.83424
0.098298 0.562386 3.83087
0.0878522 0.564138 3.82575
0.250372 0.584992 3.77172
0.102308 0.57875 3.83301
0.121623 0.583154 3.83804
0.140837 0.584635 3.83702
0.161697 0.581723 3.83131
0.175968 0.576304 3.82356
0.287578 0.592296 3.64522
0.172164 0.56214 3.81983
0.102712 0.376885 3.89165
0.073353 0.424567 3.92692
0.048856 0.382108 3.91844
0.17612 0.207979 3.78041
0.14266 0.180479 3.80881
0.0621996 0.134676 3.86728
0.236764 0.237099 3.67638
0.0889752 0.571528 3.82831
0.0506288 0.519065 3.91342
0.101016 0.128744 3.81756
0.283859 0.370364 3.68633
0.0708911 0.293041 3.87529
0.075056 0.287984 3.87966
0.0782632 0.27924 3.88351
0.0811411 0.266273 3.8799
0.0879415 0.240274 3.86508
0.119548 0.328816 3.85098
0.126953 0.331562 3.85015
0.13389 0.335309 3.85041
0.153131 0.346434 3.84753
0.237138 0.389694 3.81124
0.050197 0.542027 3.88967
0.0629672 0.582926 3.84285
0.0782839 0.578438 3.83255
0.113487 0.331177 3.84884
0.239793 0.32021 3.77377
0.0423541 0.585212 3.8774
0.0966777 0.213052 3.85689
0.0339463 0.533693 3.93082
0.0675762 0.480615 3.91569
0.0544764 0.195525 3.87783
0.155364 0.274303 3.82158
0.122128 0.416025 3.87002
0.127927 0.239568 3.83694
0.181379 0.417429 3.85942
0.148934 0.390224 3.8608
0.204752 0.374872 3.83627
0.0607534 0.162444 3.87772
0.0833665 0.466904 3.89858
0.171435 0.246132 3.80358
0.138089 0.213012 3.82401
0.178434 0.311982 3.82051
0.262214 0.348709 3.75336
0.206713 0.297962 3.80058
0.27066 0.317365 3.69825
0.17299 0.360886 3.84539
0.0661773 0.501524 3.89607
0.0658068 0.432295 3.95639
0.0837419 0.427432 3.93028
0.0551074 0.450035 3.97419
0.0803089 0.6007 3.84909
0.117343 0.613384 3.85389
0.150726 0.616111 3.85329
0.179989 0.611748 3.84374
0.201085 0.600497 3.82843
0.21696 0.558038 3.79115
0.289848 0.482324 3.68192
0.198524 0.530271 3.81095
0.172952 0.524991 3.8256
0.14051 0.524814 3.83552
0.109767 0.529743 3.8391
0.0866612 0.537912 3.84097
0.0714732 0.546395 3.84232
0.290245 0.470552 3.59138
0.0841009 0.421856 3.91824
0.0506189 0.498072 3.93498
0.0485865 0.43111 3.97601
0.0345939 0.417465 3.96661
0.0482227 0.42611 3.96396
0.0785943 0.41456 3.91013
0.0305673 0.415159 3.97328
0.0287288 0.409139 3.94426
0.0739911 0.564719 3.82978
0.0598353 0.559798 3.84553
0.0523603 0.556838 3.8646
0.184946 0.572076 3.81566
0.197881 0.579689 3.81465
