ply
format ascii 1.0
comment Created by Open3D
element vertex 468
property double x
property double y
property double z
end_header
-0.0112803 0.358911 3.96729
-0.010226 0.442327 4.02453
-0.0114269 0.41438 3.96631
-0.0293935 0.519769 3.99142
-0.0101218 0.467329 4.03155
-0.00983384 0.499193 4.02125
-0.0102863 0.572491 3.95829
-0.169483 0.575029 3.86764
-0.0107927 0.629579 3.94038
-0.0109037 0.661246 3.94441
-0.0111542 0.772207 3.91839
-0.0112987 0.347213 3.96453
-0.0112806 0.339211 3.95714
-0.0111759 0.336006 3.94687
-0.0107431 0.332253 3.94758
-0.0106271 0.323174 3.95178
-0.0100622 0.311666 3.9575
-0.00984641 0.298083 3.95551
-0.00985359 0.271441 3.93576
-0.0100576 0.429494 4.01307
-0.0311583 0.42938 3.98158
-0.246929 0.650924 3.76055
-0.102328 0.55657 3.89043
-0.124478 0.554544 3.88917
-0.146324 0.554586 3.88337
-0.176171 0.566053 3.86422
-0.0846809 0.561774 3.88808
-0.13477 0.614263 3.89637
-0.110832 0.612651 3.89698
-0.156857 0.610108 3.88954
-0.171496 0.601403 3.88141
-0.193391 0.549091 3.85363
-0.0946351 0.232086 3.90632
-0.178268 0.58017 3.86036
-0.257688 0.551096 3.75314
-0.218051 0.562709 3.83108
-0.122515 0.459047 3.91706
-0.0395975 0.36293 3.96442
-0.0358995 0.33995 3.95348
-0.0685816 0.357876 3.95062
-0.0873323 0.350525 3.93283
-0.0566181 0.340142 3.94371
-0.0735604 0.338933 3.9272
-0.115175 0.315781 3.8984
-0.0286678 0.443181 4.02289
-0.0315945 0.466924 4.02925
-0.204692 0.625271 3.87505
-0.0762211 0.518351 3.9175
-0.0799361 0.447625 3.96593
-0.0811428 0.460183 3.95848
-0.188573 0.460819 3.88724
-0.0306183 0.495959 4.01409
-0.154802 0.652872 3.91378
-0.184345 0.643884 3.89635
-0.22549 0.69528 3.80468
-0.0586 0.634288 3.93338
-0.090483 0.604573 3.89055
-0.133598 0.338167 3.89222
-0.237946 0.330336 3.69455
-0.0643431 0.433809 3.9579
-0.0462461 0.425868 3.96059
-0.11089 0.337862 3.89354
-0.0994977 0.338955 3.89954
-0.196624 0.658335 3.88576
-0.0807367 0.437075 3.95373
-0.113985 0.65151 3.92692
-0.11838 0.671096 3.93169
-0.138654 0.756339 3.89001
-0.210737 0.677844 3.85104
-0.126551 0.714935 3.91252
-0.218169 0.633995 3.85588
-0.232493 0.641171 3.81146
-0.0381755 0.349365 3.96154
-0.0619302 0.34702 3.94802
-0.0802829 0.34451 3.93192
-0.0591212 0.429033 3.95363
-0.105257 0.3382 3.89656
-0.0939693 0.333414 3.91168
-0.0962096 0.339961 3.90022
-0.0519241 0.442647 3.98888
-0.0687633 0.340323 3.92306
-0.0522038 0.338998 3.93446
-0.0330556 0.337238 3.94349
-0.0401032 0.273199 3.93449
-0.038032 0.30054 3.95327
-0.0371163 0.314525 3.95444
-0.0361018 0.325508 3.94834
-0.0342656 0.33293 3.94407
-0.0721936 0.335849 3.92349
-0.0753315 0.333486 3.9275
-0.0797492 0.327952 3.93094
-0.084168 0.319534 3.9269
-0.106841 0.375829 3.92581
-0.260816 0.44265 3.66076
-0.0114464 0.422301 3.98248
-0.0835858 0.336503 3.90959
-0.0883565 0.335913 3.91216
-0.0391935 0.414654 3.96089
-0.074572 0.421383 3.93812
-0.0425058 0.419997 3.96145
-0.0991621 0.504557 3.90968
-0.136169 0.488701 3.90424
-0.0849198 0.449344 3.9458
-0.191527 0.731488 3.85078
-0.17756 0.703644 3.88373
-0.163061 0.671341 3.91014
-0.0954918 0.298866 3.91149
-0.0659666 0.665681 3.94223
-0.0728077 0.717174 3.92896
-0.0802135 0.768612 3.91342
-0.165211 0.558154 3.87361
-0.216918 0.531021 3.84208
-0.0739649 0.567199 3.88475
-0.194605 0.593458 3.86275
-0.0609912 0.533648 3.9252
-0.0662074 0.457003 3.98826
-0.240462 0.513112 3.81677
-0.201972 0.516404 3.8626
-0.173373 0.509397 3.88351
-0.130881 0.513995 3.89309
-0.099493 0.524032 3.89759
-0.0768277 0.535198 3.90387
-0.0317157 0.565625 3.94933
-0.238696 0.465088 3.82376
-0.212396 0.596262 3.85232
-0.0210539 0.430691 4.01169
-0.074905 0.49508 3.92782
-0.264963 0.546828 3.67733
-0.0605492 0.547402 3.90697
-0.0882217 0.446467 3.923
-0.183862 0.577851 3.85581
-0.0669421 0.472175 3.97899
-0.253789 0.387297 3.67176
-0.0750878 0.575484 3.87866
-0.0491368 0.486953 4.00076
-0.191818 0.282611 3.81843
-0.189477 0.252971 3.77763
-0.259963 0.452542 3.74272
-0.219106 0.312725 3.78905
-0.245907 0.598876 3.77593
-0.0995291 0.205461 3.89356
-0.0202239 0.423247 3.98103
-0.0946482 0.477797 3.92032
-0.23651 0.556168 3.80873
-0.145745 0.568769 3.88081
-0.125617 0.567503 3.88586
-0.0995396 0.329052 3.90783
-0.235797 0.417971 3.81731
-0.0584807 0.169664 3.88901
-0.12651 0.202337 3.84079
-0.155698 0.223344 3.81294
-0.0110888 0.717282 3.93342
-0.0104574 0.163987 3.89585
-0.10692 0.568947 3.88686
-0.0897657 0.572127 3.88339
-0.0795383 0.573687 3.87885
-0.228301 0.59905 3.82933
-0.0938044 0.593368 3.88618
-0.112791 0.600676 3.88969
-0.133063 0.60221 3.88898
-0.153272 0.597799 3.884
-0.165738 0.590582 3.87746
-0.260023 0.603667 3.71374
-0.159676 0.571472 3.87376
-0.0115439 0.396305 3.96137
-0.0858585 0.388649 3.93886
-0.0645396 0.437814 3.96685
-0.0421775 0.394908 3.9597
-0.0102506 0.601263 3.9406
-0.161107 0.252871 3.84134
-0.131433 0.229166 3.866
-0.0590194 0.189061 3.91714
-0.215459 0.285633 3.73393
-0.0809252 0.582656 3.88164
-0.0464471 0.528318 3.95752
-0.00993927 0.183295 3.92278
-0.0952844 0.183498 3.86959
-0.253312 0.401579 3.74695
-0.0549908 0.334574 3.93486
-0.0579022 0.329506 3.93949
-0.0607137 0.320859 3.94352
-0.0634961 0.307995 3.94087
-0.0707243 0.283937 3.92539
-0.0890298 0.33931 3.9126
-0.0960456 0.341308 3.91247
-0.102672 0.344923 3.91272
-0.124843 0.358969 3.90907
-0.206915 0.408804 3.86458
-0.0461657 0.550858 3.93556
-0.0580372 0.59221 3.89565
-0.0715056 0.588172 3.88617
-0.0834815 0.341626 3.90961
-0.210421 0.349923 3.83183
-0.0390186 0.595789 3.92478
-0.0832664 0.258727 3.91459
-0.0098982 0.52423 3.99928
-0.0308981 0.54165 3.9733
-0.0102032 0.547228 3.97827
-0.06132 0.491493 3.9583
-0.00983712 0.210552 3.93518
-0.00987233 0.243076 3.93484
-0.047579 0.245769 3.92996
-0.135656 0.303863 3.88647
-0.107107 0.427702 3.91847
-0.111585 0.278037 3.89972
-0.15878 0.431461 3.9092
-0.128882 0.404861 3.91401
-0.178009 0.393311 3.89121
-0.0553485 0.215247 3.92873
-0.0743439 0.477628 3.94206
-0.154384 0.282484 3.86648
-0.124971 0.255636 3.88332
-0.154808 0.333219 3.8832
-0.230425 0.377373 3.81038
-0.18213 0.326675 3.86232
-0.241671 0.354475 3.7573
-0.147247 0.375786 3.90339
-0.0603243 0.511862 3.94131
-0.0587742 0.446936 3.99371
-0.0731861 0.43997 3.9691
-0.0502204 0.463066 4.0098
-0.075956 0.612407 3.90201
-0.111454 0.62539 3.90577
-0.142364 0.62752 3.90382
-0.168001 0.623358 3.89448
-0.185477 0.612399 3.88124
-0.197981 0.570732 3.84725
-0.261646 0.502107 3.7463
-0.181108 0.54017 3.86549
-0.157785 0.534471 3.87931
-0.127996 0.535659 3.88818
-0.100171 0.541504 3.89184
-0.0794196 0.549045 3.89281
-0.0654991 0.556341 3.89404
-0.263121 0.494615 3.66115
-0.0728567 0.433544 3.9579
-0.0466795 0.507922 3.97576
-0.0437693 0.446356 4.01176
-0.0314277 0.43455 4.0025
-0.0433497 0.442247 4.00051
-0.0671238 0.425769 3.95068
-0.0276761 0.432411 4.00858
-0.0267401 0.425401 3.98131
-0.0672838 0.573619 3.88261
-0.0544367 0.568813 3.89684
-0.047866 0.565836 3.91322
-0.172808 0.584913 3.87012
-0.182339 0.591809 3.86903
0.00929373 0.519981 3.99191
0.151987 0.578346 3.86709
0.0101442 0.42934 3.98075
0.232473 0.655618 3.76047
0.0862841 0.559308 3.89193
0.108988 0.557625 3.89024
0.13101 0.557543 3.88387
0.160662 0.569188 3.86396
0.0671157 0.563973 3.88926
0.118453 0.616941 3.8966
0.093702 0.615036 3.8969
0.140706 0.612834 3.8894
0.155681 0.604355 3.8806
0.178336 0.551599 3.85293
0.0763353 0.228993 3.9041
0.16077 0.58361 3.85951
0.243553 0.553829 3.7522
0.203423 0.565277 3.82959
0.105668 0.459458 3.91489
0.0179226 0.362984 3.9641
0.0144627 0.339788 3.95327
0.0481185 0.357358 3.95006
0.0672165 0.349936 3.93264
0.0365195 0.33977 3.9439
0.0532947 0.33851 3.92732
0.0956536 0.314169 3.89678
0.00884954 0.443237 4.02193
0.0119771 0.46714 4.0282
0.18982 0.627495 3.87399
0.0586272 0.519205 3.91755
0.0617431 0.447942 3.96431
0.0633209 0.460377 3.95689
0.174674 0.461455 3.88535
0.0109239 0.496188 4.0143
0.136492 0.654479 3.9113
0.167964 0.645825 3.89441
0.21043 0.700475 3.80393
0.0375213 0.634798 3.93262
0.071886 0.606555 3.89085
0.113416 0.336712 3.89116
0.22223 0.326765 3.69418
0.0446491 0.43382 3.95593
0.0254085 0.425641 3.95788
0.0889176 0.336841 3.89374
0.079069 0.338207 3.89967
0.180138 0.660268 3.88345
0.0624412 0.437076 3.95165
0.0937752 0.652767 3.92429
0.0981901 0.672402 3.92878
0.119691 0.760303 3.88885
0.195198 0.681505 3.84913
0.106294 0.717557 3.9105
0.203233 0.63649 3.85449
0.217887 0.644838 3.81043
0.0166951 0.349175 3.96131
0.0413391 0.346463 3.94823
0.0601946 0.344026 3.93173
0.0386331 0.428971 3.95133
0.0837109 0.337488 3.89685
0.0737227 0.332558 3.91093
0.0768374 0.339146 3.90036
0.033177 0.443133 3.98884
0.0494448 0.340138 3.92335
0.0321209 0.338676 3.93481
0.0119857 0.337225 3.94388
0.0215708 0.272523 3.93296
0.0194395 0.300197 3.95267
0.0176978 0.31431 3.95415
0.0153646 0.325337 3.94848
0.0133854 0.332785 3.94431
0.0528147 0.335473 3.92311
0.0563009 0.332875 3.92644
0.0611455 0.32726 3.9294
0.065258 0.31872 3.92542
0.0868969 0.375413 3.92394
0.242836 0.44246 3.66033
0.0640496 0.33592 3.91001
0.0685168 0.335254 3.91169
0.0174198 0.414564 3.95965
0.054081 0.421176 3.93517
0.0211485 0.419928 3.95946
0.0822702 0.505726 3.90979
0.120155 0.48988 3.90318
0.0668439 0.449378 3.94407
0.175021 0.736552 3.84904
0.159958 0.70679 3.88117
0.144433 0.673279 3.90723
0.0769952 0.297203 3.91034
0.044829 0.66622 3.94048
0.0512023 0.718577 3.92749
0.0596693 0.770819 3.91171
0.149928 0.561208 3.87366
0.202826 0.533139 3.84033
0.0549246 0.568993 3.88618
0.179392 0.59609 3.86227
0.0425824 0.534434 3.92578
0.0478984 0.457388 3.98712
0.227235 0.514869 3.81549
0.187568 0.518447 3.86136
0.158664 0.511272 3.88274
0.114579 0.515733 3.89338
0.0824537 0.525697 3.89841
0.0592338 0.536438 3.9045
0.0116144 0.566003 3.94959
0.225382 0.465904 3.82286
0.198372 0.599001 3.85141
0.00136757 0.430613 4.01168
0.0566165 0.495706 3.92786
0.247796 0.549542 3.67762
0.0415109 0.548437 3.9078
0.0684485 0.44655 3.92103
0.167274 0.581089 3.85549
0.0493422 0.472443 3.97784
0.236946 0.385321 3.67098
0.0557417 0.577313 3.88047
0.0307839 0.487254 4.00028
0.175946 0.278368 3.81578
0.173948 0.247617 3.77622
0.244359 0.452592 3.74159
0.204427 0.309175 3.78667
0.231042 0.602417 3.77496
0.0811558 0.201629 3.89171
-0.0025937 0.423282 3.98064
0.0773192 0.478298 3.91919
0.222735 0.558799 3.80734
0.128421 0.572246 3.88079
0.108782 0.570884 3.88685
0.079075 0.328145 3.907
0.221971 0.417353 3.8154
0.0380279 0.167268 3.88832
0.108263 0.197115 3.84005
0.138749 0.217693 3.81207
0.0898508 0.572213 3.88794
0.0718991 0.574875 3.885
0.0606112 0.575856 3.88086
0.214477 0.601924 3.82832
0.076797 0.595313 3.88727
0.0970071 0.603098 3.89023
0.116949 0.604666 3.88878
0.136979 0.600593 3.88333
0.149149 0.593572 3.87635
0.243616 0.607624 3.71358
0.142187 0.574935 3.87353
0.0656245 0.388331 3.93693
0.0452637 0.438032 3.9646
0.0202926 0.394947 3.95884
0.143939 0.248008 3.83871
0.113668 0.224334 3.86335
0.0400135 0.186815 3.91595
0.20001 0.281186 3.73321
0.0623408 0.58449 3.88381
0.0270473 0.528778 3.95748
0.0760633 0.17951 3.86915
0.238375 0.400201 3.74528
0.0348096 0.334246 3.93487
0.0382944 0.3292 3.93905
0.0417847 0.320438 3.943
0.0445572 0.307522 3.9404
0.0525897 0.282619 3.92445
0.0690428 0.33866 3.91243
0.0755238 0.340697 3.91262
0.0822122 0.344336 3.91264
0.104721 0.358153 3.90809
0.193265 0.40827 3.86153
0.0265483 0.551429 3.93593
0.0372457 0.593199 3.89555
0.051795 0.589833 3.88777
0.0642381 0.341163 3.9101
0.19534 0.347877 3.82841
0.0187001 0.596231 3.92497
0.0653227 0.256477 3.91268
0.0109979 0.541832 3.97306
0.0428607 0.491886 3.95748
0.0288071 0.244366 3.92838
0.117328 0.301359 3.88395
0.0882111 0.427715 3.91579
0.0937524 0.275292 3.8971
0.143356 0.431328 3.90568
0.110567 0.404456 3.91138
0.163061 0.392404 3.88764
0.0367416 0.213552 3.92745
0.0564232 0.477985 3.94108
0.136818 0.278849 3.86342
0.106695 0.251722 3.88037
0.136459 0.331595 3.88137
0.216101 0.375705 3.80747
0.166071 0.324202 3.85904
0.226959 0.351882 3.75557
0.129485 0.375012 3.90065
0.0414907 0.512422 3.94163
0.0407749 0.447234 3.99303
0.0548313 0.440184 3.96696
0.0310572 0.463264 4.0087
0.0554106 0.613547 3.90216
0.0922968 0.626951 3.90473
0.124475 0.629942 3.90262
0.151216 0.62588 3.89349
0.169853 0.61511 3.88015
0.182769 0.573463 3.84636
0.247048 0.503686 3.74587
0.16588 0.542754 3.86492
0.142542 0.53686 3.87895
0.112196 0.538031 3.88867
0.0835454 0.543664 3.89284
0.0618212 0.550589 3.89341
0.0466847 0.557673 3.8949
0.245266 0.496001 3.66165
0.0538488 0.433338 3.95568
0.0269005 0.508225 3.97587
0.0247143 0.446454 4.01075
0.0124681 0.434444 4.00167
0.0246275 0.442378 3.99991
0.0473653 0.425495 3.94804
0.00840574 0.432324 4.00783
0.00498504 0.425333 3.98073
0.0473117 0.575136 3.88374
0.0346712 0.569912 3.8975
0.0280526 0.566669 3.91342
0.155862 0.588164 3.86899
0.166577 0.594807 3.86778
