ply
format ascii 1.0
comment Created by Open3D
element vertex 468
property double x
property double y
property double z
end_header
0.0583723 0.381873 3.75483
0.0648985 0.456283 3.8307
0.0631441 0.428236 3.76509
0.0411499 0.541977 3.78998
0.0642776 0.484044 3.83729
0.0624245 0.519109 3.82431
0.061194 0.599335 3.74941
-0.124292 0.602274 3.64147
0.0597797 0.658967 3.72532
0.058962 0.693807 3.72757
0.0546036 0.822542 3.69514
0.0572724 0.370442 3.75129
0.0562826 0.363809 3.74473
0.0557906 0.363381 3.73464
0.0568239 0.318689 3.72706
0.0568293 0.31052 3.73276
0.0555681 0.300407 3.74054
0.0554219 0.287095 3.7399
0.0562321 0.259679 3.72481
0.0632853 0.441442 3.81803
0.0378072 0.441604 3.78044
-0.231507 0.691775 3.51891
-0.0478717 0.582391 3.67181
-0.0741082 0.58108 3.66921
-0.100018 0.581972 3.6618
-0.137277 0.594141 3.6375
-0.025347 0.586775 3.66837
-0.0889763 0.648703 3.67211
-0.0591488 0.646415 3.672
-0.115419 0.643541 3.66354
-0.133265 0.633121 3.65339
-0.157222 0.57736 3.6242
-0.0420803 0.219306 3.68363
-0.135672 0.607694 3.63219
-0.238253 0.576372 3.5105
-0.187546 0.589322 3.59713
-0.0796431 0.484036 3.69844
0.0136718 0.3873 3.74876
0.0135364 0.366283 3.73673
-0.0327276 0.385306 3.72695
-0.0621426 0.381445 3.69668
-0.0208749 0.368612 3.71965
-0.0458591 0.369136 3.69233
-0.0876619 0.332557 3.64937
0.0424262 0.456656 3.82652
0.0390678 0.484223 3.83247
-0.173209 0.655708 3.64728
-0.0180321 0.543107 3.7019
-0.0265539 0.469028 3.75807
-0.0282198 0.483453 3.74887
-0.162426 0.490229 3.66129
0.0397567 0.516313 3.81645
-0.107395 0.685603 3.68831
-0.1456 0.67591 3.67003
-0.204301 0.742061 3.56532
0.00653062 0.664354 3.71582
-0.0328429 0.636311 3.66634
-0.112138 0.366315 3.6438
-0.214677 0.319821 3.45732
-0.00665737 0.452192 3.74992
0.0164727 0.442279 3.75235
-0.0960487 0.369149 3.63998
-0.0839981 0.36709 3.64575
-0.160937 0.692 3.65674
-0.0307115 0.460337 3.7425
-0.0570899 0.68366 3.70397
-0.0628779 0.705812 3.70799
-0.095478 0.810355 3.65907
-0.181674 0.717775 3.61544
-0.0749038 0.760116 3.68473
-0.189922 0.665863 3.62508
-0.209851 0.676854 3.5734
0.0125512 0.374143 3.74481
-0.0258349 0.374671 3.72344
-0.0537747 0.375177 3.69601
-0.000712382 0.447411 3.74393
-0.090235 0.368657 3.64252
-0.0722339 0.347662 3.65931
-0.0799046 0.365472 3.64722
0.0100992 0.45672 3.78913
-0.0424567 0.372022 3.68825
-0.0158222 0.369617 3.71009
0.0156719 0.366105 3.72707
0.011962 0.26181 3.71745
0.0120558 0.290886 3.73254
0.0134626 0.304788 3.73303
0.0162461 0.314387 3.72511
0.0186296 0.321317 3.72016
-0.0408617 0.337427 3.68212
-0.0456159 0.335706 3.68513
-0.0516971 0.330984 3.68723
-0.0550445 0.322828 3.68273
-0.0739453 0.40051 3.691
-0.238152 0.449416 3.41762
0.0656341 0.433455 3.78436
-0.0581832 0.346505 3.66171
-0.0655399 0.348464 3.66182
0.0249783 0.430875 3.75515
-0.0228924 0.444878 3.72266
0.0210505 0.436297 3.7547
-0.0469008 0.531301 3.69325
-0.0932666 0.518157 3.68524
-0.0348499 0.473481 3.73354
-0.160901 0.782905 3.61319
-0.138179 0.746575 3.65054
-0.117087 0.706214 3.68297
-0.0613624 0.302405 3.67059
-0.00236637 0.699548 3.72211
-0.0122579 0.762514 3.7043
-0.0260382 0.82232 3.68493
-0.123484 0.58588 3.64947
-0.186499 0.559354 3.60917
-0.0112564 0.591964 3.66616
-0.160076 0.621481 3.63318
0.00124315 0.557841 3.71168
-0.0066001 0.475379 3.78523
-0.217086 0.538375 3.58172
-0.167988 0.547346 3.63373
-0.133807 0.541622 3.65788
-0.0824696 0.54317 3.67247
-0.0443142 0.5505 3.6788
-0.0175285 0.560333 3.68613
0.0371836 0.591926 3.73969
-0.219334 0.488946 3.59006
-0.182654 0.624487 3.62162
0.0493431 0.442446 3.81587
-0.0178629 0.519055 3.7148
-0.246169 0.572023 3.4324
0.00317077 0.572372 3.69046
-0.0369775 0.471435 3.70563
-0.145056 0.605728 3.62712
-0.00856656 0.493443 3.77351
-0.231468 0.385366 3.43076
-0.0127743 0.599771 3.65947
0.0154153 0.507378 3.80027
-0.158781 0.274382 3.58123
-0.152904 0.234416 3.54653
-0.240404 0.464869 3.50245
-0.196821 0.305755 3.55218
-0.224137 0.630238 3.53565
-0.0423495 0.188996 3.67511
0.0548648 0.434587 3.78176
-0.0443049 0.503358 3.7042
-0.211475 0.581782 3.57247
-0.0950692 0.595761 3.65837
-0.0722197 0.594476 3.66583
-0.0781182 0.344789 3.65537
-0.221284 0.433631 3.58185
0.0085345 0.152982 3.67915
-0.0705345 0.181971 3.61967
-0.107621 0.203101 3.58609
0.0573753 0.760346 3.7126
0.0610717 0.150635 3.68779
-0.0510767 0.595521 3.66714
-0.0303836 0.597879 3.66448
-0.0176523 0.598577 3.66036
-0.202762 0.628272 3.59581
-0.0387586 0.620865 3.66455
-0.063078 0.630103 3.66613
-0.0854412 0.631793 3.6647
-0.108005 0.627033 3.65821
-0.122084 0.619028 3.64987
-0.242835 0.637886 3.46984
-0.111606 0.598707 3.64968
0.0616338 0.412 3.75615
-0.0435353 0.411874 3.71622
-0.00584102 0.454736 3.75932
0.0173131 0.413231 3.74977
0.0600128 0.629273 3.72777
-0.115863 0.240839 3.60653
-0.0798194 0.214492 3.63833
0.00430868 0.173265 3.70564
-0.18732 0.269746 3.502
-0.0210905 0.607764 3.66242
0.0203365 0.55131 3.74862
0.0599042 0.17089 3.71381
-0.0339737 0.164246 3.65501
-0.237005 0.405605 3.50768
-0.0134854 0.328233 3.70333
-0.0180422 0.323495 3.70685
-0.0220413 0.315553 3.71117
-0.0237797 0.30257 3.70854
-0.0299638 0.277841 3.69606
-0.0712062 0.370393 3.6666
-0.0782716 0.373703 3.66556
-0.0854729 0.378043 3.66535
-0.100667 0.387003 3.66459
-0.191406 0.428089 3.63258
0.0203839 0.575727 3.72387
0.00771939 0.619573 3.6744
-0.00927866 0.615829 3.66571
-0.0647338 0.372394 3.66506
-0.193136 0.356094 3.59425
0.0276631 0.623798 3.70908
-0.0368499 0.250568 3.68863
0.0623472 0.546241 3.79764
0.0389138 0.56556 3.76657
0.062067 0.57126 3.77259
2.77594e-07 0.513376 3.74934
0.0587563 0.199137 3.72486
0.0575096 0.232355 3.72412
0.00841059 0.233436 3.71362
-0.0988909 0.31349 3.64218
-0.0619242 0.451679 3.69734
-0.0701581 0.277705 3.66237
-0.129038 0.454628 3.68416
-0.0921342 0.426779 3.68495
-0.155695 0.412768 3.65826
0.00401538 0.200815 3.71517
-0.0185656 0.500942 3.73
-0.113064 0.281283 3.62729
-0.0768911 0.248474 3.65092
-0.125899 0.352391 3.64109
-0.216875 0.384938 3.5729
-0.156498 0.334408 3.62174
-0.224003 0.351248 3.51985
-0.121043 0.401343 3.6663
0.00212313 0.534713 3.73048
0.00133716 0.462174 3.79269
-0.0183467 0.459025 3.76126
0.0157309 0.479936 3.81135
-0.0130295 0.642062 3.67945
-0.055896 0.657604 3.68115
-0.0940155 0.660954 3.67796
-0.126017 0.655981 3.66733
-0.149031 0.643024 3.6526
-0.162823 0.597677 3.61623
-0.241584 0.520958 3.5056
-0.14165 0.569244 3.63844
-0.113387 0.56337 3.65512
-0.0780995 0.562989 3.66675
-0.0450267 0.567163 3.67202
-0.0196984 0.573844 3.67321
-0.00253111 0.580983 3.67502
-0.242087 0.510863 3.4175
-0.0193225 0.454119 3.74812
0.020663 0.529685 3.77148
0.0225642 0.459551 3.81355
0.0349979 0.446066 3.80341
0.0211282 0.454667 3.80119
-0.0136855 0.446916 3.73856
0.0406773 0.444013 3.81075
0.0449528 0.436937 3.78082
-0.00249369 0.598482 3.66285
0.0104648 0.594278 3.67769
0.0178629 0.591706 3.69683
-0.130199 0.612831 3.64229
-0.145187 0.620956 3.63957
0.0837194 0.541564 3.78878
0.233233 0.602863 3.64387
0.0890416 0.441967 3.78389
0.310074 0.679526 3.52131
0.15816 0.58089 3.66725
0.182525 0.57986 3.66638
0.207103 0.580583 3.66063
0.240661 0.593922 3.63959
0.139743 0.585638 3.66616
0.194103 0.646614 3.67185
0.167339 0.643651 3.67254
0.219443 0.642215 3.6651
0.235826 0.632197 3.65711
0.259165 0.574756 3.62917
0.154667 0.224694 3.68959
0.243295 0.608562 3.63536
0.324334 0.569802 3.51658
0.2829 0.58601 3.60376
0.191137 0.481092 3.70773
0.0989544 0.386292 3.75402
0.0943248 0.364696 3.74161
0.139783 0.382712 3.73737
0.166432 0.376658 3.70948
0.125205 0.365478 3.72702
0.149889 0.363772 3.70275
0.193669 0.328702 3.66211
0.0851936 0.457233 3.82963
0.0868053 0.484279 3.83522
0.265846 0.653785 3.65166
0.134709 0.541342 3.7028
0.145309 0.467561 3.76616
0.145505 0.481515 3.75635
0.265594 0.486418 3.67273
0.085236 0.515845 3.81627
0.211118 0.683429 3.69445
0.243785 0.674314 3.67529
0.286552 0.72927 3.56857
0.109562 0.662733 3.71711
0.146174 0.633429 3.66608
0.216648 0.360569 3.65712
0.306581 0.325489 3.4625
0.12967 0.451408 3.75749
0.108329 0.441641 3.76161
0.20204 0.360183 3.65474
0.187577 0.358144 3.66071
0.255498 0.688987 3.66253
0.148253 0.457903 3.7531
0.167393 0.68141 3.70926
0.171019 0.702962 3.71457
0.192551 0.800995 3.66329
0.269969 0.710037 3.62128
0.180376 0.753938 3.68979
0.279348 0.662398 3.63004
0.294772 0.669222 3.57866
0.097041 0.3728 3.74981
0.13199 0.37181 3.73205
0.158243 0.370276 3.70769
0.124603 0.446591 3.75394
0.195459 0.359802 3.65859
0.177185 0.340929 3.67424
0.181455 0.357125 3.66082
0.112856 0.457335 3.79108
0.144321 0.366038 3.69824
0.120455 0.365765 3.71663
0.0912757 0.363949 3.7304
0.0972205 0.262051 3.72263
0.0950536 0.289979 3.73599
0.0946649 0.303811 3.73541
0.0941902 0.313292 3.72741
0.0914903 0.320155 3.72205
0.145506 0.333091 3.69185
0.149409 0.331482 3.69682
0.1547 0.326907 3.70049
0.159992 0.319052 3.69576
0.184776 0.396704 3.70542
0.329506 0.447195 3.42148
0.162722 0.340043 3.67176
0.170449 0.341754 3.67494
0.0996381 0.429871 3.76075
0.143812 0.442282 3.73714
0.103811 0.435387 3.76233
0.161457 0.528707 3.6952
0.203966 0.514642 3.69129
0.151668 0.470926 3.74298
0.249126 0.770856 3.61878
0.233711 0.739392 3.65765
0.219067 0.703136 3.68926
0.169017 0.301077 3.68048
0.116403 0.697175 3.72588
0.123707 0.758904 3.70764
0.129836 0.816922 3.68991
0.228439 0.585089 3.65021
0.28412 0.555487 3.617
0.129497 0.590786 3.66255
0.258314 0.620526 3.63707
0.11697 0.556611 3.71079
0.127683 0.475102 3.79063
0.309829 0.534312 3.58926
0.269813 0.543488 3.63991
0.240547 0.537786 3.6632
0.194517 0.540273 3.67414
0.158991 0.548276 3.67863
0.133575 0.558854 3.68549
0.0846722 0.591162 3.73889
0.316307 0.485648 3.59977
0.275031 0.621668 3.62582
0.0759918 0.442686 3.81671
0.136337 0.51695 3.71739
0.33234 0.562771 3.43435
0.116447 0.571094 3.68907
0.15706 0.468587 3.71735
0.249359 0.60579 3.63012
0.12714 0.492395 3.77893
0.322661 0.387418 3.43675
0.131552 0.598957 3.65485
0.105561 0.506826 3.8021
0.258733 0.282882 3.59041
0.25092 0.246135 3.55159
0.33532 0.463178 3.51124
0.291423 0.312525 3.56312
0.311198 0.622386 3.54007
0.156541 0.196554 3.67882
0.0763515 0.434516 3.78336
0.159609 0.500513 3.71058
0.301759 0.577571 3.57869
0.206703 0.595365 3.65753
0.184272 0.593427 3.66251
0.183348 0.338499 3.67021
0.318698 0.432655 3.5953
0.11224 0.157749 3.67879
0.184091 0.192532 3.62036
0.214081 0.215249 3.58801
0.163432 0.594195 3.66333
0.145361 0.596634 3.65969
0.135888 0.597497 3.65489
0.291127 0.623693 3.60032
0.150324 0.619599 3.66093
0.169371 0.629074 3.66488
0.191415 0.631926 3.6642
0.214268 0.628086 3.65965
0.228425 0.620175 3.65304
0.326247 0.626471 3.47235
0.222449 0.598755 3.65027
0.158205 0.409139 3.72857
0.128785 0.454709 3.76818
0.101872 0.412418 3.75497
0.222988 0.250627 3.61345
0.189947 0.224307 3.64405
0.112305 0.177536 3.70706
0.281102 0.27839 3.50589
0.137722 0.606822 3.65713
0.101814 0.550649 3.74921
0.151725 0.172566 3.65486
0.330317 0.407109 3.51916
0.121064 0.325607 3.70866
0.125207 0.32094 3.71359
0.128067 0.312983 3.71813
0.131371 0.300461 3.71555
0.138294 0.277183 3.70246
0.172986 0.362734 3.67963
0.181895 0.366221 3.67871
0.188817 0.370644 3.67968
0.207855 0.381491 3.67901
0.289443 0.426368 3.6477
0.100447 0.574666 3.72264
0.112908 0.618291 3.67442
0.127535 0.614186 3.66229
0.165205 0.364686 3.67677
0.289918 0.358284 3.6091
0.0914509 0.622681 3.70959
0.1458 0.25344 3.69586
0.083972 0.565221 3.767
0.120118 0.512495 3.75326
0.103259 0.235348 3.71871
0.206278 0.314362 3.65235
0.176863 0.448624 3.70914
0.177682 0.280398 3.67172
0.23402 0.452035 3.69901
0.202069 0.423867 3.69821
0.256892 0.41117 3.67415
0.110099 0.203927 3.7176
0.136398 0.499009 3.73589
0.220679 0.287283 3.63608
0.186946 0.25505 3.65912
0.230531 0.350904 3.65085
0.312091 0.38655 3.58816
0.256804 0.337344 3.63424
0.317281 0.355291 3.53034
0.224927 0.397243 3.67959
0.11827 0.533544 3.7315
0.11995 0.46273 3.79663
0.138267 0.458367 3.77058
0.108789 0.480099 3.81358
0.130667 0.64043 3.679
0.167633 0.656125 3.68329
0.201428 0.65954 3.6816
0.229902 0.654446 3.67153
0.248888 0.641969 3.65747
0.262452 0.596089 3.62097
0.332293 0.516517 3.51101
0.246438 0.566882 3.64197
0.220883 0.560937 3.6571
0.188033 0.560784 3.66641
0.1573 0.565435 3.6701
0.135239 0.572569 3.6724
0.120994 0.579972 3.67406
0.331209 0.504511 3.41847
0.138896 0.452742 3.75863
0.103112 0.528922 3.77174
0.10238 0.46072 3.81719
0.0876145 0.447287 3.80708
0.102035 0.456129 3.80468
0.134272 0.445159 3.7511
0.0834211 0.444771 3.81371
0.0838974 0.43733 3.784
0.123163 0.597607 3.66075
0.109455 0.59325 3.67739
0.102194 0.590508 3.6969
0.236669 0.613856 3.64584
0.247075 0.620815 3.64429
