ply
format ascii 1.0
comment Created by Open3D
element vertex 468
property double x
property double y
property double z
end_header
0.0584428 0.380932 3.8433
0.0628206 0.459373 3.91729
0.0621826 0.432788 3.85136
0.0397478 0.546872 3.87448
0.0622011 0.487614 3.92443
0.0605149 0.5228 3.91078
0.0608525 0.60621 3.8294
-0.125138 0.611574 3.71989
0.060912 0.66916 3.80263
0.0609834 0.703696 3.80321
0.0591752 0.816701 3.76639
0.0575518 0.369111 3.83981
0.0564928 0.362888 3.83342
0.055744 0.363557 3.82334
0.0598371 0.290374 3.80007
0.0595048 0.281108 3.8064
0.0582529 0.270282 3.81368
0.0579224 0.256908 3.81123
0.0577735 0.232288 3.79418
0.0616997 0.443883 3.904
0.037892 0.445606 3.86727
-0.234253 0.696476 3.58533
-0.0486686 0.588514 3.74988
-0.0764144 0.587417 3.74753
-0.1029 0.589035 3.73983
-0.139566 0.602047 3.71608
-0.0246115 0.594065 3.74638
-0.086248 0.657102 3.75377
-0.0560623 0.655152 3.75212
-0.11405 0.652437 3.74498
-0.1326 0.642075 3.73343
-0.16214 0.584357 3.70197
-0.0499317 0.200518 3.75602
-0.135472 0.616798 3.71018
-0.24548 0.5845 3.58005
-0.192073 0.597519 3.67263
-0.0832508 0.486524 3.78263
0.0122959 0.385672 3.83725
0.0128414 0.364907 3.8257
-0.0348242 0.382714 3.81507
-0.065094 0.378041 3.78299
-0.02197 0.365948 3.80775
-0.0476754 0.366562 3.77841
-0.0935539 0.321734 3.7283
0.0407392 0.459687 3.91352
0.0371549 0.487143 3.92018
-0.17422 0.665632 3.72419
-0.0182834 0.548034 3.78301
-0.0255998 0.47073 3.84581
-0.0274172 0.485635 3.83656
-0.170771 0.492725 3.74468
0.0380688 0.519847 3.90307
-0.107102 0.69822 3.76719
-0.145523 0.687296 3.74758
-0.203131 0.745025 3.63373
0.0075792 0.675834 3.79396
-0.0295363 0.645456 3.74541
-0.117381 0.36056 3.72614
-0.232084 0.320404 3.53084
-0.00508673 0.455172 3.8363
0.0171817 0.445945 3.83918
-0.100568 0.361771 3.72259
-0.0876419 0.359863 3.72794
-0.161285 0.702912 3.73324
-0.0296314 0.461228 3.83054
-0.0564816 0.696278 3.78262
-0.0621202 0.716852 3.78638
-0.0900728 0.807117 3.73183
-0.181803 0.723776 3.68844
-0.0724711 0.763551 3.75976
-0.191274 0.675469 3.70017
-0.212021 0.683683 3.64349
0.0117442 0.371882 3.83329
-0.0274357 0.371826 3.81148
-0.0562496 0.372045 3.78236
0.000973839 0.450683 3.83028
-0.0944956 0.361238 3.72481
-0.076325 0.333489 3.73838
-0.0829495 0.358332 3.72901
0.0111033 0.459497 3.87563
-0.0442605 0.369815 3.7753
-0.0174462 0.368162 3.79874
0.0147784 0.365412 3.81622
0.00937016 0.235784 3.78692
0.0107354 0.261991 3.80402
0.0128875 0.275318 3.80571
0.0164778 0.28582 3.79831
0.0194331 0.293924 3.79345
-0.0421238 0.317491 3.75748
-0.0475768 0.315384 3.76075
-0.0549635 0.310736 3.76353
-0.059572 0.30363 3.75868
-0.0768902 0.398981 3.77633
-0.25025 0.458667 3.48599
0.063986 0.438199 3.87036
-0.0602697 0.33156 3.73917
-0.0689513 0.33382 3.73989
0.0250475 0.434039 3.84218
-0.0220039 0.446649 3.80968
0.0215531 0.439701 3.84137
-0.0490974 0.53547 3.77544
-0.0983238 0.521506 3.76814
-0.0342985 0.475202 3.82088
-0.157352 0.783334 3.68474
-0.137377 0.752036 3.72587
-0.117005 0.717715 3.76065
-0.0679613 0.286442 3.7454
-0.000916832 0.709871 3.79986
-0.00921475 0.763622 3.77843
-0.0208109 0.81641 3.7582
-0.126105 0.593601 3.72753
-0.193325 0.565703 3.68682
-0.00924777 0.600332 3.74365
-0.161568 0.630484 3.7104
0.00153766 0.563722 3.79279
-0.00601551 0.477943 3.87271
-0.226246 0.544271 3.65806
-0.175011 0.552928 3.71365
-0.140239 0.546498 3.7391
-0.0870028 0.548123 3.75329
-0.0463553 0.555704 3.75911
-0.0171847 0.566317 3.76597
0.0374356 0.598889 3.81967
-0.2315 0.49329 3.6684
-0.185008 0.633229 3.69701
0.0480702 0.444845 3.90259
-0.0178817 0.523723 3.79843
-0.254166 0.581445 3.49736
0.00454291 0.579749 3.76977
-0.0366854 0.474556 3.7919
-0.146435 0.615035 3.7048
-0.00768426 0.496086 3.8611
-0.247562 0.391444 3.5011
-0.00945374 0.609102 3.73608
0.0147337 0.510141 3.88737
-0.173448 0.267114 3.65612
-0.170334 0.225087 3.62076
-0.254518 0.472069 3.57446
-0.212422 0.301394 3.62824
-0.229186 0.638001 3.60462
-0.0523862 0.168465 3.74766
0.0537621 0.439453 3.86823
-0.0457557 0.506856 3.78857
-0.216888 0.589791 3.6458
-0.0971791 0.604466 3.73683
-0.0738949 0.601937 3.74409
-0.0827452 0.331637 3.73478
-0.235616 0.436531 3.66118
-0.000166297 0.127308 3.75192
-0.0856945 0.164722 3.69078
-0.124166 0.190032 3.6582
0.0607457 0.760973 3.78564
0.058482 0.123534 3.76108
-0.0515932 0.602445 3.74509
-0.0299087 0.605263 3.74216
-0.0157062 0.606977 3.73706
-0.206103 0.636622 3.66919
-0.0352038 0.626179 3.74302
-0.0598105 0.633216 3.74592
-0.0821269 0.634676 3.74507
-0.104978 0.631179 3.73867
-0.119824 0.625009 3.72984
-0.249094 0.645546 3.53479
-0.113203 0.608076 3.7282
0.0611886 0.415122 3.84222
-0.044656 0.411164 3.80296
-0.00409096 0.457924 3.84543
0.0163305 0.414412 3.83649
0.060343 0.63745 3.80577
-0.129723 0.230195 3.68012
-0.0921285 0.199199 3.71126
-0.00208999 0.148261 3.77847
-0.204539 0.264404 3.57657
-0.0174863 0.615978 3.73941
0.0199529 0.557276 3.8308
0.0578602 0.144734 3.78705
-0.0465658 0.1424 3.72677
-0.253624 0.409739 3.58141
-0.0136999 0.303734 3.77725
-0.0193182 0.298461 3.78093
-0.0244718 0.290316 3.78504
-0.0274162 0.278293 3.78139
-0.0356202 0.256234 3.76752
-0.0736395 0.366605 3.75074
-0.0811922 0.369666 3.74965
-0.0887981 0.373847 3.7497
-0.104399 0.384028 3.74805
-0.20196 0.428557 3.71459
0.0209441 0.582617 3.80421
0.010563 0.629928 3.75133
-0.00555102 0.625592 3.74263
-0.067141 0.369481 3.74993
-0.205996 0.353668 3.67316
0.0289034 0.632738 3.78764
-0.0430372 0.231524 3.76073
0.0606936 0.551206 3.88215
0.0383123 0.57131 3.84799
0.0611728 0.577478 3.85413
0.000165027 0.517766 3.83412
0.0578802 0.174025 3.79689
0.0579062 0.207163 3.79532
0.00524817 0.209993 3.78468
-0.1068 0.304756 3.71932
-0.0627793 0.453281 3.78213
-0.0779314 0.263935 3.73657
-0.134501 0.455728 3.76829
-0.0950487 0.427101 3.76887
-0.162393 0.412218 3.74092
-0.000441131 0.177319 3.78703
-0.0178554 0.504689 3.81554
-0.123827 0.27252 3.70275
-0.0867187 0.235039 3.72518
-0.133018 0.347073 3.72149
-0.231808 0.38538 3.65163
-0.166978 0.329329 3.70002
-0.241022 0.351432 3.59539
-0.125157 0.399133 3.74897
0.00217343 0.540167 3.81348
0.00219425 0.464633 3.87961
-0.0170522 0.46101 3.84903
0.0151354 0.482942 3.89835
-0.0102583 0.653518 3.75675
-0.0538343 0.669429 3.75928
-0.0925691 0.672313 3.75762
-0.125583 0.666529 3.74732
-0.149049 0.652943 3.73066
-0.166023 0.605939 3.6927
-0.25212 0.529115 3.57658
-0.146784 0.576008 3.71704
-0.118174 0.56963 3.73387
-0.0815437 0.568869 3.7456
-0.0464448 0.572925 3.75095
-0.0190215 0.580711 3.75156
-0.000900742 0.588939 3.75371
-0.251183 0.520513 3.48318
-0.0179037 0.455854 3.83555
0.0197174 0.534581 3.85592
0.0219739 0.46253 3.90015
0.0348356 0.44866 3.89007
0.0214823 0.457601 3.88778
-0.012496 0.449076 3.82564
0.0398204 0.446468 3.89763
0.0446536 0.441282 3.8673
0.000924041 0.608426 3.74019
0.0130432 0.60328 3.7559
0.0195569 0.599876 3.77594
-0.128625 0.620318 3.72113
-0.145785 0.630244 3.71851
0.0820518 0.547017 3.8725
0.239257 0.612518 3.71729
0.0859542 0.44571 3.86892
0.335573 0.690143 3.5834
0.162576 0.587642 3.74267
0.188795 0.587085 3.74177
0.214485 0.589029 3.73542
0.248977 0.60277 3.71367
0.141775 0.593203 3.74071
0.197314 0.657845 3.74882
0.169565 0.654695 3.74828
0.224664 0.653703 3.74133
0.242556 0.643239 3.73213
0.271017 0.584027 3.70253
0.162841 0.206407 3.76262
0.249255 0.618057 3.70805
0.348816 0.58369 3.58254
0.297684 0.5975 3.67444
0.194706 0.485712 3.78838
0.101349 0.385199 3.84201
0.0963136 0.364111 3.82973
0.144489 0.381824 3.82418
0.173959 0.376056 3.79373
0.128848 0.364779 3.81372
0.155794 0.364119 3.78747
0.205219 0.320954 3.74011
0.0832416 0.459775 3.91556
0.084422 0.487234 3.92184
0.278341 0.667918 3.72369
0.135465 0.547541 3.78132
0.142392 0.470188 3.84957
0.142919 0.484949 3.83979
0.275656 0.492336 3.75225
0.0830753 0.519874 3.90213
0.21932 0.699827 3.76879
0.253789 0.689713 3.74813
0.305727 0.73749 3.63195
0.112358 0.676343 3.79345
0.1471 0.644527 3.7412
0.227605 0.358926 3.73742
0.333268 0.33048 3.53713
0.125529 0.454644 3.84077
0.104911 0.445483 3.84603
0.213122 0.357471 3.73537
0.19817 0.355559 3.74134
0.267962 0.704714 3.73453
0.145348 0.460293 3.83637
0.173202 0.697136 3.78514
0.177516 0.71743 3.78992
0.200263 0.800997 3.73076
0.286183 0.720977 3.68947
0.187984 0.760691 3.76095
0.294693 0.676407 3.70015
0.31554 0.680881 3.64421
0.0995459 0.371425 3.83791
0.136344 0.370949 3.81888
0.164996 0.369988 3.79246
0.120649 0.450324 3.83653
0.206455 0.356714 3.73904
0.188578 0.330256 3.75255
0.191669 0.3544 3.7412
0.109354 0.459619 3.87483
0.149716 0.367195 3.78377
0.123665 0.366634 3.80378
0.0928432 0.364743 3.819
0.103732 0.236293 3.7935
0.102494 0.261995 3.8087
0.10165 0.275527 3.80918
0.100781 0.285611 3.80108
0.0977171 0.293572 3.79558
0.154864 0.31557 3.76686
0.159403 0.313468 3.77219
0.165507 0.308755 3.77638
0.171413 0.302349 3.7717
0.190212 0.397957 3.78773
0.358347 0.462743 3.48876
0.172728 0.328707 3.74819
0.181335 0.33058 3.75249
0.0974642 0.433866 3.8456
0.141171 0.445477 3.81952
0.100801 0.439159 3.84698
0.164161 0.534637 3.77447
0.209751 0.52056 3.77067
0.149721 0.474234 3.82583
0.262289 0.775582 3.68433
0.245968 0.749003 3.72817
0.228935 0.718796 3.76281
0.180421 0.287353 3.7563
0.120342 0.709957 3.80133
0.12848 0.761821 3.7796
0.134776 0.812738 3.75969
0.236182 0.594087 3.72458
0.299206 0.564975 3.69019
0.129583 0.599762 3.73687
0.269112 0.631852 3.70933
0.116716 0.563494 3.78969
0.124593 0.477728 3.87474
0.329113 0.544283 3.66195
0.282464 0.551943 3.71575
0.250006 0.545262 3.74053
0.200984 0.547052 3.75152
0.162695 0.554871 3.75583
0.134766 0.5658 3.76242
0.0839675 0.598674 3.81766
0.335325 0.494505 3.67512
0.2888 0.634049 3.69667
0.0741497 0.444884 3.90229
0.135855 0.523194 3.79786
0.3615 0.579552 3.49667
0.115972 0.579385 3.76563
0.155755 0.473516 3.79851
0.257856 0.616198 3.70266
0.124146 0.495796 3.86283
0.352005 0.39866 3.50778
0.13094 0.609084 3.72834
0.103073 0.510206 3.88686
0.277197 0.27732 3.66636
0.271825 0.238245 3.62849
0.361643 0.475132 3.58165
0.311983 0.310948 3.63969
0.334193 0.635367 3.60508
0.165308 0.176375 3.75295
0.0741267 0.439351 3.86914
0.160542 0.506101 3.79139
0.320386 0.589787 3.64766
0.21277 0.604688 3.73212
0.189657 0.601622 3.73749
0.195047 0.328762 3.74882
0.337761 0.439622 3.67259
0.116176 0.132163 3.75346
0.198363 0.175973 3.69477
0.232248 0.202996 3.66362
0.167371 0.601549 3.73825
0.147872 0.60446 3.73425
0.13665 0.606539 3.72857
0.30834 0.63657 3.66939
0.150696 0.626452 3.73551
0.17099 0.63354 3.7406
0.193344 0.636139 3.73997
0.21658 0.633057 3.73454
0.23196 0.626694 3.72697
0.354881 0.640636 3.53406
0.228413 0.608494 3.72418
0.159846 0.410506 3.81213
0.124963 0.457404 3.8505
0.102217 0.414426 3.84034
0.238923 0.240927 3.68899
0.202657 0.209419 3.71914
0.11609 0.152549 3.78112
0.304314 0.276287 3.58256
0.137126 0.615921 3.73066
0.100895 0.557208 3.82951
0.161513 0.151001 3.72923
0.35664 0.415436 3.59235
0.129154 0.302747 3.78278
0.133876 0.297562 3.78787
0.137828 0.289235 3.79226
0.141726 0.27781 3.78928
0.148401 0.257093 3.7755
0.181556 0.362827 3.76244
0.19108 0.366209 3.76142
0.19832 0.370245 3.76219
0.216544 0.382232 3.75964
0.302958 0.430588 3.72708
0.0997138 0.582372 3.80156
0.112676 0.62979 3.74904
0.127031 0.625518 3.73563
0.173255 0.365794 3.7601
0.306966 0.3593 3.68664
0.0916049 0.63261 3.78652
0.154643 0.235259 3.76869
0.0830564 0.571387 3.84743
0.118351 0.5176 3.83505
0.108403 0.212076 3.7904
0.218467 0.307731 3.72946
0.178017 0.45249 3.78964
0.188934 0.267708 3.74683
0.240559 0.455654 3.77928
0.206884 0.426759 3.77859
0.266363 0.413676 3.75337
0.114494 0.180666 3.78979
0.13487 0.504076 3.81764
0.234317 0.279708 3.71237
0.198305 0.242218 3.73438
0.24209 0.348821 3.72983
0.331726 0.390717 3.66607
0.271423 0.334508 3.71201
0.341315 0.359309 3.60607
0.232764 0.398582 3.75949
0.117267 0.54007 3.8119
0.116559 0.464567 3.88018
0.134723 0.460576 3.85415
0.106243 0.483137 3.89889
0.13185 0.65389 3.75387
0.171436 0.670145 3.7582
0.20692 0.673227 3.75645
0.237115 0.667634 3.74609
0.257806 0.654362 3.73032
0.274359 0.606714 3.69277
0.357775 0.530118 3.57919
0.256787 0.575574 3.71667
0.229798 0.569096 3.73241
0.194874 0.568054 3.74251
0.161521 0.572204 3.74611
0.136681 0.579991 3.74782
0.120743 0.588461 3.74956
0.360038 0.521347 3.48221
0.1355 0.455264 3.84164
0.1015 0.534636 3.8545
0.099792 0.462957 3.90197
0.0851676 0.44922 3.89233
0.099313 0.457955 3.88904
0.130962 0.447992 3.83393
0.0812937 0.446609 3.89949
0.0813166 0.441452 3.86922
0.12168 0.608142 3.73467
0.108211 0.602876 3.75274
0.101231 0.599468 3.77357
0.241417 0.621752 3.71894
0.255326 0.631484 3.71784
