ply
format ascii 1.0
comment Created by Open3D
element vertex 468
property double x
property double y
property double z
end_header
-0.00868126 0.346211 4.00303
-0.0125474 0.430687 4.07172
-0.0109299 0.402226 4.00805
-0.031429 0.523527 4.0296
-0.0121079 0.460308 4.07949
-0.0111103 0.497485 4.06665
-0.00937923 0.587708 3.98522
-0.188859 0.589356 3.88047
-0.0086089 0.660095 3.95862
-0.00814969 0.698182 3.95906
-0.00669861 0.813655 3.92129
-0.0083318 0.333017 3.9999
-0.00797514 0.325073 3.9936
-0.00790979 0.324306 3.98387
-0.00862095 0.255938 3.96241
-0.00872663 0.244858 3.9683
-0.00885357 0.231775 3.97535
-0.00950059 0.216634 3.97272
-0.0115255 0.193852 3.95482
-0.0122872 0.414424 4.0587
-0.0348897 0.416903 4.02411
-0.277436 0.680975 3.74766
-0.114897 0.564926 3.90691
-0.140905 0.563236 3.90525
-0.165621 0.564965 3.89863
-0.199749 0.5791 3.87703
-0.0930605 0.57202 3.90352
-0.14795 0.641776 3.91336
-0.120562 0.63956 3.91214
-0.174611 0.636579 3.90576
-0.192828 0.624756 3.89543
-0.220831 0.56122 3.8647
-0.116182 0.167552 3.92139
-0.198282 0.595344 3.87129
-0.293459 0.565807 3.74736
-0.247318 0.577532 3.83675
-0.145732 0.456179 3.94581
-0.0514419 0.350896 3.99984
-0.0479693 0.326637 3.98829
-0.0943147 0.346348 3.98111
-0.122232 0.340285 3.95153
-0.0795864 0.327324 3.97214
-0.104256 0.327317 3.94561
-0.152482 0.283813 3.89972
-0.0334802 0.431145 4.06941
-0.035768 0.459226 4.07637
-0.229739 0.653369 3.88514
-0.0856788 0.522768 3.94096
-0.0930286 0.440388 4.00563
-0.0942732 0.455502 3.99679
-0.225972 0.462545 3.90959
-0.0336835 0.494308 4.05833
-0.17036 0.690606 3.92667
-0.204915 0.677853 3.90719
-0.250471 0.731478 3.79436
-0.0617058 0.66785 3.95094
-0.09691 0.62889 3.90485
-0.173074 0.32343 3.89731
-0.272841 0.300234 3.70178
-0.0745858 0.425018 3.99627
-0.0539103 0.415185 3.99998
-0.156994 0.323247 3.895
-0.142875 0.32107 3.90059
-0.218816 0.694367 3.894
-0.0957355 0.429233 3.99217
-0.123842 0.689609 3.94238
-0.128371 0.711066 3.94655
-0.148246 0.798545 3.88936
-0.234561 0.712384 3.84969
-0.136247 0.756121 3.91796
-0.24478 0.663524 3.86192
-0.261032 0.669968 3.80638
-0.0504358 0.335694 3.99584
-0.0862175 0.334511 3.97656
-0.113288 0.333744 3.95023
-0.0693433 0.420076 3.99068
-0.150546 0.322418 3.89775
-0.134785 0.295558 3.91108
-0.137118 0.319993 3.90112
-0.0593898 0.431734 4.03104
-0.099009 0.330118 3.94283
-0.0744463 0.328715 3.9634
-0.044726 0.325991 3.97869
-0.0576494 0.197156 3.95125
-0.0546195 0.222052 3.968
-0.0524569 0.23721 3.96907
-0.0498408 0.250282 3.96143
-0.0465428 0.259853 3.95654
-0.102564 0.281855 3.92624
-0.107898 0.278921 3.93067
-0.115066 0.273086 3.93472
-0.120592 0.265444 3.92968
-0.137261 0.364021 3.94447
-0.296099 0.440216 3.65496
-0.0121 0.408812 4.02562
-0.118592 0.295066 3.90837
-0.12741 0.296351 3.91151
-0.0459089 0.402617 4.00169
-0.0898837 0.413879 3.97376
-0.0497216 0.408572 4.0014
-0.115164 0.508368 3.93418
-0.160834 0.492841 3.92889
-0.100465 0.443977 3.98241
-0.209783 0.771932 3.84467
-0.195485 0.74285 3.88702
-0.17958 0.710796 3.92095
-0.129597 0.249411 3.91485
-0.0693123 0.704553 3.95793
-0.0756535 0.756735 3.93572
-0.0829054 0.810111 3.91579
-0.187251 0.569904 3.88744
-0.248883 0.541926 3.8518
-0.0793647 0.579957 3.90004
-0.219434 0.61308 3.87203
-0.0666753 0.540536 3.94958
-0.0756847 0.449502 4.03065
-0.276998 0.520867 3.82447
-0.232504 0.526684 3.87714
-0.200712 0.51912 3.90126
-0.151694 0.521434 3.91254
-0.113549 0.530225 3.91715
-0.0851821 0.542454 3.92334
-0.0327255 0.579694 3.97483
-0.281184 0.466945 3.83581
-0.239303 0.616722 3.85915
-0.0247165 0.41567 4.0575
-0.0855929 0.496803 3.95716
-0.300485 0.564445 3.66384
-0.0651711 0.558048 3.92618
-0.104805 0.443474 3.9551
-0.207279 0.594145 3.86607
-0.0761578 0.46774 4.01947
-0.290034 0.372095 3.67223
-0.0793338 0.590205 3.89202
-0.0548622 0.483486 4.04385
-0.221711 0.241556 3.8277
-0.216155 0.203377 3.79088
-0.302135 0.45094 3.7445
-0.255463 0.277187 3.80064
-0.277816 0.621483 3.76918
-0.118308 0.138967 3.91227
-0.0218615 0.410013 4.02419
-0.111379 0.477888 3.94992
-0.268824 0.570409 3.811
-0.162842 0.581456 3.89584
-0.140507 0.578974 3.90167
-0.141443 0.293259 3.90731
-0.282351 0.409593 3.83167
-0.0709336 0.0973639 3.91332
-0.146531 0.140226 3.85597
-0.177849 0.16712 3.82537
-0.00749422 0.755427 3.9413
-0.0159357 0.090147 3.9215
-0.119083 0.579835 3.90214
-0.0985792 0.583794 3.89825
-0.0856813 0.587064 3.89252
-0.257325 0.620626 3.83231
-0.101438 0.606967 3.90059
-0.123237 0.613607 3.90483
-0.144542 0.615276 3.90413
-0.166706 0.611384 3.89849
-0.18188 0.604467 3.89081
-0.293639 0.629102 3.69958
-0.178016 0.585185 3.88796
-0.0100574 0.383212 4.00041
-0.108193 0.376886 3.96792
-0.0743727 0.428659 4.00511
-0.0515976 0.381642 3.99718
-0.00882758 0.62309 3.96206
-0.185571 0.203589 3.84994
-0.152499 0.172166 3.87903
-0.0720656 0.115002 3.93992
-0.246429 0.243433 3.7462
-0.0862132 0.597154 3.89485
-0.0504209 0.534324 3.98742
-0.0151243 0.109159 3.94693
-0.112869 0.115384 3.88953
-0.297447 0.387695 3.75367
-0.0774412 0.269196 3.94262
-0.0828885 0.262796 3.94724
-0.0879489 0.252774 3.95168
-0.0918255 0.239646 3.94789
-0.0999793 0.218886 3.93372
-0.128035 0.327217 3.92104
-0.136784 0.33081 3.91997
-0.144305 0.335215 3.92047
-0.161689 0.347878 3.91787
-0.251135 0.398386 3.88378
-0.0488541 0.561692 3.96015
-0.0605762 0.614286 3.90967
-0.0752314 0.608079 3.89883
-0.120079 0.330046 3.91966
-0.251913 0.325275 3.84519
-0.0402551 0.617795 3.94462
-0.107876 0.196195 3.92697
-0.0103642 0.528104 4.03823
-0.0325141 0.549739 4.00381
-0.0100008 0.556469 4.00998
-0.0690751 0.491251 3.99265
-0.0138744 0.136787 3.95672
-0.0126144 0.168997 3.95586
-0.0635021 0.172565 3.94861
-0.165602 0.270077 3.8893
-0.127235 0.420801 3.94598
-0.139753 0.229174 3.90571
-0.191545 0.424212 3.93499
-0.155317 0.394087 3.93509
-0.215288 0.380173 3.91045
-0.0701225 0.141432 3.94877
-0.0854964 0.476285 3.97548
-0.181466 0.241904 3.87268
-0.148502 0.204171 3.89396
-0.188047 0.312677 3.89049
-0.276103 0.35863 3.82424
-0.217709 0.298692 3.87137
-0.283019 0.328599 3.76743
-0.180355 0.364302 3.91729
-0.066923 0.51526 3.9709
-0.0673793 0.436467 4.03616
-0.0852036 0.430872 4.00915
-0.0567887 0.455643 4.05431
-0.0805035 0.640931 3.91514
-0.121356 0.658033 3.91838
-0.156948 0.660231 3.91738
-0.18715 0.653257 3.90751
-0.208427 0.637957 3.89176
-0.224059 0.585575 3.85528
-0.300478 0.509175 3.74435
-0.207033 0.551406 3.87905
-0.180347 0.544602 3.89423
-0.146304 0.543766 3.90456
-0.113242 0.548577 3.90928
-0.0874287 0.557902 3.90941
-0.0705186 0.56781 3.91117
-0.298536 0.503001 3.64988
-0.0855532 0.424647 3.99663
-0.0511483 0.509937 4.01209
-0.0501385 0.435013 4.05659
-0.0361121 0.420177 4.04675
-0.0495475 0.430127 4.04402
-0.0804235 0.416894 3.9882
-0.0320623 0.417587 4.05388
-0.0295612 0.41227 4.02389
-0.0702444 0.589727 3.89705
-0.0572819 0.584255 3.9132
-0.0502175 0.580664 3.93264
-0.190978 0.599342 3.88218
-0.205544 0.611368 3.88126
0.0104084 0.523846 4.02977
0.172964 0.593046 3.87945
0.0116469 0.416946 4.02365
0.268388 0.685233 3.7457
0.0987893 0.567388 3.9069
0.124717 0.566341 3.90523
0.149703 0.568282 3.89806
0.184674 0.582798 3.87591
0.0768978 0.573883 3.90345
0.132156 0.644534 3.91252
0.104374 0.641567 3.91094
0.159276 0.639809 3.90416
0.177828 0.628331 3.89389
0.205399 0.564635 3.86312
0.0920607 0.166884 3.92055
0.182684 0.599263 3.86993
0.281709 0.568949 3.74481
0.232934 0.580902 3.83472
0.127209 0.458279 3.94521
0.0354151 0.351234 4.00002
0.0336332 0.326562 3.98848
0.0807881 0.34697 3.98086
0.110807 0.341155 3.95149
0.0669333 0.327405 3.9729
0.093226 0.327871 3.94654
0.140335 0.284133 3.89957
0.00886698 0.431272 4.06902
0.0119465 0.45985 4.07589
0.216117 0.656669 3.88297
0.0667021 0.524223 3.94095
0.072269 0.441879 4.00476
0.0740143 0.457281 3.99592
0.208596 0.465441 3.90943
0.0114258 0.494605 4.05868
0.154981 0.692587 3.92492
0.190379 0.680613 3.90532
0.241071 0.736101 3.79239
0.0450622 0.66832 3.9502
0.0806614 0.630363 3.904
0.162625 0.324513 3.89755
0.256133 0.300127 3.69981
0.0538184 0.426007 3.99563
0.0324961 0.415979 3.99893
0.148484 0.32343 3.8951
0.13518 0.32124 3.90104
0.205203 0.697373 3.89166
0.0760636 0.430843 3.99112
0.107766 0.691091 3.94078
0.11274 0.712838 3.94438
0.136506 0.802078 3.88783
0.223252 0.716537 3.84763
0.12224 0.758723 3.91654
0.2318 0.666899 3.85968
0.2501 0.673831 3.80397
0.0353098 0.335715 3.99598
0.0733009 0.335099 3.97716
0.10241 0.334357 3.9509
0.0484434 0.421177 3.9899
0.14259 0.322566 3.89816
0.124862 0.295555 3.91087
0.129659 0.32022 3.90161
0.0367006 0.432214 4.03094
0.0885536 0.330426 3.94399
0.0618296 0.328754 3.96397
0.030897 0.326118 3.97936
0.0359959 0.196496 3.95147
0.0371676 0.221601 3.96855
0.0361007 0.236902 3.96997
0.0337343 0.249599 3.96256
0.0305432 0.259065 3.95752
0.0906379 0.281688 3.92681
0.0960211 0.278807 3.93111
0.103112 0.272748 3.93483
0.108134 0.265108 3.92965
0.122627 0.365737 3.94406
0.282299 0.441322 3.6528
0.108209 0.294994 3.90894
0.11737 0.296362 3.91159
0.0249527 0.403125 4.00105
0.0703139 0.415378 3.97269
0.0283024 0.409117 4.00063
0.0963393 0.510231 3.93428
0.142647 0.495408 3.92873
0.080933 0.445699 3.98167
0.199347 0.776382 3.84247
0.183113 0.746254 3.88451
0.164903 0.713247 3.91874
0.114265 0.249234 3.91532
0.0532819 0.705248 3.9566
0.0611674 0.758379 3.93446
0.0703503 0.812276 3.9147
0.171695 0.573634 3.88671
0.233611 0.545354 3.84972
0.0630255 0.581572 3.90008
0.20481 0.616376 3.87029
0.047651 0.541485 3.94973
0.0534743 0.450641 4.02987
0.262289 0.523951 3.82228
0.216512 0.530326 3.87573
0.183959 0.522217 3.9006
0.13391 0.523915 3.91229
0.09538 0.532202 3.91732
0.0670119 0.543805 3.92347
0.013994 0.579958 3.97477
0.264473 0.469851 3.83415
0.225775 0.62022 3.85723
0.000351754 0.415508 4.05718
0.065886 0.49826 3.95701
0.289563 0.566754 3.66202
0.0467556 0.558993 3.92631
0.0850798 0.445386 3.95435
0.192264 0.597878 3.86467
0.0548798 0.469102 4.01879
0.27476 0.372563 3.66984
0.063653 0.59162 3.8922
0.0330941 0.484194 4.04348
0.202959 0.24136 3.82578
0.196103 0.20183 3.78889
0.286391 0.452706 3.74176
0.237779 0.277337 3.79837
0.266695 0.624985 3.76649
0.0917449 0.137682 3.91136
-0.00232342 0.410208 4.02394
0.0922329 0.479676 3.94951
0.255572 0.57356 3.80845
0.146583 0.585058 3.89495
0.124149 0.582245 3.90132
0.131575 0.293341 3.90723
0.264847 0.411686 3.82968
0.0397714 0.0960261 3.91327
0.120288 0.138119 3.8548
0.155088 0.165146 3.82393
0.102702 0.582594 3.90214
0.0827067 0.586155 3.89826
0.0698194 0.588824 3.89262
0.244985 0.624092 3.83026
0.0858262 0.608738 3.90026
0.107448 0.615669 3.90447
0.128409 0.618179 3.90372
0.150922 0.614983 3.89743
0.166167 0.608352 3.88942
0.283954 0.632381 3.69736
0.161982 0.588856 3.88693
0.091121 0.378409 3.96745
0.0530093 0.429499 4.00395
0.0324441 0.382403 3.99703
0.164345 0.202771 3.84831
0.129007 0.17078 3.87793
0.0431293 0.113963 3.93985
0.228004 0.24256 3.74446
0.0704004 0.598398 3.89525
0.0302754 0.534963 3.98724
0.0837527 0.113636 3.88918
0.281086 0.388789 3.7507
0.0632428 0.268513 3.94377
0.0685684 0.262225 3.94791
0.0730846 0.25212 3.95237
0.0762434 0.239021 3.94858
0.081075 0.218159 3.93445
0.11959 0.327435 3.92161
0.127857 0.331143 3.92055
0.135087 0.335741 3.92088
0.149719 0.349487 3.91791
0.233551 0.400578 3.88295
0.0298278 0.562262 3.96043
0.0438738 0.61506 3.90889
0.0588505 0.609404 3.8984
0.112316 0.330308 3.92081
0.23473 0.326748 3.84344
0.0230977 0.618055 3.94422
0.0867236 0.195532 3.92686
0.0124675 0.550183 4.00349
0.0482405 0.492393 3.99187
0.0394035 0.172028 3.94819
0.150298 0.270603 3.88952
0.109121 0.422843 3.94543
0.121519 0.228874 3.90577
0.174065 0.42644 3.93459
0.139196 0.39617 3.93487
0.19852 0.382165 3.90997
0.0433814 0.140687 3.94846
0.0654905 0.477721 3.97496
0.162754 0.242003 3.87181
0.127723 0.203602 3.893
0.174184 0.314033 3.89106
0.258534 0.360257 3.82268
0.2011 0.299728 3.87041
0.265723 0.329165 3.76502
0.166662 0.366389 3.91741
0.0469823 0.516422 3.9708
0.0451274 0.437025 4.03544
0.0643721 0.432148 4.00812
0.0336747 0.456143 4.05365
0.0640555 0.641933 3.91436
0.104762 0.659882 3.91738
0.141075 0.663027 3.91595
0.171897 0.656443 3.90591
0.193692 0.641361 3.89001
0.209443 0.589296 3.85356
0.286534 0.51144 3.74195
0.19113 0.554915 3.87778
0.163998 0.547825 3.89347
0.129515 0.546432 3.90434
0.0961065 0.550828 3.9093
0.0705117 0.559389 3.90935
0.0534476 0.569048 3.91114
0.286128 0.504637 3.64816
0.0653498 0.426049 3.99541
0.0299588 0.510598 4.01206
0.0263175 0.435203 4.05612
0.0127243 0.420144 4.04634
0.0264172 0.430166 4.04351
0.0604046 0.418039 3.98708
0.00828099 0.417449 4.05351
0.00598234 0.412215 4.0236
0.0539307 0.59113 3.89671
0.0402921 0.585111 3.9131
0.0325259 0.581298 3.93253
0.175455 0.603279 3.88082
0.190936 0.615066 3.87915
