ply
format ascii 1.0
comment Created by Open3D
element vertex 468
property double x
property double y
property double z
end_header
-0.000494064 0.311984 3.95923
-0.000451167 0.402781 4.01543
0.000173848 0.374532 3.95688
-0.0203108 0.480738 3.98272
-0.000693289 0.427882 4.02317
-0.000842707 0.459473 4.01329
0.000107516 0.533757 3.94765
-0.167512 0.533068 3.85602
0.000561848 0.59501 3.93036
0.000710319 0.628138 3.93466
0.00103563 0.733052 3.90714
-0.000528031 0.299419 3.95607
-0.000598159 0.29042 3.94795
-0.000563794 0.287072 3.93741
-0.000550498 0.28412 3.93878
-0.000665018 0.27426 3.94298
-0.0009545 0.261362 3.94825
-0.00115338 0.247195 3.94576
-0.000763941 0.222276 3.92408
-0.000798026 0.3894 4.00336
-0.0208671 0.390345 3.97129
-0.243375 0.617723 3.74184
-0.100602 0.511554 3.88154
-0.124271 0.509126 3.87933
-0.146357 0.510487 3.87239
-0.175224 0.523875 3.85218
-0.080113 0.51893 3.87834
-0.130721 0.573835 3.88911
-0.106182 0.572301 3.88883
-0.15358 0.570187 3.88086
-0.169081 0.561507 3.87098
-0.192128 0.508007 3.83972
-0.0877366 0.182791 3.89367
-0.175046 0.539403 3.84801
-0.253981 0.515505 3.73442
-0.216254 0.524405 3.81511
-0.11662 0.415431 3.90468
-0.0295165 0.316073 3.95602
-0.0257762 0.2909 3.94434
-0.0592875 0.308923 3.94162
-0.0789185 0.299799 3.92445
-0.0475516 0.289973 3.93519
-0.064876 0.288487 3.91902
-0.108472 0.263764 3.88961
-0.019927 0.40333 4.01304
-0.0233018 0.426977 4.02007
-0.205451 0.591148 3.86147
-0.0696667 0.476387 3.90675
-0.0733219 0.406259 3.95503
-0.0752864 0.418312 3.94789
-0.185659 0.416109 3.87298
-0.0220678 0.456551 4.00586
-0.153342 0.620387 3.90136
-0.184399 0.610748 3.88274
-0.223046 0.662399 3.78769
-0.0507481 0.600788 3.92324
-0.0840959 0.564617 3.8823
-0.126058 0.28691 3.88337
-0.229495 0.290388 3.6755
-0.0558456 0.393609 3.94638
-0.0362289 0.385669 3.9483
-0.100993 0.286729 3.88656
-0.0909879 0.28813 3.89314
-0.197204 0.626665 3.87151
-0.0739462 0.394607 3.94208
-0.110061 0.619283 3.91555
-0.114444 0.639379 3.92007
-0.132697 0.721032 3.87784
-0.210412 0.645124 3.83589
-0.121205 0.681309 3.90054
-0.218513 0.601064 3.84123
-0.231119 0.608004 3.7949
-0.0281439 0.301168 3.95297
-0.0525344 0.297329 3.93949
-0.0717431 0.293743 3.92381
-0.0494467 0.388725 3.9411
-0.0956582 0.287157 3.88988
-0.0860206 0.282853 3.90533
-0.0886125 0.289198 3.89382
-0.0439908 0.40349 3.97902
-0.0606113 0.28989 3.91534
-0.0429306 0.28894 3.92608
-0.0228637 0.287948 3.93466
-0.0323983 0.223046 3.92231
-0.0308609 0.249111 3.94369
-0.0292596 0.264043 3.94585
-0.0268709 0.276654 3.94
-0.0247929 0.284768 3.936
-0.0647172 0.286577 3.91588
-0.0682781 0.283619 3.92008
-0.0734045 0.277215 3.92394
-0.0779125 0.26873 3.91961
-0.0981407 0.328365 3.91597
-0.251243 0.407612 3.63901
0.000124513 0.383754 3.97275
-0.0759198 0.286927 3.90332
-0.0805228 0.285838 3.90565
-0.0286587 0.374087 3.95072
-0.0650551 0.37909 3.92555
-0.0322172 0.379687 3.94975
-0.094254 0.461552 3.89871
-0.132115 0.444923 3.89105
-0.0787545 0.406824 3.93455
-0.188516 0.697823 3.8359
-0.176167 0.670879 3.87019
-0.161848 0.639995 3.89749
-0.0889433 0.247537 3.90277
-0.0584127 0.63331 3.93204
-0.0640305 0.681612 3.91817
-0.0713607 0.730949 3.90192
-0.164922 0.5149 3.86149
-0.215535 0.490213 3.82657
-0.0671987 0.526221 3.87531
-0.193663 0.555347 3.84996
-0.0532234 0.492924 3.91512
-0.0594499 0.41685 3.97812
-0.238806 0.472639 3.80079
-0.200653 0.473981 3.84857
-0.171886 0.465946 3.87076
-0.128102 0.470301 3.88151
-0.0953904 0.480746 3.88705
-0.0706744 0.493085 3.8932
-0.0220631 0.526863 3.93862
-0.236035 0.422531 3.80805
-0.212111 0.559806 3.83796
-0.0121346 0.390444 4.00207
-0.0675469 0.453814 3.91761
-0.256809 0.514133 3.65598
-0.0522935 0.507152 3.89664
-0.0803989 0.404396 3.91144
-0.181627 0.53749 3.84339
-0.0608901 0.431293 3.96906
-0.244899 0.349965 3.65049
-0.0671094 0.535317 3.86967
-0.0421304 0.446584 3.99178
-0.185539 0.23593 3.80293
-0.18219 0.208107 3.76081
-0.25432 0.413929 3.72365
-0.2128 0.267942 3.77257
-0.242511 0.564926 3.75788
-0.0922834 0.157653 3.8802
-0.00874268 0.384748 3.97101
-0.0884707 0.435045 3.90909
-0.234808 0.518808 3.79165
-0.145128 0.524717 3.87054
-0.124797 0.522499 3.87649
-0.0916236 0.27798 3.90113
-0.231703 0.374126 3.80129
-0.0491319 0.12465 3.87493
-0.11862 0.15604 3.82587
-0.148282 0.177228 3.79733
0.000906665 0.680237 3.92321
-7.81318e-05 0.120754 3.88234
-0.104496 0.52427 3.87751
-0.0854938 0.529011 3.8746
-0.0732239 0.532366 3.86969
-0.227458 0.563757 3.81398
-0.0880112 0.551813 3.87833
-0.108528 0.557874 3.88164
-0.128766 0.559139 3.88059
-0.149221 0.555232 3.87436
-0.162167 0.548684 3.8668
-0.253421 0.571165 3.69339
-0.158595 0.5288 3.86268
9.97756e-05 0.354446 3.9523
-0.0766808 0.343047 3.92839
-0.0563654 0.398013 3.95456
-0.0318801 0.351631 3.95029
0.000283655 0.563634 3.93025
-0.154813 0.205043 3.82717
-0.124861 0.181069 3.85232
-0.0511113 0.141409 3.90409
-0.207564 0.243129 3.71592
-0.0734742 0.542335 3.87311
-0.0379138 0.489001 3.94734
-0.000553568 0.137955 3.91058
-0.0867029 0.137647 3.8553
-0.247265 0.360997 3.7281
-0.0463432 0.286099 3.92706
-0.0500357 0.280229 3.93163
-0.0538111 0.270491 3.93616
-0.0567778 0.257179 3.93314
-0.0641727 0.233249 3.9156
-0.0805248 0.288211 3.90475
-0.0872906 0.290121 3.90497
-0.0940258 0.293654 3.90504
-0.116569 0.309232 3.89986
-0.203165 0.362922 3.84906
-0.0371759 0.511522 3.92509
-0.0489037 0.554368 3.88536
-0.0631163 0.548673 3.87698
-0.075519 0.290966 3.90291
-0.204869 0.3037 3.81594
-0.0295086 0.558349 3.91497
-0.0765858 0.208308 3.90311
-0.000517287 0.485005 3.99056
-0.0217715 0.502582 3.96267
-0.000104046 0.508463 3.9682
-0.0540621 0.450915 3.9477
-0.000760414 0.163394 3.92377
-0.000567507 0.194677 3.9239
-0.0397339 0.195906 3.91833
-0.129894 0.252516 3.87569
-0.0997612 0.383861 3.90575
-0.105817 0.226843 3.88851
-0.153848 0.386267 3.8952
-0.12195 0.359171 3.90184
-0.173632 0.346232 3.87745
-0.0477631 0.166089 3.91666
-0.0677943 0.436171 3.93142
-0.148756 0.2329 3.85368
-0.118439 0.206286 3.87064
-0.14892 0.282896 3.87213
-0.225433 0.332681 3.79397
-0.177303 0.277868 3.84846
-0.235302 0.312244 3.73969
-0.140998 0.326872 3.89105
-0.0523512 0.471663 3.93141
-0.0518054 0.407108 3.98336
-0.0661933 0.399053 3.95764
-0.042458 0.423496 3.99952
-0.0685411 0.575722 3.89254
-0.106729 0.588967 3.89572
-0.139221 0.591284 3.89358
-0.165973 0.587014 3.88381
-0.184572 0.575496 3.86894
-0.196521 0.531247 3.83299
-0.257393 0.46517 3.72818
-0.180177 0.497921 3.8525
-0.157093 0.491218 3.86689
-0.12686 0.491351 3.87697
-0.0974128 0.49742 3.88234
-0.0738727 0.506585 3.88233
-0.0578918 0.51559 3.88422
-0.25392 0.461129 3.63963
-0.0652324 0.391945 3.94601
-0.0382411 0.468479 3.96639
-0.0357941 0.406879 4.00167
-0.0228614 0.394373 3.99226
-0.0352592 0.402689 3.9904
-0.058144 0.383933 3.93822
-0.0190208 0.392189 3.99834
-0.0158966 0.386496 3.97111
-0.0585633 0.534133 3.87274
-0.0453243 0.529474 3.88672
-0.0385068 0.526766 3.90251
-0.16944 0.543799 3.85847
-0.180611 0.551992 3.85719
0.019789 0.480801 3.98238
0.168576 0.533405 3.85577
0.0203315 0.39034 3.97153
0.242707 0.617707 3.73962
0.100756 0.511001 3.88062
0.124363 0.508698 3.87863
0.146451 0.510385 3.87185
0.17516 0.524564 3.85166
0.0810887 0.518065 3.87764
0.13056 0.574562 3.88777
0.106233 0.572445 3.88821
0.153593 0.571285 3.87978
0.16922 0.562617 3.87053
0.191891 0.508483 3.83968
0.0867262 0.184713 3.89444
0.176269 0.540169 3.84747
0.253967 0.516755 3.73321
0.215765 0.5256 3.81494
0.116342 0.415684 3.90564
0.0283884 0.316362 3.95601
0.0243775 0.291173 3.94427
0.0576763 0.309458 3.94178
0.0769224 0.300563 3.92434
0.0457293 0.290392 3.93459
0.0628975 0.28895 3.9186
0.106323 0.264888 3.89004
0.0186161 0.403441 4.01343
0.0215621 0.427086 4.02054
0.204494 0.593611 3.86113
0.0696917 0.476232 3.90657
0.0720693 0.406268 3.95558
0.0739647 0.418444 3.94858
0.184424 0.416823 3.87342
0.0207002 0.456551 4.00577
0.153345 0.622426 3.90171
0.18404 0.6132 3.88272
0.222708 0.662046 3.78623
0.0520196 0.60122 3.92303
0.0850589 0.564152 3.88169
0.12442 0.287847 3.88336
0.231068 0.293231 3.67407
0.055308 0.393517 3.94739
0.0362375 0.385563 3.94958
0.0992785 0.287408 3.88554
0.088436 0.28884 3.89251
0.196606 0.629205 3.87162
0.0727375 0.394602 3.943
0.11075 0.62045 3.91633
0.115129 0.640608 3.92099
0.132776 0.720039 3.87727
0.209726 0.646242 3.83561
0.122125 0.6813 3.90078
0.217649 0.603461 3.84073
0.230327 0.6092 3.79386
0.0268012 0.301342 3.95275
0.0509678 0.297804 3.93928
0.0698892 0.294454 3.92351
0.0494788 0.388664 3.94209
0.0935563 0.287931 3.88929
0.0832765 0.283591 3.90543
0.0857438 0.290015 3.89318
0.0426776 0.403471 3.9788
0.0583105 0.290519 3.91499
0.0411143 0.289305 3.9255
0.0214899 0.288231 3.93431
0.0306934 0.223534 3.92302
0.0283861 0.249593 3.94375
0.0269741 0.2644 3.94572
0.0254869 0.27692 3.93966
0.0234211 0.285057 3.93547
0.0621858 0.287363 3.9158
0.0654187 0.284448 3.92032
0.0701132 0.278157 3.92438
0.0748837 0.269607 3.91995
0.0972145 0.328899 3.91682
0.253771 0.409661 3.63697
0.0734428 0.287722 3.9027
0.0779274 0.28659 3.90558
0.028617 0.374126 3.95116
0.0649358 0.379162 3.92695
0.0321166 0.379664 3.95081
0.0943985 0.461378 3.8986
0.13214 0.445118 3.89151
0.0777809 0.406899 3.93554
0.188047 0.697033 3.83555
0.175958 0.671637 3.87066
0.161879 0.641973 3.89788
0.0868289 0.24888 3.90312
0.0596434 0.633903 3.93232
0.0652835 0.681276 3.91815
0.0723079 0.730329 3.90214
0.164916 0.515186 3.86134
0.214875 0.49092 3.8266
0.0689222 0.525439 3.87424
0.193322 0.556719 3.84918
0.053431 0.492759 3.91479
0.0578737 0.416848 3.97849
0.237542 0.473713 3.80025
0.199981 0.474497 3.8484
0.171243 0.466202 3.87096
0.128376 0.470317 3.88111
0.0959221 0.480503 3.88658
0.0711229 0.492646 3.89295
0.0225619 0.526771 3.93844
0.234843 0.423858 3.80746
0.211057 0.561539 3.83746
0.0105984 0.390447 4.00193
0.0675369 0.453669 3.91755
0.258583 0.51525 3.6533
0.0531814 0.506639 3.89597
0.0804091 0.404436 3.91222
0.18226 0.538411 3.84252
0.0590775 0.431302 3.96952
0.247071 0.352484 3.64901
0.0691318 0.534748 3.86812
0.0403702 0.446707 3.99201
0.185215 0.238751 3.80352
0.182647 0.21143 3.76074
0.255076 0.415804 3.72271
0.212467 0.270651 3.77247
0.242264 0.565996 3.75667
0.0916385 0.160021 3.88054
0.00890169 0.38474 3.97127
0.0883133 0.435046 3.90957
0.234001 0.520121 3.79105
0.146038 0.524437 3.87002
0.125581 0.521946 3.87579
0.0890962 0.278901 3.90113
0.230738 0.375746 3.80127
0.0490445 0.125952 3.87504
0.119248 0.159089 3.8255
0.148947 0.180376 3.79705
0.105284 0.523524 3.87674
0.0868421 0.528303 3.87333
0.0752371 0.531578 3.86824
0.226485 0.565564 3.81314
0.088907 0.551291 3.87711
0.108699 0.55751 3.88097
0.128937 0.559451 3.87963
0.149697 0.555954 3.87379
0.162717 0.54961 3.86631
0.254147 0.571581 3.69088
0.159612 0.52875 3.86235
0.0760265 0.34337 3.9292
0.0557612 0.397985 3.95561
0.0314796 0.351835 3.95053
0.154606 0.20782 3.82797
0.124441 0.183838 3.85315
0.0499776 0.142704 3.90464
0.208549 0.246213 3.71492
0.0751214 0.541807 3.8716
0.0379279 0.488903 3.94729
0.0871035 0.140008 3.85526
0.247674 0.363263 3.72754
0.0446317 0.286636 3.92673
0.0478579 0.28084 3.93138
0.0511732 0.27129 3.93619
0.054193 0.25807 3.93313
0.0621085 0.234302 3.91569
0.0781765 0.288862 3.90449
0.0850952 0.290898 3.90455
0.0917731 0.29426 3.90458
0.114987 0.309978 3.90001
0.201475 0.36423 3.85013
0.0377531 0.51137 3.92485
0.0508522 0.55389 3.88529
0.0647969 0.548084 3.87565
0.0729054 0.291655 3.90215
0.203734 0.305711 3.81648
0.030497 0.558154 3.91456
0.0750529 0.209792 3.90379
0.021609 0.50261 3.9628
0.0532754 0.450938 3.94815
0.0383934 0.19676 3.91915
0.128302 0.254071 3.87664
0.0996013 0.384229 3.90693
0.103908 0.228524 3.88953
0.152816 0.386949 3.89679
0.121435 0.359666 3.90312
0.17199 0.34733 3.87883
0.0463866 0.167152 3.9169
0.0669983 0.436068 3.93189
0.147691 0.235292 3.85471
0.117553 0.208478 3.87208
0.147472 0.284222 3.87274
0.224436 0.334633 3.79444
0.175539 0.279783 3.84947
0.235531 0.314722 3.73932
0.139501 0.327708 3.89212
0.0522923 0.471634 3.93116
0.050024 0.407152 3.98354
0.0650918 0.399125 3.95861
0.0411006 0.423617 4.0001
0.0701589 0.575594 3.8925
0.107516 0.58956 3.89569
0.139391 0.592408 3.89323
0.166056 0.588532 3.88329
0.184346 0.577214 3.86838
0.196615 0.532233 3.83252
0.257707 0.46661 3.72661
0.180139 0.498256 3.85248
0.157035 0.49142 3.8667
0.127071 0.491137 3.87662
0.097571 0.49699 3.88165
0.074754 0.505966 3.88189
0.0591587 0.51495 3.88361
0.256234 0.462615 3.63691
0.0641364 0.391958 3.94718
0.0377367 0.468576 3.96624
0.0343148 0.406957 4.00203
0.0211278 0.394401 3.99266
0.0337655 0.402782 3.99055
0.0576025 0.383934 3.93953
0.0173871 0.392146 3.99894
0.0157064 0.386422 3.97142
0.0608016 0.533457 3.87203
0.0468401 0.528854 3.88618
0.0395791 0.526234 3.90211
0.170327 0.544586 3.85798
0.180726 0.553315 3.85695
