ply
format ascii 1.0
comment Created by Open3D
element vertex 468
property double x
property double y
property double z
end_header
0.00586917 0.382265 3.90457
0.00665537 0.443075 3.97053
0.00627049 0.419427 3.90741
-0.0137973 0.522236 3.93063
0.00676498 0.468525 3.97696
0.00672659 0.500985 3.96453
0.00658568 0.574915 3.8921
-0.166711 0.579026 3.79024
0.00674543 0.626989 3.87125
0.0070107 0.657897 3.8739
0.00790359 0.777679 3.84002
0.00584738 0.371311 3.90237
0.00597426 0.362901 3.89611
0.00603918 0.360035 3.88613
0.00792496 0.306982 3.87299
0.0078788 0.296519 3.87835
0.00782571 0.284038 3.88386
0.00779406 0.269536 3.87908
0.00725894 0.247762 3.85655
0.00658181 0.429911 3.95871
-0.0172171 0.431044 3.92408
-0.24939 0.655829 3.67215
-0.0954424 0.562199 3.81609
-0.118958 0.56087 3.81476
-0.142496 0.560869 3.80844
-0.177141 0.570786 3.78742
-0.0765325 0.566174 3.81361
-0.130105 0.616925 3.8215
-0.104333 0.614814 3.82108
-0.154642 0.613282 3.81421
-0.171146 0.604944 3.80457
-0.195765 0.554814 3.77672
-0.087474 0.223038 3.82598
-0.176788 0.582936 3.7821
-0.263162 0.553955 3.6675
-0.221897 0.565505 3.75151
-0.121398 0.468139 3.84791
-0.0317812 0.386532 3.90096
-0.0280787 0.363925 3.8915
-0.0695845 0.380624 3.88454
-0.0919689 0.372057 3.86
-0.0551223 0.363277 3.87824
-0.0747076 0.360125 3.85548
-0.116684 0.319968 3.81351
-0.0140352 0.44371 3.96811
-0.0165449 0.468823 3.9739
-0.20593 0.625358 3.79847
-0.0676452 0.523481 3.84781
-0.074617 0.453725 3.90558
-0.0760443 0.467003 3.89657
-0.195032 0.47258 3.81614
-0.0151818 0.498321 3.95685
-0.147705 0.650601 3.83999
-0.182164 0.642759 3.82166
-0.226072 0.700463 3.71747
-0.0432284 0.630728 3.86285
-0.0822267 0.606603 3.81426
-0.136621 0.351921 3.81033
-0.237861 0.329056 3.61574
-0.0566495 0.438833 3.89655
-0.0356785 0.431187 3.90004
-0.11741 0.351123 3.80994
-0.103722 0.350487 3.8158
-0.194635 0.65719 3.80852
-0.0769487 0.445048 3.89215
-0.102063 0.648087 3.85413
-0.106323 0.667794 3.85847
-0.131344 0.762773 3.80831
-0.209561 0.67988 3.76803
-0.116014 0.717647 3.8338
-0.219637 0.63415 3.77653
-0.234243 0.643792 3.72644
-0.0307486 0.373451 3.89863
-0.0617977 0.370096 3.88205
-0.0835883 0.366009 3.85941
-0.0509363 0.434996 3.89207
-0.110936 0.350872 3.81319
-0.0974479 0.331511 3.82609
-0.0992411 0.350362 3.81661
-0.0416791 0.443695 3.93175
-0.0695026 0.361771 3.85194
-0.0498925 0.362553 3.86914
-0.0248809 0.361324 3.88172
-0.0323116 0.251246 3.85378
-0.0304671 0.273899 3.87531
-0.028777 0.288213 3.8783
-0.0263576 0.300784 3.87242
-0.0234167 0.309448 3.86803
-0.0694157 0.324029 3.84082
-0.0744932 0.321178 3.84423
-0.0812792 0.315425 3.84675
-0.0865843 0.307562 3.84196
-0.1089 0.390539 3.85245
-0.262725 0.443261 3.5747
0.0064423 0.423718 3.92566
-0.0827643 0.332325 3.825
-0.0904184 0.332989 3.82689
-0.0274369 0.421301 3.90055
-0.0700847 0.431366 3.87384
-0.0313347 0.426014 3.90133
-0.094017 0.512149 3.84027
-0.135468 0.498907 3.83473
-0.0814172 0.457365 3.88279
-0.18897 0.737125 3.76511
-0.172203 0.705702 3.80269
-0.155816 0.669036 3.83402
-0.095966 0.292462 3.82669
-0.0505975 0.662249 3.87062
-0.0585073 0.720816 3.85194
-0.0678626 0.77515 3.83323
-0.164175 0.563927 3.79783
-0.221522 0.537771 3.76387
-0.0648742 0.570801 3.81026
-0.196518 0.595563 3.78443
-0.0498916 0.537487 3.85644
-0.0576772 0.460236 3.93
-0.246851 0.519114 3.73804
-0.205153 0.525944 3.78671
-0.174253 0.52011 3.80925
-0.127705 0.522843 3.82112
-0.0928628 0.53056 3.82583
-0.0676734 0.540076 3.83226
-0.0168245 0.56815 3.88237
-0.247357 0.473662 3.74753
-0.215252 0.59716 3.77348
-0.0060783 0.431105 3.95711
-0.0672884 0.501051 3.86063
-0.268105 0.549644 3.58784
-0.049447 0.551337 3.83567
-0.0846739 0.45553 3.85642
-0.185065 0.581377 3.77771
-0.0586617 0.476682 3.91898
-0.255189 0.387349 3.5891
-0.0661826 0.578188 3.80314
-0.0370285 0.489937 3.94254
-0.187625 0.282956 3.73753
-0.183147 0.250449 3.70052
-0.266949 0.455699 3.66102
-0.219615 0.313181 3.71073
-0.249321 0.601918 3.69014
-0.0894747 0.197349 3.81552
-0.00355444 0.424692 3.92396
-0.0906993 0.485907 3.85238
-0.241726 0.558735 3.72738
-0.140292 0.575026 3.80502
-0.118986 0.574167 3.81106
-0.103957 0.32882 3.82258
-0.245628 0.424907 3.74199
-0.0448419 0.16094 3.81439
-0.116041 0.196549 3.76329
-0.146405 0.219356 3.73506
0.00749274 0.720413 3.85786
0.00621421 0.155073 3.82167
-0.0997552 0.575009 3.81196
-0.0818438 0.57685 3.80845
-0.0709803 0.577243 3.80368
-0.23175 0.600152 3.74855
-0.0865271 0.592149 3.81069
-0.106642 0.598138 3.81506
-0.126707 0.599587 3.81394
-0.147643 0.596264 3.80815
-0.16171 0.590521 3.80038
-0.262646 0.607891 3.62444
-0.155453 0.576733 3.79731
0.00624129 0.407326 3.89987
-0.0843404 0.402461 3.87101
-0.0565713 0.441642 3.90635
-0.0322011 0.407456 3.89664
0.00660757 0.601601 3.87187
-0.153462 0.250699 3.75933
-0.122393 0.224418 3.78549
-0.0466228 0.178314 3.84089
-0.212329 0.283287 3.65816
-0.0726515 0.583696 3.80629
-0.0331466 0.531283 3.8919
0.00656806 0.172102 3.84685
-0.0838677 0.176001 3.79353
-0.260523 0.403651 3.66755
-0.0487828 0.315637 3.85566
-0.0536138 0.309547 3.85954
-0.058514 0.299771 3.86248
-0.0620002 0.286867 3.85856
-0.0690856 0.268162 3.84228
-0.0926394 0.356995 3.83431
-0.101153 0.359836 3.8336
-0.108749 0.363855 3.83382
-0.128331 0.374428 3.8306
-0.215701 0.417786 3.79124
-0.0327668 0.553781 3.8675
-0.04641 0.593981 3.82051
-0.0620527 0.590695 3.81063
-0.0859948 0.359495 3.83214
-0.215039 0.354796 3.75436
-0.0249419 0.596579 3.85391
-0.0788142 0.247975 3.83224
0.00668649 0.526092 3.93886
-0.0154568 0.543962 3.90876
0.0066274 0.549242 3.91434
-0.051635 0.495961 3.89476
0.00685803 0.19674 3.85723
0.00700714 0.224992 3.85609
-0.0383786 0.229145 3.84976
-0.132759 0.308034 3.8021
-0.104555 0.437719 3.84904
-0.108527 0.274719 3.815
-0.162155 0.440881 3.83768
-0.12854 0.415272 3.84115
-0.182332 0.402812 3.81635
-0.0447005 0.202174 3.85039
-0.0675688 0.483874 3.87724
-0.149229 0.283463 3.78348
-0.118278 0.251948 3.80077
-0.153742 0.343766 3.8023
-0.238402 0.382251 3.73401
-0.182471 0.33256 3.782
-0.245965 0.355138 3.67946
-0.148827 0.389202 3.82706
-0.0495718 0.515915 3.87501
-0.0496066 0.448488 3.93652
-0.0670724 0.444994 3.9091
-0.0380197 0.464885 3.95354
-0.0644447 0.612514 3.82608
-0.10257 0.625979 3.82996
-0.136916 0.629224 3.8285
-0.165952 0.625187 3.8185
-0.186435 0.614449 3.80386
-0.20049 0.573875 3.76864
-0.267889 0.505253 3.66281
-0.182114 0.547192 3.7892
-0.155981 0.542 3.8042
-0.123467 0.542666 3.81426
-0.0933962 0.546961 3.81796
-0.0707406 0.553398 3.81944
-0.0554878 0.560016 3.82079
-0.265849 0.496246 3.57302
-0.0671582 0.440111 3.89686
-0.0332575 0.510948 3.91354
-0.0314364 0.446589 3.95607
-0.0183176 0.434959 3.94661
-0.0316914 0.442468 3.94419
-0.0615367 0.433864 3.88848
-0.0139234 0.432817 3.95355
-0.011646 0.426904 3.92403
-0.0573535 0.576743 3.80745
-0.0435541 0.572014 3.82358
-0.0355293 0.568815 3.84238
-0.170239 0.58617 3.7927
-0.183527 0.594903 3.79097
0.0271865 0.522193 3.93064
0.178818 0.578579 3.79087
0.030242 0.430659 3.92415
0.263021 0.655847 3.67244
0.107434 0.561374 3.81653
0.131055 0.560225 3.81529
0.154705 0.560345 3.80907
0.18891 0.570365 3.7881
0.0883462 0.565529 3.81406
0.142958 0.616526 3.82173
0.117048 0.614625 3.82148
0.16741 0.612775 3.81416
0.183559 0.604344 3.80491
0.207473 0.554518 3.77744
0.101615 0.221977 3.8259
0.188746 0.582462 3.78276
0.274553 0.554138 3.66812
0.23374 0.565408 3.75218
0.133598 0.467716 3.84848
0.044069 0.386198 3.90125
0.0404365 0.363571 3.89204
0.0826872 0.379694 3.88517
0.105561 0.370518 3.86084
0.0679159 0.362293 3.87919
0.0881587 0.358707 3.85663
0.132293 0.318008 3.81427
0.0273515 0.443655 3.96821
0.029927 0.468896 3.97396
0.21904 0.625242 3.7986
0.0799571 0.523259 3.84844
0.0877729 0.453615 3.90585
0.0889337 0.466912 3.89702
0.206312 0.472187 3.81725
0.0286218 0.498255 3.95695
0.161399 0.650353 3.84
0.195626 0.642606 3.82165
0.240752 0.700358 3.71759
0.0567874 0.63066 3.86271
0.0948434 0.606415 3.81433
0.151772 0.349923 3.8107
0.247573 0.328238 3.61606
0.0699675 0.438668 3.89704
0.0488134 0.430844 3.90019
0.133055 0.348869 3.81076
0.119862 0.348234 3.81688
0.208478 0.657013 3.80858
0.0903208 0.444929 3.89253
0.115882 0.647933 3.85407
0.120465 0.667646 3.8582
0.146499 0.762982 3.8081
0.223784 0.679906 3.76816
0.130802 0.717625 3.83377
0.232984 0.634037 3.77703
0.247795 0.643808 3.72693
0.0428371 0.373011 3.89903
0.0748466 0.369303 3.88284
0.0972261 0.364611 3.86065
0.0643523 0.434713 3.89243
0.126826 0.348692 3.8141
0.113904 0.32956 3.82717
0.115434 0.348245 3.81748
0.0549608 0.443536 3.93191
0.0830482 0.360503 3.85313
0.0625707 0.361616 3.86991
0.0374433 0.361096 3.88243
0.0472032 0.250756 3.85435
0.046449 0.273442 3.87619
0.0449267 0.287806 3.87938
0.0424566 0.300073 3.87351
0.0394518 0.308791 3.86887
0.0860402 0.322623 3.84193
0.0910674 0.319908 3.84555
0.097876 0.313906 3.84798
0.102985 0.306126 3.84313
0.122525 0.389696 3.85325
0.272845 0.443058 3.57557
0.0992283 0.330562 3.82611
0.106896 0.331065 3.82798
0.0405255 0.420962 3.90058
0.0833943 0.431021 3.87432
0.0444332 0.425628 3.90148
0.106104 0.511822 3.84088
0.147495 0.498532 3.83544
0.0945236 0.457215 3.88321
0.204024 0.737258 3.76534
0.186798 0.705699 3.80268
0.16999 0.668813 3.83409
0.111728 0.291135 3.82767
0.064788 0.662069 3.87044
0.0733407 0.72096 3.8517
0.0832978 0.775259 3.83329
0.176169 0.563561 3.79844
0.232939 0.537685 3.76468
0.0766103 0.570155 3.81052
0.208759 0.595327 3.7849
0.062403 0.537312 3.85684
0.0706693 0.460047 3.93026
0.257994 0.518984 3.73877
0.216679 0.525722 3.78745
0.186211 0.519822 3.81008
0.13984 0.522404 3.82182
0.104978 0.530165 3.82648
0.0799614 0.539745 3.83274
0.0297419 0.568066 3.88244
0.257797 0.473346 3.7484
0.227636 0.597116 3.77381
0.0191973 0.431028 3.95703
0.0797658 0.500758 3.86117
0.279242 0.549586 3.58831
0.0617927 0.550998 3.83587
0.0976317 0.455486 3.85681
0.196929 0.580976 3.7783
0.0715085 0.476567 3.91927
0.264918 0.387039 3.58964
0.0781787 0.57751 3.80324
0.0500952 0.489773 3.94261
0.200444 0.281138 3.73735
0.195326 0.248541 3.70041
0.277019 0.455489 3.66188
0.231118 0.311758 3.71074
0.261733 0.601874 3.69046
0.103389 0.196139 3.81546
0.0164767 0.424662 3.92398
0.103034 0.485713 3.85298
0.253363 0.558763 3.72797
0.152441 0.574297 3.80533
0.131103 0.573368 3.81134
0.120234 0.326828 3.82364
0.255908 0.424387 3.7427
0.0576364 0.160248 3.81425
0.129332 0.194837 3.76303
0.159621 0.217442 3.73461
0.111582 0.57412 3.8124
0.093635 0.576094 3.80886
0.0829001 0.576519 3.80382
0.244362 0.600197 3.74905
0.0987403 0.59173 3.81115
0.118977 0.597596 3.81558
0.13912 0.599042 3.81438
0.160177 0.595786 3.80866
0.173909 0.590034 3.80093
0.275113 0.607826 3.62473
0.16763 0.57614 3.79784
0.0978337 0.401937 3.87157
0.0698482 0.441393 3.90652
0.0450807 0.407156 3.89698
0.167062 0.248948 3.75902
0.136355 0.222778 3.78547
0.0598693 0.177712 3.84077
0.223018 0.281836 3.65827
0.0846727 0.583151 3.80676
0.0460491 0.531138 3.89207
0.0969582 0.174817 3.79355
0.270377 0.403163 3.66821
0.0651653 0.314617 3.85716
0.0700707 0.308618 3.86095
0.0748747 0.298768 3.86402
0.0783603 0.285802 3.85982
0.0844889 0.267183 3.84333
0.10747 0.355058 3.83542
0.115817 0.357783 3.83464
0.123317 0.361779 3.83474
0.142679 0.373043 3.83118
0.226548 0.417166 3.7924
0.0455679 0.553669 3.86778
0.0589963 0.593696 3.82072
0.0741204 0.590356 3.81073
0.100972 0.357626 3.83317
0.226878 0.353712 3.75481
0.038082 0.596453 3.85416
0.0935108 0.247058 3.83249
0.0285974 0.54399 3.90866
0.0642715 0.495806 3.89492
0.0526908 0.22866 3.84995
0.14751 0.306409 3.80262
0.117601 0.437315 3.84975
0.123193 0.273271 3.81539
0.17399 0.440364 3.83843
0.141703 0.414538 3.8417
0.194195 0.401974 3.81683
0.0585243 0.201635 3.85049
0.0802132 0.483625 3.87769
0.163412 0.282052 3.78337
0.132878 0.250557 3.80093
0.168026 0.342238 3.8028
0.249084 0.381412 3.7347
0.195615 0.331093 3.78225
0.25623 0.354264 3.67976
0.162499 0.388185 3.82751
0.0622757 0.51572 3.87532
0.0627713 0.448264 3.93651
0.0804248 0.444827 3.90939
0.0512851 0.464668 3.95363
0.0774382 0.612352 3.82636
0.115779 0.625773 3.83017
0.150171 0.628827 3.82846
0.179014 0.624706 3.81892
0.198929 0.614082 3.80418
0.212398 0.573629 3.76932
0.278498 0.505033 3.66352
0.193951 0.546934 3.79006
0.168127 0.541774 3.80508
0.135708 0.542103 3.81498
0.105365 0.546451 3.81851
0.0828238 0.552824 3.81988
0.0676205 0.559574 3.82105
0.276327 0.49607 3.57339
0.0805393 0.440011 3.89728
0.0462671 0.510875 3.9139
0.0448695 0.446535 3.95617
0.0314601 0.434809 3.94672
0.0449728 0.442271 3.94422
0.0748309 0.433441 3.88894
0.0270832 0.432695 3.95344
0.0247071 0.42667 3.92406
0.0692249 0.576232 3.80779
0.0557331 0.571533 3.82389
0.0483087 0.568567 3.84251
0.182349 0.585712 3.7931
0.19569 0.594475 3.79134
