ply
format ascii 1.0
comment Created by Open3D
element vertex 468
property double x
property double y
property double z
end_header
-0.0255463 0.406081 3.90589
-0.0248271 0.489547 3.95896
-0.0258625 0.458127 3.8993
-0.043574 0.564422 3.92164
-0.0250627 0.513238 3.96471
-0.0239391 0.544232 3.95188
-0.0235212 0.619 3.88642
-0.183871 0.628209 3.79253
-0.0240643 0.682584 3.86474
-0.0242447 0.716112 3.86892
-0.0267255 0.835872 3.84018
-0.0253205 0.394446 3.90325
-0.0249328 0.384512 3.89589
-0.0245859 0.378825 3.88502
-0.0271696 0.373697 3.87842
-0.0271103 0.36346 3.88266
-0.0258823 0.351671 3.88714
-0.0248643 0.339139 3.88268
-0.0233319 0.323588 3.85643
-0.0236819 0.477984 3.94729
-0.0475739 0.474603 3.91593
-0.254153 0.705558 3.68336
-0.111541 0.611782 3.81394
-0.133288 0.60953 3.81333
-0.155937 0.608012 3.80848
-0.187427 0.620682 3.78792
-0.0959766 0.615532 3.81299
-0.152095 0.673667 3.81655
-0.125106 0.671562 3.81893
-0.175593 0.669012 3.81062
-0.189571 0.659504 3.80361
-0.201513 0.601621 3.77984
-0.096735 0.303824 3.82342
-0.193435 0.634901 3.78472
-0.256953 0.603086 3.67512
-0.224323 0.616226 3.75623
-0.128296 0.508858 3.84711
-0.0508343 0.410581 3.90223
-0.0442246 0.385395 3.89211
-0.0745851 0.403857 3.88886
-0.0877135 0.394296 3.87248
-0.0610114 0.384523 3.88302
-0.0744264 0.38039 3.86834
-0.114996 0.361253 3.83446
-0.0425369 0.491266 3.95737
-0.0456488 0.513876 3.96265
-0.215969 0.677729 3.79997
-0.0879536 0.569066 3.84566
-0.0924259 0.49483 3.89834
-0.0928241 0.507386 3.88934
-0.187345 0.512133 3.8167
-0.0452027 0.541299 3.94544
-0.170482 0.703819 3.84248
-0.198661 0.695799 3.82356
-0.237292 0.751104 3.72867
-0.0746901 0.68618 3.86059
-0.103781 0.66059 3.81357
-0.131105 0.378366 3.82938
-0.229881 0.395421 3.60586
-0.078967 0.479073 3.89158
-0.0615903 0.470125 3.89528
-0.107722 0.372204 3.83428
-0.0960437 0.374395 3.84103
-0.208999 0.709267 3.81236
-0.0919486 0.483605 3.88639
-0.131323 0.702754 3.85513
-0.135398 0.722346 3.85983
-0.157556 0.81652 3.81503
-0.222146 0.731285 3.77612
-0.144281 0.76879 3.84029
-0.228401 0.68592 3.77995
-0.240772 0.694991 3.73617
-0.0478919 0.396963 3.90034
-0.0675252 0.392327 3.88735
-0.0812293 0.387305 3.87274
-0.0735498 0.473665 3.88879
-0.10144 0.372675 3.83854
-0.0932985 0.371855 3.85142
-0.0936024 0.37674 3.841
-0.0674677 0.490515 3.92243
-0.0688971 0.380286 3.86293
-0.0559728 0.380475 3.87293
-0.0405825 0.379989 3.88126
-0.0490539 0.326954 3.85659
-0.049768 0.343284 3.88211
-0.0496795 0.355516 3.88524
-0.0485676 0.366699 3.88019
-0.0462027 0.374902 3.87594
-0.074788 0.376584 3.86039
-0.0779888 0.374234 3.86405
-0.082821 0.369164 3.86657
-0.0876884 0.362194 3.86275
-0.108393 0.421271 3.86452
-0.25747 0.496856 3.5767
-0.0268877 0.466651 3.91663
-0.0834732 0.375446 3.84921
-0.0880294 0.373859 3.85157
-0.0542858 0.458621 3.89456
-0.0866841 0.465814 3.87319
-0.0577832 0.464308 3.89602
-0.107591 0.555821 3.83712
-0.140904 0.539227 3.8331
-0.0953331 0.496038 3.87737
-0.207296 0.789377 3.77528
-0.192354 0.756645 3.80996
-0.178726 0.721794 3.83851
-0.0965544 0.349515 3.84356
-0.0820886 0.717417 3.86955
-0.0897731 0.773076 3.85637
-0.0989243 0.831564 3.83735
-0.175779 0.611703 3.79862
-0.221163 0.582805 3.76872
-0.0873962 0.618388 3.81002
-0.207118 0.648664 3.78693
-0.0744183 0.582806 3.85308
-0.0803304 0.504808 3.92128
-0.241538 0.565823 3.74129
-0.207291 0.566751 3.79034
-0.178752 0.5596 3.81306
-0.137623 0.565549 3.82109
-0.108819 0.576876 3.82454
-0.0891993 0.587454 3.83109
-0.0453181 0.612435 3.87821
-0.237296 0.518257 3.74901
-0.221891 0.65065 3.77655
-0.0349882 0.478993 3.94567
-0.0863935 0.543424 3.85675
-0.264767 0.597105 3.59781
-0.0748556 0.597001 3.8353
-0.0982255 0.492038 3.856
-0.197912 0.633453 3.77957
-0.0801288 0.520135 3.91037
-0.248283 0.446796 3.58493
-0.0894133 0.625761 3.80396
-0.063085 0.533884 3.93172
-0.180928 0.349797 3.7362
-0.179781 0.325781 3.6899
-0.257182 0.506477 3.66378
-0.207267 0.378439 3.70509
-0.251341 0.65105 3.70001
-0.100524 0.283417 3.80598
-0.036318 0.467577 3.91549
-0.102827 0.526973 3.8492
-0.239252 0.609379 3.73284
-0.15812 0.620816 3.80557
-0.136479 0.620626 3.80963
-0.0994271 0.368199 3.84708
-0.230037 0.473899 3.7409
-0.0645741 0.251353 3.79865
-0.124327 0.281594 3.753
-0.148957 0.29992 3.72602
-0.0256215 0.774815 3.85844
-0.0200413 0.244415 3.80496
-0.117198 0.622985 3.81007
-0.101461 0.625348 3.80648
-0.0929022 0.624919 3.8032
-0.235528 0.652611 3.753
-0.10636 0.648244 3.80774
-0.125244 0.65895 3.80989
-0.148231 0.660896 3.80928
-0.170031 0.655931 3.80572
-0.182029 0.647612 3.80058
-0.264583 0.654608 3.63646
-0.173325 0.623594 3.79869
-0.0259247 0.441282 3.8958
-0.0934018 0.434225 3.87605
-0.0790142 0.484694 3.90227
-0.0553121 0.440148 3.89484
-0.02315 0.651904 3.86623
-0.154199 0.323483 3.75889
-0.128641 0.303613 3.78059
-0.0646134 0.267232 3.82878
-0.205904 0.354904 3.64535
-0.0950538 0.633923 3.80607
-0.060025 0.574763 3.88765
-0.0192094 0.259517 3.83382
-0.0970408 0.264715 3.78012
-0.24772 0.460449 3.66596
-0.0621684 0.375807 3.86909
-0.0653081 0.370649 3.87338
-0.0684961 0.362631 3.87692
-0.071085 0.351486 3.87431
-0.0747136 0.337683 3.85272
-0.0860464 0.377248 3.85409
-0.0931908 0.37964 3.85401
-0.0995778 0.384253 3.85345
-0.121622 0.401204 3.84858
-0.198834 0.464541 3.79073
-0.0602444 0.598143 3.86432
-0.0731473 0.642007 3.82281
-0.0862258 0.640288 3.81198
-0.0812217 0.37875 3.85013
-0.199022 0.409793 3.75391
-0.0531593 0.646188 3.85178
-0.0861496 0.32202 3.83633
-0.0238992 0.56898 3.92918
-0.0441003 0.587799 3.90412
-0.0237553 0.592461 3.9083
-0.074367 0.538974 3.88931
-0.0198637 0.280506 3.84808
-0.0217284 0.303443 3.85028
-0.0552373 0.307988 3.84659
-0.13471 0.357768 3.81814
-0.114912 0.47505 3.85249
-0.112439 0.338386 3.82632
-0.157349 0.482324 3.83945
-0.130989 0.452832 3.84948
-0.171361 0.446147 3.82093
-0.0616241 0.286888 3.84226
-0.0858374 0.525585 3.87222
-0.151161 0.344917 3.79121
-0.124865 0.322799 3.80336
-0.151535 0.382276 3.8158
-0.221299 0.436572 3.73181
-0.173926 0.385089 3.78888
-0.233147 0.41717 3.67354
-0.142668 0.422336 3.83891
-0.07373 0.559207 3.87062
-0.0733605 0.495472 3.92753
-0.0864859 0.487354 3.90262
-0.0650418 0.509819 3.94271
-0.0914833 0.664615 3.82818
-0.127985 0.680058 3.83232
-0.160194 0.682976 3.82967
-0.18551 0.678223 3.81943
-0.200723 0.667488 3.806
-0.208148 0.625586 3.77193
-0.259742 0.554455 3.66769
-0.189757 0.592352 3.79241
-0.165941 0.58648 3.80711
-0.136077 0.589107 3.8144
-0.109596 0.595944 3.81694
-0.0916609 0.602372 3.81927
-0.0795366 0.607045 3.82106
-0.260705 0.546186 3.57967
-0.0853699 0.479761 3.89197
-0.0611434 0.553491 3.90629
-0.0585399 0.494362 3.94633
-0.0461741 0.482728 3.93683
-0.0584616 0.490384 3.93487
-0.0797937 0.471012 3.88541
-0.0418935 0.480716 3.94299
-0.0428651 0.470308 3.91621
-0.0819454 0.623351 3.80904
-0.0688845 0.618468 3.82492
-0.062114 0.614555 3.8414
-0.188475 0.641017 3.79416
-0.197728 0.648807 3.79207
-0.00363334 0.564837 3.92191
0.150782 0.630723 3.78425
-0.00350273 0.472513 3.91329
0.234554 0.72127 3.67559
0.0785403 0.614256 3.81485
0.102437 0.612009 3.81243
0.126581 0.610599 3.80539
0.159777 0.623877 3.7811
0.0582662 0.617365 3.81245
0.120193 0.680713 3.80821
0.0913126 0.6772 3.81124
0.144652 0.676044 3.79957
0.160463 0.665865 3.79138
0.176633 0.604182 3.77125
0.0644195 0.295278 3.81912
0.161601 0.638394 3.7746
0.241847 0.612333 3.66893
0.203323 0.62072 3.74606
0.0937671 0.505779 3.83881
0.00216839 0.408101 3.90121
-0.00217948 0.383525 3.89221
0.0307627 0.398159 3.88842
0.0474244 0.388236 3.874
0.0186445 0.380965 3.88453
0.0329129 0.376353 3.87014
0.0790038 0.353565 3.83128
-0.00555316 0.489885 3.95535
-0.00125979 0.51264 3.95982
0.191343 0.687542 3.78713
0.0498118 0.569148 3.84256
0.0503387 0.490706 3.89329
0.0529951 0.504226 3.88412
0.165329 0.509239 3.8082
-0.00211883 0.541063 3.94485
0.135376 0.713125 3.82469
0.168659 0.705697 3.80708
0.212953 0.766537 3.71854
0.029261 0.689327 3.85322
0.065737 0.664908 3.80891
0.0942359 0.370658 3.82763
0.211052 0.390717 3.60673
0.0311562 0.474768 3.88794
0.0108025 0.466565 3.889
0.065374 0.367282 3.83807
0.0556353 0.369741 3.84403
0.17979 0.720533 3.79624
0.0503959 0.479365 3.88053
0.0902975 0.70932 3.84014
0.094376 0.729594 3.84431
0.11654 0.825912 3.80438
0.196044 0.743803 3.76281
0.101542 0.77671 3.82844
0.204401 0.696855 3.76772
0.219391 0.707555 3.72558
0.000739322 0.39465 3.90024
0.0239776 0.387665 3.88826
0.0400821 0.381912 3.87381
0.024433 0.469159 3.88326
0.0597514 0.36793 3.84168
0.0519929 0.366638 3.85149
0.0542039 0.372207 3.84387
0.021256 0.487216 3.92165
0.0287225 0.377481 3.86522
0.0136649 0.378225 3.87497
-0.00465553 0.378958 3.88258
0.00673822 0.323723 3.85289
0.00412466 0.340437 3.87967
0.00153 0.353163 3.88377
-0.00228698 0.364878 3.87996
-0.0044899 0.37333 3.87602
0.0323957 0.372863 3.86086
0.0360438 0.369772 3.8628
0.042052 0.363788 3.86363
0.0473133 0.356552 3.85959
0.0687332 0.415547 3.86095
0.233407 0.502265 3.57616
0.0425165 0.372167 3.85204
0.046484 0.369576 3.85279
0.00280269 0.45668 3.89113
0.0397926 0.46096 3.86494
0.00682996 0.461627 3.89105
0.0720174 0.555756 3.83376
0.109472 0.538069 3.82672
0.0552891 0.492589 3.87153
0.176108 0.802526 3.76247
0.158471 0.767675 3.79495
0.142889 0.731936 3.82091
0.0605783 0.342808 3.84095
0.0367653 0.722058 3.85999
0.04209 0.777066 3.84932
0.0506723 0.835776 3.82889
0.148124 0.614228 3.79333
0.201779 0.584781 3.75914
0.0454403 0.620411 3.81077
0.181493 0.655283 3.77677
0.0336285 0.583247 3.85117
0.0374059 0.501125 3.91683
0.226872 0.568668 3.73328
0.185111 0.567708 3.78229
0.153143 0.559934 3.80582
0.105405 0.566105 3.81731
0.0730507 0.57763 3.82185
0.0511149 0.588002 3.82844
-0.000405784 0.612992 3.87748
0.221689 0.518194 3.74306
0.200427 0.658124 3.76673
-0.0116238 0.478419 3.9454
0.0463447 0.542795 3.8539
0.24235 0.60967 3.59447
0.032584 0.597752 3.83367
0.0545425 0.488182 3.84844
0.168546 0.637862 3.77061
0.0397951 0.517442 3.90541
0.226684 0.44719 3.58464
0.0471439 0.627942 3.80545
0.0200595 0.532694 3.92892
0.162608 0.337878 3.73404
0.162151 0.314887 3.69054
0.239524 0.508568 3.65928
0.191882 0.368807 3.70319
0.231237 0.662508 3.69157
0.0693416 0.274676 3.80351
-0.017699 0.467058 3.91408
0.0659913 0.525356 3.84399
0.223083 0.615436 3.72419
0.123373 0.623168 3.8014
0.101764 0.62342 3.80858
0.0585868 0.362819 3.84717
0.213528 0.470003 3.73443
0.0273582 0.246395 3.79714
0.0965377 0.271493 3.75364
0.126807 0.288466 3.72756
0.0819456 0.625655 3.8099
0.0628376 0.628135 3.80826
0.0511185 0.62772 3.80575
0.2161 0.661455 3.74279
0.0715828 0.651535 3.80679
0.0949864 0.662637 3.80483
0.118285 0.664412 3.80151
0.140035 0.659487 3.79538
0.151886 0.651042 3.78909
0.242076 0.669315 3.63019
0.139021 0.62579 3.79267
0.050594 0.429387 3.87094
0.0321928 0.479529 3.89645
0.00594145 0.437702 3.89246
0.131351 0.310693 3.75593
0.101895 0.291761 3.77729
0.0301113 0.26176 3.82619
0.188874 0.346599 3.64741
0.0550611 0.636611 3.80778
0.0162302 0.574782 3.88572
0.0644215 0.257168 3.78061
0.231673 0.457927 3.66155
0.0154244 0.373178 3.86956
0.0195028 0.367384 3.87248
0.024667 0.35861 3.87502
0.0284248 0.347169 3.87187
0.0374237 0.332843 3.85053
0.0461455 0.373281 3.85733
0.0531457 0.375022 3.85754
0.0604723 0.378906 3.85662
0.084179 0.395131 3.84757
0.181098 0.458727 3.78268
0.0161008 0.598652 3.86276
0.0276517 0.643984 3.82052
0.044191 0.643302 3.81185
0.0409383 0.375488 3.85373
0.180629 0.401129 3.74892
0.00773949 0.647352 3.84952
0.0527645 0.314595 3.8318
-0.00099212 0.587629 3.90244
0.0328372 0.537624 3.88512
0.0159831 0.30391 3.84336
0.104107 0.346785 3.81129
0.0745428 0.470723 3.84384
0.0819246 0.32824 3.81973
0.129096 0.476836 3.82889
0.0946475 0.447603 3.8419
0.147346 0.438893 3.81158
0.0257155 0.282375 3.83985
0.0459068 0.523658 3.86738
0.124783 0.332501 3.78509
0.094944 0.311161 3.79738
0.121053 0.372817 3.81092
0.204491 0.429893 3.72586
0.15284 0.37407 3.78264
0.217603 0.410906 3.67108
0.110474 0.415654 3.83343
0.0314729 0.559055 3.86854
0.0295449 0.491575 3.92496
0.0425711 0.482278 3.89665
0.019312 0.507842 3.94044
0.0483155 0.668295 3.82456
0.0893982 0.685218 3.8228
0.124745 0.68974 3.81627
0.153265 0.686345 3.80591
0.172653 0.675761 3.79341
0.183239 0.629828 3.76226
0.244097 0.560666 3.6636
0.163337 0.594316 3.78491
0.137562 0.587956 3.80138
0.104499 0.590705 3.81143
0.0750075 0.597522 3.81557
0.0533205 0.603157 3.81696
0.0375646 0.607888 3.81927
0.237304 0.555976 3.57903
0.0410461 0.474914 3.88593
0.0154395 0.553322 3.90485
0.0120708 0.491566 3.94342
0.000291044 0.480469 3.93388
0.0122202 0.487311 3.93237
0.0336818 0.466178 3.87842
-0.00427911 0.479074 3.94048
-0.00935567 0.468788 3.91365
0.0375821 0.625202 3.80883
0.0250727 0.619336 3.82289
0.0179672 0.615197 3.83905
0.157832 0.644382 3.78289
0.169345 0.654243 3.78027
