ply
format ascii 1.0
comment Created by Open3D
element vertex 468
property double x
property double y
property double z
end_header
0.0385207 0.367322 3.81868
0.0407316 0.433999 3.88977
0.0415261 0.407328 3.82586
0.0209332 0.510395 3.85183
0.0404502 0.459898 3.89658
0.0397548 0.491263 3.88474
0.0414427 0.560573 3.81402
-0.135661 0.560147 3.70993
0.0418789 0.61004 3.79362
0.0418021 0.641553 3.79707
0.0409225 0.772836 3.76555
0.0379881 0.356921 3.8161
0.03728 0.350225 3.80975
0.0367423 0.34919 3.79962
0.0407684 0.304275 3.79006
0.0404441 0.296578 3.79539
0.0393401 0.286744 3.8015
0.0390318 0.273552 3.79867
0.0393495 0.246913 3.77939
0.0400873 0.420061 3.87744
0.0190811 0.41962 3.84221
-0.221559 0.639859 3.59396
-0.0636509 0.541841 3.73828
-0.0887786 0.540553 3.73628
-0.112849 0.541495 3.72929
-0.147268 0.551503 3.7066
-0.0422711 0.545852 3.73505
-0.0970851 0.600662 3.74192
-0.0697316 0.598194 3.74163
-0.122688 0.596754 3.73378
-0.140152 0.587662 3.72364
-0.165668 0.535929 3.69409
-0.0529185 0.208781 3.74514
-0.145219 0.564531 3.70134
-0.232686 0.53112 3.585
-0.190916 0.545544 3.66875
-0.0906959 0.452172 3.76524
-0.000643535 0.371057 3.81446
-0.000409189 0.35098 3.80393
-0.0414064 0.366973 3.79619
-0.0679974 0.361142 3.76924
-0.0302635 0.351223 3.78943
-0.0526709 0.350093 3.76466
-0.0905885 0.312467 3.72214
0.020561 0.434431 3.88664
0.01797 0.459982 3.8929
-0.176168 0.608266 3.71815
-0.0329189 0.506912 3.76799
-0.038172 0.442187 3.82329
-0.0397809 0.454757 3.81461
-0.17113 0.454273 3.73081
0.0190834 0.488389 3.87731
-0.112616 0.634843 3.75986
-0.150067 0.626839 3.74118
-0.197227 0.689123 3.63965
-0.00610684 0.612986 3.78493
-0.0461317 0.588982 3.7352
-0.11379 0.343973 3.71842
-0.208137 0.293343 3.53061
-0.0198554 0.427144 3.81416
0.00140792 0.419005 3.81639
-0.0975343 0.347266 3.71585
-0.0859615 0.345841 3.72161
-0.163082 0.642064 3.72862
-0.0412236 0.433325 3.80883
-0.0645259 0.63114 3.77507
-0.0689948 0.652553 3.77982
-0.0988937 0.758103 3.73192
-0.178933 0.667264 3.68895
-0.0802689 0.709178 3.75685
-0.190289 0.617175 3.69666
-0.205274 0.627776 3.64717
-0.00136079 0.358708 3.81142
-0.0350271 0.357209 3.79318
-0.0602391 0.35567 3.76835
-0.0139662 0.422998 3.80886
-0.0921795 0.347131 3.71852
-0.0751227 0.328199 3.73315
-0.0816782 0.344493 3.72254
-0.00631384 0.432785 3.85115
-0.0494697 0.352315 3.76101
-0.0259961 0.351543 3.78006
0.00171407 0.350017 3.79449
-0.000689298 0.248265 3.77432
0.000449381 0.276298 3.79347
0.00190305 0.289835 3.79555
0.00442144 0.299153 3.78917
0.00699545 0.305756 3.78462
-0.0460982 0.319263 3.75224
-0.0505233 0.317741 3.75515
-0.0562633 0.313199 3.75729
-0.0597192 0.305266 3.75264
-0.0813257 0.377801 3.76244
-0.230824 0.411226 3.49183
0.0421157 0.412667 3.84441
-0.0617266 0.327196 3.73388
-0.0687653 0.329026 3.7348
0.00894014 0.409073 3.81788
-0.0339799 0.419283 3.78931
0.00541246 0.413763 3.81814
-0.0608075 0.495337 3.7598
-0.10577 0.482286 3.75255
-0.0455402 0.44483 3.80002
-0.158163 0.729501 3.68737
-0.138636 0.695622 3.72426
-0.120289 0.654702 3.75503
-0.067289 0.284879 3.73866
-0.013931 0.646402 3.79286
-0.0230392 0.71305 3.77554
-0.0348073 0.771294 3.7572
-0.134801 0.544577 3.71769
-0.192061 0.518409 3.68011
-0.0286957 0.550783 3.73217
-0.166001 0.576952 3.70326
-0.0145506 0.521297 3.77713
-0.021586 0.449365 3.84843
-0.218607 0.497615 3.65372
-0.17643 0.50794 3.70323
-0.145038 0.503181 3.72628
-0.0963263 0.505441 3.73986
-0.0593689 0.512551 3.74577
-0.0331019 0.522283 3.75282
0.0185831 0.553372 3.80439
-0.222196 0.451156 3.66206
-0.185102 0.578155 3.69258
0.0278634 0.420998 3.87589
-0.0316286 0.48568 3.78052
-0.236614 0.524533 3.50741
-0.0136257 0.534055 3.75665
-0.0480193 0.442184 3.77319
-0.153731 0.561937 3.69668
-0.0229783 0.464916 3.83775
-0.223858 0.352541 3.50467
-0.0293108 0.558254 3.72562
-0.00230535 0.479129 3.8625
-0.158405 0.256213 3.65156
-0.15105 0.219659 3.61541
-0.237629 0.427591 3.57632
-0.194288 0.28276 3.62419
-0.219137 0.582463 3.60977
-0.0526726 0.182873 3.7359
0.0328571 0.413573 3.8423
-0.0566726 0.47044 3.77094
-0.211333 0.53764 3.64495
-0.109616 0.555221 3.72587
-0.0879607 0.553889 3.73272
-0.0805511 0.325182 3.7293
-0.223072 0.399328 3.65491
-0.00742557 0.152095 3.73613
-0.0771865 0.176175 3.68248
-0.109756 0.193524 3.6522
0.0414837 0.711873 3.78258
0.0392616 0.149415 3.74333
-0.0671796 0.554519 3.73382
-0.0472289 0.556412 3.73077
-0.0346649 0.556989 3.72631
-0.202238 0.580871 3.6677
-0.0523593 0.577083 3.73212
-0.074078 0.585372 3.73488
-0.0951544 0.587418 3.73357
-0.116986 0.583347 3.72741
-0.130872 0.575808 3.71917
-0.232409 0.587474 3.54492
-0.124728 0.557432 3.71758
0.0408948 0.39337 3.81731
-0.052591 0.389525 3.78416
-0.0197911 0.429922 3.82361
0.00196701 0.393562 3.81309
0.041454 0.585944 3.79422
-0.118812 0.227514 3.67474
-0.0860427 0.205049 3.70297
-0.0110259 0.168952 3.763
-0.182651 0.249365 3.57275
-0.0365034 0.56564 3.72882
0.00263609 0.517278 3.81276
0.0389179 0.166704 3.76951
-0.0447834 0.161719 3.71478
-0.233379 0.37269 3.5816
-0.0215431 0.311282 3.77031
-0.0260575 0.306881 3.7738
-0.029937 0.299253 3.77725
-0.0319001 0.286909 3.77358
-0.0385828 0.262583 3.75859
-0.0747837 0.349659 3.74125
-0.0817732 0.352675 3.74014
-0.0884505 0.356339 3.7405
-0.105026 0.364053 3.73868
-0.195893 0.395212 3.70399
0.00300549 0.538377 3.78884
-0.00910985 0.575809 3.74171
-0.0252002 0.571864 3.73266
-0.0688575 0.351535 3.73957
-0.193531 0.328935 3.6667
0.0108468 0.580026 3.77581
-0.0467289 0.236599 3.75007
0.0406044 0.5146 3.8594
0.019877 0.530666 3.82998
0.0412759 0.536192 3.83562
-0.0159793 0.482326 3.81397
0.0391142 0.190916 3.78072
0.0394147 0.220832 3.77973
-0.00573414 0.221455 3.77143
-0.102729 0.294527 3.71326
-0.0711073 0.423503 3.76502
-0.0764885 0.261484 3.72904
-0.137631 0.42341 3.75263
-0.100278 0.399953 3.75445
-0.161174 0.383562 3.72902
-0.0108109 0.192248 3.77285
-0.0316 0.46975 3.796
-0.116673 0.264665 3.69686
-0.0837651 0.235169 3.71683
-0.128362 0.330029 3.71362
-0.216642 0.354421 3.64635
-0.157538 0.311731 3.69384
-0.219979 0.323051 3.59306
-0.126051 0.375134 3.73788
-0.0137339 0.501134 3.79536
-0.0143031 0.437706 3.85532
-0.0307503 0.433504 3.82628
-0.00247597 0.455014 3.87277
-0.0270784 0.594047 3.748
-0.0661824 0.608173 3.7509
-0.102407 0.612363 3.74841
-0.133133 0.608382 3.73812
-0.155512 0.597222 3.72295
-0.169573 0.554341 3.68641
-0.237721 0.479811 3.57975
-0.152267 0.528676 3.70736
-0.125443 0.523809 3.72304
-0.0922525 0.523645 3.73411
-0.0604745 0.527566 3.73901
-0.0361005 0.534124 3.74008
-0.0197414 0.541262 3.74158
-0.23391 0.467556 3.49162
-0.0310423 0.428489 3.81359
0.00221434 0.498492 3.83431
0.00376863 0.436699 3.87473
0.015941 0.424067 3.86464
0.00315036 0.431851 3.86291
-0.0256458 0.421923 3.80448
0.0203254 0.422445 3.87163
0.0248896 0.415627 3.8421
-0.0201365 0.557008 3.72923
-0.00720024 0.553786 3.74441
0.000169946 0.551883 3.76323
-0.139148 0.569743 3.71145
-0.152657 0.576431 3.70967
0.0606933 0.510071 3.85038
0.214686 0.561198 3.71004
0.0630587 0.419487 3.84322
0.290342 0.63488 3.59105
0.143103 0.54125 3.73539
0.166338 0.540577 3.73392
0.189462 0.541548 3.7277
0.222975 0.552635 3.70657
0.124749 0.545546 3.73379
0.174622 0.598771 3.7397
0.14914 0.595962 3.74083
0.199424 0.595509 3.73234
0.21607 0.587099 3.72365
0.240471 0.536262 3.69561
0.130242 0.213254 3.74728
0.224076 0.565835 3.70183
0.305142 0.530948 3.58476
0.264199 0.545199 3.67039
0.167688 0.453074 3.76938
0.0762533 0.371793 3.81657
0.0729327 0.352133 3.80607
0.114619 0.368704 3.8003
0.140384 0.363165 3.77433
0.101356 0.352782 3.79221
0.124754 0.351825 3.76885
0.166477 0.314737 3.72725
0.0598908 0.434523 3.88804
0.0615346 0.45982 3.8941
0.245973 0.60621 3.71845
0.113606 0.506412 3.76756
0.117193 0.441999 3.82556
0.118361 0.454499 3.81672
0.243217 0.456752 3.73617
0.0609087 0.48798 3.87659
0.188005 0.631217 3.76167
0.222251 0.624083 3.74241
0.266695 0.682335 3.63802
0.0889881 0.611513 3.78494
0.128967 0.587089 3.73421
0.18783 0.346115 3.72338
0.283769 0.301016 3.52892
0.101279 0.42708 3.81685
0.0806917 0.419084 3.82049
0.172997 0.349026 3.72168
0.159905 0.347516 3.7277
0.233761 0.638166 3.72984
0.11981 0.43345 3.81252
0.144282 0.627983 3.77653
0.147627 0.648757 3.78175
0.174327 0.752126 3.73255
0.248771 0.662104 3.68953
0.15866 0.704242 3.75792
0.259538 0.614294 3.69695
0.274799 0.623942 3.64677
0.0751893 0.359655 3.81341
0.107557 0.358917 3.79643
0.132629 0.35769 3.77335
0.0961548 0.423178 3.81271
0.167121 0.348861 3.72512
0.151281 0.329941 3.73977
0.154566 0.345961 3.72816
0.0862446 0.432594 3.85064
0.119635 0.353955 3.7651
0.0967832 0.352963 3.78252
0.0699763 0.35103 3.79565
0.0781955 0.249916 3.77756
0.0761296 0.277427 3.79526
0.0758561 0.290839 3.79657
0.0754324 0.30001 3.78985
0.0731099 0.306541 3.78525
0.122863 0.320886 3.7564
0.126653 0.319495 3.7607
0.131679 0.315075 3.76359
0.136017 0.307403 3.75867
0.157627 0.37995 3.76863
0.309668 0.41497 3.49008
0.138117 0.328601 3.73774
0.1451 0.330643 3.74037
0.0732359 0.409189 3.81981
0.115047 0.419844 3.79557
0.0766369 0.413837 3.82135
0.140222 0.495181 3.75996
0.182517 0.482861 3.75512
0.124334 0.444878 3.80301
0.229499 0.722329 3.68804
0.211468 0.689698 3.72559
0.195282 0.650126 3.75643
0.144392 0.288077 3.74307
0.0959084 0.644207 3.79399
0.104541 0.710512 3.77646
0.113676 0.767907 3.75938
0.210616 0.545175 3.71704
0.265062 0.518774 3.68274
0.113854 0.550405 3.73004
0.239817 0.576807 3.70376
0.0962202 0.520715 3.77584
0.100808 0.448896 3.84998
0.290193 0.498755 3.65554
0.249991 0.508094 3.70506
0.220115 0.503329 3.7281
0.174705 0.505239 3.73977
0.139938 0.512152 3.74472
0.114631 0.521705 3.75168
0.0642651 0.55298 3.80367
0.294259 0.45414 3.66498
0.256241 0.576991 3.69258
0.051751 0.421012 3.87564
0.112715 0.485134 3.78048
0.312596 0.523707 3.50408
0.0972173 0.533515 3.75527
0.129635 0.442501 3.77755
0.230908 0.562906 3.69681
0.101215 0.464487 3.83912
0.301363 0.358468 3.50382
0.115215 0.558196 3.7224
0.0807717 0.478663 3.86223
0.232555 0.264004 3.65339
0.225406 0.228406 3.61444
0.31389 0.431561 3.5778
0.266799 0.29106 3.6267
0.291315 0.58009 3.6083
0.129899 0.187699 3.73564
0.0515359 0.413531 3.8429
0.135822 0.470523 3.77296
0.283283 0.537488 3.64578
0.189217 0.555406 3.72456
0.16794 0.553694 3.72999
0.156934 0.32708 3.73577
0.295012 0.404693 3.65994
0.08574 0.154529 3.73461
0.155253 0.182476 3.67949
0.186502 0.201378 3.64942
0.148224 0.554079 3.73137
0.130681 0.555839 3.7278
0.120204 0.55655 3.72286
0.272412 0.579141 3.66756
0.13368 0.576563 3.72932
0.152103 0.584821 3.73293
0.172403 0.587617 3.73192
0.194303 0.584299 3.72648
0.208535 0.577014 3.71939
0.305704 0.584249 3.54188
0.204209 0.557942 3.7168
0.130353 0.391103 3.78909
0.101033 0.429937 3.82691
0.077685 0.394088 3.81511
0.195322 0.234626 3.67553
0.162845 0.211364 3.70377
0.0877037 0.171459 3.76304
0.256973 0.257828 3.57084
0.121117 0.565478 3.72522
0.0796023 0.516732 3.81218
0.123182 0.166426 3.7118
0.307857 0.37901 3.58431
0.100375 0.312535 3.77247
0.104212 0.308389 3.77683
0.107031 0.300703 3.78023
0.109538 0.288643 3.77661
0.11594 0.26522 3.76156
0.146665 0.35147 3.74677
0.154774 0.354483 3.74574
0.161324 0.358169 3.74644
0.179897 0.366377 3.7445
0.266205 0.400337 3.71153
0.0798414 0.537747 3.78777
0.0954127 0.575235 3.74133
0.110691 0.571168 3.73011
0.139653 0.353146 3.7441
0.265105 0.335845 3.67269
0.0726159 0.57942 3.77575
0.123899 0.240475 3.75355
0.0621414 0.530334 3.82976
0.0961439 0.48198 3.8147
0.0834983 0.223765 3.77428
0.178689 0.297935 3.71709
0.150086 0.424408 3.76982
0.152863 0.265455 3.73294
0.210898 0.426256 3.76027
0.176845 0.401919 3.76046
0.232646 0.387894 3.73686
0.0879885 0.194798 3.77356
0.111408 0.469395 3.79748
0.192653 0.270214 3.69933
0.160938 0.240387 3.71978
0.202283 0.333146 3.71679
0.287852 0.361182 3.65224
0.229863 0.317514 3.69864
0.293644 0.330648 3.59525
0.199115 0.377865 3.74413
0.0954236 0.500528 3.79454
0.0931921 0.437485 3.85579
0.110364 0.433403 3.82958
0.082252 0.454635 3.87295
0.111828 0.592739 3.74713
0.147336 0.606033 3.751
0.180542 0.610101 3.74901
0.209125 0.606729 3.73863
0.229437 0.596242 3.72414
0.244383 0.554494 3.68752
0.312257 0.481218 3.57893
0.227791 0.52905 3.70814
0.20211 0.523725 3.72312
0.170384 0.523427 3.73318
0.140682 0.527202 3.73727
0.118425 0.533704 3.73932
0.103827 0.541039 3.74073
0.31206 0.468799 3.48823
0.110638 0.428597 3.8175
0.079396 0.498022 3.83336
0.0760577 0.43676 3.87573
0.0627519 0.424416 3.86605
0.0763181 0.431938 3.86356
0.105787 0.422317 3.80955
0.0588335 0.422562 3.87275
0.0583451 0.41568 3.84319
0.106921 0.556823 3.72787
0.0921811 0.553365 3.74422
0.0837432 0.551372 3.76289
0.217182 0.571066 3.71182
0.22851 0.576691 3.71066
