ply
format ascii 1.0
comment Created by Open3D
element vertex 468
property double x
property double y
property double z
end_header
-0.0344884 0.353931 4.04013
-0.0374114 0.423992 4.10549
-0.0373248 0.396588 4.04649
-0.0552691 0.503036 4.06734
-0.0367156 0.4504 4.11176
-0.0351401 0.482746 4.09981
-0.0355892 0.556914 4.03073
-0.200508 0.55673 3.93499
-0.0360073 0.622753 4.00794
-0.0356409 0.65828 4.01019
-0.0328961 0.778193 3.98189
-0.0338985 0.342558 4.03706
-0.0328445 0.334997 4.03085
-0.0323623 0.333329 4.02109
-0.033476 0.296519 4.01316
-0.0335321 0.287452 4.018
-0.0324927 0.276518 4.02425
-0.0323801 0.263 4.02276
-0.0337252 0.241624 4.00652
-0.0364215 0.409789 4.09406
-0.0591025 0.410099 4.06296
-0.273829 0.637846 3.81725
-0.131063 0.535495 3.95839
-0.153815 0.534455 3.9569
-0.176319 0.536065 3.95066
-0.207511 0.548716 3.93046
-0.113514 0.540289 3.95663
-0.162858 0.604005 3.96248
-0.137571 0.600293 3.96369
-0.18754 0.600161 3.95522
-0.203188 0.589763 3.94719
-0.224518 0.532387 3.91952
-0.120094 0.213697 3.97479
-0.209312 0.562154 3.92648
-0.282812 0.532578 3.81206
-0.245693 0.546567 3.89433
-0.15669 0.444041 3.99329
-0.0699702 0.358173 4.03854
-0.0660223 0.33625 4.02752
-0.106302 0.354286 4.02313
-0.130575 0.348066 3.99825
-0.0933694 0.336793 4.01405
-0.115541 0.335624 3.99195
-0.155498 0.303602 3.95428
-0.0556531 0.424802 4.10439
-0.0572532 0.450207 4.10983
-0.233778 0.617781 3.93764
-0.105799 0.500575 3.98899
-0.111496 0.431947 4.04712
-0.112244 0.444985 4.03864
-0.227071 0.44803 3.95906
-0.0562153 0.479467 4.09252
-0.184368 0.649093 3.97871
-0.2143 0.639381 3.95905
-0.252684 0.686644 3.86186
-0.0868946 0.626907 4.00196
-0.117776 0.589154 3.95822
-0.175633 0.332946 3.9499
-0.25914 0.307769 3.75869
-0.0963132 0.417129 4.03929
-0.0762161 0.408306 4.04256
-0.16229 0.333331 3.94868
-0.148595 0.331849 3.95394
-0.225835 0.65511 3.94758
-0.113416 0.422309 4.0352
-0.143481 0.646866 3.99443
-0.146413 0.668422 3.99913
-0.164191 0.757056 3.95213
-0.238475 0.671182 3.91052
-0.153837 0.713835 3.97658
-0.246504 0.626697 3.91738
-0.260024 0.630579 3.87059
-0.068585 0.345245 4.03497
-0.0996832 0.343687 4.01879
-0.123139 0.342024 3.99667
-0.0914156 0.412601 4.0352
-0.156079 0.333059 3.95178
-0.140389 0.316634 3.96623
-0.143087 0.331041 3.95394
-0.0815477 0.423969 4.06945
-0.109817 0.337305 3.98822
-0.0885516 0.336472 4.00486
-0.0629679 0.334458 4.0171
-0.0701292 0.243497 4.00458
-0.0682799 0.26656 4.0194
-0.0676786 0.280258 4.01973
-0.0671707 0.291036 4.0129
-0.0645732 0.298553 4.00821
-0.112432 0.310384 3.98141
-0.116192 0.308463 3.98589
-0.121064 0.303479 3.98999
-0.125957 0.295678 3.98529
-0.146823 0.367104 3.99308
-0.2852 0.419847 3.72135
-0.0389124 0.402432 4.06378
-0.127498 0.316699 3.9633
-0.134206 0.317771 3.96633
-0.0688156 0.397656 4.04178
-0.108845 0.407858 4.02003
-0.0721985 0.402646 4.04302
-0.131398 0.488047 3.98168
-0.17104 0.474487 3.97665
-0.117648 0.434624 4.02621
-0.218009 0.72746 3.90954
-0.205013 0.700385 3.94587
-0.191906 0.669315 3.97462
-0.133681 0.279289 3.96961
-0.0935432 0.661814 4.00975
-0.0985575 0.717277 3.99413
-0.103789 0.772525 3.97764
-0.196094 0.540409 3.94042
-0.246736 0.514929 3.90746
-0.103261 0.545846 3.95349
-0.224879 0.579886 3.92622
-0.0889023 0.515547 3.9962
-0.0957945 0.440409 4.06936
-0.269575 0.496047 3.88022
-0.233798 0.502202 3.92945
-0.206273 0.496088 3.95204
-0.16369 0.498396 3.96214
-0.13069 0.506126 3.96721
-0.106125 0.516577 3.97342
-0.0577006 0.549296 4.02121
-0.273723 0.449522 3.88999
-0.240114 0.583436 3.91442
-0.047572 0.410934 4.0926
-0.10559 0.478374 4.00269
-0.291118 0.527629 3.73485
-0.0894148 0.529064 3.97673
-0.12258 0.432466 4.00305
-0.215821 0.561291 3.92103
-0.0957732 0.456314 4.05899
-0.27636 0.36452 3.73468
-0.104048 0.553868 3.94665
-0.0754716 0.470536 4.07957
-0.211767 0.266428 3.88167
-0.20455 0.235301 3.84208
-0.290194 0.431999 3.80642
-0.2431 0.29331 3.85475
-0.272883 0.583528 3.83465
-0.120181 0.191763 3.96294
-0.0480979 0.403435 4.06278
-0.127193 0.462297 3.99644
-0.262674 0.539393 3.87042
-0.176548 0.549432 3.94913
-0.155642 0.547084 3.95414
-0.146454 0.31365 3.9623
-0.273054 0.400859 3.88605
-0.0813208 0.160755 3.9621
-0.143311 0.189766 3.90704
-0.170003 0.208626 3.8768
-0.0345041 0.718544 3.99809
-0.0388504 0.154324 3.97116
-0.135996 0.547722 3.95482
-0.119001 0.550248 3.95113
-0.109165 0.551767 3.94653
-0.2547 0.586223 3.8904
-0.120929 0.571322 3.95356
-0.13915 0.579122 3.95694
-0.159767 0.581613 3.95593
-0.1807 0.578472 3.95095
-0.194294 0.571974 3.9445
-0.287371 0.587051 3.77096
-0.190874 0.552825 3.94165
-0.0365148 0.381932 4.03901
-0.122199 0.378219 4.01288
-0.0957977 0.420456 4.04872
-0.0718683 0.381734 4.03734
-0.0352042 0.589393 4.01107
-0.178621 0.237862 3.90346
-0.149393 0.215318 3.93131
-0.0820249 0.174654 3.98951
-0.234112 0.26443 3.79881
-0.109462 0.560668 3.94884
-0.0732049 0.511062 4.03132
-0.036873 0.16949 3.99629
-0.114985 0.17308 3.93914
-0.283052 0.380144 3.81315
-0.0909481 0.303572 3.99629
-0.0948445 0.298604 4.00089
-0.0978755 0.290007 4.00501
-0.100611 0.277761 4.00233
-0.106461 0.257931 3.9878
-0.135836 0.335087 3.97109
-0.14444 0.338438 3.97035
-0.150766 0.34261 3.97127
-0.167677 0.352865 3.96973
-0.246289 0.39352 3.93582
-0.0729971 0.533444 4.00698
-0.0872876 0.576171 3.96501
-0.100304 0.569771 3.9537
-0.128611 0.336956 3.9684
-0.243251 0.332839 3.89952
-0.0657914 0.582461 3.99581
-0.113138 0.237111 3.98118
-0.0353065 0.507447 4.07576
-0.0561751 0.524582 4.04726
-0.0357061 0.530375 4.0525
-0.0901655 0.474976 4.03563
-0.0358873 0.191032 4.00695
-0.0347717 0.218262 4.00664
-0.075668 0.220608 4.00163
-0.16613 0.291216 3.94391
-0.141268 0.413902 3.9951
-0.141012 0.261076 3.96029
-0.195621 0.41707 3.98469
-0.164773 0.391678 3.98557
-0.215258 0.379484 3.96272
-0.0811685 0.194587 4.00004
-0.104938 0.461736 4.01987
-0.178242 0.268434 3.92659
-0.148105 0.240383 3.94745
-0.188339 0.324085 3.94275
-0.264664 0.358962 3.87884
-0.211833 0.312934 3.92504
-0.268728 0.332753 3.82336
-0.184618 0.366662 3.9691
-0.0889156 0.494453 4.01534
-0.0881148 0.428952 4.07475
-0.104404 0.4236 4.05113
-0.0778569 0.445979 4.08962
-0.105363 0.600127 3.96956
-0.140939 0.616644 3.9719
-0.172705 0.620351 3.96897
-0.199496 0.615288 3.95833
-0.216993 0.602348 3.9444
-0.227925 0.554378 3.91109
-0.289135 0.482024 3.80667
-0.212898 0.523936 3.93239
-0.189028 0.518078 3.94639
-0.158666 0.517448 3.95566
-0.129803 0.521734 3.96048
-0.108518 0.528942 3.96169
-0.0944345 0.536694 3.96362
-0.288814 0.473311 3.71974
-0.104913 0.417885 4.03995
-0.0738162 0.491059 4.05215
-0.0712999 0.427754 4.09287
-0.0579979 0.414914 4.08386
-0.0714037 0.423314 4.08163
-0.100105 0.410816 4.03283
-0.0540863 0.412523 4.09003
-0.0545489 0.405775 4.06304
-0.0963268 0.553268 3.95212
-0.0830985 0.550363 3.96732
-0.0756782 0.548592 3.98386
-0.202568 0.566782 3.93674
-0.213835 0.577792 3.93458
-0.0159794 0.50334 4.06881
0.136303 0.557662 3.9336
-0.015162 0.40901 4.06073
0.226827 0.649795 3.81856
0.0676575 0.53712 3.96228
0.092063 0.536154 3.95942
0.115266 0.537816 3.95196
0.147714 0.549936 3.92923
0.0458736 0.541574 3.95863
0.102641 0.607116 3.96345
0.0751866 0.603546 3.96356
0.127235 0.60287 3.95442
0.143859 0.592153 3.94435
0.165546 0.535107 3.91625
0.0525219 0.206984 3.9718
0.145354 0.562982 3.92444
0.232034 0.538049 3.81186
0.19075 0.550012 3.89097
0.0924726 0.445399 3.98595
0.00424251 0.3584 4.03517
0.00414653 0.336674 4.02424
0.0447395 0.354316 4.01595
0.0707355 0.349106 3.98984
0.0340537 0.337252 4.00974
0.0560073 0.337041 3.98562
0.0942732 0.303186 3.94562
-0.017496 0.424231 4.10202
-0.014119 0.450062 4.10755
0.180303 0.621702 3.93363
0.0377614 0.501701 3.9887
0.0440314 0.432172 4.0412
0.0458484 0.445504 4.03302
0.168858 0.449896 3.95057
-0.0143 0.479716 4.09308
0.121902 0.653472 3.97066
0.155915 0.643445 3.95272
0.204231 0.699985 3.8608
0.0167116 0.628971 3.99821
0.0513054 0.592115 3.95864
0.115908 0.333784 3.94142
0.200989 0.300337 3.76241
0.0253697 0.416789 4.03385
0.00315006 0.407892 4.0351
0.100781 0.33618 3.93895
0.0902702 0.33491 3.94421
0.169664 0.660462 3.94099
0.0468887 0.422837 4.0274
0.0766862 0.650546 3.98644
0.0812331 0.672908 3.99041
0.106642 0.767349 3.94854
0.186554 0.680479 3.90566
0.0899151 0.721252 3.97086
0.194784 0.632127 3.91363
0.21035 0.638988 3.86811
0.00500052 0.345247 4.0318
0.0386113 0.343884 4.01346
0.0632359 0.343125 3.98916
0.018966 0.412163 4.02767
0.0957941 0.335925 3.94111
0.080463 0.318409 3.9555
0.0865454 0.333751 3.94517
0.0112236 0.42294 4.06865
0.052722 0.339494 3.98215
0.0295446 0.33749 4.00113
0.00226882 0.335266 4.01551
0.0054902 0.242273 4.0005
0.00640155 0.265833 4.01698
0.00524462 0.27979 4.01828
0.00256545 0.290445 4.01197
0.000254193 0.298265 4.00768
0.0529112 0.311254 3.97481
0.057225 0.309201 3.97741
0.063174 0.303733 3.97966
0.0661946 0.295683 3.97555
0.0822186 0.367957 3.98286
0.224731 0.4198 3.72546
0.0675007 0.318501 3.95712
0.074269 0.319691 3.9573
-0.00445512 0.397497 4.03783
0.0383343 0.408359 4.00901
-0.000952573 0.402425 4.03713
0.0647119 0.489803 3.98038
0.106716 0.476624 3.97187
0.0511444 0.43544 4.01928
0.166095 0.740438 3.9054
0.148476 0.709358 3.93877
0.130773 0.674742 3.96674
0.0708637 0.277516 3.96313
0.0245842 0.664794 4.00417
0.0315247 0.721357 3.99003
0.0425644 0.778275 3.97327
0.136036 0.541919 3.9401
0.191069 0.518219 3.90269
0.0322272 0.546949 3.95687
0.167754 0.582428 3.92368
0.0197021 0.516525 3.99736
0.0267305 0.439884 4.06524
0.216787 0.499062 3.87714
0.175788 0.505166 3.92556
0.145505 0.499172 3.94836
0.0983556 0.500699 3.96116
0.0631929 0.507853 3.96762
0.0377871 0.517796 3.97415
-0.0135207 0.549917 4.02207
0.218348 0.450881 3.88522
0.187546 0.587286 3.9122
-0.0243823 0.410626 4.09243
0.0366962 0.47944 4.00156
0.235418 0.534563 3.73932
0.0182472 0.530187 3.97808
0.0525626 0.433457 3.99437
0.154148 0.562732 3.91919
0.0288476 0.45637 4.05491
0.21682 0.360315 3.73736
0.0327141 0.554728 3.95141
0.00748188 0.470571 4.0784
0.153568 0.25599 3.87938
0.145178 0.222565 3.84534
0.231996 0.431854 3.80428
0.188602 0.284373 3.85132
0.221322 0.591129 3.83408
0.0504998 0.183237 3.96321
-0.0297534 0.40323 4.06173
0.0607585 0.463743 3.99184
0.210953 0.543438 3.86817
0.111392 0.550616 3.94966
0.0906381 0.548787 3.95653
0.0857101 0.315103 3.95181
0.217617 0.399495 3.87817
0.00516881 0.155394 3.96467
0.0722722 0.178281 3.91232
0.10444 0.195702 3.8825
0.0704254 0.549458 3.95793
0.0508753 0.551906 3.95564
0.0380975 0.552904 3.95169
0.204763 0.591559 3.88849
0.0565073 0.572828 3.95767
0.0787235 0.580654 3.95889
0.0991424 0.582549 3.95728
0.119452 0.579026 3.9506
0.132447 0.5726 3.94269
0.234765 0.597123 3.77339
0.125846 0.553816 3.94121
0.0550967 0.378766 4.00424
0.0249879 0.419675 4.04176
0.00203748 0.381757 4.03375
0.114782 0.226662 3.90312
0.0827283 0.204729 3.9311
0.0104794 0.16956 3.99008
0.176191 0.254263 3.80306
0.0400647 0.561595 3.95453
0.00258133 0.51146 4.0313
0.0408828 0.164326 3.94407
0.226833 0.376695 3.8094
0.0286581 0.303545 3.99331
0.03317 0.298363 3.9966
0.0371855 0.289556 4.00037
0.038605 0.277205 3.99754
0.0426182 0.256218 3.98376
0.0785213 0.337634 3.96255
0.0850581 0.340734 3.9617
0.0915614 0.344861 3.96174
0.105706 0.354193 3.96027
0.191639 0.392573 3.92505
0.00216118 0.534288 4.00815
0.0146097 0.577541 3.96454
0.0294581 0.57156 3.95703
0.0727356 0.339711 3.96124
0.188687 0.327843 3.89094
-0.00431325 0.583557 3.99542
0.0485209 0.232779 3.97655
-0.014489 0.524887 4.04701
0.0212372 0.475282 4.03269
0.00874754 0.217933 3.99794
0.103782 0.287239 3.93833
0.0744094 0.414903 3.98628
0.0780825 0.256194 3.95481
0.136408 0.417598 3.97301
0.101133 0.392144 3.97571
0.159014 0.378452 3.95082
0.0120391 0.190863 3.99919
0.0373661 0.462527 4.01562
0.114883 0.260695 3.9231
0.0828735 0.232366 3.94354
0.12869 0.322018 3.93768
0.210689 0.355025 3.87046
0.155213 0.307546 3.91818
0.213745 0.326658 3.82089
0.125877 0.367047 3.95966
0.0188936 0.495219 4.01533
0.0194039 0.427818 4.07195
0.0362048 0.423091 4.04388
0.00685682 0.445413 4.0882
0.0349578 0.602014 3.9691
0.0741252 0.619207 3.96855
0.108744 0.623554 3.96442
0.137677 0.618582 3.95428
0.158212 0.605326 3.94012
0.16985 0.556767 3.90852
0.234367 0.485153 3.80733
0.152553 0.526361 3.92979
0.127072 0.520427 3.9448
0.094992 0.519504 3.95601
0.0645566 0.523402 3.96228
0.0402739 0.530051 3.9623
0.0240235 0.537753 3.96468
0.229985 0.477092 3.72564
0.0365745 0.417771 4.03195
0.00280278 0.491464 4.05242
0.000135557 0.426524 4.09043
-0.0121319 0.413693 4.08124
0.00107003 0.421644 4.07923
0.0304243 0.410739 4.02332
-0.016775 0.411849 4.08791
-0.0213636 0.405033 4.06096
0.0233979 0.554274 3.95432
0.0115853 0.551484 3.96741
0.00453024 0.54962 3.98363
0.140016 0.567517 3.9346
0.154676 0.579793 3.93101
