ply
format ascii 1.0
comment Created by Open3D
element vertex 468
property double x
property double y
property double z
end_header
0.0861132 0.365314 3.70102
0.0945431 0.439784 3.76991
0.0920432 0.409084 3.70862
0.0729047 0.527573 3.72911
0.0948661 0.468736 3.77463
0.0934314 0.504863 3.76078
0.0920318 0.585805 3.69134
-0.0884662 0.581454 3.5901
0.0918888 0.648673 3.66998
0.0918961 0.685372 3.67208
0.0910128 0.817889 3.64049
0.0846423 0.354372 3.69902
0.0827224 0.346463 3.69309
0.0818415 0.343837 3.68333
0.0896725 0.276011 3.67212
0.0893932 0.265178 3.67688
0.0879414 0.253354 3.68187
0.0879775 0.238204 3.67677
0.08841 0.216165 3.6564
0.0926157 0.424503 3.75905
0.0685789 0.421787 3.72386
-0.194423 0.673451 3.47113
-0.0143208 0.563801 3.62193
-0.0400155 0.561461 3.61908
-0.0651437 0.561628 3.61097
-0.100219 0.573625 3.58605
0.00733108 0.569047 3.61889
-0.0558182 0.635694 3.61652
-0.0262421 0.633142 3.61818
-0.0816627 0.629581 3.60713
-0.0987835 0.617787 3.59739
-0.117975 0.555178 3.57424
-0.00191564 0.187005 3.62337
-0.0994138 0.587478 3.58039
-0.196627 0.552056 3.46713
-0.147085 0.568387 3.54781
-0.0389652 0.461064 3.64422
0.0478728 0.368057 3.69495
0.0477214 0.346123 3.68632
0.00758322 0.360734 3.67697
-0.0159061 0.351496 3.6526
0.0187967 0.344267 3.67277
-0.000666357 0.339958 3.65026
-0.0390512 0.293269 3.60712
0.0735141 0.439636 3.76598
0.0707968 0.46865 3.76976
-0.136085 0.642739 3.58967
0.015096 0.52541 3.64856
0.00913537 0.448188 3.70099
0.00742781 0.46343 3.69158
-0.116457 0.463447 3.61135
0.0721014 0.501529 3.75365
-0.0732481 0.676759 3.62844
-0.110041 0.66543 3.61017
-0.167626 0.728361 3.51341
0.0386645 0.654 3.65919
-9.30816e-05 0.621728 3.61491
-0.0593906 0.326617 3.60338
-0.163468 0.291564 3.42555
0.0285438 0.430141 3.69456
0.0501376 0.421026 3.6966
-0.0417007 0.326592 3.60455
-0.0299858 0.325967 3.61064
-0.124911 0.681995 3.59703
0.00637261 0.438097 3.68676
-0.024141 0.674681 3.64501
-0.0291016 0.69824 3.64784
-0.0580379 0.804143 3.60254
-0.145526 0.705982 3.55953
-0.0397328 0.752743 3.62721
-0.152022 0.652493 3.56804
-0.172868 0.661067 3.52202
0.0468028 0.355185 3.69316
0.0138076 0.350396 3.67556
-0.00830937 0.345546 3.65286
0.0343848 0.425393 3.68916
-0.0361297 0.326216 3.60747
-0.0212936 0.304533 3.61964
-0.0264908 0.325816 3.61139
0.0423973 0.437047 3.73162
0.00249449 0.342267 3.64626
0.0231834 0.344218 3.664
0.0491427 0.344154 3.67756
0.0491107 0.218322 3.65023
0.0486726 0.241694 3.67072
0.0507484 0.256242 3.67477
0.0543498 0.268638 3.67054
0.0571229 0.277616 3.66653
0.00714113 0.294703 3.63772
0.00250534 0.291836 3.63891
-0.00454195 0.286234 3.6395
-0.00934898 0.278651 3.6351
-0.028258 0.371453 3.64555
-0.189861 0.420265 3.38502
0.0948614 0.414755 3.72851
-0.00789948 0.305368 3.62328
-0.0144859 0.305721 3.62228
0.0583178 0.410114 3.6985
0.0149472 0.421235 3.66785
0.0542482 0.415199 3.69861
-0.0110143 0.511645 3.64014
-0.053557 0.495301 3.63242
0.0022295 0.451801 3.67787
-0.12405 0.773405 3.55775
-0.102588 0.737852 3.59296
-0.0824272 0.698405 3.62308
-0.0169067 0.262902 3.62213
0.0305376 0.69138 3.66372
0.0222974 0.755106 3.64821
0.0111704 0.817386 3.62859
-0.087575 0.565103 3.59846
-0.145048 0.53584 3.56066
0.0208589 0.57464 3.61724
-0.122976 0.60461 3.5795
0.0333167 0.541452 3.65707
0.0270241 0.4564 3.72601
-0.173361 0.513374 3.53515
-0.126947 0.523148 3.58416
-0.0942283 0.517897 3.60769
-0.0454995 0.521726 3.62131
-0.00983844 0.53121 3.62764
0.0150673 0.542827 3.63422
0.0687642 0.577902 3.68282
-0.172218 0.461271 3.54564
-0.144 0.607939 3.56813
0.079023 0.424966 3.75677
0.0163987 0.500466 3.66038
-0.203392 0.545297 3.39455
0.0348119 0.555656 3.63884
0.00143518 0.448395 3.65258
-0.108389 0.586151 3.57526
0.0253528 0.475544 3.71434
-0.182363 0.356487 3.39827
0.0188805 0.582052 3.6116
0.0482458 0.491469 3.73857
-0.108847 0.243166 3.53927
-0.106282 0.205196 3.50718
-0.193532 0.436084 3.46448
-0.142782 0.276522 3.51314
-0.185395 0.609639 3.48853
-0.00478049 0.156656 3.61484
0.0848838 0.415375 3.72567
-0.00747145 0.482642 3.65022
-0.170106 0.560145 3.52513
-0.0607275 0.574786 3.60805
-0.0382422 0.574252 3.61594
-0.0276102 0.302507 3.61617
-0.169736 0.404603 3.53957
0.0388009 0.118661 3.61667
-0.0342616 0.149916 3.56895
-0.0671998 0.172605 3.54157
0.0914857 0.7533 3.65858
0.0876728 0.1171 3.62382
-0.0175679 0.576385 3.61769
0.00224428 0.580013 3.6157
0.0144221 0.580909 3.6122
-0.1633 0.611237 3.5434
-0.00711211 0.602839 3.61435
-0.0310793 0.611667 3.61411
-0.0531647 0.612918 3.61132
-0.0746878 0.607654 3.60452
-0.0873508 0.599466 3.59688
-0.203727 0.6146 3.42674
-0.0766954 0.577628 3.59875
0.0904063 0.393971 3.7
-0.00290915 0.386151 3.66466
0.0287824 0.433314 3.70393
0.0510508 0.392776 3.6933
0.0913414 0.616967 3.67219
-0.0716547 0.208823 3.55977
-0.0387836 0.182235 3.58491
0.0371176 0.140805 3.63966
-0.136816 0.241477 3.4674
0.0105057 0.589932 3.61375
0.0520314 0.536061 3.6915
0.0871379 0.138174 3.64623
-0.000540425 0.130982 3.59772
-0.186782 0.376541 3.47056
0.0298054 0.284442 3.65403
0.0251455 0.278158 3.65601
0.0198275 0.268442 3.65806
0.0166759 0.255359 3.65427
0.010637 0.236438 3.6391
-0.0202519 0.334952 3.62901
-0.0272099 0.337789 3.62754
-0.0342295 0.34213 3.62703
-0.0495775 0.352467 3.62412
-0.139044 0.399515 3.58623
0.052106 0.560622 3.66852
0.0393761 0.604384 3.62488
0.0223108 0.600155 3.61679
-0.0147271 0.337502 3.6269
-0.138329 0.325633 3.55193
0.0594523 0.610652 3.65567
0.00433088 0.215039 3.62867
0.093086 0.532379 3.73608
0.0702784 0.551612 3.70783
0.0927624 0.557648 3.71337
0.0329179 0.496066 3.69248
0.0874294 0.165472 3.65469
0.088034 0.194157 3.65363
0.0457214 0.195998 3.6451
-0.0528411 0.277541 3.59678
-0.0206929 0.42747 3.64504
-0.0269428 0.242981 3.61016
-0.0815422 0.428114 3.63139
-0.04659 0.400005 3.63625
-0.103838 0.383103 3.6101
0.0397887 0.168262 3.64735
0.0162856 0.481934 3.67456
-0.0678182 0.247884 3.58057
-0.034229 0.215239 3.59713
-0.075875 0.316415 3.59732
-0.16246 0.355369 3.53194
-0.105364 0.301289 3.57782
-0.170493 0.322263 3.48309
-0.0703482 0.369048 3.62097
0.0348701 0.517923 3.67482
0.0344052 0.442822 3.73447
0.0170177 0.437747 3.7046
0.0485322 0.462725 3.75016
0.0188224 0.628902 3.62836
-0.0231145 0.646141 3.62689
-0.0602645 0.649434 3.62098
-0.0912533 0.643277 3.60981
-0.113082 0.628547 3.59623
-0.124332 0.577637 3.56536
-0.197336 0.494094 3.46514
-0.103431 0.546809 3.58838
-0.0764213 0.541577 3.60457
-0.0424844 0.542565 3.61614
-0.0109263 0.54844 3.62163
0.0131134 0.556074 3.62275
0.0294034 0.563715 3.62491
-0.196129 0.482215 3.38353
0.0168833 0.432176 3.69256
0.0530696 0.513945 3.71259
0.054564 0.441403 3.75386
0.0652727 0.427417 3.74459
0.0527226 0.435601 3.74286
0.0226767 0.424659 3.68355
0.070789 0.425786 3.75185
0.0753626 0.417283 3.72466
0.0292762 0.581504 3.61475
0.0417831 0.578013 3.62803
0.0493548 0.576146 3.64467
-0.0944224 0.592923 3.58969
-0.108979 0.603665 3.58524
0.112425 0.527187 3.72816
0.251077 0.580731 3.59731
0.116744 0.423588 3.72792
0.330832 0.662423 3.48429
0.178186 0.5602 3.61947
0.201246 0.55837 3.61873
0.224743 0.559656 3.6136
0.256667 0.572818 3.59237
0.161374 0.566148 3.61804
0.217551 0.63167 3.62193
0.190604 0.629072 3.62365
0.241899 0.626608 3.61553
0.256819 0.615684 3.60838
0.271816 0.554264 3.58331
0.167729 0.197857 3.62749
0.260317 0.586849 3.58877
0.331939 0.54889 3.47893
0.294304 0.567367 3.55886
0.202291 0.462418 3.6541
0.120196 0.370079 3.69962
0.1122 0.347715 3.6898
0.152181 0.365268 3.68479
0.170912 0.355817 3.66074
0.136204 0.346809 3.67714
0.154555 0.342093 3.65623
0.195498 0.299089 3.61583
0.113381 0.441195 3.76924
0.11498 0.469517 3.77267
0.286797 0.64089 3.60174
0.156112 0.524361 3.65069
0.164719 0.450668 3.7095
0.164174 0.464999 3.69961
0.266064 0.465727 3.62256
0.113988 0.501359 3.75377
0.23852 0.673116 3.64303
0.268088 0.662723 3.62457
0.310876 0.716265 3.52797
0.140673 0.651685 3.6642
0.170019 0.617867 3.61784
0.213177 0.331625 3.61159
0.299685 0.304772 3.42653
0.150818 0.433151 3.70261
0.132149 0.423294 3.70655
0.197572 0.329069 3.61251
0.184086 0.327533 3.61836
0.280419 0.678307 3.61238
0.165631 0.440381 3.69718
0.197104 0.671251 3.65716
0.201374 0.694627 3.66145
0.224014 0.794836 3.61426
0.294613 0.698521 3.57532
0.211233 0.746533 3.63962
0.299986 0.649322 3.58157
0.315085 0.654498 3.53674
0.116728 0.357127 3.69714
0.143838 0.354037 3.68156
0.162927 0.34911 3.66026
0.145889 0.428332 3.69926
0.19124 0.328565 3.61621
0.180168 0.307916 3.62944
0.179037 0.327299 3.61824
0.137812 0.439703 3.73406
0.148987 0.343357 3.65164
0.131265 0.345556 3.66754
0.108794 0.344789 3.67918
0.123076 0.222201 3.65609
0.12228 0.244714 3.67506
0.121208 0.258776 3.67757
0.120394 0.270582 3.67235
0.117584 0.279299 3.66786
0.155691 0.297571 3.64333
0.15986 0.295309 3.64687
0.165405 0.290792 3.64962
0.170814 0.283855 3.64548
0.190535 0.375436 3.6566
0.329847 0.422804 3.39027
0.167126 0.306722 3.62779
0.174025 0.308339 3.62996
0.124614 0.411184 3.70408
0.161048 0.423512 3.682
0.128247 0.416905 3.70675
0.178881 0.510453 3.64339
0.214887 0.495108 3.63938
0.168646 0.453643 3.68732
0.277517 0.761996 3.57376
0.262119 0.730645 3.60946
0.247114 0.694292 3.6385
0.177986 0.269794 3.6296
0.148591 0.688044 3.67171
0.156211 0.751726 3.6558
0.163819 0.812537 3.63784
0.244847 0.563738 3.60329
0.291977 0.535132 3.57153
0.152384 0.571823 3.61498
0.276528 0.603461 3.58943
0.141452 0.540393 3.65751
0.150633 0.458767 3.73243
0.31386 0.513597 3.54541
0.277791 0.52216 3.59274
0.250253 0.516689 3.61453
0.208995 0.520028 3.62455
0.178056 0.529374 3.62864
0.155754 0.541151 3.6351
0.113295 0.577234 3.68289
0.314307 0.463942 3.55538
0.291742 0.606265 3.57866
0.104385 0.425714 3.75795
0.156435 0.500076 3.66382
0.341779 0.538809 3.40297
0.140976 0.554021 3.63875
0.172669 0.450137 3.66392
0.266535 0.585468 3.58342
0.14913 0.476948 3.72033
0.320375 0.365252 3.40373
0.154551 0.579386 3.60854
0.1312 0.492144 3.74108
0.253423 0.260357 3.54346
0.248139 0.22425 3.50756
0.333487 0.440917 3.47423
0.280499 0.291727 3.51812
0.326359 0.603821 3.5011
0.170688 0.169509 3.61692
0.105092 0.415733 3.72781
0.175437 0.482847 3.6571
0.310627 0.558727 3.53574
0.225988 0.572423 3.61137
0.203779 0.570622 3.61562
0.185521 0.306441 3.62603
0.310962 0.411999 3.55157
0.134089 0.126386 3.61678
0.195419 0.16674 3.56809
0.218947 0.19201 3.54047
0.183484 0.572434 3.61633
0.166984 0.576096 3.61244
0.1583 0.577516 3.60828
0.306691 0.608003 3.55471
0.171613 0.600203 3.61365
0.19004 0.609377 3.61662
0.211741 0.611672 3.61604
0.233467 0.607101 3.61182
0.246479 0.598978 3.60559
0.342569 0.605414 3.43892
0.240994 0.576131 3.60393
0.171263 0.389672 3.67579
0.150595 0.436904 3.71314
0.125494 0.394475 3.69835
0.225245 0.226764 3.5635
0.197991 0.198937 3.5878
0.132949 0.147972 3.64068
0.273694 0.257643 3.46619
0.160243 0.587503 3.6105
0.127823 0.535736 3.69264
0.168504 0.143918 3.59671
0.324141 0.386358 3.48064
0.139296 0.286952 3.65727
0.143502 0.281264 3.6608
0.147313 0.272489 3.66416
0.151026 0.259981 3.66101
0.155412 0.24225 3.6449
0.171651 0.336814 3.63581
0.18008 0.340251 3.63503
0.186602 0.345024 3.63515
0.206074 0.356464 3.63339
0.28154 0.406119 3.59943
0.127287 0.559639 3.6685
0.139412 0.602559 3.62654
0.151908 0.597204 3.61508
0.165143 0.338354 3.63246
0.279572 0.337296 3.5628
0.120525 0.609451 3.65696
0.160151 0.223626 3.63444
0.112248 0.551377 3.70875
0.142773 0.496764 3.69689
0.126052 0.200988 3.64946
0.20889 0.287344 3.60424
0.188806 0.429572 3.65662
0.185979 0.253189 3.61756
0.235653 0.43222 3.64536
0.207738 0.403359 3.64794
0.252237 0.389774 3.62343
0.130921 0.1741 3.64914
0.155918 0.482558 3.68071
0.222936 0.262135 3.58678
0.194665 0.229029 3.60295
0.228294 0.324287 3.60385
0.301641 0.366277 3.54392
0.251442 0.313583 3.58705
0.307187 0.335304 3.48938
0.222966 0.373554 3.63166
0.141674 0.517541 3.67656
0.143801 0.445857 3.7391
0.158609 0.441195 3.71429
0.134501 0.464478 3.75335
0.157523 0.62655 3.63085
0.193853 0.643267 3.63423
0.226604 0.646266 3.63157
0.253427 0.64023 3.62148
0.270092 0.626622 3.6081
0.277393 0.576907 3.57495
0.33493 0.494139 3.47351
0.259695 0.545818 3.59512
0.235462 0.540207 3.60958
0.205143 0.540212 3.61792
0.177142 0.54577 3.62142
0.157401 0.554153 3.62347
0.144833 0.561787 3.62505
0.335354 0.479196 3.38801
0.158394 0.435167 3.70302
0.129171 0.514044 3.7133
0.128747 0.444003 3.75794
0.11544 0.429994 3.74904
0.128617 0.4388 3.74687
0.153463 0.427174 3.69565
0.111366 0.427719 3.75527
0.112073 0.418729 3.72823
0.146821 0.579138 3.61364
0.134795 0.576127 3.62897
0.128686 0.574681 3.64574
0.25411 0.592632 3.59863
0.265866 0.602724 3.59643
