ply
format ascii 1.0
comment Created by Open3D
element vertex 468
property double x
property double y
property double z
end_header
-0.0184796 0.329575 3.94465
-0.0244767 0.405159 4.00694
-0.023969 0.375518 3.94332
-0.044531 0.470102 3.9672
-0.0245537 0.428277 4.01371
-0.0243461 0.454672 4.0012
-0.0243803 0.514527 3.92876
-0.201167 0.509986 3.82806
-0.0238391 0.564434 3.90907
-0.0232646 0.595704 3.91204
-0.0207402 0.714576 3.87703
-0.0178122 0.319222 3.94337
-0.0170518 0.311202 3.9369
-0.0169975 0.307683 3.92645
-0.0178094 0.222256 3.90156
-0.0175321 0.211115 3.90595
-0.0171372 0.198509 3.90884
-0.0177917 0.184385 3.89889
-0.0201415 0.169364 3.87011
-0.0241969 0.392018 3.99515
-0.0433413 0.389678 3.96069
-0.297796 0.58286 3.70299
-0.128795 0.49048 3.85485
-0.153528 0.489116 3.85352
-0.177851 0.490731 3.84666
-0.211032 0.501518 3.8246
-0.108527 0.49582 3.85232
-0.161266 0.554155 3.85978
-0.134037 0.55148 3.86036
-0.187286 0.550034 3.85179
-0.204661 0.540559 3.84212
-0.23203 0.485665 3.81354
-0.115051 0.161508 3.8465
-0.210217 0.514362 3.81911
-0.307194 0.482159 3.6999
-0.25968 0.497149 3.78727
-0.147706 0.406437 3.88512
-0.0528067 0.331644 3.94046
-0.0468333 0.310606 3.93236
-0.0857174 0.322893 3.92466
-0.105374 0.310593 3.90037
-0.0699463 0.306478 3.91933
-0.0873984 0.300081 3.89648
-0.13512 0.250658 3.8483
-0.0431552 0.405533 4.00491
-0.0458431 0.427388 4.01095
-0.242897 0.561225 3.83356
-0.0972831 0.460696 3.88513
-0.0960703 0.404487 3.94275
-0.097996 0.414571 3.93413
-0.225733 0.404809 3.85484
-0.0453227 0.451499 3.99333
-0.182676 0.589549 3.87621
-0.217959 0.580555 3.85686
-0.271756 0.630439 3.75031
-0.0750937 0.56861 3.90086
-0.111218 0.541906 3.85362
-0.151481 0.283538 3.84653
-0.272834 0.259172 3.64636
-0.07801 0.391697 3.9334
-0.0584374 0.384178 3.93682
-0.129569 0.280249 3.8493
-0.115451 0.279776 3.85571
-0.232822 0.594706 3.84359
-0.0964351 0.393572 3.92938
-0.13584 0.58667 3.89186
-0.140435 0.606765 3.89611
-0.168444 0.698135 3.84501
-0.251359 0.61387 3.80304
-0.151988 0.655603 3.87194
-0.259145 0.568752 3.81111
-0.278299 0.575032 3.76003
-0.0503801 0.319484 3.93907
-0.0775136 0.313468 3.92279
-0.0967575 0.305756 3.90035
-0.0722122 0.386995 3.92879
-0.122825 0.279808 3.85299
-0.112721 0.257051 3.86322
-0.110596 0.280498 3.85603
-0.0665644 0.402311 3.96793
-0.0817975 0.301334 3.89328
-0.0646665 0.30576 3.90997
-0.0433553 0.307351 3.92218
-0.0598939 0.174448 3.86939
-0.0564654 0.190587 3.89705
-0.0537051 0.203436 3.90374
-0.0507147 0.216064 3.90056
-0.0471525 0.225373 3.89681
-0.0863865 0.244914 3.87395
-0.0920464 0.242382 3.87698
-0.100046 0.23766 3.87887
-0.106723 0.231618 3.87391
-0.125341 0.330138 3.89188
-0.305705 0.369535 3.60334
-0.0248479 0.383779 3.96214
-0.0973719 0.256854 3.86167
-0.105504 0.257313 3.86345
-0.0521007 0.374275 3.93623
-0.0897873 0.378305 3.91059
-0.0548021 0.379124 3.93769
-0.123906 0.447911 3.87755
-0.166328 0.43331 3.8722
-0.102261 0.40339 3.92015
-0.230831 0.670051 3.8006
-0.211638 0.642021 3.83962
-0.192052 0.608119 3.8709
-0.118681 0.222379 3.85651
-0.0828952 0.600826 3.90849
-0.0912021 0.65885 3.89089
-0.100629 0.711694 3.87131
-0.199057 0.494369 3.83557
-0.259279 0.468332 3.80112
-0.0955419 0.501565 3.84901
-0.232122 0.529455 3.8204
-0.0798002 0.475373 3.89327
-0.0821738 0.415281 3.96689
-0.285747 0.449202 3.77402
-0.242239 0.45645 3.82474
-0.209528 0.451504 3.84758
-0.161079 0.455101 3.85846
-0.125081 0.463533 3.863
-0.0986138 0.474221 3.86965
-0.0474094 0.507521 3.91901
-0.283475 0.403353 3.78445
-0.252525 0.530788 3.80875
-0.0349438 0.392657 3.99374
-0.0943932 0.44179 3.89831
-0.31658 0.473818 3.61533
-0.0798529 0.486631 3.87317
-0.105851 0.399073 3.8936
-0.219567 0.513121 3.81398
-0.0833062 0.427583 3.95599
-0.295323 0.316002 3.61876
-0.09551 0.509158 3.8418
-0.064705 0.442081 3.97916
-0.215287 0.218082 3.76816
-0.214212 0.186099 3.7303
-0.307284 0.384798 3.69449
-0.247991 0.245954 3.74337
-0.294192 0.530965 3.7224
-0.118366 0.137986 3.8355
-0.0330687 0.384407 3.96063
-0.116601 0.425287 3.89024
-0.281842 0.48984 3.76228
-0.175995 0.503602 3.84375
-0.154264 0.501399 3.8501
-0.119754 0.255914 3.8601
-0.278489 0.355864 3.77905
-0.0756423 0.100076 3.83208
-0.147976 0.13714 3.78645
-0.178048 0.158591 3.76159
-0.0217275 0.658167 3.8962
-0.0236798 0.0921593 3.83897
-0.133476 0.502253 3.85119
-0.114101 0.504951 3.84748
-0.101717 0.506719 3.84229
-0.27175 0.532488 3.78298
-0.115457 0.52554 3.84982
-0.135858 0.532234 3.85381
-0.157052 0.534022 3.8525
-0.179074 0.530342 3.84618
-0.193597 0.524075 3.83824
-0.312605 0.532995 3.65324
-0.190735 0.506702 3.83543
-0.0222159 0.358802 3.93613
-0.102947 0.345961 3.90882
-0.0789532 0.396015 3.94321
-0.0561754 0.356188 3.93241
-0.0240335 0.538919 3.90919
-0.182167 0.188756 3.787
-0.151126 0.164578 3.80917
-0.0756085 0.117509 3.85771
-0.244371 0.215375 3.68933
-0.101665 0.515681 3.84491
-0.062979 0.474353 3.92878
-0.0227082 0.109093 3.86302
-0.115291 0.116591 3.81355
-0.297745 0.333589 3.7016
-0.0694845 0.233488 3.88671
-0.0749946 0.227443 3.8896
-0.0812665 0.218317 3.89108
-0.0864207 0.207023 3.88578
-0.0949728 0.195212 3.86556
-0.103447 0.292459 3.8752
-0.112587 0.295059 3.87444
-0.120209 0.29847 3.87448
-0.142392 0.309879 3.86935
-0.243032 0.350421 3.8292
-0.0631146 0.492745 3.90432
-0.0768894 0.528612 3.85994
-0.0912206 0.524188 3.84947
-0.0968455 0.295097 3.87275
-0.240689 0.287478 3.78954
-0.0556319 0.533362 3.8922
-0.105966 0.181855 3.85313
-0.0245052 0.474423 3.97553
-0.0459611 0.487549 3.94539
-0.0245499 0.493035 3.95092
-0.0790061 0.441849 3.932
-0.0221601 0.131062 3.87182
-0.0214385 0.153286 3.86935
-0.066579 0.160098 3.8648
-0.155778 0.241995 3.83395
-0.125669 0.37898 3.88551
-0.133812 0.209639 3.84183
-0.187146 0.377011 3.87453
-0.149141 0.354033 3.87823
-0.204566 0.337458 3.85265
-0.0730591 0.139038 3.86628
-0.0924414 0.428048 3.91464
-0.175386 0.219646 3.81327
-0.145361 0.190143 3.8258
-0.173958 0.276806 3.83654
-0.268141 0.31414 3.77045
-0.205924 0.265846 3.81574
-0.279219 0.286396 3.71303
-0.16624 0.324055 3.86368
-0.0783365 0.45806 3.91202
-0.0741207 0.406501 3.97294
-0.0885187 0.398065 3.94632
-0.0648924 0.422772 3.99007
-0.0950805 0.548694 3.86558
-0.134459 0.563335 3.86872
-0.169817 0.566703 3.86618
-0.199905 0.561851 3.85547
-0.221176 0.549863 3.84018
-0.236512 0.505567 3.80456
-0.31004 0.433846 3.69536
-0.218384 0.477976 3.82666
-0.191882 0.472958 3.84175
-0.157893 0.472972 3.85201
-0.126282 0.47756 3.85598
-0.102245 0.485185 3.85757
-0.0861779 0.492973 3.85898
-0.3118 0.420768 3.60038
-0.0874106 0.391019 3.93397
-0.0629668 0.458149 3.95048
-0.0581312 0.407595 3.99256
-0.0448869 0.39512 3.98335
-0.0575941 0.402655 3.98042
-0.0816665 0.383416 3.92543
-0.0415216 0.393715 3.99017
-0.0393445 0.38608 3.96057
-0.0867511 0.508938 3.84631
-0.0735803 0.506076 3.86217
-0.0658008 0.504803 3.88015
-0.202604 0.519148 3.82994
-0.217787 0.5287 3.82799
-0.00443093 0.46991 3.96774
0.154163 0.504369 3.82883
-0.00524198 0.389639 3.96055
0.261414 0.579088 3.70204
0.0819803 0.487857 3.85677
0.10793 0.485969 3.85512
0.132718 0.48726 3.84816
0.165269 0.49612 3.82543
0.0601467 0.493788 3.85375
0.117259 0.54859 3.86193
0.0892018 0.547489 3.86153
0.142788 0.543185 3.85316
0.159713 0.533311 3.843
0.187186 0.481623 3.81363
0.0706771 0.15846 3.84606
0.163101 0.507755 3.81987
0.265571 0.478036 3.69818
0.216137 0.49254 3.78646
0.103393 0.406336 3.88521
0.0167311 0.332388 3.94042
0.0140646 0.311292 3.93279
0.0519522 0.324565 3.9244
0.0742246 0.313202 3.90054
0.0385692 0.308063 3.92066
0.0572678 0.302561 3.89799
0.101937 0.252194 3.8483
-0.00555236 0.405344 4.00433
-0.00261478 0.42719 4.01055
0.201419 0.552825 3.83356
0.0504853 0.460009 3.88633
0.0487477 0.40466 3.94238
0.0507313 0.414692 3.93382
0.183052 0.403943 3.85495
-0.00351545 0.451325 3.99374
0.138663 0.582147 3.87613
0.175332 0.572113 3.85724
0.235268 0.627436 3.74905
0.0280884 0.566197 3.9011
0.0648459 0.539115 3.85466
0.11858 0.285854 3.84756
0.224783 0.253705 3.64628
0.0301171 0.391975 3.9331
0.0103905 0.38451 3.93578
0.100087 0.284099 3.8504
0.0868338 0.283603 3.85708
0.191309 0.58603 3.84333
0.0495592 0.394123 3.92882
0.090087 0.581498 3.89133
0.0956489 0.601792 3.89514
0.129142 0.697255 3.84382
0.212862 0.608481 3.80194
0.109616 0.652691 3.87097
0.218704 0.560949 3.81053
0.240201 0.569326 3.75912
0.0163079 0.320291 3.93948
0.0450209 0.315049 3.92336
0.0664162 0.308248 3.90115
0.0241052 0.387319 3.92793
0.0940156 0.283763 3.85393
0.0832415 0.259533 3.8632
0.0823273 0.283969 3.85752
0.0187043 0.402338 3.96848
0.0522822 0.303966 3.89485
0.0332852 0.307323 3.91159
0.0109878 0.308268 3.92326
0.0202526 0.173915 3.86892
0.0217404 0.19012 3.89682
0.0199845 0.203348 3.90422
0.0163465 0.216058 3.90113
0.0125314 0.225602 3.89781
0.0551623 0.246903 3.87475
0.0610405 0.243972 3.87716
0.0695047 0.238954 3.8782
0.0754507 0.232593 3.87307
0.0875885 0.331643 3.8912
0.258595 0.364593 3.6022
0.0671466 0.259432 3.86307
0.0754486 0.25989 3.86411
0.00468155 0.374691 3.93578
0.0423464 0.379342 3.90923
0.00700753 0.379539 3.93687
0.0778054 0.447414 3.87902
0.121844 0.432787 3.87304
0.0552642 0.403786 3.91987
0.19316 0.668148 3.79905
0.171267 0.637332 3.83818
0.148967 0.600929 3.87035
0.0832438 0.222409 3.85635
0.0372113 0.59795 3.90801
0.0481286 0.657616 3.8895
0.0606784 0.711309 3.86988
0.153639 0.490093 3.83646
0.215439 0.465284 3.7999
0.0459342 0.499658 3.85063
0.188127 0.522235 3.82074
0.0325388 0.474838 3.89453
0.0342267 0.415126 3.96648
0.242595 0.445893 3.77288
0.198039 0.454377 3.82402
0.165384 0.450427 3.84799
0.115774 0.453998 3.85974
0.0783949 0.46242 3.86472
0.0514659 0.473267 3.87099
-0.000930831 0.507064 3.91957
0.239348 0.400786 3.78354
0.210463 0.524359 3.8085
-0.0131424 0.39258 3.99354
0.0471285 0.441541 3.89919
0.273833 0.469847 3.61463
0.0318675 0.485868 3.87433
0.0579925 0.399642 3.89298
0.173093 0.506519 3.81477
0.0356655 0.427107 3.95605
0.247088 0.31022 3.61725
0.0459094 0.506827 3.84367
0.0167516 0.44167 3.97929
0.170478 0.213275 3.76791
0.167373 0.180171 3.73017
0.261064 0.380114 3.69271
0.202857 0.241298 3.74286
0.25437 0.526302 3.72123
0.072371 0.13409 3.83505
-0.0166236 0.38451 3.9605
0.0704836 0.425401 3.89051
0.239333 0.485282 3.76093
0.129125 0.499222 3.84488
0.10729 0.497764 3.85165
0.0899056 0.258423 3.85985
0.23411 0.352944 3.77833
0.0277588 0.0974879 3.83243
0.0998025 0.131948 3.78681
0.13079 0.152853 3.76216
0.0859232 0.499146 3.8529
0.0654251 0.502744 3.84949
0.0521649 0.504543 3.84443
0.230888 0.526598 3.78213
0.0689239 0.522208 3.85187
0.0912557 0.527621 3.85594
0.11248 0.528103 3.8545
0.133586 0.52356 3.84802
0.147467 0.517111 3.83978
0.273013 0.529147 3.65197
0.143896 0.501784 3.83657
0.0611545 0.347115 3.90825
0.0308805 0.396138 3.94239
0.013178 0.356721 3.93229
0.136819 0.18409 3.78658
0.105231 0.160157 3.80872
0.0294511 0.115323 3.85797
0.196746 0.209856 3.6894
0.0530211 0.513178 3.84746
0.0148549 0.473878 3.92924
0.0670882 0.11261 3.81399
0.2514 0.328722 3.6996
0.0362898 0.23436 3.88784
0.0421638 0.227958 3.89009
0.0485497 0.21847 3.89126
0.0528733 0.206976 3.88552
0.057551 0.194508 3.86557
0.0752799 0.295693 3.87659
0.0837319 0.298396 3.87543
0.0910467 0.301845 3.87512
0.108051 0.311997 3.86971
0.200878 0.348732 3.82918
0.015338 0.492235 3.90529
0.0279966 0.526863 3.86014
0.0424754 0.522234 3.85115
0.0689167 0.298356 3.87455
0.198052 0.284787 3.78897
0.00780092 0.532363 3.89267
0.0642546 0.180116 3.85265
-0.00255154 0.487259 3.9455
0.03116 0.441489 3.93193
0.0236911 0.158862 3.86419
0.117386 0.241289 3.83418
0.080594 0.379675 3.88536
0.0940772 0.208333 3.84128
0.145177 0.376469 3.87432
0.107993 0.35423 3.87801
0.164016 0.336482 3.853
0.0283578 0.137252 3.86622
0.0452053 0.427864 3.91477
0.133159 0.21681 3.81308
0.102234 0.187041 3.82525
0.136443 0.277015 3.83788
0.224281 0.311009 3.76952
0.165135 0.263711 3.81596
0.232821 0.281709 3.71214
0.129168 0.324929 3.86443
0.0305067 0.457619 3.91291
0.026591 0.406288 3.97291
0.0412913 0.397973 3.94556
0.0165096 0.422409 3.98998
0.0473986 0.545894 3.86629
0.0885296 0.558743 3.8691
0.124998 0.560478 3.86672
0.155567 0.554571 3.85606
0.177195 0.542043 3.84046
0.191771 0.500011 3.80475
0.265961 0.429481 3.69409
0.173088 0.4746 3.82721
0.146943 0.470654 3.84238
0.112471 0.470849 3.85327
0.0795355 0.475741 3.85757
0.0545746 0.483667 3.85855
0.0377147 0.491835 3.86009
0.266256 0.416532 3.59991
0.0402046 0.391385 3.93333
0.0143173 0.457794 3.95108
0.00993162 0.407296 3.9922
-0.00270167 0.395143 3.98296
0.00975682 0.402383 3.98033
0.0341561 0.383942 3.92432
-0.00629998 0.393713 3.98974
-0.00972801 0.386076 3.96047
0.0366951 0.507122 3.84771
0.024837 0.504869 3.86284
0.0178282 0.50401 3.88075
0.156047 0.512167 3.83108
0.172288 0.521507 3.82839
