ply
format ascii 1.0
comment Created by Open3D
element vertex 468
property double x
property double y
property double z
end_header
0.0129664 0.352173 3.88828
0.0111658 0.433877 3.93806
0.0123516 0.405199 3.88149
-0.00698652 0.514187 3.9011
0.0110827 0.460381 3.94324
0.0109915 0.493202 3.93125
0.0120196 0.568484 3.86376
-0.150169 0.571359 3.7763
0.012248 0.632707 3.84318
0.0126935 0.667176 3.84455
0.0143881 0.780391 3.81206
0.0129321 0.3409 3.88798
0.0128765 0.331136 3.8822
0.0129439 0.326032 3.873
0.0166101 0.241042 3.85074
0.0166863 0.227018 3.85467
0.0168285 0.21144 3.85602
0.0173547 0.196013 3.84496
0.017708 0.184493 3.81461
0.0108871 0.420263 3.928
-0.00621124 0.419664 3.89691
-0.236548 0.653902 3.66311
-0.0840688 0.550934 3.80279
-0.106891 0.548407 3.80104
-0.129014 0.548909 3.7945
-0.159846 0.5621 3.77384
-0.0648074 0.557449 3.79926
-0.116146 0.624378 3.80238
-0.0896939 0.621859 3.80281
-0.140288 0.618613 3.79505
-0.156506 0.60703 3.78626
-0.177955 0.542477 3.76438
-0.0666377 0.182698 3.7946
-0.159027 0.577588 3.76809
-0.247112 0.54607 3.66391
-0.203515 0.557414 3.74005
-0.0982803 0.446741 3.82969
-0.0149978 0.354895 3.88399
-0.00966807 0.330466 3.87905
-0.041263 0.344958 3.87196
-0.055181 0.331858 3.85445
-0.0275313 0.326129 3.87018
-0.0392737 0.319534 3.85312
-0.0818184 0.271773 3.80862
-0.00651031 0.434571 3.93587
-0.00929202 0.460075 3.94053
-0.188964 0.627465 3.77732
-0.0543913 0.509977 3.82987
-0.0510489 0.438326 3.88101
-0.0534904 0.450779 3.87319
-0.167668 0.446544 3.80426
-0.00823773 0.490096 3.92469
-0.133719 0.66077 3.81256
-0.165988 0.64931 3.79601
-0.212288 0.702262 3.70262
-0.034375 0.640314 3.83517
-0.0672617 0.610609 3.79803
-0.0944113 0.305995 3.80827
-0.211256 0.30756 3.62472
-0.0340965 0.423771 3.87304
-0.0178505 0.415693 3.87478
-0.0712165 0.300053 3.81442
-0.0589514 0.300068 3.82089
-0.17853 0.663425 3.78395
-0.0504404 0.426716 3.86916
-0.0903088 0.660218 3.82582
-0.0945452 0.679753 3.82884
-0.118092 0.768023 3.78374
-0.195219 0.682937 3.74875
-0.103648 0.724452 3.80807
-0.202701 0.635828 3.75688
-0.219897 0.643465 3.71303
-0.0128493 0.341237 3.88442
-0.0339419 0.333935 3.87224
-0.0476646 0.325895 3.85556
-0.0285517 0.418829 3.8683
-0.0651519 0.299395 3.81798
-0.0590898 0.276858 3.82471
-0.0555139 0.301796 3.82074
-0.026525 0.433273 3.90422
-0.0344143 0.320562 3.85016
-0.022558 0.324329 3.86224
-0.00688031 0.325948 3.87081
-0.0177349 0.189505 3.81426
-0.0172256 0.20233 3.84343
-0.0148176 0.216716 3.85169
-0.0108901 0.232527 3.85062
-0.00734055 0.244221 3.84788
-0.0374165 0.265551 3.8321
-0.0429598 0.261705 3.83349
-0.0511095 0.255855 3.83419
-0.0577445 0.249593 3.82968
-0.0740438 0.356984 3.84389
-0.241265 0.430646 3.58349
0.0121367 0.412982 3.89848
-0.0452593 0.278415 3.8246
-0.0522402 0.277489 3.82514
-0.0117545 0.40492 3.87527
-0.0428865 0.410078 3.85209
-0.0146952 0.410136 3.87583
-0.0778949 0.495347 3.82366
-0.115661 0.478059 3.81825
-0.0563195 0.438646 3.86101
-0.175308 0.741582 3.74519
-0.158722 0.711217 3.77936
-0.14175 0.67878 3.80741
-0.0690848 0.24173 3.81285
-0.0412602 0.673771 3.84053
-0.0483583 0.725892 3.82489
-0.0571557 0.779598 3.80585
-0.148601 0.553019 3.78389
-0.20284 0.523012 3.7539
-0.0521834 0.564181 3.79605
-0.179475 0.593209 3.76829
-0.0391341 0.526642 3.83648
-0.0404127 0.448885 3.90215
-0.227361 0.504101 3.73114
-0.186901 0.507286 3.77576
-0.156599 0.499892 3.79719
-0.111935 0.504823 3.80663
-0.0795366 0.515762 3.81072
-0.0561072 0.527928 3.81584
-0.00903492 0.561704 3.85615
-0.221945 0.451983 3.74278
-0.197841 0.594906 3.75774
0.000403693 0.421205 3.92661
-0.0506246 0.486329 3.84209
-0.252242 0.541895 3.59049
-0.0386676 0.54168 3.81834
-0.0580911 0.434976 3.83793
-0.167654 0.576379 3.76364
-0.0418101 0.464367 3.89226
-0.232358 0.371296 3.59811
-0.0521976 0.573253 3.78977
-0.0263396 0.480331 3.91222
-0.157255 0.249387 3.73255
-0.159232 0.219792 3.69901
-0.244855 0.439733 3.66274
-0.185983 0.284036 3.71045
-0.234467 0.597531 3.682
-0.0710552 0.159263 3.78495
0.00429057 0.413745 3.89682
-0.0705508 0.467648 3.83453
-0.223921 0.550854 3.7183
-0.126436 0.563919 3.79135
-0.106671 0.562521 3.79728
-0.0659543 0.275946 3.82189
-0.213639 0.400903 3.73928
-0.0329076 0.119424 3.78095
-0.0993553 0.161861 3.74502
-0.127055 0.186647 3.72535
0.0136427 0.723108 3.83062
0.0155708 0.112162 3.78701
-0.0877193 0.564158 3.79807
-0.0694956 0.568281 3.79502
-0.0576837 0.570707 3.79028
-0.214956 0.597494 3.73427
-0.0725643 0.591699 3.79609
-0.0927166 0.59958 3.79821
-0.112699 0.601091 3.79685
-0.13287 0.59621 3.79127
-0.145597 0.588347 3.78448
-0.249181 0.602984 3.62105
-0.140092 0.567263 3.7833
0.0129791 0.38732 3.87632
-0.0558825 0.373487 3.85489
-0.0354187 0.428056 3.88131
-0.0163682 0.384022 3.8733
0.0119999 0.600485 3.84484
-0.128651 0.215816 3.74722
-0.100783 0.188672 3.76374
-0.0326655 0.136213 3.80286
-0.185284 0.256286 3.66329
-0.0587133 0.580306 3.79266
-0.0235304 0.521962 3.86741
0.0158849 0.128461 3.80733
-0.0694899 0.138023 3.76653
-0.234909 0.383914 3.67013
-0.0245697 0.253098 3.8408
-0.0301984 0.245289 3.84262
-0.0368497 0.234014 3.84288
-0.0422316 0.221614 3.83735
-0.04918 0.212214 3.81653
-0.0500089 0.312084 3.8365
-0.0580215 0.314994 3.83579
-0.0652351 0.31935 3.83532
-0.0865509 0.334461 3.828
-0.179692 0.390069 3.78306
-0.023597 0.545618 3.84462
-0.0344627 0.593022 3.80366
-0.048419 0.589711 3.79572
-0.0444852 0.315296 3.83445
-0.176342 0.32434 3.75033
-0.016158 0.596073 3.8308
-0.0581852 0.201514 3.80191
0.0113547 0.518546 3.90778
-0.00828959 0.53642 3.88054
0.0117413 0.54205 3.88508
-0.0375561 0.483491 3.87079
0.0164759 0.150232 3.81443
0.0172416 0.170864 3.81206
-0.0225339 0.177577 3.8079
-0.10276 0.265623 3.79294
-0.0765783 0.413748 3.83146
-0.0841537 0.231541 3.7958
-0.131054 0.414406 3.82078
-0.0965084 0.386753 3.82767
-0.144116 0.372273 3.80498
-0.028915 0.157935 3.80965
-0.0487954 0.4685 3.85602
-0.121467 0.245223 3.77227
-0.094643 0.21349 3.77924
-0.117342 0.30291 3.7964
-0.202784 0.356295 3.73249
-0.146788 0.296022 3.77563
-0.215976 0.331664 3.68258
-0.109596 0.353264 3.81825
-0.0367472 0.504272 3.85376
-0.0334052 0.437886 3.90806
-0.0442262 0.430386 3.8839
-0.0259527 0.455616 3.92211
-0.0516821 0.618107 3.80779
-0.0890286 0.634488 3.80908
-0.122797 0.637023 3.80617
-0.150704 0.630144 3.79703
-0.169923 0.616005 3.78449
-0.182759 0.566831 3.75531
-0.24923 0.493688 3.66248
-0.165235 0.533285 3.77696
-0.141166 0.526813 3.79084
-0.110206 0.528091 3.80018
-0.0813971 0.534445 3.80426
-0.0592878 0.543245 3.8043
-0.0442395 0.551665 3.80534
-0.246729 0.48608 3.57949
-0.0425063 0.42322 3.87308
-0.0233594 0.501517 3.88707
-0.0202359 0.43738 3.92517
-0.00914764 0.424674 3.9169
-0.0195073 0.432567 3.91471
-0.0365527 0.415214 3.86525
-0.00595234 0.422643 3.92294
-0.00201907 0.41551 3.89687
-0.0436791 0.572393 3.79302
-0.0320934 0.566145 3.80716
-0.0255096 0.56243 3.82235
-0.153009 0.582663 3.7772
-0.167079 0.593349 3.77455
0.0296105 0.513757 3.90054
0.170334 0.564889 3.77755
0.0296985 0.419711 3.89699
0.256899 0.64559 3.66534
0.104527 0.547067 3.80213
0.126883 0.54447 3.80108
0.14871 0.544643 3.795
0.17848 0.555944 3.77507
0.0865864 0.55399 3.79949
0.13558 0.616812 3.80304
0.110372 0.615578 3.80363
0.158977 0.610438 3.79634
0.174381 0.598586 3.78849
0.196339 0.537557 3.76675
0.0954964 0.183977 3.7961
0.178952 0.570149 3.76955
0.265867 0.540035 3.66654
0.22118 0.551763 3.74263
0.119905 0.445808 3.83145
0.0408153 0.355531 3.88395
0.0350609 0.330761 3.87874
0.0665994 0.346196 3.87122
0.0809836 0.333336 3.85261
0.0523262 0.327019 3.86861
0.0647961 0.32051 3.85083
0.109627 0.273358 3.80835
0.0280439 0.434491 3.93629
0.0306976 0.4599 3.94092
0.20537 0.617928 3.77966
0.0765383 0.508577 3.82992
0.0724044 0.437633 3.88045
0.0744871 0.450121 3.87269
0.18573 0.445173 3.80663
0.0301836 0.489712 3.92417
0.153346 0.65133 3.81607
0.183665 0.639164 3.79934
0.233655 0.693504 3.7049
0.0584851 0.637184 3.83621
0.0898758 0.605788 3.79823
0.121303 0.30715 3.80679
0.231192 0.305614 3.62393
0.0573583 0.423513 3.87308
0.0419637 0.415663 3.87581
0.0999128 0.30158 3.81165
0.086645 0.301257 3.81816
0.196038 0.652686 3.78745
0.0722471 0.426064 3.86887
0.11269 0.653385 3.82858
0.117204 0.672875 3.8318
0.143313 0.762153 3.78571
0.214648 0.673944 3.75214
0.12852 0.718318 3.81032
0.219957 0.626175 3.75937
0.238943 0.634946 3.71576
0.0383924 0.341769 3.88401
0.0593784 0.335048 3.8711
0.0736921 0.327261 3.85369
0.05254 0.418596 3.86868
0.0934727 0.300937 3.81551
0.0884776 0.278277 3.82352
0.0825777 0.302932 3.81794
0.0483349 0.432999 3.90294
0.0592013 0.321483 3.84766
0.0471208 0.324904 3.8608
0.0318174 0.326197 3.86994
0.0510598 0.190233 3.816
0.0501588 0.202905 3.84471
0.0476438 0.217272 3.8523
0.0436152 0.233026 3.85042
0.0397974 0.244512 3.84709
0.0674256 0.266906 3.83011
0.0732048 0.263152 3.8326
0.0812053 0.257158 3.8343
0.0879799 0.250899 3.83011
0.098953 0.357827 3.84346
0.263116 0.426181 3.58407
0.0743503 0.279311 3.82157
0.0816208 0.278679 3.82349
0.0367753 0.404871 3.87509
0.0671125 0.410061 3.85286
0.0389892 0.410052 3.87651
0.0994007 0.493956 3.82405
0.136304 0.47666 3.82027
0.0777931 0.437942 3.86091
0.197596 0.733863 3.74838
0.17994 0.702686 3.78301
0.161828 0.669165 3.81095
0.0981713 0.243214 3.81334
0.0660873 0.670139 3.84233
0.0750525 0.722723 3.82611
0.0845531 0.776452 3.80783
0.167429 0.547936 3.78497
0.220233 0.518947 3.75661
0.0752112 0.560848 3.79551
0.197076 0.584945 3.77038
0.0617208 0.525368 3.83637
0.0614526 0.448194 3.90166
0.24393 0.499997 3.73347
0.204574 0.504215 3.77795
0.175593 0.497616 3.79908
0.133014 0.502911 3.80775
0.101313 0.513829 3.81116
0.0784258 0.526144 3.81596
0.0329273 0.560941 3.85611
0.238688 0.449237 3.74416
0.214943 0.587201 3.7594
0.0211701 0.421047 3.9263
0.0727757 0.485138 3.84152
0.274545 0.535371 3.59207
0.0621219 0.53991 3.8181
0.08131 0.434523 3.83814
0.186878 0.568811 3.76546
0.0623507 0.463556 3.89192
0.253369 0.368095 3.59864
0.0755501 0.569665 3.78879
0.0472435 0.479684 3.9121
0.179176 0.2495 3.73272
0.18015 0.219671 3.69886
0.263952 0.436056 3.66499
0.205537 0.283015 3.71013
0.254373 0.590355 3.68407
0.0996791 0.160394 3.7855
0.0200573 0.413869 3.89701
0.0922227 0.466709 3.83508
0.241438 0.545086 3.72081
0.146838 0.558707 3.7917
0.1272 0.557668 3.79704
0.0951218 0.277475 3.82102
0.23089 0.398848 3.74106
0.0628906 0.120152 3.78154
0.125759 0.16285 3.74501
0.150897 0.187415 3.72517
0.10861 0.559668 3.79812
0.0915106 0.564349 3.79453
0.0808617 0.566899 3.78944
0.232563 0.589947 3.73647
0.0938781 0.587025 3.79558
0.112412 0.593698 3.79905
0.132091 0.594507 3.79761
0.152107 0.58908 3.79274
0.164846 0.58115 3.78606
0.271062 0.595485 3.62339
0.160601 0.561473 3.78422
0.0802965 0.374101 3.85496
0.0581987 0.427772 3.8814
0.0421052 0.384498 3.87331
0.153091 0.216838 3.74825
0.12727 0.189788 3.76496
0.0625089 0.137214 3.80378
0.204921 0.255147 3.66228
0.0814304 0.576449 3.79147
0.0465829 0.521117 3.86719
0.0977513 0.139098 3.76688
0.253592 0.381272 3.672
0.0560448 0.253949 3.83964
0.0616459 0.246227 3.84183
0.0684565 0.235055 3.84324
0.0739425 0.222567 3.83801
0.0799273 0.213361 3.81768
0.0764461 0.313183 3.83375
0.0846995 0.31633 3.8332
0.0918269 0.320506 3.83254
0.112093 0.335368 3.82607
0.197527 0.38891 3.78517
0.0472502 0.544502 3.84483
0.0591877 0.590191 3.80377
0.0717903 0.586218 3.79437
0.0707505 0.316132 3.83111
0.196134 0.323528 3.7511
0.0401888 0.59457 3.83068
0.087794 0.202798 3.80335
0.0316531 0.535896 3.88058
0.0590573 0.482697 3.87073
0.0549813 0.178353 3.80953
0.128773 0.266918 3.79353
0.100124 0.413457 3.83224
0.111664 0.232956 3.79739
0.151733 0.413705 3.8235
0.119923 0.386615 3.82836
0.164416 0.371666 3.80638
0.0596502 0.158756 3.81035
0.070287 0.467526 3.85593
0.146302 0.246577 3.77321
0.122218 0.214887 3.78085
0.141937 0.30386 3.79608
0.220888 0.354678 3.73374
0.168588 0.296242 3.77637
0.234611 0.329679 3.68275
0.132797 0.353454 3.81837
0.0593738 0.503242 3.8533
0.0545555 0.437439 3.90739
0.0660977 0.42999 3.88383
0.0474938 0.45519 3.92214
0.0757975 0.614038 3.80812
0.111194 0.628324 3.81062
0.143103 0.629089 3.80845
0.169709 0.621449 3.79955
0.18758 0.607091 3.7867
0.20108 0.560411 3.75771
0.267565 0.488518 3.66431
0.18418 0.529037 3.77889
0.160882 0.523834 3.79245
0.130922 0.525147 3.80108
0.102512 0.53176 3.80437
0.0817387 0.540762 3.80447
0.0675054 0.549311 3.80506
0.268963 0.480529 3.58026
0.0647655 0.422743 3.87319
0.0459141 0.500798 3.88652
0.0416623 0.437274 3.92509
0.0305158 0.424831 3.91724
0.0411277 0.43262 3.91461
0.0598569 0.414889 3.86569
0.0273298 0.422752 3.92333
0.0259577 0.415599 3.89717
0.0675313 0.569149 3.79247
0.0559749 0.563818 3.80685
0.0494236 0.560765 3.82262
0.172657 0.575297 3.77888
0.185037 0.585236 3.77706
