ply
format ascii 1.0
comment Created by Open3D
element vertex 468
property double x
property double y
property double z
end_header
0.0525812 0.361077 3.85013
0.0538953 0.449243 3.91105
0.0544391 0.421655 3.84862
0.0306422 0.536289 3.87566
0.0532983 0.476887 3.91879
0.0513591 0.512236 3.90774
0.051064 0.595052 3.83766
-0.129481 0.60139 3.736
0.0502213 0.662334 3.81745
0.0500487 0.697021 3.82109
0.0497557 0.805597 3.7923
0.0521426 0.348255 3.84665
0.0517328 0.339126 3.83844
0.0511825 0.335973 3.82715
0.0512016 0.332331 3.82848
0.0512024 0.32174 3.83315
0.0502018 0.3082 3.83849
0.0493461 0.293384 3.83594
0.0487 0.266429 3.81335
0.0528511 0.435105 3.89802
0.032076 0.436118 3.86358
-0.223294 0.691244 3.61426
-0.0579676 0.578767 3.76541
-0.0836343 0.576617 3.76238
-0.107859 0.577538 3.75428
-0.140669 0.59171 3.7319
-0.0350063 0.585212 3.76203
-0.0921812 0.647407 3.77084
-0.0640638 0.645064 3.77054
-0.117488 0.643223 3.7616
-0.134643 0.633183 3.75058
-0.160477 0.573122 3.71797
-0.0484333 0.22121 3.77761
-0.138629 0.608042 3.72702
-0.233963 0.580907 3.60518
-0.187994 0.59033 3.69108
-0.0770328 0.470213 3.78824
0.0205849 0.365201 3.84618
0.0228913 0.339875 3.8341
-0.0132999 0.358488 3.83007
-0.0360191 0.350639 3.81065
-0.00202415 0.339292 3.82364
-0.0209574 0.338567 3.80518
-0.0694141 0.312486 3.77042
0.0330539 0.449793 3.90739
0.0288929 0.476396 3.91439
-0.174228 0.662197 3.73975
-0.0245289 0.535723 3.79273
-0.0244797 0.455727 3.84483
-0.0274391 0.470036 3.83683
-0.156329 0.472768 3.75288
0.0293533 0.509177 3.90001
-0.113292 0.694475 3.78112
-0.148357 0.683695 3.76159
-0.196886 0.738305 3.66246
-0.00291463 0.670835 3.80781
-0.0392342 0.635462 3.76494
-0.0888366 0.337561 3.76466
-0.214157 0.335106 3.54411
-0.00483266 0.440967 3.83628
0.0160593 0.432817 3.83763
-0.0608683 0.338704 3.76879
-0.0507765 0.339974 3.77504
-0.162908 0.700261 3.74929
-0.0257032 0.444269 3.83055
-0.0656308 0.692185 3.79678
-0.0706985 0.712781 3.80137
-0.0933071 0.797312 3.75845
-0.1803 0.719008 3.71211
-0.0786973 0.755381 3.78188
-0.189337 0.672251 3.71824
-0.206423 0.679671 3.66899
0.0211614 0.350038 3.84304
-0.00653774 0.346621 3.82828
-0.0281579 0.344118 3.80999
0.00206841 0.436059 3.83026
-0.0552958 0.339258 3.77179
-0.0447401 0.333436 3.78736
-0.0487413 0.341018 3.77569
0.00674115 0.449666 3.87226
-0.0176798 0.340421 3.80123
0.00215616 0.338476 3.81404
0.02486 0.337098 3.82409
0.0136513 0.266956 3.80929
0.0164053 0.295472 3.83244
0.0187296 0.310951 3.83507
0.0217156 0.324177 3.82942
0.0237493 0.332972 3.82514
-0.0214632 0.3362 3.80046
-0.0254598 0.333172 3.80405
-0.031122 0.326544 3.80713
-0.0353724 0.317279 3.80264
-0.0568057 0.378518 3.79978
-0.233304 0.464454 3.50682
0.0555712 0.429285 3.86596
-0.0342825 0.337338 3.78639
-0.0391284 0.336492 3.78825
0.0239818 0.421213 3.84091
-0.0156896 0.428 3.81196
0.0204791 0.426777 3.83966
-0.0515556 0.52063 3.78377
-0.0940902 0.503256 3.77444
-0.0312537 0.458265 3.82243
-0.156198 0.774946 3.713
-0.139898 0.745943 3.74815
-0.12244 0.714381 3.77686
-0.0487577 0.293611 3.78496
-0.0110969 0.704989 3.81594
-0.0175578 0.75372 3.80135
-0.0268562 0.805761 3.78418
-0.128884 0.582157 3.7424
-0.18802 0.553431 3.70305
-0.0201731 0.59212 3.75989
-0.161743 0.624391 3.72835
-0.00670034 0.552857 3.80235
-0.00975122 0.46591 3.86965
-0.216269 0.53456 3.67549
-0.17122 0.536143 3.72728
-0.138231 0.527324 3.75134
-0.0886395 0.531773 3.7645
-0.0522613 0.542713 3.77133
-0.0256089 0.554902 3.77834
0.0278297 0.588302 3.82817
-0.214879 0.480362 3.68333
-0.183345 0.628404 3.71555
0.0402531 0.436184 3.8966
-0.0212792 0.510157 3.80483
-0.238487 0.580485 3.52431
-0.00511058 0.569148 3.78276
-0.0323754 0.456412 3.79695
-0.147207 0.606424 3.72226
-0.0121546 0.483066 3.85957
-0.228745 0.400968 3.518
-0.0203154 0.601591 3.75419
0.00726407 0.499005 3.88443
-0.161955 0.276027 3.67769
-0.160368 0.24465 3.63421
-0.235897 0.470627 3.59393
-0.194586 0.310547 3.64496
-0.22029 0.633648 3.63057
-0.0538027 0.193335 3.76414
0.046279 0.43043 3.86394
-0.0447843 0.49086 3.7945
-0.210021 0.584131 3.66601
-0.104062 0.593499 3.75229
-0.0824759 0.591442 3.7595
-0.0506624 0.328283 3.78304
-0.212074 0.427604 3.67552
-0.00586261 0.159147 3.76143
-0.0844356 0.190008 3.70647
-0.119496 0.211912 3.6746
0.0503483 0.750129 3.80895
0.0473462 0.156601 3.77058
-0.0611442 0.592734 3.76091
-0.0403988 0.596611 3.75858
-0.0266519 0.599092 3.75424
-0.201795 0.632306 3.68932
-0.044717 0.618589 3.76183
-0.0680988 0.625679 3.76376
-0.0900344 0.627239 3.76196
-0.111747 0.623385 3.75495
-0.12525 0.616827 3.74657
-0.234886 0.641666 3.56321
-0.118811 0.597274 3.74367
0.0540686 0.40234 3.84295
-0.0311806 0.39222 3.81441
-0.00499476 0.445068 3.84456
0.019053 0.399644 3.83984
0.0500557 0.628578 3.81792
-0.124757 0.243041 3.70399
-0.0907017 0.217343 3.73208
-0.00842917 0.177403 3.79148
-0.189942 0.282968 3.58698
-0.0278028 0.608502 3.75788
0.0112012 0.546561 3.83702
0.0464448 0.175215 3.8001
-0.0481257 0.171516 3.73941
-0.23109 0.412629 3.59823
-0.000277828 0.334763 3.81402
-0.00455885 0.328548 3.81872
-0.00885089 0.318413 3.82302
-0.0118693 0.304296 3.81936
-0.0216458 0.277749 3.80023
-0.039239 0.33959 3.78875
-0.0460281 0.341551 3.78904
-0.0533683 0.345363 3.78892
-0.0781273 0.360286 3.78249
-0.17932 0.415298 3.72613
0.0114298 0.572244 3.81361
-0.000115351 0.621359 3.76978
-0.0160895 0.616493 3.76149
-0.0344247 0.342596 3.7868
-0.182899 0.350718 3.6909
0.0193101 0.624335 3.80123
-0.0362365 0.249657 3.78669
0.0511528 0.540615 3.88353
0.0285888 0.560791 3.85365
0.0513422 0.566723 3.85988
-0.00565267 0.505474 3.83699
0.046536 0.202753 3.81415
0.0476182 0.236726 3.8138
0.00457479 0.237123 3.80561
-0.0938112 0.298446 3.75489
-0.0557305 0.435579 3.7898
-0.0679888 0.269739 3.76912
-0.120154 0.439696 3.77605
-0.0828128 0.410462 3.78409
-0.143945 0.397412 3.75602
-0.00477412 0.204301 3.80457
-0.0204298 0.490314 3.8191
-0.115915 0.274961 3.73182
-0.0821074 0.245874 3.75108
-0.11506 0.331308 3.75211
-0.206773 0.382184 3.66725
-0.149679 0.323742 3.72529
-0.219734 0.358971 3.61046
-0.105981 0.37824 3.77203
-0.00458568 0.52865 3.81998
-0.00161169 0.453993 3.87601
-0.0163658 0.446984 3.84737
0.00861128 0.472245 3.89334
-0.0214255 0.64573 3.77621
-0.0627983 0.661443 3.77744
-0.0989518 0.664624 3.77416
-0.129193 0.659432 3.76373
-0.15055 0.64666 3.7479
-0.165085 0.598457 3.71045
-0.238218 0.526464 3.59897
-0.146647 0.562776 3.73181
-0.120402 0.555479 3.74772
-0.0865632 0.556075 3.7594
-0.0544621 0.562128 3.76575
-0.0285846 0.570796 3.76613
-0.0110264 0.579502 3.76886
-0.235304 0.522847 3.5077
-0.015462 0.440165 3.83501
0.0117378 0.523631 3.85783
0.0156048 0.453049 3.89502
0.0283256 0.440017 3.88528
0.0158267 0.448555 3.88354
-0.0084069 0.432281 3.82627
0.0327463 0.43787 3.89214
0.038028 0.432035 3.8634
-0.0103401 0.600124 3.7573
0.00277348 0.594054 3.77182
0.0100277 0.590102 3.78871
-0.132889 0.611885 3.73785
-0.147002 0.622261 3.73581
0.0720805 0.536237 3.87465
0.219127 0.599296 3.73888
0.0752891 0.436495 3.86527
0.30229 0.681871 3.61622
0.148089 0.576486 3.76299
0.172277 0.574616 3.76156
0.195698 0.575746 3.75486
0.22605 0.589592 3.73436
0.128877 0.583007 3.76085
0.17928 0.64241 3.77082
0.153679 0.640549 3.77148
0.203925 0.638248 3.76292
0.219931 0.628486 3.75379
0.245196 0.570916 3.72319
0.136414 0.226866 3.78362
0.22771 0.605325 3.73056
0.313541 0.57727 3.61011
0.269827 0.587351 3.69735
0.16982 0.47066 3.79487
0.0820489 0.365759 3.84679
0.0769616 0.340124 3.83418
0.111517 0.360227 3.83142
0.131057 0.352156 3.81158
0.0982116 0.340364 3.82299
0.116209 0.339358 3.80524
0.159355 0.314777 3.77538
0.0728707 0.449968 3.9095
0.0747801 0.476408 3.9168
0.254067 0.655697 3.74511
0.120831 0.535079 3.79331
0.124304 0.456591 3.84763
0.125175 0.470621 3.83963
0.240395 0.473423 3.76149
0.0734424 0.509153 3.89971
0.201375 0.686638 3.78988
0.232613 0.676472 3.76911
0.277274 0.72781 3.6653
0.100684 0.668039 3.8109
0.132934 0.631698 3.76437
0.179191 0.339686 3.76894
0.29486 0.342241 3.55029
0.108678 0.441947 3.83911
0.0902855 0.433584 3.8428
0.155737 0.339265 3.76917
0.142861 0.340583 3.77613
0.245198 0.6917 3.75746
0.124758 0.445231 3.83449
0.158736 0.686045 3.80474
0.162743 0.706133 3.80987
0.182767 0.789354 3.76123
0.260797 0.71014 3.71856
0.171744 0.748202 3.78686
0.268581 0.665063 3.72357
0.2857 0.671702 3.67401
0.0797349 0.350659 3.84312
0.104395 0.348116 3.828
0.12355 0.345621 3.81057
0.103267 0.437145 3.83451
0.14933 0.339714 3.77306
0.137269 0.334056 3.7903
0.139074 0.341572 3.77635
0.0965278 0.450299 3.87155
0.110468 0.340918 3.80069
0.0933504 0.339107 3.81274
0.073681 0.337345 3.82299
0.0804077 0.268099 3.81294
0.078997 0.296087 3.83365
0.0787493 0.311746 3.8354
0.0781309 0.32465 3.82886
0.075821 0.333379 3.82404
0.114965 0.336982 3.80198
0.117924 0.33388 3.80712
0.122154 0.327174 3.81138
0.127119 0.318295 3.80688
0.152128 0.380288 3.80505
0.320803 0.465205 3.51065
0.126778 0.337954 3.78623
0.131599 0.33699 3.79017
0.0829657 0.421998 3.84289
0.118778 0.429362 3.81853
0.0864328 0.427298 3.84346
0.145913 0.52003 3.78538
0.185572 0.503017 3.77951
0.129339 0.459008 3.82598
0.239132 0.764645 3.71731
0.225095 0.736682 3.75592
0.210232 0.705808 3.78548
0.138679 0.29635 3.78941
0.107754 0.700878 3.82059
0.114991 0.749959 3.80453
0.121412 0.801398 3.78772
0.215096 0.580531 3.74438
0.269853 0.551605 3.71026
0.117585 0.590052 3.75679
0.244672 0.620077 3.73237
0.104473 0.552102 3.80176
0.110445 0.466169 3.87202
0.295301 0.533171 3.68225
0.254948 0.5349 3.73333
0.224835 0.526421 3.75693
0.180435 0.530862 3.76715
0.146504 0.541491 3.77204
0.121455 0.553762 3.77828
0.0736605 0.587654 3.82756
0.295151 0.481126 3.69062
0.26287 0.623719 3.71966
0.0644896 0.436294 3.89643
0.11958 0.509901 3.80537
0.324408 0.575591 3.52627
0.104101 0.568071 3.78156
0.133435 0.457129 3.80225
0.234272 0.603332 3.72509
0.110248 0.483174 3.86187
0.313012 0.4047 3.52421
0.118134 0.59977 3.74978
0.0920955 0.499174 3.8853
0.240696 0.285162 3.68784
0.238839 0.255523 3.64194
0.319787 0.471726 3.60114
0.2716 0.318704 3.65511
0.301463 0.627458 3.63464
0.141485 0.200536 3.76934
0.0648189 0.430498 3.86483
0.140228 0.490885 3.79787
0.289721 0.580984 3.67165
0.195177 0.591367 3.75324
0.17369 0.588928 3.75837
0.14334 0.32914 3.78578
0.291833 0.430431 3.68542
0.0984917 0.163349 3.7634
0.171274 0.19985 3.71021
0.20228 0.223039 3.67993
0.15284 0.589962 3.75911
0.134822 0.594119 3.75521
0.123974 0.596992 3.74985
0.280044 0.62714 3.69411
0.13589 0.616259 3.75846
0.154898 0.622719 3.76313
0.176494 0.624475 3.76216
0.198383 0.620781 3.75689
0.212379 0.614265 3.74959
0.318871 0.633879 3.56567
0.209659 0.595246 3.74563
0.130102 0.393798 3.81872
0.108922 0.445919 3.84876
0.0853619 0.400666 3.84147
0.207036 0.252836 3.71333
0.175 0.226723 3.74017
0.0983563 0.181335 3.79481
0.268871 0.292267 3.59289
0.123759 0.606563 3.75287
0.089465 0.546264 3.83731
0.138056 0.179122 3.74209
0.31195 0.416522 3.60734
0.0975486 0.335427 3.81396
0.100457 0.329271 3.81944
0.103242 0.31902 3.82412
0.106046 0.305163 3.82107
0.112789 0.279715 3.8031
0.132001 0.340165 3.78886
0.13992 0.342495 3.78911
0.146935 0.346434 3.78961
0.170862 0.362074 3.78661
0.259246 0.418007 3.73746
0.0889383 0.571491 3.81291
0.100505 0.619437 3.76956
0.113955 0.61429 3.75805
0.12586 0.342878 3.78619
0.262196 0.356353 3.70204
0.0802484 0.62302 3.80158
0.12436 0.253885 3.79234
0.073037 0.560666 3.85415
0.104841 0.50541 3.839
0.0871567 0.239517 3.80939
0.180297 0.303147 3.76321
0.153268 0.436662 3.79651
0.154063 0.274787 3.77661
0.207397 0.441011 3.78724
0.176032 0.412109 3.79217
0.227344 0.400239 3.7681
0.0949162 0.207422 3.80738
0.118355 0.490306 3.82168
0.200048 0.282433 3.74107
0.16817 0.253289 3.75985
0.201514 0.335245 3.75909
0.28501 0.387012 3.67859
0.230096 0.32968 3.73586
0.298188 0.365146 3.61962
0.194487 0.380473 3.78032
0.103996 0.528278 3.81982
0.103042 0.454571 3.87686
0.117397 0.447862 3.85152
0.094769 0.472508 3.89452
0.119062 0.642905 3.77641
0.156117 0.656859 3.78085
0.188685 0.65858 3.77884
0.21621 0.653463 3.76811
0.234693 0.64115 3.75272
0.249082 0.595485 3.71528
0.319897 0.524891 3.60358
0.23282 0.561004 3.73644
0.208681 0.55406 3.75146
0.176927 0.554498 3.76096
0.146463 0.560416 3.76548
0.123853 0.569263 3.76613
0.108718 0.57795 3.76784
0.322804 0.520681 3.50901
0.11664 0.441237 3.83939
0.090131 0.523592 3.85772
0.0884128 0.453615 3.89719
0.0747218 0.44066 3.88748
0.0876678 0.449207 3.88485
0.110777 0.433356 3.83176
0.0711183 0.438036 3.89384
0.071252 0.432416 3.86529
0.110001 0.598253 3.75482
0.0964779 0.592528 3.77098
0.0899639 0.588833 3.78848
0.220822 0.609271 3.74141
0.231681 0.618306 3.74023
