ply
format ascii 1.0
comment Created by Open3D
element vertex 468
property double x
property double y
property double z
end_header
-0.0246808 0.342094 4.13167
-0.0244124 0.418093 4.1908
-0.0271587 0.392062 4.12899
-0.0438934 0.502279 4.15373
-0.0233448 0.445083 4.19896
-0.0217852 0.478917 4.18758
-0.0239607 0.559708 4.11764
-0.202788 0.566791 4.01679
-0.024912 0.627379 4.09866
-0.0252015 0.66318 4.10294
-0.0262979 0.790579 4.07344
-0.0241584 0.330006 4.12892
-0.023598 0.320427 4.12106
-0.0230965 0.316385 4.11007
-0.0236559 0.300863 4.10879
-0.0238886 0.290495 4.11294
-0.0230348 0.27634 4.11738
-0.0230631 0.260941 4.11286
-0.0244571 0.235096 4.08726
-0.0239109 0.403995 4.17793
-0.0459528 0.40592 4.14499
-0.28909 0.66255 3.88952
-0.128609 0.542173 4.04128
-0.153379 0.540376 4.03976
-0.177608 0.542519 4.03286
-0.209985 0.557897 4.01215
-0.109083 0.548959 4.03959
-0.15993 0.612965 4.05004
-0.133284 0.609553 4.05134
-0.185517 0.609801 4.04184
-0.202469 0.600143 4.03204
-0.229828 0.541084 4.00054
-0.112208 0.197751 4.06126
-0.211609 0.573713 4.00786
-0.299895 0.552496 3.88499
-0.254797 0.558843 3.97382
-0.148158 0.440725 4.07441
-0.0542428 0.346461 4.12764
-0.0491979 0.321542 4.11649
-0.0844831 0.340817 4.11244
-0.104108 0.332278 4.09266
-0.0707102 0.3214 4.10457
-0.0887487 0.319659 4.08668
-0.132021 0.290713 4.05514
-0.0430685 0.418776 4.18935
-0.0449569 0.444478 4.19659
-0.237519 0.627454 4.02162
-0.0978717 0.502879 4.07254
-0.0966443 0.42715 4.12706
-0.0979159 0.440669 4.11899
-0.224878 0.44343 4.04109
-0.044215 0.476196 4.17911
-0.181546 0.655823 4.06926
-0.21478 0.647565 4.04721
-0.263354 0.709421 3.93926
-0.077735 0.631812 4.09183
-0.112088 0.599775 4.04431
-0.151762 0.316456 4.0496
-0.275619 0.31495 3.82712
-0.0805968 0.412716 4.1185
-0.0606386 0.403792 4.12289
-0.12835 0.318359 4.04974
-0.113948 0.318062 4.05617
-0.227739 0.664596 4.03485
-0.0965144 0.416658 4.11387
-0.137479 0.652093 4.08569
-0.141148 0.673305 4.0907
-0.166001 0.772372 4.03989
-0.244497 0.687223 3.99429
-0.152064 0.72448 4.06702
-0.252937 0.638219 3.99916
-0.270733 0.648811 3.94855
-0.0522257 0.332262 4.12468
-0.0772225 0.329341 4.10968
-0.0964063 0.325992 4.09183
-0.0747794 0.408204 4.11413
-0.121143 0.318261 4.0537
-0.108925 0.309924 4.06999
-0.109404 0.318442 4.05647
-0.0686707 0.419553 4.15054
-0.0823824 0.320704 4.08241
-0.0655914 0.319863 4.0951
-0.0459069 0.317897 4.10521
-0.0560083 0.237918 4.08716
-0.052693 0.265017 4.11025
-0.0518763 0.280737 4.11333
-0.0511094 0.294557 4.10793
-0.0486607 0.303137 4.10355
-0.0865183 0.310034 4.08065
-0.0895407 0.307063 4.08583
-0.0940556 0.300688 4.09029
-0.0995089 0.291852 4.08539
-0.126014 0.355821 4.08537
-0.307256 0.440984 3.78622
-0.0275229 0.39876 4.14648
-0.0981216 0.312696 4.06532
-0.103182 0.312338 4.06937
-0.0542619 0.39271 4.12276
-0.0906642 0.401946 4.09819
-0.0571447 0.39787 4.12339
-0.124601 0.488649 4.06456
-0.166641 0.472544 4.05904
-0.102009 0.430008 4.10551
-0.224051 0.746668 3.99356
-0.206831 0.71376 4.03391
-0.19015 0.676671 4.06477
-0.112604 0.270099 4.06734
-0.0852285 0.666356 4.10215
-0.0934409 0.726463 4.08606
-0.101603 0.7854 4.06836
-0.198275 0.547926 4.02227
-0.255488 0.522713 3.98746
-0.0973856 0.556479 4.03571
-0.228598 0.591258 4.00891
-0.0805426 0.519137 4.0808
-0.0827841 0.435395 4.15137
-0.28172 0.505156 3.95901
-0.240204 0.505299 4.01118
-0.208625 0.496124 4.03523
-0.16192 0.499559 4.04556
-0.126188 0.509373 4.05101
-0.0996106 0.521162 4.0574
-0.0475871 0.552751 4.10719
-0.28208 0.452438 3.96863
-0.246913 0.595195 3.99589
-0.0351583 0.405305 4.17631
-0.0951712 0.478518 4.08463
-0.312536 0.554032 3.79971
-0.0816477 0.535115 4.06082
-0.106959 0.428664 4.08193
-0.218839 0.572934 4.0022
-0.0829186 0.452047 4.14114
-0.296634 0.379291 3.80039
-0.097681 0.566377 4.02826
-0.0637283 0.46665 4.16445
-0.217432 0.256111 3.96672
-0.215189 0.226352 3.92001
-0.306272 0.445273 3.87813
-0.250969 0.289305 3.93389
-0.287661 0.60386 3.90927
-0.116002 0.171673 4.04718
-0.0363519 0.399957 4.14517
-0.116604 0.460403 4.07724
-0.275194 0.55383 3.9477
-0.177748 0.557283 4.03178
-0.15518 0.55446 4.03696
-0.115423 0.305536 4.06581
-0.277303 0.401239 3.96475
-0.0731545 0.134786 4.04159
-0.145323 0.171652 3.98771
-0.176705 0.194179 3.95747
-0.0261875 0.727264 4.09083
-0.0232815 0.126521 4.04935
-0.133837 0.555649 4.03787
-0.115339 0.560092 4.03361
-0.104061 0.563402 4.02836
-0.264652 0.599874 3.96984
-0.115574 0.582849 4.03729
-0.135174 0.589944 4.04137
-0.157302 0.592426 4.04091
-0.179968 0.589051 4.0352
-0.194621 0.582582 4.02772
-0.306469 0.613856 3.83901
-0.192854 0.561894 4.02381
-0.0268553 0.375999 4.12335
-0.102889 0.368937 4.09847
-0.0810634 0.416216 4.12823
-0.0580349 0.374657 4.12107
-0.0238844 0.593869 4.09853
-0.181452 0.224211 3.99195
-0.149381 0.198242 4.01866
-0.0732143 0.151746 4.07217
-0.247557 0.263608 3.87046
-0.103422 0.573205 4.03114
-0.0632583 0.512662 4.11652
-0.0225773 0.144217 4.07802
-0.112127 0.151018 4.0195
-0.296541 0.388951 3.8851
-0.0699278 0.306785 4.09297
-0.0731086 0.300703 4.09819
-0.0760524 0.29038 4.10202
-0.0794514 0.276248 4.09829
-0.0876806 0.251606 4.07887
-0.103689 0.319288 4.06987
-0.112479 0.322139 4.06998
-0.11974 0.325989 4.0704
-0.144614 0.33864 4.06727
-0.243299 0.388183 4.01794
-0.0639389 0.537572 4.09235
-0.0787979 0.585965 4.04974
-0.0933153 0.581503 4.03706
-0.0969879 0.321503 4.06698
-0.242701 0.327122 3.9821
-0.0559829 0.588512 4.08187
-0.101022 0.224775 4.06907
-0.0224739 0.506229 4.16336
-0.0456181 0.525805 4.13367
-0.0235828 0.531553 4.1396
-0.0790531 0.473451 4.11831
-0.0226981 0.170775 4.09051
-0.0237751 0.204707 4.08928
-0.0636729 0.208749 4.08528
-0.153855 0.276822 4.04276
-0.127494 0.408759 4.07588
-0.129037 0.247455 4.05498
-0.188039 0.41107 4.06749
-0.152172 0.384356 4.07198
-0.207508 0.37092 4.04881
-0.0707962 0.176938 4.08412
-0.0925915 0.459555 4.10086
-0.174738 0.254485 4.02042
-0.143072 0.225056 4.03866
-0.17576 0.309142 4.03931
-0.267929 0.357563 3.95817
-0.206852 0.301093 4.01601
-0.280038 0.33676 3.89792
-0.170644 0.353733 4.06075
-0.0790377 0.495775 4.09885
-0.075177 0.423804 4.15605
-0.0895185 0.418528 4.13117
-0.0655505 0.441163 4.17395
-0.0979574 0.609289 4.05663
-0.13603 0.624886 4.06113
-0.169655 0.628656 4.05846
-0.198557 0.624698 4.04685
-0.218074 0.612523 4.03032
-0.233644 0.566094 3.99168
-0.306795 0.499374 3.87921
-0.217101 0.530316 4.01413
-0.191552 0.522572 4.02922
-0.158255 0.521846 4.03915
-0.126666 0.527078 4.04398
-0.102945 0.535884 4.04518
-0.0875733 0.544862 4.04707
-0.310644 0.497928 3.78355
-0.0884387 0.412535 4.11881
-0.063137 0.490393 4.13689
-0.0588536 0.422511 4.17666
-0.0450451 0.409503 4.16684
-0.0586901 0.418376 4.16422
-0.0823101 0.405035 4.11143
-0.0415721 0.407073 4.17354
-0.0421635 0.40185 4.14528
-0.089112 0.5651 4.0342
-0.0746752 0.559191 4.05056
-0.0666489 0.555244 4.06857
-0.203719 0.577812 4.01903
-0.215285 0.5889 4.01797
-0.00197339 0.502184 4.15589
0.162755 0.568024 4.0149
-0.00454253 0.404476 4.1444
0.257488 0.672426 3.88951
0.0902378 0.54349 4.04529
0.116982 0.541529 4.04212
0.141654 0.543431 4.03373
0.174687 0.559139 4.01078
0.0659377 0.550191 4.04203
0.12334 0.617767 4.0522
0.0942836 0.614121 4.05197
0.149596 0.614299 4.04227
0.167538 0.60436 4.03032
0.195006 0.542567 3.99612
0.0722573 0.188627 4.05582
0.171287 0.575641 4.00584
0.268765 0.555283 3.88167
0.22174 0.561581 3.9689
0.107161 0.439322 4.06867
0.00752359 0.34501 4.12797
0.00545165 0.319955 4.11723
0.0419299 0.33671 4.11298
0.0646512 0.32757 4.09394
0.0306795 0.317955 4.10757
0.0495406 0.315899 4.08944
0.0950003 0.283871 4.05281
-0.00386846 0.418222 4.18735
0.000257915 0.444435 4.19436
0.206578 0.634118 4.01802
0.054448 0.502994 4.07349
0.0532225 0.425324 4.12567
0.0558068 0.439254 4.11808
0.191722 0.441222 4.03241
5.37501e-06 0.476061 4.18038
0.141624 0.664174 4.06178
0.178983 0.655247 4.04091
0.229594 0.721373 3.93857
0.0291686 0.635095 4.08905
0.0687926 0.603478 4.04621
0.115441 0.309957 4.04841
0.245832 0.302648 3.82292
0.0324907 0.410535 4.1172
0.00993739 0.40237 4.11826
0.0877619 0.312897 4.05357
0.0780949 0.313297 4.05932
0.19313 0.673614 4.02818
0.0534291 0.414357 4.11164
0.0924629 0.658815 4.07838
0.0968683 0.680965 4.08298
0.122356 0.782613 4.03779
0.211208 0.697522 3.98982
0.105478 0.733265 4.06288
0.221872 0.645814 3.99557
0.239245 0.657377 3.94554
0.00711934 0.330558 4.12543
0.0354304 0.325651 4.11174
0.0569802 0.321554 4.09372
0.0246763 0.406044 4.11091
0.0824896 0.313186 4.0563
0.0714991 0.30535 4.07017
0.0761209 0.313797 4.05967
0.0229598 0.417754 4.15264
0.0464003 0.317389 4.08561
0.0263314 0.317079 4.09848
0.00352508 0.316623 4.10796
0.0108924 0.23539 4.08387
0.00983104 0.262946 4.1101
0.00845406 0.278777 4.1145
0.00573232 0.292416 4.11002
0.00355621 0.301178 4.10595
0.0483649 0.30629 4.08215
0.0523879 0.303294 4.08557
0.0579359 0.296481 4.08823
0.0617908 0.287401 4.08342
0.0847507 0.352006 4.08222
0.26859 0.436901 3.78326
0.0611862 0.308351 4.0692
0.065844 0.307892 4.0709
0.00217732 0.39136 4.12157
0.0420134 0.399538 4.09256
0.00569801 0.396372 4.12024
0.0825447 0.488571 4.06443
0.126482 0.472008 4.05455
0.0591073 0.428104 4.10383
0.186957 0.759142 3.99071
0.168881 0.724493 4.0278
0.150235 0.686116 4.05764
0.0743994 0.263724 4.06539
0.0369607 0.670885 4.09744
0.0433017 0.731186 4.08286
0.0537874 0.791267 4.06451
0.163131 0.548828 4.02142
0.22305 0.523786 3.98054
0.0501631 0.557089 4.04009
0.194974 0.595199 4.00676
0.0357544 0.519467 4.08291
0.0391874 0.434171 4.15012
0.252354 0.505181 3.95256
0.206708 0.505658 4.00562
0.172806 0.496412 4.0306
0.121267 0.499886 4.04467
0.0836996 0.509811 4.05174
0.0560392 0.521574 4.05881
-0.000189177 0.553282 4.10842
0.252074 0.449437 3.96173
0.216668 0.599883 3.99347
-0.0116186 0.404752 4.17661
0.0505112 0.478047 4.08605
0.273489 0.557051 3.79923
0.0344559 0.535781 4.06294
0.0595545 0.426973 4.07834
0.180984 0.575137 4.00059
0.0415673 0.451046 4.14011
0.262134 0.370892 3.79544
0.0495659 0.566677 4.03457
0.0219024 0.466229 4.1648
0.188882 0.241491 3.95807
0.187011 0.209552 3.91457
0.271851 0.441433 3.87181
0.225213 0.276143 3.92492
0.254407 0.609885 3.907
0.076026 0.161089 4.04343
-0.0187494 0.399595 4.14472
0.0740486 0.459709 4.07563
0.244475 0.556275 3.94327
0.137457 0.558373 4.0317
0.115347 0.555934 4.03928
0.0772697 0.300394 4.06598
0.248609 0.395368 3.95519
0.0280595 0.128236 4.0408
0.10621 0.156826 3.98661
0.142922 0.177405 3.95527
0.0929977 0.557367 4.04085
0.0712829 0.561517 4.03857
0.0564549 0.564037 4.03461
0.235599 0.605312 3.96682
0.0747495 0.584641 4.04278
0.0984022 0.592537 4.04455
0.120449 0.59482 4.04277
0.142445 0.5915 4.03536
0.156573 0.584939 4.02618
0.269574 0.620817 3.83793
0.152395 0.562951 4.02268
0.0579556 0.365768 4.09588
0.033551 0.41431 4.12491
0.00782034 0.373312 4.12049
0.148672 0.209168 3.98497
0.113232 0.184279 4.01235
0.0311546 0.145696 4.06991
0.219447 0.248359 3.86658
0.0571123 0.573623 4.03866
0.0171529 0.51274 4.11764
0.0692878 0.139752 4.01951
0.266409 0.381504 3.87656
0.027797 0.30359 4.09566
0.0319695 0.297304 4.09958
0.0361546 0.286888 4.10301
0.0381442 0.272552 4.09867
0.0467837 0.246674 4.07802
0.0676412 0.314873 4.07289
0.0742831 0.317251 4.07348
0.0817574 0.320949 4.07304
0.106041 0.333674 4.06578
0.214575 0.382617 4.00635
0.0169879 0.538218 4.09409
0.0286727 0.587694 4.05067
0.0450383 0.583074 4.0423
0.0630517 0.317515 4.07099
0.214902 0.317409 3.97147
0.00828267 0.589832 4.08219
0.0608453 0.217846 4.064
-0.000729663 0.526058 4.13353
0.0348773 0.473127 4.11736
0.0196674 0.204958 4.0813
0.119009 0.267855 4.03681
0.0830409 0.406413 4.07099
0.0924927 0.238606 4.04857
0.15229 0.408254 4.05597
0.111679 0.381024 4.06512
0.176277 0.365596 4.0368
0.0283905 0.171918 4.08163
0.049323 0.458735 4.10024
0.140694 0.242514 4.01289
0.105959 0.213696 4.03091
0.141971 0.301142 4.03564
0.241459 0.349122 3.94711
0.177932 0.290866 4.00693
0.252991 0.326024 3.88964
0.135364 0.348868 4.05432
0.0335428 0.495764 4.10092
0.0314694 0.422003 4.15609
0.0450912 0.416532 4.12795
0.0208129 0.440084 4.17381
0.050085 0.611858 4.05788
0.0918676 0.629624 4.05885
0.129102 0.634539 4.05495
0.160597 0.630581 4.04375
0.183426 0.618079 4.02714
0.198829 0.568581 3.98866
0.273767 0.498768 3.87602
0.18156 0.53137 4.01035
0.154239 0.523534 4.02664
0.119509 0.522813 4.03898
0.0863142 0.528159 4.0459
0.0593727 0.536769 4.04615
0.041009 0.54557 4.04884
0.270731 0.497533 3.78342
0.0430984 0.410224 4.11566
0.0172833 0.490258 4.13849
0.0134275 0.421221 4.1752
9.75454e-05 0.408159 4.16531
0.0134728 0.416584 4.16344
0.0350662 0.402627 4.10675
-0.00413092 0.406104 4.17222
-0.0104801 0.40079 4.1441
0.0392668 0.565902 4.03756
0.0263267 0.560197 4.05187
0.0187432 0.556335 4.06892
0.164595 0.579972 4.01686
0.180294 0.592489 4.01482
