ply
format ascii 1.0
comment Created by Open3D
element vertex 468
property double x
property double y
property double z
end_header
0.0162663 0.308531 3.99121
0.023458 0.374587 4.04336
0.0209522 0.353227 3.99019
0.00159879 0.444439 4.00817
0.0231327 0.396808 4.05023
0.0215753 0.424475 4.0392
0.0210099 0.493686 3.97019
-0.153427 0.492617 3.87501
0.0197682 0.549828 3.94988
0.0194725 0.580649 3.95022
0.0211088 0.686574 3.91706
0.0152974 0.298018 3.98865
0.0141953 0.289411 3.98206
0.0131399 0.286119 3.97322
0.016098 0.232787 3.95014
0.0158936 0.222024 3.95408
0.015156 0.208462 3.95736
0.0149309 0.195109 3.95166
0.0145258 0.176527 3.9312
0.0219762 0.361845 4.03184
0.00155861 0.363548 4.00236
-0.236034 0.586818 3.75919
-0.0866291 0.474676 3.90165
-0.11017 0.472002 3.89862
-0.132944 0.473613 3.8915
-0.165362 0.485908 3.87189
-0.0659714 0.482563 3.89892
-0.11716 0.538205 3.90978
-0.0912717 0.536662 3.90823
-0.141896 0.534948 3.90143
-0.158632 0.526072 3.8902
-0.18214 0.474512 3.86037
-0.0807421 0.152161 3.90494
-0.161815 0.498583 3.86695
-0.245493 0.488888 3.75891
-0.205632 0.49143 3.83552
-0.106283 0.389664 3.92973
-0.0190924 0.311091 3.98657
-0.0181737 0.288971 3.97719
-0.0565041 0.302392 3.97018
-0.079708 0.293332 3.94779
-0.0449001 0.286031 3.965
-0.0640186 0.283144 3.94498
-0.107791 0.243397 3.903
0.00421429 0.374397 4.04016
0.000536102 0.395529 4.04599
-0.193058 0.552461 3.87874
-0.0545438 0.443505 3.93076
-0.0542138 0.379844 3.98395
-0.0571107 0.390784 3.97646
-0.181114 0.391453 3.89707
0.000932214 0.421991 4.03187
-0.134071 0.578999 3.9171
-0.168124 0.570541 3.89857
-0.211361 0.626911 3.80029
-0.0308508 0.556741 3.9413
-0.0689773 0.528887 3.90258
-0.12518 0.27372 3.90236
-0.22373 0.270641 3.72156
-0.0352126 0.369 3.97724
-0.0154398 0.361736 3.97958
-0.10438 0.274045 3.90459
-0.0928243 0.273045 3.91032
-0.181099 0.586359 3.88631
-0.0558612 0.370656 3.97194
-0.0893416 0.57595 3.93193
-0.0929508 0.594236 3.93471
-0.113847 0.677684 3.88607
-0.195904 0.606262 3.84802
-0.100066 0.638107 3.91071
-0.206326 0.563079 3.85819
-0.220604 0.573547 3.80979
-0.0194668 0.2984 3.98393
-0.0503543 0.292892 3.9682
-0.0721013 0.288246 3.94796
-0.0291957 0.365422 3.97142
-0.0985499 0.27355 3.90735
-0.0869339 0.255955 3.91595
-0.0893331 0.27321 3.9106
-0.022531 0.374366 4.00779
-0.0603879 0.284465 3.94284
-0.0404068 0.285923 3.95807
-0.0164517 0.28617 3.96931
-0.0247107 0.179105 3.92791
-0.0233556 0.198726 3.94829
-0.0208977 0.212267 3.95292
-0.0173713 0.2257 3.94953
-0.0145549 0.234661 3.9465
-0.0600791 0.249177 3.92534
-0.0652065 0.245875 3.9281
-0.0728103 0.239678 3.93013
-0.0780798 0.232584 3.92535
-0.0938802 0.313795 3.93925
-0.244078 0.390423 3.68071
0.0229977 0.35865 4.00507
-0.0732665 0.257625 3.91514
-0.0799432 0.257485 3.91666
-0.00938428 0.352129 3.98278
-0.0483698 0.359229 3.95565
-0.0120499 0.356674 3.98147
-0.081281 0.431316 3.92355
-0.12247 0.417836 3.91565
-0.0618192 0.381578 3.96368
-0.17279 0.657753 3.8453
-0.157699 0.629126 3.88109
-0.141676 0.59713 3.91135
-0.0881991 0.217879 3.91156
-0.0379757 0.587181 3.94665
-0.0427864 0.637397 3.92776
-0.051231 0.685491 3.90959
-0.153421 0.477763 3.88102
-0.206235 0.460614 3.84791
-0.0527878 0.490152 3.89724
-0.183187 0.518343 3.86768
-0.036593 0.457488 3.93927
-0.0385958 0.387525 4.00573
-0.231177 0.444971 3.82471
-0.192017 0.445728 3.87045
-0.162661 0.438157 3.89236
-0.116669 0.440433 3.90428
-0.0819129 0.448451 3.91029
-0.0557378 0.458753 3.91634
-0.00166141 0.487957 3.96122
-0.231544 0.398531 3.83443
-0.200872 0.522753 3.85601
0.0105366 0.362211 4.0306
-0.0520895 0.423188 3.94412
-0.250096 0.493515 3.68812
-0.0359179 0.471939 3.91975
-0.0638415 0.381785 3.94025
-0.171969 0.500059 3.86259
-0.0412556 0.400953 3.99601
-0.238008 0.332921 3.69499
-0.0528568 0.498136 3.89105
-0.020889 0.413091 4.01825
-0.179244 0.212031 3.82883
-0.177269 0.182938 3.79603
-0.248442 0.392922 3.75638
-0.208344 0.243897 3.80448
-0.232926 0.534535 3.77819
-0.083729 0.127583 3.89623
0.0145417 0.359478 4.00336
-0.0751972 0.40734 3.93579
-0.224933 0.487806 3.8131
-0.129405 0.485811 3.8898
-0.108949 0.48438 3.89633
-0.093608 0.253371 3.91272
-0.229987 0.351249 3.83065
-0.0391582 0.0929326 3.89627
-0.111402 0.129152 3.85069
-0.142054 0.151488 3.82584
0.0205275 0.634649 3.93476
0.0114175 0.0888673 3.90376
-0.0897054 0.486572 3.89764
-0.0713118 0.491542 3.89553
-0.0589739 0.495607 3.89117
-0.216931 0.528443 3.83314
-0.0736702 0.505136 3.89789
-0.0939458 0.506998 3.90034
-0.112252 0.50752 3.89897
-0.131878 0.505585 3.89308
-0.145899 0.502162 3.88492
-0.246627 0.545803 3.7182
-0.143322 0.488914 3.88218
0.0192044 0.338064 3.98482
-0.0676405 0.326895 3.95565
-0.0349666 0.372402 3.98331
-0.0169162 0.334833 3.98061
0.0200729 0.52127 3.95132
-0.146988 0.18052 3.84845
-0.117014 0.154447 3.87108
-0.0409613 0.108136 3.91867
-0.202584 0.219646 3.759
-0.0592305 0.501284 3.89402
-0.0180795 0.452907 3.9713
0.0117175 0.103748 3.92539
-0.07863 0.108176 3.87747
-0.243933 0.339746 3.76279
-0.0395566 0.241006 3.93699
-0.0445756 0.23484 3.93935
-0.050274 0.224496 3.94168
-0.053981 0.21248 3.9369
-0.0617437 0.19489 3.92135
-0.0819688 0.279496 3.92625
-0.0894542 0.282154 3.92557
-0.0966159 0.285528 3.92522
-0.114242 0.297009 3.9197
-0.201096 0.339559 3.87461
-0.0184025 0.474344 3.94897
-0.0322473 0.517556 3.90645
-0.047526 0.512819 3.89775
-0.0767961 0.281867 3.92589
-0.201831 0.280963 3.84296
-0.0109683 0.518056 3.93607
-0.0726502 0.175596 3.91169
0.0212319 0.447973 4.01533
-0.000101292 0.464898 3.98515
0.021486 0.470093 3.99104
-0.0358315 0.419275 3.97362
0.0123115 0.126866 3.93381
0.0134048 0.154323 3.93264
-0.0317193 0.157681 3.92537
-0.124832 0.232208 3.89059
-0.0860498 0.362681 3.93231
-0.102076 0.200772 3.89917
-0.147442 0.361792 3.91809
-0.113056 0.338802 3.92486
-0.168258 0.323942 3.89933
-0.0385151 0.131257 3.92642
-0.0511137 0.407168 3.95862
-0.14181 0.209883 3.87154
-0.111909 0.180244 3.88562
-0.143779 0.26588 3.89223
-0.223945 0.309881 3.82417
-0.172399 0.255901 3.86902
-0.231987 0.289521 3.77638
-0.135371 0.310333 3.91236
-0.0348188 0.43807 3.95687
-0.0302531 0.377804 4.01085
-0.0462238 0.373039 3.98686
-0.0193355 0.392594 4.02727
-0.051211 0.538565 3.91178
-0.0889996 0.55296 3.91338
-0.123052 0.555569 3.91119
-0.152209 0.550335 3.90122
-0.173071 0.53848 3.88556
-0.186298 0.495883 3.85237
-0.249749 0.441324 3.75737
-0.170334 0.464933 3.87306
-0.145492 0.458794 3.88709
-0.114076 0.457746 3.89777
-0.0837797 0.462583 3.90374
-0.0593641 0.471451 3.90405
-0.0429967 0.480117 3.90646
-0.247104 0.442983 3.67732
-0.0457678 0.367948 3.97575
-0.0173906 0.433983 3.99238
-0.0124239 0.376888 4.02869
-0.0010082 0.365164 4.0205
-0.0129987 0.373041 4.01828
-0.0401849 0.361782 3.96822
0.00321612 0.363378 4.02681
0.00702576 0.360371 4.00236
-0.0429683 0.499111 3.89486
-0.0298369 0.493701 3.9085
-0.0217007 0.489913 3.92522
-0.154833 0.49993 3.87703
-0.170878 0.515108 3.87559
0.0401798 0.445215 4.00734
0.174817 0.496701 3.88007
0.0412313 0.363909 4.00348
0.250976 0.587822 3.76282
0.111309 0.477198 3.90182
0.132492 0.475457 3.9002
0.153564 0.477588 3.89455
0.182511 0.489913 3.87695
0.0944552 0.483872 3.90054
0.137072 0.537599 3.91076
0.115062 0.535493 3.9101
0.159737 0.534979 3.90391
0.17533 0.52663 3.89486
0.198567 0.478142 3.8676
0.0969529 0.159439 3.91239
0.182461 0.502025 3.87206
0.257959 0.493249 3.76578
0.220022 0.494401 3.8432
0.13018 0.393139 3.93673
0.0485193 0.312858 3.98863
0.0422014 0.290233 3.97825
0.0799408 0.306665 3.97404
0.099408 0.29801 3.95189
0.065342 0.289202 3.96625
0.0830731 0.286907 3.94696
0.122522 0.248873 3.90952
0.040939 0.374805 4.04202
0.0426797 0.396035 4.0479
0.204981 0.551058 3.8845
0.0856794 0.445658 3.93241
0.0891916 0.383015 3.9874
0.0902897 0.393947 3.97976
0.194669 0.396738 3.90726
0.0417487 0.422808 4.03188
0.154518 0.574531 3.92389
0.184355 0.567372 3.90511
0.229146 0.625717 3.80371
0.0646585 0.554555 3.94393
0.097124 0.52829 3.90367
0.138927 0.279655 3.9079
0.229471 0.283144 3.72705
0.0735734 0.371485 3.97956
0.0551464 0.362818 3.98404
0.121553 0.278675 3.90808
0.108271 0.277268 3.91295
0.195891 0.582462 3.89279
0.0891317 0.373638 3.97605
0.115699 0.571842 3.93771
0.119243 0.58946 3.94071
0.143542 0.674753 3.8894
0.211907 0.604057 3.85421
0.130157 0.634405 3.91505
0.218207 0.561828 3.8637
0.234686 0.573511 3.81571
0.0459238 0.300016 3.98527
0.0725123 0.296714 3.97066
0.0915868 0.292483 3.95146
0.0682051 0.367388 3.97558
0.115326 0.277798 3.91086
0.104812 0.25945 3.92069
0.103501 0.277292 3.91302
0.0627397 0.376468 4.00783
0.0768816 0.287778 3.9441
0.0597744 0.288467 3.95854
0.0384293 0.287251 3.96929
0.0491999 0.180848 3.93206
0.0486542 0.200165 3.95039
0.047755 0.213905 3.95388
0.046213 0.227466 3.94946
0.0430082 0.23639 3.94597
0.0809197 0.252392 3.92706
0.0850553 0.248758 3.93151
0.0912687 0.24242 3.93559
0.0969683 0.235525 3.93167
0.115795 0.318546 3.94522
0.258933 0.398266 3.68581
0.0915923 0.261261 3.91574
0.098526 0.260943 3.91973
0.0488695 0.35328 3.98522
0.0833573 0.361714 3.96232
0.0518708 0.357578 3.9849
0.109184 0.434112 3.92697
0.145083 0.421272 3.92257
0.0936997 0.384755 3.96788
0.194506 0.654873 3.84951
0.178504 0.625122 3.88754
0.16241 0.592165 3.91789
0.104932 0.22291 3.9173
0.0706132 0.583477 3.95048
0.0796242 0.635407 3.93038
0.0877782 0.683273 3.91341
0.17212 0.482084 3.88513
0.219991 0.465006 3.85654
0.0845197 0.491485 3.89725
0.198264 0.519776 3.87365
0.0699631 0.459122 3.9395
0.0762573 0.389797 4.00823
0.241676 0.450592 3.83295
0.206805 0.450534 3.87819
0.180586 0.442393 3.89988
0.140432 0.443699 3.90897
0.109567 0.451062 3.91282
0.0861681 0.460865 3.91762
0.0421034 0.488196 3.96118
0.241839 0.405728 3.84349
0.213873 0.524106 3.86166
0.0322612 0.362665 4.03051
0.084846 0.425682 3.94609
0.267143 0.497887 3.69177
0.0704857 0.473348 3.92001
0.0977887 0.38478 3.94638
0.190279 0.503066 3.86837
0.0764723 0.403243 3.99897
0.248807 0.342781 3.70099
0.0849684 0.499631 3.89006
0.0588731 0.414679 4.01916
0.183167 0.225481 3.83885
0.179266 0.197942 3.80429
0.261409 0.400603 3.76508
0.210788 0.257035 3.81405
0.248396 0.536933 3.78344
0.098994 0.136361 3.90279
0.0313946 0.35951 4.00396
0.103847 0.410366 3.94017
0.237198 0.491509 3.82021
0.152477 0.48963 3.89312
0.133135 0.487627 3.89767
0.111032 0.257105 3.91779
0.238028 0.359997 3.84141
0.0592852 0.0983042 3.89927
0.123389 0.141357 3.85642
0.149022 0.165917 3.83293
0.115343 0.488851 3.89847
0.099796 0.493187 3.89559
0.0904639 0.497063 3.8904
0.228749 0.529872 3.83853
0.0997314 0.50673 3.89677
0.11553 0.508429 3.9006
0.132398 0.509596 3.89969
0.151507 0.508398 3.89459
0.165213 0.505272 3.88845
0.263921 0.548374 3.72246
0.165667 0.49309 3.88618
0.0951493 0.331091 3.96095
0.0743869 0.374516 3.98717
0.0514582 0.336838 3.98283
0.154616 0.193118 3.85814
0.127478 0.165946 3.8798
0.0598893 0.113086 3.9224
0.205298 0.233865 3.76461
0.0897302 0.503131 3.89216
0.0560872 0.45391 3.97198
0.0948356 0.117714 3.88168
0.252811 0.349549 3.77313
0.0645426 0.243728 3.93725
0.0690233 0.237275 3.94103
0.0730969 0.226908 3.94428
0.0768781 0.214982 3.94036
0.0818796 0.198562 3.92553
0.0981444 0.283696 3.92828
0.106649 0.286803 3.92826
0.113575 0.290457 3.92891
0.131977 0.302394 3.92492
0.209327 0.347224 3.8861
0.0557476 0.475131 3.94898
0.0683665 0.517598 3.90733
0.0807094 0.513673 3.89664
0.091301 0.28593 3.92691
0.206956 0.29142 3.85391
0.0488175 0.517762 3.93676
0.0893396 0.181261 3.91827
0.0410589 0.465327 3.98575
0.0712402 0.421208 3.97616
0.0536163 0.160485 3.9304
0.136832 0.239955 3.89864
0.11473 0.366547 3.93858
0.115209 0.208005 3.90758
0.163572 0.366614 3.9289
0.134515 0.343495 3.9323
0.179136 0.330739 3.91025
0.0586083 0.135328 3.93015
0.0842659 0.409707 3.96192
0.151076 0.220659 3.8808
0.124094 0.189648 3.89504
0.154736 0.273672 3.89879
0.229161 0.320053 3.83594
0.178732 0.266298 3.87916
0.237023 0.301376 3.78527
0.150031 0.316172 3.91935
0.0699402 0.43992 3.95771
0.069442 0.380016 4.01218
0.0824514 0.375707 3.99099
0.061155 0.394218 4.02805
0.0838229 0.537967 3.9127
0.115808 0.551198 3.91703
0.145138 0.553524 3.91639
0.170706 0.549056 3.90674
0.189196 0.53809 3.89204
0.202334 0.498613 3.85935
0.262206 0.447494 3.76345
0.187989 0.469041 3.87954
0.165974 0.462714 3.89253
0.137479 0.460978 3.90145
0.109858 0.464902 3.90562
0.0893834 0.473028 3.90592
0.075677 0.481305 3.9077
0.263495 0.44918 3.68032
0.0813272 0.370507 3.98021
0.0569291 0.43546 3.99252
0.0549636 0.37813 4.03053
0.0413545 0.365805 4.02222
0.0540283 0.3745 4.01944
0.0757604 0.36411 3.97365
0.0380505 0.363686 4.02825
0.0373444 0.360708 4.0037
0.077257 0.499931 3.89504
0.0649885 0.494363 3.90964
0.0581309 0.490402 3.92619
0.174467 0.503066 3.88156
0.187228 0.516605 3.8821
