ply
format ascii 1.0
comment Created by Open3D
element vertex 468
property double x
property double y
property double z
end_header
-0.03379 0.3537 4.02352
-0.0346489 0.445275 4.08075
-0.0370462 0.413033 4.01845
-0.054079 0.521001 4.04355
-0.0339665 0.470679 4.08779
-0.0325067 0.501853 4.07595
-0.0330532 0.573732 4.0067
-0.201385 0.570069 3.91045
-0.0328084 0.640565 3.98623
-0.0321681 0.675513 3.99071
-0.0308911 0.782515 3.96528
-0.033418 0.340631 4.02084
-0.032877 0.330394 4.01256
-0.0324627 0.325297 4.0009
-0.0339462 0.31348 3.99788
-0.0341618 0.301242 4.00237
-0.0335693 0.286721 4.00683
-0.0335846 0.271094 4.00164
-0.0348489 0.251032 3.97459
-0.0340856 0.431894 4.06854
-0.0566215 0.430251 4.03512
-0.278722 0.643141 3.78932
-0.129254 0.550845 3.93462
-0.152827 0.54853 3.93311
-0.176064 0.548944 3.92654
-0.206386 0.560767 3.90497
-0.111012 0.556737 3.93277
-0.163452 0.616451 3.94089
-0.136736 0.61465 3.94275
-0.188038 0.611484 3.93302
-0.203439 0.60119 3.92425
-0.223562 0.542473 3.89386
-0.12066 0.22662 3.94412
-0.210089 0.57569 3.90196
-0.286012 0.542422 3.78083
-0.247158 0.557695 3.86769
-0.149393 0.45361 3.96498
-0.0629132 0.357977 4.0195
-0.0568842 0.330953 4.00797
-0.0917403 0.351071 4.00364
-0.109313 0.340693 3.98333
-0.0773846 0.330076 3.99613
-0.0942048 0.326844 3.97752
-0.139931 0.30064 3.94339
-0.0532237 0.446284 4.07954
-0.0557757 0.469999 4.08612
-0.236235 0.627289 3.91445
-0.103031 0.515014 3.96399
-0.106639 0.446034 4.0186
-0.107629 0.458125 4.01027
-0.215776 0.45259 3.93084
-0.0549536 0.498262 4.0687
-0.187787 0.659594 3.9603
-0.217181 0.648858 3.93916
-0.257623 0.690938 3.83923
-0.0867718 0.643827 3.98174
-0.115491 0.604873 3.93635
-0.156885 0.324067 3.93751
-0.262755 0.326306 3.71117
-0.0911705 0.43205 4.0101
-0.0718622 0.423821 4.01347
-0.134361 0.320951 3.93924
-0.120507 0.322323 3.94582
-0.229 0.663271 3.92776
-0.106468 0.433749 4.00561
-0.146538 0.660381 3.97601
-0.150223 0.680523 3.98119
-0.167912 0.760118 3.93615
-0.242666 0.677916 3.8904
-0.157555 0.720101 3.96097
-0.249846 0.635216 3.89352
-0.263852 0.637859 3.84604
-0.0602338 0.342819 4.01675
-0.0842328 0.338658 4.00109
-0.101898 0.333698 3.98274
-0.0854066 0.426607 4.00586
-0.127489 0.321132 3.94344
-0.117151 0.315418 3.95916
-0.116566 0.324157 3.94597
-0.0783535 0.444577 4.04205
-0.0879072 0.32753 3.97261
-0.0721398 0.327179 3.98571
-0.0533899 0.326327 3.99613
-0.066563 0.25395 3.97455
-0.0645291 0.27508 3.99985
-0.0631139 0.290432 4.00321
-0.0613008 0.304871 3.99791
-0.0583451 0.314825 3.99344
-0.0946235 0.318644 3.9708
-0.0984171 0.315454 3.97547
-0.104048 0.30873 3.97906
-0.109929 0.300093 3.97451
-0.129868 0.368074 3.97554
-0.290461 0.433728 3.67706
-0.0376473 0.423146 4.03629
-0.105597 0.319468 3.95527
-0.111135 0.318098 3.95872
-0.0649721 0.411957 4.01275
-0.100406 0.41659 3.98973
-0.0681349 0.417638 4.01394
-0.127037 0.499958 3.95552
-0.164658 0.482368 3.94958
-0.111213 0.445832 3.99699
-0.222777 0.731102 3.89172
-0.209774 0.706506 3.92832
-0.196324 0.678611 3.95679
-0.121238 0.283411 3.95503
-0.0940059 0.676726 3.99145
-0.0994154 0.724519 3.97867
-0.10526 0.775992 3.96206
-0.195473 0.552497 3.91572
-0.24606 0.523404 3.88108
-0.100216 0.562509 3.92898
-0.225677 0.591663 3.9023
-0.087149 0.531339 3.97177
-0.0928296 0.45828 4.04232
-0.269144 0.505049 3.85153
-0.23206 0.508257 3.90399
-0.203233 0.501869 3.92786
-0.160213 0.507885 3.93765
-0.127755 0.519265 3.94263
-0.103807 0.531444 3.9492
-0.0560425 0.565853 3.9974
-0.267303 0.456654 3.85934
-0.242635 0.594962 3.88953
-0.0451598 0.432961 4.0667
-0.101626 0.492231 3.97581
-0.296554 0.535773 3.69714
-0.087081 0.544503 3.95286
-0.115073 0.441691 3.9736
-0.215654 0.573714 3.89596
-0.0928418 0.472554 4.03208
-0.281415 0.380918 3.68767
-0.100886 0.570935 3.92232
-0.0742885 0.488446 4.05438
-0.212176 0.279326 3.84907
-0.210228 0.25238 3.80106
-0.289312 0.444253 3.76908
-0.239705 0.308728 3.81659
-0.276927 0.592023 3.80628
-0.124675 0.203939 3.9281
-0.0466263 0.423988 4.03497
-0.121195 0.473482 3.96832
-0.264977 0.550329 3.84229
-0.17702 0.562732 3.92527
-0.155298 0.561018 3.9304
-0.123877 0.311037 3.95475
-0.262003 0.410758 3.85192
-0.0845529 0.169512 3.92108
-0.151108 0.204011 3.8693
-0.177873 0.224517 3.83941
-0.0318732 0.727202 3.98126
-0.0356922 0.162292 3.9284
-0.134734 0.56275 3.93102
-0.116796 0.566518 3.92702
-0.106265 0.56847 3.92222
-0.258133 0.596609 3.86418
-0.118594 0.590534 3.93004
-0.137889 0.598906 3.93397
-0.160562 0.600426 3.93336
-0.182782 0.595421 3.92812
-0.1961 0.587442 3.92122
-0.29295 0.593267 3.73829
-0.191813 0.565994 3.91724
-0.0362676 0.393556 4.01369
-0.110158 0.382544 3.98935
-0.0912239 0.437276 4.02043
-0.0673615 0.390954 4.01185
-0.0322866 0.606455 3.98717
-0.183309 0.250972 3.87375
-0.155053 0.228176 3.8993
-0.08435 0.185558 3.95269
-0.237855 0.2832 3.7531
-0.106542 0.578655 3.92508
-0.0720134 0.528111 4.00729
-0.0343055 0.178004 3.95812
-0.121314 0.184703 3.89997
-0.280073 0.395193 3.77304
-0.0787422 0.316777 3.98303
-0.082613 0.310059 3.98808
-0.08676 0.299223 3.99186
-0.0907714 0.285416 3.98831
-0.0972496 0.266864 3.96709
-0.108867 0.324877 3.96006
-0.117433 0.327467 3.96021
-0.124303 0.331736 3.96059
-0.146888 0.347955 3.95695
-0.230451 0.401398 3.9048
-0.0716345 0.549874 3.98305
-0.0841991 0.591923 3.94226
-0.0970611 0.586146 3.93088
-0.102574 0.327384 3.95654
-0.231706 0.343751 3.86693
-0.0634954 0.598926 3.97244
-0.109305 0.248014 3.95391
-0.0326854 0.526067 4.05208
-0.0550581 0.542278 4.02408
-0.0331743 0.548413 4.02905
-0.0876215 0.490746 4.00944
-0.0339663 0.200869 3.97203
-0.0345783 0.228057 3.97272
-0.0738309 0.232634 3.96885
-0.160103 0.293475 3.9293
-0.133333 0.421699 3.9676
-0.136878 0.268313 3.94039
-0.183394 0.424531 3.95592
-0.153598 0.397719 3.96226
-0.200136 0.385835 3.93595
-0.0812076 0.207294 3.96608
-0.100611 0.475448 3.99219
-0.178526 0.276384 3.90453
-0.150063 0.250659 3.92115
-0.178127 0.322639 3.92613
-0.253637 0.371272 3.84319
-0.203554 0.319364 3.90161
-0.265675 0.349483 3.78226
-0.169171 0.366288 3.94967
-0.0866813 0.510379 3.98998
-0.0847927 0.448881 4.04778
-0.0996351 0.43905 4.02242
-0.0762932 0.465606 4.06405
-0.103601 0.615742 3.94893
-0.141316 0.62982 3.95291
-0.17414 0.631432 3.94961
-0.200703 0.625979 3.93808
-0.217729 0.613152 3.92257
-0.228327 0.566299 3.88571
-0.290752 0.493251 3.77281
-0.211722 0.533442 3.90732
-0.188062 0.528139 3.9228
-0.157081 0.529802 3.93198
-0.127756 0.536528 3.9365
-0.106178 0.544732 3.93766
-0.0916289 0.552703 3.93949
-0.293874 0.484258 3.67857
-0.0988766 0.431017 4.01058
-0.0728069 0.508354 4.02718
-0.0691999 0.449324 4.06724
-0.0552409 0.436721 4.05724
-0.068658 0.444883 4.05503
-0.0924447 0.422337 4.00288
-0.0516195 0.434667 4.06394
-0.0525712 0.426093 4.03535
-0.0929037 0.569793 3.92767
-0.0795613 0.566416 3.94324
-0.0729425 0.564478 3.95968
-0.203774 0.581297 3.91299
-0.21389 0.590007 3.91061
-0.0116917 0.521782 4.04444
0.149937 0.577945 3.90545
-0.0149312 0.429565 4.03351
0.243664 0.662591 3.78629
0.077131 0.556682 3.93643
0.102923 0.554954 3.93327
0.127365 0.555489 3.92508
0.159829 0.568956 3.90152
0.0538026 0.561494 3.93317
0.11528 0.6283 3.93802
0.0855985 0.624792 3.93923
0.140871 0.62374 3.92806
0.157682 0.61298 3.91754
0.17794 0.550422 3.88776
0.0588392 0.22019 3.93812
0.159244 0.584698 3.89591
0.246854 0.555242 3.77729
0.2053 0.567776 3.86076
0.0925932 0.455094 3.95765
-0.00246349 0.35782 4.01883
-0.00562883 0.330819 4.00836
0.0304623 0.349899 4.00291
0.0509289 0.340373 3.9839
0.0183396 0.329756 3.99843
0.0353993 0.327217 3.97954
0.0822467 0.298741 3.93816
-0.0142804 0.445904 4.07707
-0.00969002 0.47005 4.08299
0.197276 0.642894 3.90489
0.0433464 0.517405 3.96266
0.0437163 0.445927 4.01443
0.0467898 0.458386 4.0061
0.169192 0.455768 3.92305
-0.0101629 0.498803 4.06842
0.137849 0.675148 3.94446
0.172918 0.664885 3.92552
0.220898 0.71132 3.83304
0.0242618 0.649365 3.97449
0.0593778 0.612752 3.93491
0.0995771 0.323537 3.93426
0.20816 0.325515 3.71396
0.022985 0.431202 4.00687
0.000852732 0.422679 4.00744
0.0735828 0.321941 3.94064
0.0633962 0.323479 3.94686
0.187647 0.681119 3.91354
0.0441158 0.433225 4.00052
0.0897331 0.672003 3.96149
0.0949346 0.693201 3.96609
0.117659 0.774408 3.92843
0.2049 0.696242 3.87934
0.102905 0.733223 3.95019
0.212275 0.651804 3.88385
0.228052 0.655242 3.83859
-0.00321453 0.342555 4.0169
0.0235335 0.337909 4.00241
0.0430942 0.333723 3.98377
0.0154915 0.425413 4.00064
0.0679772 0.322282 3.9437
0.0583638 0.31551 3.9567
0.0613389 0.325119 3.94713
0.0119816 0.444048 4.04257
0.0315914 0.328658 3.97546
0.0133591 0.327588 3.98864
-0.00784442 0.326802 3.9984
0.000777256 0.252194 3.97014
0.000675351 0.273857 3.99787
-0.00127111 0.28952 4.00256
-0.00480499 0.304219 3.99878
-0.00719511 0.314349 3.9948
0.0354204 0.318629 3.97072
0.0397653 0.314936 3.9733
0.04623 0.307631 3.97459
0.0509124 0.298603 3.96964
0.0697374 0.367796 3.97147
0.23397 0.441018 3.67895
0.047101 0.320234 3.95721
0.0522834 0.318491 3.95827
-0.00699497 0.411487 4.01035
0.0325799 0.41546 3.9821
-0.00336537 0.416966 4.00954
0.0693143 0.502762 3.95325
0.110068 0.485469 3.94372
0.0498093 0.445939 3.99228
0.181448 0.750104 3.88244
0.165484 0.723831 3.91475
0.147851 0.695345 3.94094
0.0619335 0.280561 3.9507
0.032951 0.683979 3.98202
0.0391918 0.731025 3.9721
0.0489684 0.783595 3.95516
0.148401 0.55975 3.91263
0.203885 0.531212 3.87355
0.0387231 0.566838 3.93148
0.182648 0.603328 3.89593
0.0256131 0.533542 3.97182
0.0291281 0.458058 4.03877
0.229473 0.513171 3.84609
0.187507 0.514731 3.89768
0.155012 0.507082 3.92182
0.105798 0.512125 3.93474
0.0703133 0.523005 3.94127
0.0445858 0.534505 3.9485
-0.00941257 0.567216 3.99742
0.224453 0.46205 3.85504
0.203913 0.607753 3.88335
-0.0220724 0.432933 4.06682
0.0399681 0.49399 3.97475
0.248236 0.550491 3.69768
0.0239848 0.547272 3.95319
0.0496107 0.441757 3.96704
0.167246 0.58351 3.89076
0.0320319 0.472828 4.02843
0.225343 0.383942 3.68906
0.03914 0.575548 3.92655
0.0120745 0.488971 4.05269
0.161257 0.272615 3.84502
0.156931 0.245327 3.80126
0.2403 0.450359 3.76666
0.191564 0.304799 3.81398
0.237693 0.607482 3.80185
0.0616676 0.196868 3.92421
-0.0289012 0.423908 4.03414
0.0623858 0.475289 3.96416
0.226013 0.56129 3.83668
0.124063 0.569753 3.92252
0.102228 0.568127 3.93014
0.0646393 0.310982 3.95215
0.217143 0.412885 3.84689
0.0149641 0.165122 3.91985
0.0882843 0.195428 3.86954
0.120167 0.21566 3.84022
0.0804357 0.569392 3.93186
0.0592029 0.572384 3.93005
0.045103 0.573525 3.92663
0.221344 0.610722 3.85781
0.0653219 0.597128 3.93256
0.0898281 0.606814 3.93301
0.112867 0.608779 3.93045
0.134851 0.604123 3.92301
0.147732 0.596269 3.91481
0.249984 0.610805 3.73613
0.139117 0.573334 3.91343
0.0463895 0.381744 3.98509
0.0236774 0.436272 4.01517
-0.00164641 0.390614 4.00989
0.127618 0.24221 3.86898
0.0956488 0.219387 3.8943
0.0189472 0.181072 3.94978
0.184601 0.279148 3.75597
0.0472634 0.583717 3.9301
0.00788929 0.529317 4.00646
0.0545936 0.177738 3.90035
0.231577 0.397611 3.77022
0.0157368 0.316394 3.98445
0.0203596 0.309297 3.98772
0.0255743 0.297972 3.99017
0.0286513 0.283696 3.98571
0.0357754 0.264361 3.96381
0.0522704 0.326109 3.96219
0.0593811 0.328469 3.96235
0.0667953 0.332495 3.9616
0.089029 0.347943 3.95463
0.18607 0.40242 3.89686
0.00738017 0.551704 3.98308
0.0198051 0.59598 3.94151
0.0357876 0.591508 3.93388
0.0470435 0.328723 3.95965
0.184417 0.341592 3.86078
-0.00015189 0.601369 3.97111
0.0482582 0.243352 3.94787
-0.0098053 0.542965 4.023
0.0251632 0.491621 4.00649
0.00833983 0.229768 3.96426
0.104351 0.288906 3.92166
0.0713069 0.421847 3.96026
0.0794579 0.262821 3.93237
0.132083 0.425268 3.94513
0.0954987 0.397618 3.95453
0.152268 0.385296 3.92621
0.0167857 0.203782 3.96296
0.0395458 0.476324 3.98864
0.123239 0.269459 3.8971
0.0907285 0.243031 3.91335
0.124051 0.320361 3.92105
0.207952 0.371063 3.83769
0.154808 0.315322 3.89415
0.216996 0.348825 3.78098
0.115498 0.365959 3.94333
0.0236094 0.511858 3.98953
0.0208144 0.448182 4.04608
0.0352023 0.43822 4.01708
0.0108487 0.465626 4.06254
0.0424611 0.622019 3.94679
0.0853817 0.639846 3.9453
0.12225 0.643941 3.93984
0.152542 0.639254 3.92876
0.173277 0.626329 3.91383
0.183741 0.576103 3.87973
0.246806 0.50314 3.77137
0.164546 0.540478 3.90198
0.138453 0.534008 3.91821
0.104589 0.535116 3.92984
0.0728552 0.541169 3.93618
0.0474891 0.548378 3.93681
0.0299655 0.555965 3.93968
0.240668 0.495563 3.6812
0.0337565 0.430123 4.00511
0.00746419 0.509348 4.02694
0.00291706 0.448698 4.06488
-0.0105758 0.435948 4.05516
0.00246942 0.443968 4.05348
0.0257814 0.421007 3.99651
-0.014859 0.434233 4.06198
-0.0208027 0.425583 4.03367
0.0291178 0.573877 3.92959
0.0161963 0.569477 3.94316
0.00885386 0.566972 3.959
0.154396 0.590197 3.9063
0.16843 0.60108 3.90337
