ply
format ascii 1.0
comment Created by Open3D
element vertex 468
property double x
property double y
property double z
end_header
0.0459475 0.341703 3.96229
0.0500844 0.419453 4.02003
0.0488351 0.396747 3.9607
0.0272447 0.497954 3.98029
0.0497369 0.443927 4.02735
0.048208 0.474752 4.01465
0.0509133 0.553111 3.93779
-0.130989 0.558399 3.83468
0.0516951 0.611576 3.91451
0.0524252 0.642185 3.91371
0.0561127 0.742498 3.86915
0.0454336 0.329167 3.95928
0.0446049 0.318754 3.95113
0.0434397 0.313796 3.94041
0.0478772 0.25615 3.91573
0.0478875 0.242549 3.91972
0.046821 0.226094 3.92366
0.0468769 0.2108 3.91683
0.0475204 0.194042 3.89462
0.0480695 0.406079 4.00683
0.023857 0.408215 3.97295
-0.22196 0.648502 3.70145
-0.0616761 0.539349 3.86234
-0.0869592 0.536658 3.85997
-0.111471 0.537085 3.85263
-0.144908 0.549616 3.83126
-0.0392518 0.547196 3.86025
-0.094904 0.601141 3.87088
-0.066543 0.601034 3.8684
-0.120759 0.597481 3.86205
-0.137827 0.588762 3.85044
-0.165574 0.534191 3.81833
-0.0613653 0.171623 3.86415
-0.139708 0.563934 3.82575
-0.23735 0.548411 3.70451
-0.191991 0.551095 3.79036
-0.0873164 0.437989 3.89237
0.00782234 0.344761 3.95617
0.011262 0.317221 3.94519
-0.0319849 0.333566 3.93694
-0.0549765 0.320549 3.91316
-0.0170812 0.313111 3.93168
-0.0361597 0.308068 3.91019
-0.0879389 0.26546 3.86381
0.0275093 0.419587 4.01574
0.0235339 0.442661 4.02197
-0.174529 0.60994 3.83724
-0.0318213 0.499799 3.89455
-0.0394432 0.425708 3.95049
-0.0421243 0.438184 3.94208
-0.165664 0.439708 3.85935
0.0243597 0.47194 4.00658
-0.112196 0.637707 3.87962
-0.147821 0.627909 3.86019
-0.193082 0.688039 3.74587
-0.00198784 0.618674 3.90539
-0.0416653 0.5946 3.86198
-0.105206 0.297863 3.86353
-0.226444 0.313871 3.66255
-0.0180109 0.413789 3.9426
0.00488244 0.405831 3.94675
-0.0794357 0.293227 3.86632
-0.0666925 0.292932 3.87251
-0.160608 0.643013 3.84475
-0.04152 0.41448 3.9366
-0.0644967 0.636284 3.89497
-0.068614 0.653635 3.89692
-0.0883513 0.735826 3.83723
-0.176563 0.664746 3.80064
-0.0745362 0.69652 3.86756
-0.188352 0.620157 3.8138
-0.2041 0.632745 3.7585
0.00888232 0.329244 3.95283
-0.023973 0.321649 3.93547
-0.0456932 0.314036 3.91348
-0.0108628 0.409309 3.93738
-0.0727802 0.292544 3.86909
-0.0620747 0.275419 3.87823
-0.0634447 0.29407 3.87329
-0.00393978 0.420292 3.9787
-0.0315605 0.309088 3.90752
-0.0119818 0.311936 3.92373
0.0134913 0.313246 3.93618
0.00382194 0.196587 3.88956
0.00445245 0.214694 3.91208
0.00733312 0.229932 3.91781
0.0121094 0.246723 3.91457
0.0154577 0.25808 3.91121
-0.0325441 0.271615 3.88846
-0.0384825 0.267046 3.89088
-0.0475425 0.259264 3.89218
-0.0544814 0.251684 3.88734
-0.0721688 0.347852 3.90414
-0.243139 0.446138 3.61786
0.0502086 0.403278 3.97729
-0.0462174 0.279408 3.87823
-0.0541067 0.277962 3.87927
0.012744 0.394536 3.95084
-0.0312812 0.400884 3.91847
0.00909121 0.400014 3.94914
-0.0608626 0.485786 3.88713
-0.103151 0.469524 3.87924
-0.0469339 0.427286 3.92751
-0.151406 0.717817 3.79379
-0.135572 0.68751 3.8358
-0.119825 0.655382 3.8714
-0.0665733 0.239397 3.87259
-0.00907206 0.647464 3.91023
-0.0135901 0.69578 3.8848
-0.021544 0.742275 3.86122
-0.132649 0.541422 3.84118
-0.193617 0.51766 3.80377
-0.024162 0.555063 3.85803
-0.164474 0.579451 3.82612
-0.0120793 0.515202 3.90455
-0.0215334 0.434883 3.97541
-0.223302 0.500713 3.77872
-0.178393 0.500806 3.82923
-0.146468 0.49244 3.85319
-0.0965296 0.496381 3.86714
-0.0595077 0.506595 3.87288
-0.0311939 0.517962 3.8793
0.026584 0.547415 3.92839
-0.224044 0.449698 3.79023
-0.185333 0.582421 3.81219
0.0343278 0.406466 4.00513
-0.0316209 0.476443 3.9083
-0.243111 0.554103 3.62467
-0.00936333 0.532031 3.88327
-0.0476656 0.427967 3.90153
-0.151532 0.564593 3.82103
-0.0239591 0.450001 3.96429
-0.240148 0.383854 3.63295
-0.0236934 0.563819 3.85105
-0.000244774 0.462845 3.99029
-0.173537 0.243444 3.78045
-0.176142 0.211579 3.74348
-0.244942 0.446693 3.70252
-0.204088 0.2814 3.75456
-0.220428 0.594936 3.72435
-0.0677227 0.142577 3.85365
0.0398354 0.404274 3.97508
-0.0564944 0.4581 3.89826
-0.213696 0.546845 3.76479
-0.105783 0.55211 3.8504
-0.0845028 0.550515 3.85734
-0.0699102 0.272745 3.87465
-0.222228 0.399268 3.7857
-0.0162957 0.101264 3.85402
-0.103183 0.145459 3.80228
-0.137969 0.173459 3.77556
0.0552176 0.69264 3.89192
0.0458018 0.0971697 3.86426
-0.0639446 0.552507 3.85842
-0.0441919 0.557321 3.85619
-0.0304042 0.561279 3.85147
-0.203208 0.587435 3.78589
-0.0458312 0.570292 3.85779
-0.0682794 0.571528 3.86049
-0.0880061 0.571369 3.85946
-0.109113 0.569376 3.85332
-0.123466 0.566583 3.84464
-0.236302 0.607863 3.65711
-0.120197 0.555042 3.8425
0.0482953 0.379169 3.95478
-0.0480049 0.363835 3.92103
-0.0173761 0.418191 3.94977
0.0074467 0.374715 3.94894
0.0511036 0.582447 3.91601
-0.140125 0.205935 3.80123
-0.106623 0.17437 3.82547
-0.0168073 0.120494 3.87936
-0.203533 0.255035 3.70386
-0.0303857 0.566977 3.85424
0.00700444 0.508904 3.93927
0.0459022 0.115355 3.88858
-0.0641817 0.119547 3.83222
-0.241878 0.389268 3.70927
-0.0107822 0.263973 3.90087
-0.016857 0.255861 3.90343
-0.0240884 0.243344 3.90504
-0.0289778 0.229993 3.89963
-0.0378285 0.214186 3.88304
-0.0544393 0.301877 3.89018
-0.0631246 0.304722 3.8894
-0.0715039 0.308921 3.88903
-0.0922506 0.326236 3.88349
-0.187254 0.384551 3.83433
0.00831571 0.53327 3.91501
-0.00150402 0.581483 3.86629
-0.0182781 0.578351 3.85808
-0.0485539 0.305482 3.88972
-0.191221 0.321108 3.79855
0.0187149 0.579713 3.89885
-0.0503375 0.196696 3.87153
0.0488691 0.501812 3.9882
0.0265757 0.521569 3.95435
0.050522 0.527145 3.96114
-0.0145783 0.471525 3.9403
0.0462653 0.142785 3.8984
0.0470189 0.172317 3.89638
-0.00357944 0.176225 3.88738
-0.109944 0.258661 3.8495
-0.0694023 0.406512 3.89401
-0.085044 0.22419 3.8582
-0.127781 0.407356 3.88096
-0.0933561 0.379904 3.88806
-0.149868 0.365824 3.86038
-0.0124029 0.147888 3.88893
-0.0330013 0.458014 3.92301
-0.131346 0.23737 3.82765
-0.0982515 0.203142 3.84252
-0.128144 0.295498 3.85212
-0.216613 0.354525 3.77796
-0.160448 0.289681 3.82602
-0.230162 0.33376 3.72423
-0.115133 0.345884 3.87495
-0.0118837 0.492933 3.92287
-0.0127763 0.424021 3.98151
-0.0304546 0.41838 3.95362
1.9133e-05 0.439712 4.00077
-0.021958 0.602736 3.87201
-0.0637812 0.61576 3.87444
-0.100625 0.616998 3.87307
-0.131583 0.61095 3.86337
-0.152818 0.598831 3.84628
-0.16894 0.557182 3.80942
-0.244553 0.498476 3.70354
-0.152524 0.524677 3.83218
-0.126867 0.518146 3.84781
-0.0929705 0.518371 3.85967
-0.0600547 0.524395 3.86471
-0.0336357 0.533716 3.86581
-0.0152953 0.542452 3.86827
-0.242634 0.501315 3.61326
-0.0301027 0.411864 3.94117
0.0061398 0.487152 3.96221
0.00755129 0.422573 4.00201
0.0209432 0.409846 3.99308
0.00696192 0.418646 3.99007
-0.0228107 0.404404 3.93258
0.0259719 0.407814 4.00052
0.0306972 0.404932 3.97321
-0.0130679 0.564265 3.85529
-0.000219798 0.556633 3.8698
0.00678296 0.551125 3.88858
-0.132451 0.564691 3.83626
-0.150513 0.578539 3.83451
0.0714201 0.499136 3.97941
0.222034 0.56495 3.83535
0.072078 0.408739 3.97569
0.306476 0.650206 3.69714
0.152323 0.54292 3.85862
0.17534 0.540965 3.85739
0.198387 0.542287 3.85111
0.229813 0.556094 3.83228
0.133722 0.549284 3.85817
0.182543 0.605003 3.86904
0.15742 0.602793 3.8679
0.207744 0.602246 3.86253
0.224411 0.593809 3.85229
0.248044 0.539684 3.82166
0.1436 0.182737 3.87624
0.231003 0.570793 3.82694
0.314977 0.556369 3.70508
0.272787 0.557195 3.79445
0.171819 0.441765 3.90023
0.0811047 0.346251 3.95949
0.0737835 0.318744 3.94656
0.115413 0.337754 3.9436
0.135919 0.325908 3.91849
0.0982942 0.31713 3.93321
0.11649 0.313193 3.91195
0.1649 0.273288 3.87359
0.0700403 0.419702 4.01876
0.0730632 0.442738 4.02542
0.256632 0.615879 3.84015
0.123836 0.50185 3.89586
0.128684 0.428106 3.95769
0.130273 0.440659 3.94932
0.239808 0.44644 3.86624
0.0723285 0.473034 4.00663
0.202742 0.640482 3.88558
0.23471 0.632867 3.86464
0.282684 0.687017 3.74262
0.101924 0.619249 3.90739
0.137241 0.595698 3.86091
0.1814 0.30652 3.86998
0.288289 0.334168 3.6681
0.110502 0.415583 3.94875
0.0888982 0.406361 3.95539
0.1595 0.300326 3.86922
0.143225 0.300007 3.87455
0.247889 0.647327 3.84965
0.128443 0.417098 3.94498
0.159487 0.637449 3.90086
0.163614 0.654263 3.90348
0.188185 0.732246 3.83617
0.264423 0.666274 3.80236
0.175265 0.694628 3.87002
0.270871 0.625737 3.81515
0.288449 0.63589 3.75869
0.0782767 0.331009 3.95549
0.106879 0.325774 3.93915
0.126608 0.31923 3.91765
0.104101 0.41092 3.94524
0.151735 0.299435 3.87237
0.141857 0.281286 3.88524
0.137667 0.301416 3.87463
0.0969238 0.421809 3.98001
0.108392 0.314287 3.90816
0.09125 0.315866 3.92382
0.0694826 0.315099 3.93575
0.086111 0.199427 3.89679
0.0849959 0.217172 3.91707
0.0831327 0.232519 3.92073
0.081102 0.249385 3.91577
0.0774475 0.260715 3.91148
0.11634 0.276847 3.89133
0.121058 0.271881 3.89652
0.128525 0.264077 3.90103
0.135941 0.256914 3.89688
0.154711 0.353237 3.91237
0.319079 0.460024 3.61892
0.126898 0.285943 3.87851
0.134419 0.283925 3.88378
0.0814089 0.396091 3.95563
0.121277 0.403335 3.93007
0.0849149 0.40075 3.95579
0.149228 0.488551 3.88927
0.187308 0.47332 3.88406
0.134153 0.430229 3.93603
0.244512 0.714353 3.79335
0.228711 0.686851 3.83979
0.21218 0.657601 3.87741
0.146532 0.246992 3.8821
0.109055 0.647367 3.91345
0.119165 0.694015 3.88702
0.12708 0.739373 3.86354
0.21805 0.547304 3.84163
0.272274 0.523559 3.80927
0.123011 0.557373 3.85449
0.248948 0.585588 3.82843
0.106467 0.516893 3.90396
0.112948 0.436054 3.98103
0.296833 0.508759 3.78286
0.257166 0.506592 3.83394
0.227438 0.496821 3.85794
0.183078 0.499877 3.86871
0.150072 0.509263 3.87334
0.12423 0.520071 3.87929
0.0750905 0.547923 3.92745
0.295195 0.459918 3.79569
0.26596 0.588653 3.81423
0.0604511 0.406777 4.00536
0.123794 0.478868 3.91107
0.325691 0.562736 3.62113
0.106898 0.533737 3.88194
0.138623 0.43057 3.9115
0.239495 0.570998 3.82301
0.113759 0.451628 3.97037
0.309457 0.400806 3.63815
0.124116 0.567149 3.84578
0.0927054 0.464266 3.99262
0.238992 0.262781 3.79407
0.237624 0.234766 3.75629
0.319735 0.459344 3.70797
0.265431 0.300627 3.76536
0.303439 0.600012 3.72382
0.149128 0.156432 3.86595
0.0602899 0.404275 3.97631
0.144297 0.461079 3.90452
0.292275 0.553945 3.76773
0.197871 0.557315 3.84915
0.176817 0.554939 3.85421
0.149425 0.278834 3.88226
0.289308 0.411601 3.79414
0.10442 0.109487 3.86119
0.18042 0.164812 3.81532
0.207949 0.19546 3.78914
0.157095 0.556081 3.85506
0.140243 0.560359 3.85166
0.130165 0.564283 3.84608
0.281804 0.59345 3.78699
0.140168 0.57401 3.85231
0.157589 0.575571 3.85708
0.177039 0.5768 3.85636
0.198101 0.575737 3.85131
0.212843 0.572925 3.84467
0.321009 0.61239 3.65362
0.212071 0.561113 3.84184
0.133262 0.367838 3.92968
0.111009 0.418985 3.95779
0.0849012 0.3764 3.95311
0.211103 0.224576 3.81734
0.181265 0.191688 3.84152
0.103978 0.127835 3.88679
0.262971 0.277496 3.71166
0.129296 0.570525 3.84783
0.0904809 0.510128 3.93994
0.147482 0.134517 3.84265
0.309686 0.404627 3.71794
0.0999816 0.268109 3.90243
0.10518 0.259793 3.90676
0.110711 0.247443 3.91019
0.115944 0.234376 3.90645
0.122088 0.220187 3.89098
0.13177 0.308458 3.89172
0.142263 0.311223 3.89237
0.150647 0.315443 3.89295
0.17249 0.333229 3.88932
0.255005 0.394821 3.84361
0.0903689 0.534324 3.91441
0.104595 0.582525 3.86637
0.118924 0.580696 3.85376
0.123547 0.311892 3.88926
0.256809 0.335674 3.80869
0.0827376 0.580428 3.89901
0.132231 0.205389 3.88232
0.0733365 0.522081 3.95539
0.107876 0.472909 3.945
0.0926325 0.180868 3.89495
0.184736 0.26936 3.86209
0.156442 0.410453 3.90392
0.161546 0.234569 3.87178
0.205476 0.412921 3.89119
0.17597 0.385371 3.89722
0.222355 0.374601 3.87003
0.10052 0.154184 3.89519
0.123166 0.459921 3.92919
0.203952 0.251938 3.84251
0.174566 0.216855 3.85829
0.201646 0.306098 3.86031
0.280646 0.369091 3.78839
0.228232 0.303154 3.83865
0.292758 0.351735 3.73261
0.191537 0.353387 3.88202
0.106545 0.494837 3.92411
0.104379 0.42529 3.98505
0.120172 0.419966 3.96219
0.0947113 0.441069 4.00395
0.122266 0.6045 3.87159
0.158677 0.617959 3.87684
0.191609 0.619946 3.87622
0.219795 0.615045 3.86593
0.238836 0.604104 3.84932
0.253136 0.56369 3.81247
0.320827 0.508831 3.70491
0.23623 0.529766 3.83494
0.211589 0.522561 3.85028
0.18017 0.522046 3.86027
0.150415 0.527227 3.86394
0.12774 0.535581 3.86569
0.112588 0.544042 3.86703
0.323144 0.512945 3.61018
0.119287 0.413828 3.94985
0.0907359 0.488705 3.96287
0.0871341 0.423561 4.00564
0.0712409 0.410359 3.99652
0.0862117 0.419627 3.99322
0.11266 0.406291 3.94264
0.0671676 0.407845 4.00306
0.0673074 0.405427 3.97595
0.114883 0.566446 3.85236
0.100537 0.557894 3.86917
0.0925368 0.552018 3.88878
0.222591 0.57104 3.83724
0.236667 0.584228 3.83779
