ply
format ascii 1.0
comment Created by Open3D
element vertex 468
property double x
property double y
property double z
end_header
0.0102764 0.369878 3.73923
0.0120943 0.434229 3.81372
0.0127925 0.402343 3.75063
-0.00719219 0.510778 3.77346
0.0120771 0.460375 3.81863
0.0119417 0.492439 3.80525
0.0122993 0.562471 3.73661
-0.156207 0.561725 3.63807
0.0120965 0.618443 3.71537
0.0119361 0.652479 3.71871
0.0100532 0.785541 3.68595
0.0101066 0.36031 3.73688
0.0100011 0.354083 3.73084
0.0100966 0.352121 3.72019
0.0108894 0.312987 3.71831
0.0106748 0.305586 3.72311
0.0103505 0.29693 3.72839
0.0104995 0.284022 3.72535
0.0114448 0.259166 3.70624
0.0120611 0.420576 3.80271
-0.0106357 0.416867 3.76801
-0.242997 0.635684 3.53026
-0.0841066 0.545826 3.66474
-0.107752 0.545089 3.66296
-0.131379 0.54496 3.65682
-0.165314 0.553932 3.63461
-0.0654769 0.547833 3.66248
-0.122904 0.604891 3.66357
-0.0959563 0.602495 3.66535
-0.147006 0.599397 3.65636
-0.162742 0.589464 3.64876
-0.183248 0.536351 3.62424
-0.0718921 0.225386 3.67215
-0.166635 0.565937 3.62967
-0.249168 0.525257 3.5225
-0.208964 0.544899 3.60165
-0.112752 0.453731 3.69282
-0.0268689 0.374608 3.73571
-0.0250037 0.355957 3.72575
-0.0643713 0.371853 3.71795
-0.0879827 0.366044 3.69216
-0.0528737 0.356794 3.71177
-0.0735755 0.353763 3.68805
-0.109692 0.318019 3.64676
-0.00749862 0.435257 3.81142
-0.00991602 0.461366 3.81541
-0.195068 0.608863 3.64645
-0.0591338 0.508193 3.69347
-0.064764 0.442152 3.74826
-0.0655518 0.454982 3.73888
-0.186265 0.457675 3.66046
-0.00878752 0.489239 3.79848
-0.138815 0.637954 3.68478
-0.172088 0.62866 3.66761
-0.221685 0.687864 3.57261
-0.0370179 0.620271 3.70815
-0.0731156 0.59137 3.66051
-0.131134 0.346769 3.6421
-0.214549 0.292818 3.46487
-0.0484995 0.424944 3.74083
-0.0282478 0.415664 3.74281
-0.116943 0.348016 3.63954
-0.105448 0.346349 3.64601
-0.184707 0.64254 3.65609
-0.0671712 0.43345 3.73426
-0.0945658 0.636862 3.69853
-0.0991382 0.659113 3.70279
-0.129609 0.765232 3.65594
-0.202289 0.666983 3.61867
-0.111201 0.71428 3.68096
-0.209378 0.616711 3.62659
-0.226059 0.62559 3.58143
-0.0266595 0.363714 3.73315
-0.0579515 0.362335 3.71533
-0.0807383 0.360075 3.69119
-0.0434024 0.420196 3.73618
-0.111747 0.347842 3.64276
-0.0960766 0.330942 3.65858
-0.101072 0.345248 3.64709
-0.0347034 0.432835 3.77691
-0.0695542 0.355243 3.68373
-0.0482531 0.35537 3.70184
-0.0222926 0.353783 3.71559
-0.025578 0.261063 3.70222
-0.0254299 0.287123 3.72049
-0.0249948 0.299996 3.72267
-0.0232726 0.308339 3.7172
-0.0207165 0.314722 3.71298
-0.0692343 0.325371 3.68045
-0.0733121 0.323861 3.68255
-0.0784302 0.319617 3.68372
-0.0816756 0.311623 3.67918
-0.102433 0.37966 3.68733
-0.243257 0.400667 3.43176
0.0126451 0.408419 3.77009
-0.0834166 0.330293 3.6607
-0.0902312 0.331676 3.66091
-0.0199498 0.40507 3.74254
-0.0616094 0.416994 3.71601
-0.0239213 0.410443 3.74405
-0.0842168 0.496966 3.68522
-0.126031 0.48444 3.67957
-0.0707569 0.44484 3.72509
-0.186063 0.732142 3.61545
-0.16553 0.697233 3.65052
-0.147034 0.657673 3.68037
-0.08764 0.293081 3.66483
-0.0450776 0.654779 3.71502
-0.0548174 0.721026 3.69839
-0.0666191 0.782149 3.67878
-0.152924 0.5475 3.64582
-0.208567 0.518062 3.6124
-0.0539282 0.550479 3.65988
-0.185127 0.577672 3.63233
-0.0422611 0.521986 3.70158
-0.0490889 0.449952 3.7731
-0.232871 0.496845 3.58671
-0.19303 0.508312 3.63307
-0.162874 0.504512 3.65474
-0.116672 0.507293 3.66634
-0.0823643 0.514363 3.67164
-0.0590547 0.523743 3.6784
-0.0100943 0.554964 3.72809
-0.234019 0.451961 3.59483
-0.203735 0.579105 3.62318
-5.14632e-05 0.421751 3.80094
-0.0581642 0.48558 3.70576
-0.254625 0.512998 3.448
-0.0416815 0.53405 3.68281
-0.0742378 0.440005 3.70014
-0.173285 0.563003 3.62546
-0.0497458 0.466026 3.76151
-0.232526 0.346273 3.44271
-0.0555685 0.557186 3.65412
-0.0295237 0.480826 3.78439
-0.166759 0.266068 3.58229
-0.157697 0.230608 3.54548
-0.248843 0.422831 3.51403
-0.200486 0.290256 3.55675
-0.238883 0.577695 3.54588
-0.069943 0.20133 3.66112
0.00298764 0.409154 3.76828
-0.0810873 0.471047 3.69693
-0.228246 0.536067 3.57966
-0.129318 0.557185 3.65305
-0.107975 0.556716 3.65901
-0.101222 0.328362 3.65425
-0.232331 0.402105 3.5881
-0.0284752 0.171652 3.65895
-0.09042 0.193068 3.60901
-0.119488 0.208273 3.58064
0.0107435 0.721772 3.70435
0.0137357 0.168402 3.66599
-0.0882504 0.557478 3.66019
-0.0698755 0.558031 3.65743
-0.0591882 0.556829 3.65416
-0.220622 0.580371 3.5999
-0.0779185 0.581853 3.65667
-0.0991628 0.59356 3.6573
-0.121092 0.595708 3.65552
-0.142656 0.590109 3.65082
-0.155196 0.580523 3.64485
-0.2532 0.578346 3.4839
-0.144695 0.558994 3.64515
0.012106 0.390716 3.74073
-0.0768987 0.390249 3.70835
-0.0486843 0.428666 3.75169
-0.0253789 0.392542 3.73639
0.0121453 0.590994 3.71679
-0.13018 0.239739 3.60285
-0.100041 0.220362 3.62908
-0.0320613 0.189163 3.68664
-0.188582 0.255156 3.50442
-0.0627292 0.566347 3.65608
-0.0257462 0.517595 3.73707
0.0134929 0.185777 3.69243
-0.0616628 0.180559 3.63912
-0.241483 0.371896 3.51845
-0.0471241 0.318915 3.69873
-0.0512873 0.314884 3.70183
-0.0544336 0.307531 3.70417
-0.0560338 0.295387 3.70104
-0.0606889 0.273537 3.68586
-0.0940415 0.351689 3.66528
-0.101062 0.354814 3.66361
-0.107351 0.359305 3.66386
-0.123657 0.366337 3.66411
-0.206603 0.400989 3.63582
-0.0256175 0.538718 3.71305
-0.0384711 0.575732 3.66956
-0.0531476 0.572042 3.66082
-0.0879371 0.352407 3.66272
-0.201933 0.335873 3.59907
-0.0184017 0.583478 3.70078
-0.0669742 0.250533 3.67734
0.0121343 0.515217 3.78094
-0.0087895 0.531941 3.75409
0.0122397 0.537086 3.75884
-0.0432334 0.482873 3.73897
0.0132696 0.208305 3.70446
0.0124567 0.23511 3.70434
-0.0292226 0.236446 3.69736
-0.119768 0.302218 3.63891
-0.095226 0.423253 3.69253
-0.0949674 0.272737 3.65534
-0.15515 0.42729 3.68219
-0.120903 0.40168 3.68238
-0.175159 0.389327 3.65966
-0.0328031 0.210647 3.69759
-0.0578655 0.469957 3.72116
-0.131009 0.274463 3.62399
-0.100486 0.247959 3.64322
-0.143522 0.335612 3.63891
-0.224043 0.359463 3.57959
-0.168881 0.320214 3.62355
-0.226376 0.325853 3.52742
-0.142736 0.379409 3.6654
-0.0414772 0.500971 3.71996
-0.0420804 0.438667 3.78113
-0.0581305 0.433257 3.75228
-0.0303947 0.455611 3.79604
-0.0565359 0.596332 3.67465
-0.094447 0.611184 3.67647
-0.128587 0.614483 3.67282
-0.156769 0.609466 3.6628
-0.176025 0.597973 3.65006
-0.187767 0.554662 3.61723
-0.251429 0.473814 3.51682
-0.169689 0.52996 3.63659
-0.14392 0.525793 3.65127
-0.111643 0.52666 3.66085
-0.0821628 0.530563 3.66516
-0.0609836 0.535724 3.66699
-0.0467047 0.541187 3.66865
-0.249295 0.455715 3.43259
-0.0583715 0.42777 3.74005
-0.0258037 0.4985 3.75739
-0.0243147 0.437433 3.80007
-0.0121271 0.424728 3.79019
-0.0250946 0.432347 3.78864
-0.0535932 0.420426 3.73126
-0.0075052 0.423143 3.79688
-0.00494014 0.41219 3.76833
-0.047613 0.555307 3.65826
-0.0355047 0.553214 3.67252
-0.0284154 0.552128 3.68913
-0.16198 0.572871 3.6385
-0.173002 0.577749 3.6371
0.0316869 0.510492 3.7732
0.182041 0.561713 3.63687
0.0351044 0.41638 3.76842
0.263639 0.635047 3.52946
0.10887 0.544687 3.66339
0.132303 0.543946 3.66142
0.155915 0.543968 3.65556
0.190552 0.55378 3.63335
0.0904599 0.546922 3.66142
0.147282 0.605776 3.66201
0.120053 0.60302 3.66421
0.172081 0.600464 3.65486
0.188039 0.590442 3.64751
0.20811 0.535448 3.62319
0.099991 0.225237 3.67201
0.192614 0.566439 3.62832
0.27376 0.524568 3.52192
0.233637 0.544291 3.60074
0.136691 0.452257 3.69248
0.0476467 0.373904 3.73624
0.0450629 0.355475 3.72622
0.0854865 0.37014 3.71897
0.109015 0.363814 3.69333
0.0728397 0.355525 3.7124
0.0939109 0.352247 3.68886
0.133956 0.315888 3.64764
0.0316386 0.434944 3.81172
0.0339477 0.461046 3.81575
0.219471 0.610402 3.64469
0.0833273 0.507205 3.693
0.0890871 0.440862 3.74887
0.0899753 0.453823 3.73929
0.210389 0.455663 3.65972
0.0328255 0.48883 3.79837
0.163625 0.639836 3.68303
0.196858 0.63055 3.66582
0.242575 0.687141 3.57227
0.0614301 0.620944 3.70723
0.097699 0.591335 3.65939
0.155045 0.344049 3.64237
0.243855 0.292019 3.46383
0.0729305 0.423799 3.74192
0.052825 0.415146 3.74387
0.139367 0.345441 3.6406
0.127234 0.344214 3.64717
0.209055 0.644568 3.65454
0.0915409 0.43212 3.735
0.119351 0.638231 3.69748
0.123423 0.660507 3.70204
0.149481 0.764605 3.65587
0.224584 0.667549 3.61822
0.133205 0.714525 3.68097
0.233022 0.61793 3.62527
0.248022 0.625879 3.58073
0.0469007 0.363069 3.73345
0.0786019 0.360969 3.71614
0.101622 0.358093 3.69229
0.0679746 0.419285 3.73726
0.133938 0.345427 3.64394
0.118286 0.329367 3.65986
0.122575 0.343207 3.64819
0.0584985 0.431472 3.77722
0.0896205 0.35383 3.68439
0.0682921 0.354451 3.70232
0.0425017 0.353403 3.71583
0.0490957 0.260974 3.70259
0.046978 0.286916 3.72112
0.0461569 0.299579 3.72282
0.0448845 0.307933 3.71755
0.0426414 0.31429 3.71335
0.0912761 0.324258 3.68118
0.0952734 0.322975 3.68386
0.100304 0.318648 3.68509
0.103999 0.31071 3.68036
0.125994 0.378048 3.68835
0.270586 0.400042 3.4311
0.105564 0.328799 3.66156
0.112398 0.330214 3.66197
0.0447109 0.404615 3.74295
0.0862707 0.416075 3.7172
0.0485678 0.409832 3.74497
0.108446 0.495594 3.68419
0.15005 0.482674 3.67862
0.0952882 0.443649 3.7256
0.206474 0.731499 3.61578
0.188068 0.697839 3.65011
0.171311 0.65956 3.67914
0.112145 0.292187 3.66572
0.0691099 0.655788 3.71428
0.0764853 0.721014 3.69838
0.0861368 0.781812 3.67917
0.177739 0.546918 3.64458
0.233533 0.516569 3.61184
0.0793574 0.549712 3.65896
0.210058 0.578397 3.63101
0.0665981 0.521285 3.70096
0.0732749 0.448778 3.77361
0.257833 0.495272 3.58592
0.217612 0.506466 3.63241
0.187162 0.502463 3.65384
0.14088 0.505514 3.66517
0.106882 0.51306 3.67023
0.0835421 0.522787 3.6777
0.0348365 0.554729 3.72781
0.259149 0.450029 3.59413
0.227807 0.579676 3.62209
0.0240707 0.421406 3.80092
0.0827208 0.484645 3.70541
0.278802 0.512326 3.44682
0.0663342 0.533298 3.68216
0.0989667 0.438828 3.70066
0.199088 0.563319 3.62416
0.0737933 0.465084 3.76179
0.261093 0.345616 3.44211
0.0811457 0.556615 3.65304
0.0535155 0.48013 3.78422
0.196013 0.264872 3.58165
0.187937 0.229929 3.54443
0.275669 0.421916 3.51356
0.229382 0.288906 3.5561
0.261839 0.577288 3.54514
0.0989591 0.20126 3.66029
0.0222044 0.409031 3.76843
0.105291 0.469962 3.69664
0.252957 0.535344 3.57881
0.154593 0.556421 3.65154
0.132992 0.555711 3.65741
0.123854 0.326705 3.65578
0.258216 0.400483 3.58752
0.0567338 0.171444 3.65831
0.120385 0.192631 3.60772
0.149816 0.207784 3.57935
0.113334 0.556439 3.65886
0.0951797 0.557035 3.65601
0.0847118 0.555968 3.65296
0.244133 0.580678 3.59892
0.102655 0.581868 3.65562
0.12348 0.594203 3.65587
0.145562 0.596933 3.65424
0.167584 0.591352 3.64914
0.180559 0.581696 3.64359
0.275257 0.577709 3.48312
0.170304 0.558472 3.6438
0.100741 0.389104 3.70918
0.0728677 0.427333 3.7526
0.0489891 0.392012 3.73675
0.159863 0.23877 3.60232
0.12946 0.219928 3.62884
0.0601546 0.189043 3.68629
0.218494 0.25447 3.50349
0.0880037 0.565837 3.65478
0.0502843 0.517003 3.73692
0.090827 0.180486 3.63808
0.268911 0.370951 3.51802
0.0691045 0.318227 3.69957
0.0732073 0.314242 3.70278
0.0761965 0.307037 3.70503
0.0783 0.294936 3.70175
0.0848697 0.273205 3.68639
0.114914 0.349805 3.66646
0.122352 0.352649 3.66511
0.128887 0.356799 3.66529
0.147114 0.364276 3.66476
0.231547 0.399317 3.63559
0.0501629 0.538355 3.71271
0.0633158 0.575751 3.66927
0.0781702 0.571665 3.65953
0.108373 0.350655 3.66347
0.228995 0.334318 3.59911
0.0428171 0.583567 3.70037
0.0936896 0.250265 3.67737
0.0331908 0.531656 3.7539
0.0675436 0.482216 3.73912
0.0552169 0.236679 3.69776
0.146223 0.300231 3.6392
0.119554 0.422083 3.69302
0.121526 0.271637 3.65583
0.179139 0.42579 3.68205
0.144935 0.400269 3.68269
0.199598 0.387625 3.65962
0.0602822 0.210701 3.69743
0.0821472 0.468955 3.72129
0.159103 0.27308 3.62388
0.129027 0.247132 3.64315
0.1692 0.333252 3.63884
0.250748 0.357849 3.57938
0.195699 0.318344 3.62358
0.254827 0.324596 3.52705
0.166761 0.377493 3.66567
0.065988 0.500311 3.7197
0.0658006 0.437305 3.7815
0.0824381 0.431889 3.75306
0.0545364 0.454708 3.7965
0.0811152 0.596772 3.67413
0.118916 0.612087 3.67562
0.153389 0.61557 3.6714
0.181886 0.610651 3.66133
0.201085 0.599234 3.64867
0.213099 0.554645 3.6162
0.277176 0.4727 3.51598
0.194484 0.528779 3.63533
0.168315 0.524286 3.65023
0.13604 0.525178 3.65948
0.10675 0.529465 3.6639
0.0857294 0.534853 3.66611
0.0715466 0.540404 3.66781
0.275315 0.45495 3.43163
0.0827021 0.426496 3.7409
0.050347 0.497938 3.75715
0.048293 0.436552 3.80038
0.0358289 0.424338 3.79072
0.0488222 0.431415 3.78904
0.0780021 0.419445 3.73231
0.0315565 0.422719 3.79734
0.0297408 0.411837 3.7686
0.0731477 0.55487 3.65731
0.0604516 0.552769 3.67182
0.0531308 0.551776 3.6886
0.187691 0.573744 3.63714
0.198536 0.578653 3.63596
