ply
format ascii 1.0
comment Created by Open3D
element vertex 468
property double x
property double y
property double z
end_header
-0.0368807 0.377167 4.06078
-0.0425033 0.47383 4.11849
-0.0413664 0.437856 4.05807
-0.0588362 0.555641 4.08001
-0.0419337 0.501533 4.12436
-0.0393227 0.535028 4.11142
-0.0377969 0.613168 4.04509
-0.199928 0.618323 3.94945
-0.0378053 0.680517 4.02464
-0.0373483 0.717085 4.02847
-0.0373471 0.849362 3.99975
-0.0357527 0.363686 4.0583
-0.0344507 0.352706 4.05121
-0.0336509 0.3472 4.04005
-0.0362696 0.325113 4.03688
-0.0365436 0.312887 4.04131
-0.0353753 0.298303 4.04509
-0.0352385 0.282079 4.04003
-0.0371808 0.261536 4.0145
-0.0403127 0.458954 4.1069
-0.0615944 0.456469 4.07535
-0.275752 0.697651 3.83694
-0.128814 0.59445 3.97093
-0.15146 0.592405 3.9702
-0.17433 0.592928 3.96519
-0.204734 0.608659 3.94436
-0.111725 0.600508 3.97067
-0.162376 0.669063 3.97447
-0.13564 0.665472 3.97703
-0.186592 0.664612 3.96823
-0.201614 0.653741 3.96087
-0.221922 0.586569 3.93622
-0.113063 0.238364 3.98373
-0.208466 0.625453 3.94138
-0.281238 0.585337 3.82835
-0.242369 0.60191 3.91137
-0.148836 0.484419 4.00632
-0.06288 0.381947 4.05642
-0.0564714 0.353489 4.04606
-0.0884579 0.375422 4.0405
-0.105172 0.364325 4.01937
-0.0751689 0.352495 4.0331
-0.0914603 0.348463 4.01422
-0.132681 0.317807 3.97899
-0.058913 0.475336 4.11726
-0.0608251 0.501201 4.12235
-0.228889 0.674697 3.95453
-0.10475 0.551638 4.004
-0.105715 0.476701 4.05754
-0.106635 0.489772 4.04865
-0.214323 0.484957 3.97511
-0.0600305 0.531304 4.10432
-0.178221 0.707371 3.99724
-0.208621 0.697319 3.97782
-0.25215 0.750333 3.88169
-0.0844777 0.684771 4.0188
-0.116175 0.653431 3.97188
-0.148992 0.34441 3.97345
-0.257818 0.34368 3.76663
-0.0928723 0.460029 4.05052
-0.0743677 0.450407 4.05527
-0.129108 0.340489 3.9746
-0.116175 0.341081 3.98083
-0.219306 0.712387 3.96677
-0.105224 0.46341 4.04521
-0.137987 0.704798 4.01217
-0.140653 0.726507 4.01703
-0.163613 0.826253 3.97098
-0.23411 0.732285 3.93028
-0.150943 0.777612 3.9963
-0.242339 0.682383 3.93502
-0.25877 0.688769 3.89029
-0.0599765 0.366199 4.05391
-0.081688 0.362243 4.0378
-0.0984435 0.356604 4.01886
-0.0870836 0.454142 4.04768
-0.122496 0.340619 3.97866
-0.112379 0.33243 3.99379
-0.112276 0.342549 3.98067
-0.0819696 0.473227 4.08076
-0.0857458 0.348546 4.00918
-0.0708938 0.348944 4.02305
-0.053515 0.34818 4.03426
-0.0664741 0.265049 4.01429
-0.0636938 0.287089 4.03719
-0.062993 0.303015 4.04035
-0.0619786 0.317255 4.03576
-0.0590054 0.326881 4.03122
-0.0917204 0.333065 4.00664
-0.0947578 0.330353 4.0108
-0.0994984 0.3243 4.0137
-0.105077 0.315571 4.00885
-0.126264 0.391818 4.01367
-0.288655 0.463584 3.73401
-0.0440374 0.448111 4.07672
-0.102396 0.334836 3.99072
-0.107274 0.334223 3.99375
-0.0677066 0.437637 4.05314
-0.100366 0.444357 4.03176
-0.070761 0.443855 4.05526
-0.127637 0.536016 3.99591
-0.163907 0.517149 3.99201
-0.109914 0.476509 4.03638
-0.215778 0.794575 3.92958
-0.199621 0.763234 3.96507
-0.18542 0.727297 3.99329
-0.115688 0.297839 3.99083
-0.0906006 0.720006 4.02762
-0.0983264 0.782276 4.01352
-0.105431 0.843463 3.99588
-0.193753 0.598139 3.95506
-0.242713 0.565018 3.92481
-0.102566 0.606319 3.96737
-0.222131 0.640287 3.94199
-0.0896134 0.568681 4.011
-0.0938065 0.488944 4.08043
-0.265867 0.544212 3.89711
-0.230285 0.547725 3.9471
-0.201867 0.539946 3.96974
-0.159937 0.5457 3.97836
-0.128493 0.557791 3.98231
-0.105639 0.570555 3.98884
-0.0593161 0.605319 4.03591
-0.266709 0.49034 3.90666
-0.236924 0.641037 3.93125
-0.0507743 0.460083 4.10493
-0.103579 0.526097 4.01559
-0.294806 0.577599 3.75107
-0.090268 0.583968 3.99264
-0.114829 0.471777 4.01467
-0.213981 0.623549 3.93559
-0.0933121 0.504706 4.06983
-0.278242 0.404662 3.74515
-0.103711 0.61549 3.96042
-0.0769431 0.521226 4.09066
-0.20019 0.293653 3.89381
-0.199377 0.263673 3.85048
-0.287818 0.475602 3.82156
-0.230958 0.325785 3.86479
-0.273199 0.639094 3.85332
-0.115949 0.21547 3.9691
-0.0524103 0.449319 4.07555
-0.121615 0.506328 4.00865
-0.25914 0.593518 3.88695
-0.175709 0.608706 3.96309
-0.154173 0.606357 3.96711
-0.118594 0.328349 3.98964
-0.260411 0.4385 3.9006
-0.0813255 0.178976 3.9649
-0.141586 0.213332 3.91448
-0.166683 0.233946 3.88582
-0.0380243 0.783754 4.01679
-0.037051 0.169971 3.97295
-0.133853 0.608042 3.96781
-0.11766 0.611613 3.96392
-0.108569 0.613185 3.95998
-0.251992 0.641949 3.9074
-0.118571 0.637016 3.96478
-0.136143 0.647294 3.96774
-0.15873 0.650385 3.96754
-0.180736 0.646198 3.96389
-0.193894 0.638132 3.95802
-0.29183 0.641955 3.7898
-0.190381 0.61306 3.95598
-0.0403871 0.41714 4.0528
-0.108226 0.407474 4.02863
-0.0923613 0.466253 4.06121
-0.0687595 0.415454 4.05068
-0.0368852 0.647209 4.02553
-0.170607 0.263395 3.91644
-0.143353 0.240045 3.94076
-0.0799348 0.195713 3.99381
-0.229818 0.29645 3.80589
-0.108619 0.623718 3.96194
-0.0749186 0.563754 4.0456
-0.0348901 0.187232 4.00001
-0.114213 0.194358 3.94403
-0.277424 0.421112 3.82611
-0.077406 0.330025 4.02007
-0.0807887 0.323587 4.02466
-0.0844658 0.313029 4.02754
-0.0880574 0.298945 4.0239
-0.0940941 0.279512 4.00392
-0.105431 0.345399 3.99552
-0.113314 0.348948 3.99547
-0.119454 0.35382 3.99572
-0.141396 0.370166 3.99366
-0.22749 0.428098 3.94982
-0.0746613 0.588118 4.02199
-0.0864455 0.636187 3.98076
-0.0998044 0.632305 3.96874
-0.0997533 0.34715 3.99201
-0.224357 0.364381 3.9121
-0.0658943 0.640913 4.01022
-0.103688 0.260128 3.99221
-0.0389088 0.560898 4.08833
-0.0583043 0.579267 4.06209
-0.0385237 0.585263 4.0668
-0.0894147 0.523932 4.04858
-0.0341628 0.210965 4.01254
-0.0355811 0.238608 4.01308
-0.0718053 0.243333 4.00859
-0.150291 0.309815 3.96646
-0.131813 0.449481 4.00894
-0.128243 0.282231 3.97769
-0.180803 0.452629 3.99821
-0.150621 0.422646 4.00284
-0.195168 0.410073 3.97752
-0.0776885 0.217573 4.00611
-0.101442 0.507928 4.03161
-0.166754 0.291255 3.94437
-0.139127 0.264108 3.96036
-0.168814 0.342005 3.96379
-0.249368 0.394856 3.89162
-0.193038 0.338149 3.94228
-0.260566 0.37043 3.83435
-0.163173 0.388894 3.98859
-0.0894021 0.544898 4.02899
-0.0871962 0.478367 4.08603
-0.0994624 0.468777 4.06221
-0.0795758 0.496554 4.10169
-0.103468 0.661214 3.98525
-0.138069 0.678551 3.98875
-0.169786 0.682224 3.98549
-0.196498 0.676608 3.97509
-0.213542 0.663237 3.96141
-0.225291 0.613329 3.92729
-0.28817 0.530388 3.82243
-0.210658 0.576377 3.94903
-0.186927 0.569338 3.96364
-0.156091 0.5707 3.97117
-0.127879 0.577571 3.97443
-0.107594 0.586284 3.977
-0.0946228 0.594125 3.97877
-0.292338 0.519838 3.73383
-0.0984684 0.459978 4.05095
-0.0763373 0.542182 4.06498
-0.0733663 0.47875 4.10539
-0.0598459 0.464113 4.09596
-0.0727762 0.473447 4.09381
-0.0928538 0.450216 4.04441
-0.0563083 0.461961 4.10237
-0.0576226 0.451859 4.07595
-0.0961278 0.614114 3.96656
-0.0828986 0.608712 3.98265
-0.0761086 0.605384 3.99933
-0.20159 0.631591 3.95109
-0.211503 0.641125 3.94872
-0.0195731 0.555806 4.08172
0.136211 0.617098 3.94368
-0.0220955 0.453572 4.07334
0.239661 0.71557 3.82405
0.0657286 0.595791 3.97579
0.0913293 0.593603 3.97238
0.115726 0.593698 3.96398
0.148685 0.607984 3.93941
0.0423798 0.601306 3.97368
0.101527 0.673189 3.97223
0.0718493 0.669836 3.97469
0.127249 0.667714 3.96202
0.144308 0.65584 3.95193
0.16805 0.587017 3.92611
0.0535396 0.22471 3.97889
0.146031 0.624399 3.93424
0.244021 0.591338 3.81714
0.19618 0.60333 3.8995
0.0833793 0.482034 3.9967
-0.00638025 0.379664 4.05588
-0.00673085 0.351724 4.04632
0.0274357 0.369844 4.03948
0.0501687 0.359041 4.01967
0.0181322 0.349125 4.03573
0.0360542 0.345339 4.01627
0.0814036 0.310081 3.97346
-0.0233073 0.473482 4.11455
-0.019165 0.499961 4.11912
0.182015 0.678609 3.94357
0.0342541 0.55153 4.00236
0.0323361 0.472391 4.05289
0.0355472 0.486677 4.04389
0.16278 0.481953 3.96264
-0.0187 0.531207 4.10481
0.117676 0.712082 3.98443
0.154682 0.701496 3.96541
0.211245 0.769192 3.86952
0.011105 0.686964 4.01477
0.0461496 0.657542 3.97186
0.0992679 0.338051 3.97019
0.212568 0.329118 3.76382
0.0125266 0.455451 4.04691
-0.00839481 0.446596 4.0478
0.0762547 0.337645 3.97559
0.0664197 0.338539 3.98118
0.168687 0.717997 3.95354
0.0332034 0.459485 4.03947
0.0700625 0.708564 4.00102
0.0750021 0.731129 4.00486
0.104418 0.839141 3.96199
0.189439 0.744119 3.91683
0.0853974 0.785959 3.98636
0.197792 0.688387 3.92278
0.218187 0.700117 3.87595
-0.0056433 0.363918 4.05415
0.0219256 0.357633 4.03908
0.0429437 0.352051 4.01959
0.00538296 0.449392 4.04173
0.0708925 0.337777 3.97843
0.0596389 0.328393 3.99038
0.0640188 0.339855 3.98172
0.00339834 0.468759 4.08149
0.0329797 0.347037 4.01171
0.0137248 0.347153 4.02653
-0.00810995 0.347447 4.03704
-0.00180265 0.260756 4.00945
-0.000927728 0.283632 4.035
-0.00259425 0.300147 4.04002
-0.00611956 0.314906 4.03696
-0.0085411 0.324961 4.03288
0.0360766 0.329808 4.0064
0.0400822 0.326301 4.00795
0.0460123 0.31894 4.00786
0.0503815 0.309521 4.00332
0.0647865 0.386745 4.00813
0.23865 0.461717 3.72776
0.0488795 0.332611 3.99285
0.0535771 0.331046 3.99244
-0.0148202 0.435362 4.05043
0.0223541 0.440213 4.02192
-0.0117341 0.440951 4.04992
0.0595565 0.535953 3.99335
0.100816 0.516517 3.98457
0.0388825 0.473314 4.03063
0.16782 0.811623 3.91675
0.146203 0.773942 3.95149
0.126295 0.733209 3.98036
0.0601714 0.289762 3.98692
0.0191287 0.723422 4.02055
0.0269685 0.786807 4.00726
0.038143 0.850039 3.98774
0.137107 0.59798 3.95106
0.196008 0.565205 3.91132
0.0276323 0.607429 3.97298
0.170501 0.642014 3.93354
0.0170943 0.568925 4.01128
0.018649 0.484747 4.07649
0.224663 0.544324 3.88434
0.178972 0.548005 3.93552
0.145557 0.540321 3.96007
0.0953557 0.546523 3.9751
0.0599444 0.558369 3.98155
0.0352894 0.570857 3.98837
-0.0159163 0.605606 4.03686
0.221433 0.487226 3.89476
0.192275 0.643917 3.92126
-0.0286845 0.459023 4.10516
0.0305999 0.52548 4.01401
0.250983 0.587789 3.74219
0.0154301 0.584588 3.9936
0.0383374 0.468876 4.00661
0.155549 0.62323 3.92917
0.0217006 0.501891 4.06516
0.23028 0.396157 3.7386
0.0281837 0.616325 3.96831
0.00286081 0.52009 4.0891
0.158127 0.272946 3.88941
0.155805 0.240892 3.84998
0.240737 0.472112 3.80999
0.19136 0.307011 3.85876
0.232303 0.649181 3.84049
0.0556249 0.200003 3.96727
-0.035851 0.448595 4.07451
0.0524066 0.505137 4.00342
0.219382 0.596035 3.87554
0.109889 0.608789 3.96154
0.0884953 0.607598 3.96976
0.0660275 0.323842 3.98603
0.21523 0.430752 3.88767
0.00993653 0.170136 3.96556
0.0819408 0.193656 3.9173
0.115536 0.211848 3.88865
0.067733 0.609368 3.97193
0.0471195 0.613122 3.97092
0.0336023 0.614521 3.96864
0.211794 0.647011 3.89572
0.0533864 0.639205 3.97087
0.0768198 0.649185 3.96934
0.0994408 0.65084 3.96595
0.121092 0.645672 3.95873
0.13386 0.637225 3.95075
0.249708 0.657265 3.77696
0.125207 0.61241 3.9525
0.0393899 0.403225 4.02334
0.0130068 0.46041 4.0549
-0.00783689 0.412974 4.04875
0.121338 0.242028 3.91293
0.0893819 0.21981 3.9374
0.0146409 0.186769 3.99243
0.186554 0.277042 3.80604
0.0363473 0.624956 3.97102
-0.000638423 0.563461 4.04498
0.0484605 0.179562 3.94705
0.233547 0.411551 3.81401
0.0154364 0.32686 4.02162
0.0198169 0.319733 4.02419
0.0247313 0.308423 4.02575
0.0274519 0.293652 4.02138
0.0339308 0.272873 4.0018
0.0551559 0.342997 3.9974
0.061785 0.345723 3.99753
0.0686416 0.350011 3.99662
0.0870515 0.365132 3.99055
0.182944 0.42031 3.93712
-0.000365797 0.588576 4.02259
0.00880361 0.637329 3.98086
0.0247718 0.634542 3.97361
0.0498465 0.345509 3.99497
0.182397 0.350352 3.90323
-0.00822936 0.641691 4.00984
0.0451679 0.249426 3.98677
-0.0170037 0.578986 4.06101
0.0155177 0.522278 4.04449
0.0056243 0.237092 4.00374
0.099915 0.297139 3.95932
0.0614337 0.446226 3.9997
0.0756044 0.269169 3.97018
0.124343 0.447432 3.98409
0.087464 0.417846 3.99282
0.146631 0.401992 3.96471
0.0132944 0.210131 4.00379
0.0293056 0.506204 4.02705
0.11697 0.273847 3.938
0.0848728 0.246668 3.9534
0.120812 0.331984 3.95975
0.206886 0.382633 3.87977
0.151164 0.323291 3.93461
0.218785 0.355839 3.82587
0.111039 0.382998 3.98117
0.0145226 0.544656 4.02859
0.0114751 0.473387 4.08436
0.0241157 0.463101 4.05562
0.000796421 0.493849 4.10027
0.0286183 0.663375 3.98572
0.0693618 0.681349 3.98366
0.105934 0.685766 3.97691
0.136978 0.680437 3.96558
0.159395 0.666319 3.95111
0.17307 0.613618 3.91826
0.245861 0.532177 3.81316
0.15438 0.576844 3.94031
0.127724 0.570096 3.9573
0.0936481 0.571591 3.96961
0.0619638 0.578464 3.97555
0.0372431 0.586716 3.97701
0.0202681 0.594576 3.97981
0.244641 0.524608 3.72872
0.0230963 0.455034 4.04453
-0.00159253 0.541779 4.06492
-0.00623788 0.474938 4.1026
-0.0175241 0.460864 4.09306
-0.00580079 0.469006 4.09166
0.0158752 0.445631 4.03617
-0.0218212 0.459704 4.09988
-0.0278702 0.449755 4.07366
0.0181493 0.614888 3.97097
0.00712651 0.609212 3.98308
0.000994653 0.605843 3.99906
0.140982 0.630527 3.94346
0.15566 0.641632 3.93947
