ply
format ascii 1.0
comment Created by Open3D
element vertex 468
property double x
property double y
property double z
end_header
0.0436139 0.364009 3.792
0.0493443 0.450931 3.86488
0.0478923 0.418096 3.79941
0.0277854 0.545304 3.8233
0.0493578 0.482163 3.87118
0.0483735 0.521024 3.8578
0.0476816 0.608205 3.78318
-0.13109 0.598851 3.67711
0.0469167 0.6686 3.76121
0.0468156 0.706213 3.76344
0.0462441 0.844269 3.72804
0.0425206 0.351503 3.78975
0.0413726 0.343629 3.7833
0.0407213 0.342025 3.7727
0.0444615 0.274609 3.75811
0.0442112 0.264189 3.76366
0.0430237 0.25206 3.77004
0.042906 0.2365 3.76584
0.0430665 0.211307 3.74516
0.0481266 0.434442 3.85291
0.0240573 0.434076 3.81604
-0.237884 0.688165 3.55299
-0.0579835 0.580815 3.70597
-0.0838181 0.578359 3.70397
-0.108961 0.578912 3.69702
-0.143901 0.588673 3.67343
-0.0361034 0.587348 3.7029
-0.09515 0.646121 3.70941
-0.0675459 0.645772 3.70846
-0.12021 0.639914 3.7011
-0.137309 0.628944 3.69064
-0.165279 0.570304 3.66093
-0.0530464 0.175928 3.71144
-0.141272 0.602769 3.6682
-0.247463 0.563895 3.54665
-0.195566 0.581532 3.6342
-0.0863435 0.472197 3.73431
0.00350637 0.368213 3.78717
0.00397088 0.344488 3.77697
-0.0379869 0.362987 3.76839
-0.0641674 0.354531 3.74108
-0.0260186 0.344193 3.76227
-0.0480909 0.341883 3.73739
-0.0899769 0.294972 3.69237
0.0274114 0.451307 3.86145
0.0250299 0.481963 3.86721
-0.180103 0.653255 3.68318
-0.0285768 0.540298 3.73701
-0.0360932 0.460079 3.79468
-0.0373374 0.475649 3.78512
-0.167141 0.474356 3.70041
0.026456 0.517115 3.85008
-0.114966 0.689854 3.72526
-0.152949 0.676725 3.7066
-0.210135 0.74582 3.59925
-0.00271364 0.672758 3.75171
-0.0426109 0.637455 3.7018
-0.111228 0.332506 3.68817
-0.218612 0.28353 3.49688
-0.0170651 0.442279 3.78578
0.00481974 0.432766 3.78919
-0.0941796 0.332948 3.68745
-0.0820582 0.331622 3.6934
-0.16872 0.693562 3.69274
-0.0390812 0.449133 3.77984
-0.0647702 0.69039 3.7405
-0.0704774 0.715002 3.74419
-0.101261 0.826829 3.69295
-0.188617 0.721532 3.65031
-0.0825911 0.774528 3.71928
-0.196986 0.663243 3.6603
-0.21719 0.674534 3.60833
0.00281241 0.353615 3.78456
-0.0312602 0.351201 3.76569
-0.0561455 0.348061 3.74068
-0.0111804 0.437421 3.7808
-0.088574 0.332471 3.6905
-0.0732821 0.309088 3.70384
-0.0776659 0.330863 3.69431
-0.0019843 0.449712 3.82419
-0.0444824 0.34455 3.73324
-0.0216642 0.344749 3.75259
0.00607074 0.343306 3.76727
0.000871415 0.213677 3.74045
0.00154301 0.240801 3.76051
0.00361119 0.25631 3.76319
0.00664307 0.268234 3.75689
0.0094093 0.277155 3.75211
-0.0434356 0.296771 3.72162
-0.048412 0.294693 3.72404
-0.0552866 0.289301 3.72613
-0.0598304 0.281123 3.72159
-0.0772155 0.377873 3.73374
-0.245006 0.42206 3.45364
0.0495401 0.42542 3.81921
-0.0586443 0.308377 3.70527
-0.0665483 0.309986 3.70554
0.0132926 0.419932 3.79019
-0.0310308 0.431654 3.75981
0.00928412 0.426111 3.791
-0.0568173 0.525 3.72862
-0.101683 0.508084 3.72172
-0.0433762 0.46326 3.77015
-0.166553 0.793575 3.64749
-0.145301 0.756005 3.68566
-0.124559 0.712317 3.71882
-0.067434 0.262266 3.70795
-0.0115406 0.711729 3.75815
-0.0213862 0.779706 3.73882
-0.032962 0.842245 3.71902
-0.131033 0.58162 3.6851
-0.194556 0.549822 3.6468
-0.0223208 0.594254 3.70014
-0.166463 0.617173 3.66915
-0.0097294 0.558426 3.74629
-0.0178394 0.469281 3.82063
-0.224053 0.525141 3.61968
-0.175998 0.537164 3.67079
-0.14249 0.532225 3.69468
-0.0926199 0.535796 3.70836
-0.0550746 0.545765 3.7138
-0.0281567 0.558775 3.72106
0.0243814 0.599171 3.77353
-0.224172 0.470208 3.62962
-0.189637 0.619415 3.65732
0.0345404 0.435475 3.85089
-0.0276236 0.514334 3.74981
-0.25474 0.554494 3.46682
-0.00806939 0.573856 3.72509
-0.0453102 0.459939 3.74204
-0.151091 0.600108 3.66318
-0.0189471 0.488625 3.80911
-0.238106 0.353719 3.46864
-0.0234168 0.602742 3.69363
0.00348384 0.505865 3.83462
-0.162097 0.237351 3.61893
-0.158277 0.19381 3.58417
-0.247434 0.442215 3.54063
-0.197051 0.271144 3.59215
-0.232791 0.623015 3.5706
-0.0558264 0.143425 3.70191
0.0393049 0.426392 3.81668
-0.0530275 0.494873 3.73983
-0.219653 0.572318 3.60908
-0.104272 0.594594 3.69347
-0.0822899 0.593607 3.70073
-0.0794644 0.306339 3.70059
-0.223165 0.409787 3.62301
-0.00940803 0.102796 3.7029
-0.0849223 0.13538 3.65021
-0.118285 0.159609 3.62037
0.0465867 0.778357 3.74689
0.0423551 0.100095 3.71103
-0.0614359 0.595283 3.70194
-0.0412119 0.599253 3.69888
-0.0288182 0.600885 3.69424
-0.209938 0.622242 3.63107
-0.0479848 0.62052 3.70001
-0.0710478 0.626819 3.70342
-0.0919735 0.627376 3.70194
-0.113131 0.621697 3.69575
-0.126913 0.613824 3.68707
-0.250694 0.627778 3.50361
-0.119694 0.596614 3.68489
0.0466593 0.399698 3.79023
-0.0490756 0.393388 3.75551
-0.0168178 0.445735 3.7959
0.00613221 0.399356 3.78511
0.0469626 0.638415 3.76235
-0.124332 0.20042 3.64161
-0.090809 0.171332 3.66949
-0.0113622 0.125867 3.72902
-0.190189 0.230799 3.54147
-0.0311884 0.610166 3.69681
0.00802612 0.553917 3.78279
0.0420493 0.123587 3.73573
-0.0504081 0.115563 3.68169
-0.241031 0.378005 3.54754
-0.0195597 0.285387 3.73868
-0.0243441 0.27935 3.74177
-0.0291545 0.269965 3.74497
-0.0325679 0.256232 3.74143
-0.0390773 0.233574 3.7266
-0.0700361 0.339198 3.71381
-0.0775299 0.342337 3.71263
-0.0843701 0.346708 3.71256
-0.100929 0.358646 3.70945
-0.191927 0.40524 3.67341
0.00831399 0.580059 3.75807
-0.00315488 0.625307 3.7091
-0.0195846 0.619428 3.7003
-0.0637776 0.342009 3.71184
-0.192125 0.325968 3.63488
0.0162581 0.631509 3.74362
-0.0457816 0.207806 3.71701
0.0483362 0.550787 3.83144
0.0257706 0.570957 3.80051
0.0481307 0.578076 3.8065
-0.0111119 0.51046 3.78461
0.0422979 0.153789 3.74562
0.0428631 0.186374 3.7441
-0.0031543 0.187801 3.73612
-0.10365 0.277209 3.68169
-0.0676987 0.436968 3.73434
-0.0772476 0.238274 3.69685
-0.132001 0.437573 3.72172
-0.0956115 0.408078 3.72434
-0.15576 0.389587 3.6978
-0.00910016 0.155513 3.73814
-0.0280093 0.494819 3.76585
-0.119576 0.24397 3.66422
-0.0858026 0.208012 3.68325
-0.127116 0.319701 3.68219
-0.216655 0.35694 3.61441
-0.157252 0.301957 3.66207
-0.225507 0.319487 3.56036
-0.121488 0.375711 3.7079
-0.00888025 0.533856 3.765
-0.0102924 0.45538 3.82823
-0.0283609 0.44957 3.79802
0.00278042 0.476207 3.84635
-0.022739 0.646794 3.71455
-0.064351 0.660167 3.71725
-0.101321 0.661513 3.71495
-0.132404 0.654869 3.70441
-0.155123 0.640393 3.68902
-0.170184 0.59133 3.6528
-0.250225 0.503449 3.54248
-0.149862 0.562064 3.67472
-0.122696 0.557419 3.69074
-0.0882763 0.558204 3.70212
-0.0554421 0.564091 3.70647
-0.0304105 0.573275 3.70817
-0.0134442 0.582735 3.70966
-0.250058 0.487648 3.45218
-0.0287277 0.443476 3.78516
0.00829385 0.530407 3.80537
0.00898082 0.454069 3.8487
0.0213291 0.439384 3.83902
0.00818876 0.448306 3.83659
-0.0227498 0.435368 3.77588
0.0263922 0.437062 3.8463
0.0303623 0.428995 3.81624
-0.0135988 0.60209 3.6973
-0.000685691 0.598472 3.7126
0.00639329 0.596476 3.73207
-0.13504 0.607749 3.67917
-0.150197 0.616348 3.67601
0.0685467 0.545312 3.82258
0.216458 0.603919 3.67933
0.0727386 0.434843 3.81812
0.305083 0.684899 3.55768
0.14442 0.582531 3.70382
0.168373 0.580871 3.70321
0.192392 0.581636 3.69762
0.225296 0.593119 3.67581
0.125496 0.588868 3.70229
0.17856 0.647714 3.70942
0.152601 0.646529 3.7097
0.20325 0.642514 3.70256
0.21954 0.632332 3.69356
0.244814 0.573074 3.66589
0.134103 0.182608 3.71491
0.225676 0.608241 3.67081
0.315564 0.565037 3.5536
0.271023 0.584221 3.64052
0.170928 0.473512 3.74019
0.0813848 0.368927 3.79001
0.0755926 0.344948 3.77954
0.118039 0.36446 3.77367
0.140918 0.355536 3.74728
0.1027 0.344871 3.76567
0.124112 0.341849 3.74176
0.166835 0.296954 3.69876
0.0697816 0.452094 3.86357
0.0713898 0.482596 3.86901
0.256164 0.656579 3.68818
0.118062 0.540598 3.73796
0.127029 0.461587 3.79963
0.127064 0.476763 3.78978
0.243526 0.476867 3.70782
0.0700424 0.517396 3.85
0.198594 0.690846 3.73065
0.232897 0.679181 3.71209
0.281218 0.74151 3.60451
0.094257 0.67227 3.75259
0.131537 0.637905 3.70222
0.18686 0.333752 3.69442
0.284933 0.293667 3.49997
0.111412 0.443871 3.79051
0.0903724 0.433752 3.79469
0.170363 0.332179 3.69386
0.157327 0.330686 3.70003
0.246856 0.695245 3.69875
0.129126 0.450413 3.78637
0.152728 0.690559 3.74471
0.157505 0.714894 3.7492
0.184458 0.822953 3.69747
0.263151 0.720468 3.65696
0.16939 0.772341 3.72406
0.271066 0.665461 3.66604
0.288152 0.674235 3.61472
0.0790515 0.354212 3.78733
0.109651 0.352377 3.7701
0.132599 0.348798 3.74653
0.10578 0.43897 3.78674
0.164472 0.331707 3.69729
0.150448 0.309173 3.7114
0.152102 0.329963 3.70034
0.0962985 0.451268 3.82571
0.118854 0.343996 3.73787
0.0978272 0.344694 3.7554
0.072357 0.343306 3.76859
0.0827816 0.215378 3.74419
0.0814205 0.242074 3.7632
0.0803079 0.257316 3.76526
0.079437 0.269037 3.7586
0.076507 0.277818 3.75352
0.122957 0.297521 3.72633
0.127461 0.295566 3.73054
0.133202 0.2905 3.73333
0.138158 0.282908 3.72898
0.159529 0.379236 3.74135
0.315422 0.426689 3.4577
0.136657 0.307995 3.70945
0.144182 0.309754 3.71197
0.0819141 0.420463 3.79331
0.123314 0.432628 3.7683
0.0859538 0.42678 3.79545
0.144207 0.525598 3.73044
0.185225 0.509142 3.7262
0.132758 0.464449 3.77608
0.242999 0.789142 3.65372
0.225521 0.754235 3.69261
0.207893 0.712894 3.72486
0.146381 0.265334 3.71352
0.10248 0.710646 3.76059
0.112161 0.778423 3.74174
0.121169 0.839957 3.7231
0.213172 0.585315 3.68659
0.270431 0.55207 3.65351
0.11453 0.595431 3.69834
0.24565 0.621191 3.67341
0.100858 0.558843 3.74611
0.110523 0.470732 3.82445
0.296098 0.528051 3.62648
0.254119 0.539051 3.67637
0.223655 0.533429 3.69904
0.177927 0.536909 3.71041
0.143241 0.546555 3.71459
0.11777 0.559354 3.72127
0.0701316 0.599161 3.77323
0.296702 0.474069 3.63647
0.264516 0.62241 3.66235
0.0607184 0.435823 3.85144
0.118379 0.514659 3.75159
0.323914 0.553915 3.47083
0.100258 0.574277 3.72467
0.13693 0.461031 3.74915
0.233608 0.605084 3.6659
0.109701 0.489696 3.8126
0.3062 0.361268 3.4733
0.116141 0.604355 3.69067
0.0895021 0.506614 3.83599
0.233401 0.247965 3.62384
0.227477 0.205939 3.58653
0.318817 0.447434 3.54781
0.264755 0.281624 3.59763
0.303432 0.622918 3.57655
0.136476 0.151394 3.70431
0.0600794 0.426667 3.81778
0.140968 0.495623 3.74404
0.291421 0.574748 3.61558
0.1914 0.59796 3.69363
0.169626 0.596304 3.69917
0.15633 0.306844 3.70786
0.294518 0.41582 3.63149
0.0931812 0.107379 3.7035
0.163931 0.14599 3.65081
0.192914 0.171848 3.62154
0.149091 0.597436 3.70032
0.131237 0.600888 3.69631
0.121101 0.602474 3.6913
0.282044 0.624151 3.63675
0.134868 0.622517 3.69836
0.153735 0.629509 3.70325
0.174367 0.631108 3.70229
0.195921 0.626413 3.69692
0.209967 0.619017 3.68947
0.319582 0.625402 3.50835
0.206174 0.600921 3.68607
0.135422 0.394756 3.76223
0.111087 0.44776 3.80139
0.0844582 0.400126 3.78792
0.200127 0.211539 3.64578
0.168589 0.181827 3.67302
0.0936781 0.130437 3.7304
0.256932 0.242161 3.54306
0.122091 0.612095 3.69391
0.0859765 0.554322 3.78316
0.132192 0.123725 3.68218
0.30983 0.385789 3.55504
0.102572 0.286147 3.74168
0.106926 0.280441 3.7458
0.110713 0.271326 3.74938
0.114241 0.257964 3.74618
0.119948 0.236265 3.73082
0.144313 0.33868 3.71965
0.152376 0.341986 3.71858
0.159283 0.346692 3.71911
0.179221 0.359648 3.71659
0.263418 0.410188 3.68257
0.0850673 0.580178 3.75755
0.0974227 0.625752 3.70918
0.111834 0.62027 3.69839
0.137533 0.340959 3.71677
0.262561 0.33348 3.64328
0.0768359 0.631455 3.74394
0.12609 0.212832 3.72134
0.0692389 0.571288 3.80076
0.102826 0.511245 3.78708
0.0865638 0.190601 3.73906
0.181073 0.282072 3.6874
0.155519 0.438133 3.74144
0.155409 0.243646 3.70234
0.21056 0.440421 3.7306
0.178493 0.409829 3.7321
0.23056 0.393729 3.70679
0.0920484 0.159114 3.73965
0.118078 0.495471 3.76958
0.19648 0.252314 3.66941
0.164583 0.21614 3.68806
0.202926 0.323545 3.68717
0.286128 0.36465 3.62333
0.229614 0.309125 3.66881
0.292916 0.32918 3.56632
0.19846 0.377707 3.71528
0.10125 0.534169 3.76572
0.103438 0.457181 3.83099
0.120334 0.451547 3.80394
0.0923565 0.477331 3.84794
0.114951 0.647386 3.71474
0.15269 0.661338 3.71957
0.186819 0.663214 3.71831
0.21591 0.657308 3.70837
0.235805 0.643819 3.69364
0.249266 0.595159 3.65746
0.320133 0.50653 3.54857
0.231256 0.564766 3.67826
0.205704 0.559398 3.69358
0.173233 0.559795 3.70322
0.14306 0.565334 3.70613
0.120342 0.574409 3.70825
0.105525 0.583595 3.70929
0.31985 0.489258 3.45519
0.120421 0.445082 3.79152
0.0867266 0.530817 3.80567
0.0864572 0.455631 3.85109
0.0724569 0.44075 3.84141
0.0863302 0.450035 3.83887
0.115083 0.43667 3.78311
0.0680894 0.438063 3.84836
0.0676644 0.429737 3.81827
0.107538 0.603442 3.69595
0.0938441 0.598915 3.71265
0.0867736 0.59659 3.73195
0.218608 0.613147 3.68142
0.23168 0.620817 3.68016
