ply
format ascii 1.0
comment Created by Open3D
element vertex 468
property double x
property double y
property double z
end_header
0.000159886 0.333243 4.25372
0.000224698 0.422132 4.31442
-0.000747743 0.394449 4.25227
-0.0184281 0.509703 4.27535
0.00214796 0.449101 4.32238
0.00542918 0.483843 4.30973
0.00257247 0.570079 4.2389
-0.17139 0.5816 4.13275
0.000931513 0.635226 4.2192
0.000366275 0.669502 4.22264
-0.00366775 0.786122 4.19134
3.88533e-05 0.320043 4.24949
0.000364466 0.310759 4.24076
0.000608728 0.307542 4.229
0.00161836 0.308503 4.2315
0.00159146 0.299051 4.23622
0.00403143 0.286018 4.24138
0.00576988 0.271203 4.23934
0.00679267 0.244197 4.21695
0.00214305 0.407517 4.3004
-0.023408 0.410237 4.26951
-0.260705 0.668046 4.0022
-0.0982666 0.557999 4.15425
-0.121613 0.556004 4.15248
-0.145057 0.55701 4.14654
-0.175872 0.572286 4.12628
-0.0803743 0.564827 4.15548
-0.13102 0.621514 4.16597
-0.105664 0.618874 4.16813
-0.155092 0.618637 4.15814
-0.170288 0.60986 4.14814
-0.193662 0.553678 4.11497
-0.0823064 0.203926 4.18718
-0.180235 0.588017 4.12472
-0.264333 0.566251 3.99619
-0.217432 0.571589 4.08746
-0.117006 0.449354 4.19369
-0.030009 0.338135 4.25037
-0.0247109 0.312187 4.23552
-0.0613238 0.333337 4.23393
-0.0818026 0.324745 4.21295
-0.0470443 0.313062 4.22288
-0.0671585 0.312409 4.20575
-0.109259 0.28976 4.17827
-0.0186786 0.422751 4.3137
-0.0197831 0.44839 4.32073
-0.2017 0.633847 4.13753
-0.0702379 0.514934 4.19173
-0.0760933 0.433274 4.25123
-0.0762204 0.447752 4.24187
-0.18581 0.454489 4.15562
-0.0190637 0.481366 4.30154
-0.148871 0.661207 4.18926
-0.180632 0.65289 4.1656
-0.234668 0.711226 4.05246
-0.0498406 0.640414 4.21262
-0.0864356 0.611348 4.16143
-0.131718 0.313519 4.17025
-0.249854 0.333351 3.94407
-0.0613402 0.418565 4.24357
-0.0389888 0.407959 4.24975
-0.110523 0.312678 4.17011
-0.0955577 0.313328 4.17692
-0.193553 0.668354 4.15249
-0.0760973 0.422106 4.23804
-0.106463 0.658728 4.20686
-0.110373 0.678347 4.21151
-0.137109 0.767333 4.1536
-0.212428 0.689419 4.1097
-0.123809 0.724118 4.18402
-0.21773 0.643797 4.11441
-0.23883 0.653567 4.0624
-0.0277577 0.322688 4.2453
-0.0541915 0.32081 4.22933
-0.0740106 0.317992 4.21194
-0.0549836 0.413455 4.24052
-0.102866 0.312672 4.17445
-0.08649 0.308472 4.19337
-0.0910291 0.31433 4.17713
-0.0472118 0.425575 4.27329
-0.0602825 0.313706 4.20018
-0.042396 0.312116 4.21221
-0.0217315 0.309461 4.22286
-0.0230981 0.246183 4.21698
-0.0226481 0.274287 4.23637
-0.0235416 0.289538 4.23758
-0.0249263 0.301955 4.2309
-0.0230824 0.3099 4.22613
-0.0630231 0.311822 4.20386
-0.0642479 0.309151 4.20972
-0.0668462 0.302567 4.21452
-0.0728387 0.294282 4.21002
-0.102136 0.354468 4.20849
-0.278824 0.459417 3.90155
-0.00268217 0.402461 4.27027
-0.0775547 0.312369 4.1877
-0.0814088 0.311459 4.19251
-0.0318355 0.395252 4.24847
-0.0699714 0.406085 4.22516
-0.0351924 0.401292 4.2497
-0.0945795 0.500233 4.18259
-0.132193 0.483053 4.17637
-0.0804398 0.436751 4.22878
-0.193424 0.744691 4.10691
-0.174857 0.714107 4.15013
-0.158303 0.68056 4.18404
-0.0852984 0.273368 4.19153
-0.0565488 0.672381 4.22239
-0.0674009 0.725895 4.20366
-0.0746807 0.779322 4.18417
-0.164592 0.562268 4.1361
-0.216378 0.535148 4.10062
-0.0718508 0.572314 4.15258
-0.193909 0.602184 4.12398
-0.0538999 0.531082 4.20055
-0.0602149 0.441605 4.27479
-0.243493 0.518212 4.07127
-0.201898 0.516959 4.12472
-0.171677 0.507295 4.15016
-0.128615 0.511694 4.16199
-0.0959615 0.522719 4.1679
-0.0712467 0.5347 4.17554
-0.0217123 0.563734 4.22794
-0.244714 0.466152 4.08165
-0.2111 0.605464 4.10955
-0.0101473 0.4088 4.29884
-0.0702028 0.488967 4.20472
-0.282356 0.568987 3.91305
-0.0554862 0.548194 4.1798
-0.0856866 0.435993 4.2062
-0.186058 0.586973 4.11783
-0.0592774 0.459011 4.26388
-0.269399 0.398302 3.91736
-0.0745487 0.581856 4.14512
-0.0386879 0.472785 4.28672
-0.190535 0.267903 4.08673
-0.190598 0.238619 4.04012
-0.273191 0.461513 3.99258
-0.221447 0.304294 4.05091
-0.254554 0.613582 4.02187
-0.0894912 0.175911 4.17379
-0.012528 0.403692 4.26975
-0.0892238 0.469753 4.19681
-0.237118 0.566698 4.05923
-0.146407 0.572567 4.14649
-0.124771 0.570091 4.15034
-0.0934217 0.303481 4.1885
-0.24051 0.415658 4.07857
-0.046831 0.134277 4.16863
-0.123779 0.17631 4.11281
-0.155096 0.202301 4.08013
-0.00290409 0.727769 4.20891
0.00665011 0.124312 4.17436
-0.104205 0.571511 4.15184
-0.0882746 0.576471 4.14887
-0.0798072 0.579743 4.14475
-0.228087 0.609359 4.08258
-0.0898688 0.595789 4.1518
-0.107448 0.600629 4.15604
-0.128708 0.602518 4.15607
-0.150578 0.599708 4.15114
-0.16394 0.594456 4.14419
-0.277939 0.624255 3.9526
-0.161456 0.576901 4.13912
-0.000879233 0.3755 4.24741
-0.0804435 0.368573 4.22374
-0.0605828 0.422331 4.25352
-0.0339059 0.373785 4.24648
0.00278539 0.602966 4.21887
-0.156696 0.232794 4.11549
-0.123952 0.203956 4.14411
-0.0445249 0.154251 4.19925
-0.222396 0.279558 3.9886
-0.0798517 0.588001 4.14697
-0.0376448 0.522463 4.2377
0.00856645 0.145364 4.20448
-0.089092 0.152917 4.14545
-0.263768 0.405865 4.00011
-0.0452045 0.311515 4.21601
-0.0467076 0.305734 4.22185
-0.0478838 0.29631 4.2263
-0.0509464 0.282859 4.2237
-0.0571255 0.258129 4.20538
-0.0838349 0.312699 4.18944
-0.0928365 0.314785 4.18955
-0.0997714 0.31876 4.18973
-0.122747 0.335543 4.18776
-0.204367 0.400478 4.13221
-0.0379945 0.548925 4.21267
-0.0533232 0.598948 4.16831
-0.0693186 0.595516 4.15416
-0.0771977 0.31554 4.18581
-0.210139 0.339942 4.09861
-0.0296286 0.599003 4.20136
-0.0684355 0.231551 4.19549
0.00478347 0.513312 4.28518
-0.0194162 0.535287 4.25529
0.00306351 0.54076 4.26147
-0.053914 0.482145 4.23978
0.00898896 0.175844 4.21819
0.00824092 0.212697 4.21784
-0.0300061 0.216495 4.21372
-0.129449 0.27949 4.16626
-0.103706 0.414684 4.20004
-0.100102 0.251976 4.18006
-0.151544 0.420055 4.18591
-0.124617 0.38922 4.19455
-0.172573 0.379487 4.16581
-0.0397364 0.182681 4.21108
-0.0686014 0.468399 4.22236
-0.149469 0.261181 4.14379
-0.115531 0.231031 4.16393
-0.152707 0.311489 4.15937
-0.233577 0.372104 4.07357
-0.178505 0.309647 4.13469
-0.249439 0.353662 4.01397
-0.143379 0.355861 4.18085
-0.054107 0.506155 4.21935
-0.05288 0.429785 4.27904
-0.0684881 0.42434 4.25616
-0.0426733 0.44625 4.29793
-0.0718562 0.621045 4.17465
-0.106938 0.634233 4.17988
-0.138359 0.636665 4.17708
-0.166034 0.632296 4.16462
-0.184157 0.621023 4.14666
-0.198263 0.579106 4.1065
-0.273007 0.51438 3.99133
-0.181231 0.542913 4.12865
-0.157103 0.535205 4.14481
-0.125599 0.535675 4.15454
-0.0961526 0.541986 4.15927
-0.0743923 0.550553 4.16252
-0.060644 0.559063 4.16522
-0.281373 0.515048 3.89727
-0.068278 0.417761 4.24401
-0.0384115 0.498485 4.25844
-0.03582 0.427372 4.30079
-0.0202016 0.413492 4.29022
-0.0356113 0.423404 4.28765
-0.061444 0.409502 4.23731
-0.0161924 0.410614 4.29655
-0.0190302 0.405751 4.27009
-0.0651389 0.580348 4.15212
-0.0487706 0.572828 4.1689
-0.0402533 0.567638 4.18822
-0.172837 0.590677 4.13543
-0.181814 0.600635 4.13345
0.0261363 0.509413 4.27807
0.189512 0.583289 4.13206
0.0239783 0.408758 4.26437
0.288026 0.685436 4.00398
0.116311 0.559612 4.16337
0.142994 0.55713 4.15983
0.168713 0.55769 4.15093
0.203763 0.573769 4.12683
0.0919557 0.56634 4.16083
0.152764 0.629857 4.16995
0.122171 0.626789 4.16901
0.17944 0.627292 4.15981
0.197166 0.618253 4.14683
0.222209 0.555535 4.11133
0.107054 0.189525 4.1744
0.199281 0.591126 4.12303
0.298605 0.569544 3.9956
0.250421 0.574957 4.08327
0.134112 0.447247 4.18345
0.0337637 0.336957 4.24804
0.0300538 0.310502 4.23512
0.0702466 0.328612 4.2301
0.0930779 0.319766 4.21026
0.058298 0.30908 4.22296
0.0774911 0.308031 4.20452
0.127189 0.281531 4.16816
0.0222717 0.422507 4.30887
0.0277811 0.448383 4.3156
0.237283 0.645096 4.13493
0.0819082 0.51475 4.19137
0.087556 0.430622 4.23998
0.0900088 0.445622 4.23201
0.217182 0.450143 4.14507
0.0285599 0.481084 4.30222
0.169734 0.674045 4.17946
0.20823 0.665451 4.15851
0.258145 0.731727 4.05426
0.0548757 0.645119 4.20877
0.0954492 0.617519 4.16403
0.147595 0.305104 4.16239
0.286166 0.309671 3.93029
0.0649858 0.41554 4.23289
0.040378 0.406461 4.23528
0.117173 0.307001 4.17053
0.109034 0.308199 4.17471
0.222267 0.68284 4.14522
0.0886572 0.419018 4.22466
0.11908 0.668806 4.1965
0.124006 0.689878 4.20046
0.146551 0.784477 4.15481
0.239917 0.706789 4.10552
0.130465 0.737972 4.18015
0.251927 0.656615 4.11196
0.268449 0.668539 4.06021
0.0326112 0.32089 4.24459
0.0627304 0.316327 4.22866
0.0845003 0.313262 4.20957
0.0565302 0.410575 4.22694
0.112038 0.307692 4.17248
0.101589 0.304191 4.18768
0.108533 0.308849 4.17438
0.0537682 0.422709 4.27166
0.0758107 0.310029 4.19972
0.0541374 0.308983 4.21373
0.0289308 0.307924 4.22537
0.0418957 0.243277 4.21037
0.0389962 0.272158 4.23421
0.0362923 0.287864 4.23751
0.0323796 0.300446 4.23228
0.0303665 0.308455 4.22738
0.0787186 0.308614 4.20029
0.0823498 0.305829 4.20361
0.0878389 0.299522 4.20642
0.0916283 0.290534 4.2025
0.11412 0.349222 4.1978
0.300888 0.450428 3.89715
0.0933888 0.308074 4.18711
0.0966203 0.307241 4.18873
0.0323093 0.393445 4.24154
0.0743434 0.402805 4.20689
0.0359198 0.399543 4.23877
0.109351 0.499677 4.18163
0.151294 0.481818 4.17092
0.0933937 0.433959 4.21708
0.213761 0.765847 4.10668
0.195757 0.731602 4.14368
0.178184 0.694974 4.17417
0.105734 0.265218 4.18442
0.0625627 0.67935 4.21635
0.0667502 0.733634 4.20067
0.0759974 0.789636 4.18116
0.191196 0.563204 4.13767
0.250174 0.53584 4.09421
0.0770071 0.573042 4.16019
0.225271 0.608439 4.12334
0.0636206 0.531256 4.20257
0.0707305 0.439698 4.26678
0.282073 0.517224 4.06524
0.233074 0.516754 4.12028
0.197928 0.506875 4.14591
0.146214 0.511639 4.16269
0.109401 0.522942 4.17004
0.0825405 0.535124 4.17742
0.0266102 0.564225 4.22969
0.281506 0.459765 4.0737
0.247592 0.612487 4.10913
0.0160032 0.408263 4.29834
0.0795444 0.487975 4.20317
0.303623 0.572862 3.9156
0.0605249 0.548904 4.18313
0.0909969 0.433367 4.19218
0.210306 0.590712 4.11765
0.0734695 0.457519 4.25589
0.298546 0.381993 3.90589
0.0778717 0.582255 4.1546
0.0522629 0.472029 4.28412
0.228817 0.24253 4.06564
0.229848 0.209188 4.02185
0.301833 0.453591 3.98377
0.26446 0.28011 4.03082
0.283236 0.623473 4.02179
0.113739 0.158507 4.1611
0.00715168 0.403627 4.26739
0.102987 0.468546 4.19062
0.273899 0.569727 4.05712
0.16252 0.574077 4.1498
0.140244 0.572187 4.15821
0.107138 0.299116 4.18346
0.278793 0.404325 4.0635
0.0631694 0.123611 4.1622
0.14701 0.152049 4.10092
0.185513 0.174133 4.06609
0.118448 0.574022 4.16011
0.097997 0.578199 4.15859
0.0840002 0.580403 4.1552
0.265921 0.617849 4.08168
0.103076 0.597808 4.16083
0.126663 0.604479 4.16178
0.148816 0.606586 4.15962
0.171236 0.603695 4.15192
0.18516 0.598518 4.14217
0.299151 0.636074 3.95381
0.178233 0.578128 4.14084
0.089916 0.364197 4.21236
0.0645329 0.419909 4.24046
0.0362361 0.372002 4.24187
0.189195 0.207923 4.09503
0.152723 0.181604 4.12569
0.0665041 0.144497 4.19155
0.262045 0.251589 3.97333
0.0860442 0.588386 4.15847
0.0447021 0.522578 4.23764
0.108413 0.134129 4.13828
0.299236 0.391574 3.98507
0.0563153 0.308978 4.2157
0.0605042 0.303144 4.21983
0.0650931 0.293501 4.22392
0.0678508 0.279798 4.22101
0.078378 0.251999 4.20104
0.0972909 0.307834 4.18778
0.103366 0.309958 4.18953
0.110863 0.313534 4.18909
0.135531 0.328896 4.18053
0.24277 0.390184 4.11476
0.0438647 0.549551 4.21454
0.0530685 0.600991 4.1703
0.0720529 0.597771 4.16224
0.0939142 0.310821 4.18534
0.248661 0.322358 4.07812
0.0341833 0.600741 4.20198
0.0935917 0.220969 4.18481
0.0266525 0.535553 4.25422
0.0637305 0.481347 4.23476
0.051606 0.21091 4.20656
0.154038 0.266119 4.1492
0.113974 0.411421 4.18477
0.126804 0.238838 4.16481
0.178081 0.415083 4.1686
0.140083 0.383983 4.17984
0.204943 0.370154 4.14578
0.0626687 0.174616 4.20534
0.0802263 0.467063 4.21545
0.178446 0.241928 4.12373
0.142092 0.213197 4.14547
0.176395 0.29894 4.14666
0.274281 0.356208 4.05347
0.213878 0.292269 4.11409
0.289946 0.333382 3.99643
0.164294 0.348051 4.1665
0.0619559 0.505721 4.21976
0.062862 0.427239 4.27371
0.0781553 0.421552 4.24234
0.050302 0.444891 4.2938
0.0753371 0.624648 4.17726
0.118348 0.641541 4.17738
0.156701 0.646553 4.17329
0.189752 0.642999 4.16198
0.213422 0.630616 4.14459
0.227852 0.58257 4.10452
0.30423 0.512248 3.98987
0.208133 0.544094 4.12612
0.179949 0.536137 4.14344
0.145064 0.536612 4.15722
0.111945 0.543032 4.16397
0.0850317 0.551719 4.16491
0.066694 0.559791 4.1683
0.301301 0.512241 3.8998
0.0768712 0.414719 4.22963
0.0452793 0.498058 4.25898
0.0419567 0.425524 4.2948
0.0287619 0.412084 4.28457
0.042493 0.420867 4.28262
0.0680597 0.406388 4.22089
0.0238215 0.409945 4.29244
0.0165947 0.404781 4.26533
0.065672 0.58105 4.1577
0.0515786 0.573979 4.17125
0.0444226 0.568712 4.18922
0.19305 0.594329 4.13361
0.209804 0.607051 4.13061
