ply
format ascii 1.0
comment Created by Open3D
element vertex 468
property double x
property double y
property double z
end_header
0.0361196 0.367341 3.79776
0.0386469 0.444507 3.86702
0.0384786 0.414288 3.80521
0.018057 0.532404 3.82818
0.0386022 0.473474 3.87302
0.0379262 0.509796 3.8607
0.0384183 0.590572 3.78986
-0.13263 0.588492 3.69118
0.0382448 0.652581 3.76738
0.0381102 0.688115 3.76955
0.0377403 0.812592 3.73947
0.0355995 0.355614 3.79486
0.0349438 0.347827 3.78853
0.0346428 0.346056 3.77845
0.0370099 0.301915 3.77139
0.0367361 0.292422 3.77675
0.0358899 0.281221 3.78354
0.0357032 0.266853 3.78149
0.0356481 0.24162 3.76409
0.0380069 0.429315 3.8557
0.0141055 0.428721 3.82075
-0.221524 0.671142 3.57764
-0.0626822 0.571747 3.71762
-0.0865301 0.569998 3.7157
-0.110213 0.569856 3.70913
-0.144557 0.579441 3.68747
-0.0426514 0.576259 3.71436
-0.0981154 0.633169 3.72076
-0.0718855 0.631113 3.72006
-0.122162 0.628334 3.7127
-0.138664 0.618165 3.70346
-0.163959 0.561791 3.67591
-0.0561379 0.204626 3.72803
-0.142812 0.592101 3.683
-0.234667 0.556582 3.57
-0.1906 0.573354 3.6512
-0.0924108 0.46836 3.74447
-0.00273956 0.371903 3.7936
-0.00162782 0.349136 3.78275
-0.0428619 0.36772 3.77526
-0.0679094 0.361348 3.74947
-0.0308054 0.349903 3.76858
-0.0520571 0.34855 3.74477
-0.0920552 0.311196 3.70455
0.0175253 0.444968 3.86408
0.0150076 0.473721 3.86938
-0.175036 0.644069 3.69654
-0.0362354 0.530071 3.74633
-0.0445997 0.454246 3.80128
-0.0461492 0.468776 3.79233
-0.16841 0.472397 3.71129
0.0162312 0.506464 3.85362
-0.115939 0.676979 3.73428
-0.150307 0.665845 3.71709
-0.19692 0.723517 3.62094
-0.011661 0.657463 3.75879
-0.048929 0.621836 3.71411
-0.113919 0.344092 3.6999
-0.210811 0.302597 3.51716
-0.0264409 0.437196 3.79321
-0.00482242 0.427873 3.79522
-0.0965933 0.345146 3.69816
-0.0845545 0.343916 3.70377
-0.163599 0.681751 3.70499
-0.0476318 0.444238 3.78732
-0.0703471 0.676038 3.7485
-0.0749493 0.698601 3.75251
-0.0999573 0.796929 3.70762
-0.179733 0.703557 3.66724
-0.0841377 0.749679 3.73074
-0.189473 0.653123 3.67594
-0.205282 0.660607 3.62867
-0.00306878 0.358214 3.79051
-0.0361219 0.3566 3.77223
-0.0599498 0.354869 3.74839
-0.0206032 0.432362 3.78782
-0.0909154 0.344901 3.70087
-0.0755553 0.326127 3.71547
-0.080357 0.34316 3.70473
-0.0113616 0.443845 3.82931
-0.0482091 0.351004 3.74093
-0.0262569 0.349703 3.75916
0.000695635 0.347603 3.77317
-0.0041109 0.243444 3.75877
-0.00310773 0.270228 3.776
-0.00154689 0.284847 3.77712
0.000986525 0.295833 3.77032
0.00352217 0.303871 3.76584
-0.0474534 0.318157 3.73442
-0.0519742 0.316232 3.73712
-0.0581048 0.310908 3.73929
-0.0620365 0.302479 3.73522
-0.0826902 0.382485 3.74279
-0.233388 0.428566 3.4797
0.0395207 0.420591 3.8234
-0.061946 0.326084 3.71668
-0.0691105 0.327317 3.7172
0.00397267 0.416299 3.79687
-0.0401982 0.427985 3.7686
-0.000173019 0.421848 3.79711
-0.0630927 0.516927 3.73824
-0.105733 0.502139 3.73142
-0.0516947 0.457699 3.77828
-0.158581 0.766764 3.66558
-0.141174 0.734527 3.69982
-0.124231 0.697561 3.7293
-0.0695088 0.28317 3.7219
-0.0192109 0.693661 3.76516
-0.026704 0.753078 3.74872
-0.0367628 0.810637 3.73158
-0.131805 0.572675 3.6982
-0.191223 0.542652 3.66272
-0.0301882 0.58156 3.71165
-0.164178 0.607721 3.68389
-0.018082 0.546184 3.75504
-0.0270351 0.462364 3.82612
-0.218294 0.520696 3.63699
-0.174869 0.530635 3.6849
-0.143731 0.525268 3.70705
-0.0962194 0.528409 3.71945
-0.0607957 0.53698 3.72493
-0.0355774 0.548038 3.73121
0.0155888 0.58255 3.78072
-0.220554 0.47047 3.64502
-0.184453 0.610518 3.67316
0.0249605 0.430315 3.8539
-0.0362677 0.505407 3.75883
-0.238873 0.54894 3.49501
-0.0166149 0.560992 3.73502
-0.0541952 0.454703 3.75226
-0.15151 0.590522 3.67816
-0.0284809 0.480498 3.81494
-0.22701 0.366304 3.49216
-0.0314543 0.589263 3.70567
-0.00633249 0.496465 3.83895
-0.160168 0.259246 3.63581
-0.154319 0.220974 3.60083
-0.238999 0.445812 3.56176
-0.194686 0.290028 3.60891
-0.220223 0.611549 3.59324
-0.0569981 0.176088 3.71823
0.0293478 0.421534 3.82125
-0.0605505 0.48812 3.74965
-0.211957 0.564878 3.62817
-0.106222 0.585014 3.70608
-0.0852144 0.584329 3.71246
-0.0813763 0.32286 3.71181
-0.220606 0.415259 3.63777
-0.0118526 0.140723 3.71867
-0.0824468 0.169647 3.66664
-0.114595 0.190586 3.63702
0.0381187 0.751667 3.75558
0.0363996 0.137753 3.72648
-0.0658398 0.585406 3.71322
-0.0473686 0.587754 3.71034
-0.0361083 0.588303 3.70608
-0.202118 0.613122 3.64909
-0.0536379 0.604485 3.71257
-0.0749908 0.610523 3.71579
-0.0950729 0.61147 3.71462
-0.115481 0.607404 3.70881
-0.12899 0.600912 3.70096
-0.233802 0.615534 3.53095
-0.12124 0.586483 3.6983
0.0379257 0.398539 3.797
-0.0563451 0.395123 3.76383
-0.0260672 0.440454 3.80261
-0.00161425 0.398959 3.79245
0.0381675 0.621575 3.76957
-0.122687 0.226384 3.65832
-0.0903959 0.200866 3.68594
-0.0149649 0.160116 3.74499
-0.185242 0.254491 3.55877
-0.0384528 0.595431 3.70893
-0.00113642 0.540916 3.78999
0.0359732 0.157633 3.75168
-0.0500477 0.15228 3.69781
-0.234248 0.387484 3.56691
-0.0242359 0.309933 3.75177
-0.0287135 0.304522 3.7554
-0.0329017 0.295666 3.75912
-0.0353816 0.282364 3.75634
-0.0416791 0.259347 3.7424
-0.0731522 0.348152 3.72249
-0.080549 0.351239 3.72128
-0.0875572 0.355624 3.72172
-0.10494 0.366629 3.7199
-0.192472 0.410012 3.68538
-0.0004173 0.565407 3.76613
-0.0123759 0.609534 3.72036
-0.0276971 0.604228 3.71208
-0.0668191 0.350503 3.72053
-0.191558 0.338833 3.64975
0.00740169 0.615183 3.7524
-0.0493879 0.233882 3.73375
0.0381926 0.537161 3.83577
0.0164018 0.556021 3.80674
0.0383889 0.562264 3.81225
-0.0205665 0.501167 3.79198
0.0358424 0.184617 3.76277
0.0358106 0.215703 3.76259
-0.00868617 0.216871 3.75436
-0.105106 0.2946 3.6956
-0.0755368 0.434799 3.74465
-0.0795098 0.260142 3.71214
-0.136241 0.438114 3.73282
-0.101536 0.410091 3.73491
-0.158809 0.395452 3.71042
-0.0140106 0.186236 3.75495
-0.0371164 0.486878 3.77424
-0.119554 0.264917 3.67948
-0.0873855 0.232848 3.69939
-0.128723 0.332648 3.69492
-0.214325 0.36738 3.62959
-0.157466 0.317262 3.67626
-0.220659 0.334155 3.57809
-0.125186 0.382463 3.71908
-0.0180154 0.522801 3.77318
-0.019438 0.449286 3.83321
-0.0370415 0.444406 3.80452
-0.0069287 0.468349 3.8495
-0.0311201 0.631545 3.72535
-0.0697203 0.645919 3.72737
-0.104018 0.64895 3.72497
-0.132963 0.643426 3.71523
-0.153695 0.630325 3.70141
-0.168148 0.582613 3.66852
-0.239543 0.501616 3.56485
-0.150069 0.554064 3.68872
-0.123914 0.549197 3.7036
-0.0912645 0.550111 3.71376
-0.0608052 0.555118 3.71824
-0.0375708 0.56234 3.71905
-0.0218381 0.570022 3.7206
-0.236309 0.488431 3.48003
-0.0374973 0.438657 3.79232
-0.00140966 0.51903 3.81138
-0.00058312 0.447717 3.8523
0.011923 0.434067 3.84273
-0.00139668 0.442521 3.84077
-0.0319195 0.431208 3.78364
0.0168487 0.43202 3.84963
0.02056 0.424032 3.82088
-0.0224301 0.588133 3.70901
-0.00981142 0.584047 3.72336
-0.00262566 0.581496 3.74109
-0.137045 0.595921 3.69326
-0.15051 0.606413 3.69026
0.0583601 0.532342 3.82747
0.203175 0.590431 3.69157
0.06292 0.429292 3.82249
0.282378 0.666559 3.57838
0.133544 0.572162 3.71502
0.156096 0.570783 3.71369
0.179025 0.570627 3.708
0.21213 0.581062 3.68808
0.115909 0.576819 3.71318
0.166734 0.632952 3.71969
0.141992 0.630687 3.71998
0.190836 0.628557 3.71263
0.206494 0.618732 3.70439
0.230409 0.562509 3.67814
0.12578 0.208889 3.73052
0.21268 0.594228 3.6837
0.295829 0.5556 3.57327
0.254858 0.573666 3.65445
0.161678 0.468963 3.74876
0.0733224 0.372447 3.79555
0.0692352 0.349671 3.78497
0.110942 0.368876 3.77941
0.134224 0.36221 3.75407
0.0968594 0.350435 3.77141
0.118349 0.348817 3.74858
0.159749 0.31252 3.70926
0.058814 0.445558 3.86557
0.0608427 0.474097 3.87083
0.239576 0.644204 3.69843
0.108816 0.530042 3.7466
0.117534 0.455255 3.80486
0.118087 0.469646 3.79581
0.232642 0.473586 3.71652
0.0596246 0.506514 3.8533
0.18569 0.676363 3.73756
0.217591 0.665627 3.7199
0.259735 0.718149 3.62237
0.0865071 0.657138 3.75955
0.12181 0.621412 3.7138
0.180562 0.345012 3.70438
0.271893 0.308262 3.51874
0.101847 0.438323 3.79697
0.0813624 0.428572 3.79987
0.164512 0.34471 3.7029
0.151618 0.343343 3.7089
0.229915 0.680923 3.70808
0.120276 0.445247 3.79222
0.142865 0.675644 3.75132
0.146959 0.697824 3.75594
0.169446 0.792772 3.70994
0.244293 0.700684 3.6703
0.156304 0.74711 3.73352
0.253039 0.652541 3.6786
0.267877 0.658075 3.63136
0.0717249 0.358773 3.7925
0.103335 0.357563 3.77557
0.126421 0.35564 3.75284
0.0968387 0.433513 3.79261
0.158619 0.344449 3.70627
0.143627 0.326358 3.72117
0.146625 0.342582 3.70937
0.086022 0.444941 3.83005
0.113149 0.350803 3.74438
0.0920707 0.349742 3.76156
0.0664703 0.347747 3.77438
0.0739272 0.244396 3.76165
0.0727669 0.270989 3.77815
0.0720366 0.285414 3.77884
0.0710744 0.296189 3.77175
0.0685821 0.304212 3.76692
0.116254 0.318616 3.73824
0.120351 0.316822 3.74227
0.125537 0.311733 3.74514
0.130152 0.303686 3.74078
0.152628 0.38348 3.74854
0.297726 0.429954 3.48129
0.130281 0.3258 3.71979
0.137441 0.327355 3.72204
0.0727385 0.416603 3.79939
0.11514 0.428876 3.77552
0.0769044 0.422195 3.80077
0.134343 0.516961 3.73892
0.174756 0.502431 3.73416
0.123892 0.458532 3.78258
0.224094 0.761652 3.66869
0.209156 0.731646 3.70355
0.193935 0.696505 3.73296
0.138202 0.285212 3.72592
0.0935536 0.692702 3.76724
0.101459 0.751691 3.75067
0.10932 0.808349 3.73431
0.19979 0.573935 3.69785
0.255383 0.543045 3.66653
0.105697 0.581859 3.70967
0.230451 0.608716 3.68564
0.0919502 0.546125 3.75437
0.100676 0.463362 3.8286
0.280174 0.521308 3.64059
0.240176 0.530965 3.68785
0.210846 0.525457 3.70947
0.166332 0.528406 3.71997
0.13273 0.537047 3.72442
0.108687 0.547947 3.73076
0.0608087 0.582392 3.78035
0.282646 0.471928 3.6493
0.247945 0.610652 3.67515
0.0504502 0.430648 3.85409
0.109475 0.505351 3.7597
0.302251 0.546525 3.49584
0.0918031 0.560969 3.73422
0.128294 0.45552 3.75769
0.220052 0.592219 3.67903
0.100916 0.481228 3.81772
0.289757 0.36993 3.49452
0.107412 0.589817 3.70307
0.0799147 0.496835 3.83978
0.223208 0.266246 3.63885
0.216754 0.228824 3.60191
0.302174 0.448029 3.56593
0.25506 0.296621 3.61272
0.282982 0.609295 3.5954
0.126956 0.181173 3.71939
0.0498239 0.421716 3.82208
0.13183 0.488422 3.75237
0.273985 0.564854 3.63127
0.177841 0.586205 3.70466
0.156919 0.585126 3.70986
0.149487 0.323338 3.7174
0.282179 0.418507 3.64363
0.0840627 0.143457 3.71856
0.151615 0.176271 3.66582
0.180697 0.198352 3.6364
0.137932 0.585916 3.71103
0.121184 0.588168 3.70764
0.1117 0.588732 3.70308
0.264268 0.612437 3.65157
0.125094 0.6049 3.71044
0.143412 0.610973 3.7147
0.163117 0.612499 3.71361
0.184017 0.609035 3.70845
0.197741 0.602915 3.70171
0.296767 0.6116 3.53179
0.192471 0.588002 3.69785
0.12822 0.396029 3.76898
0.101322 0.441857 3.80684
0.0757797 0.399457 3.79465
0.189029 0.233679 3.66041
0.158295 0.207544 3.68795
0.085585 0.162914 3.74583
0.246157 0.261352 3.55955
0.113102 0.595921 3.70607
0.076422 0.54078 3.79004
0.121026 0.157392 3.69724
0.295567 0.391631 3.57194
0.0948902 0.310365 3.75441
0.098935 0.305172 3.75859
0.102273 0.296426 3.76249
0.10506 0.283319 3.75979
0.110819 0.261046 3.74542
0.138811 0.347897 3.7271
0.14678 0.351159 3.72609
0.153467 0.355685 3.72671
0.172891 0.367434 3.72512
0.253881 0.412942 3.69234
0.0759856 0.56522 3.76556
0.0891803 0.609567 3.72008
0.10328 0.604237 3.71014
0.131948 0.349839 3.7243
0.253 0.343724 3.6559
0.068443 0.614977 3.75263
0.118192 0.237093 3.73704
0.0594429 0.556132 3.80687
0.0939991 0.501489 3.79365
0.0788386 0.218748 3.75694
0.172638 0.297886 3.69942
0.147449 0.435659 3.75016
0.147177 0.263812 3.71597
0.201891 0.439716 3.73934
0.170907 0.411221 3.74044
0.222292 0.398054 3.71716
0.0844254 0.188661 3.7561
0.109614 0.487268 3.77677
0.186528 0.270512 3.68262
0.155911 0.238304 3.70269
0.195013 0.335348 3.69825
0.27495 0.371918 3.63604
0.220656 0.322054 3.68101
0.281104 0.339796 3.58224
0.191437 0.383796 3.72443
0.0922324 0.522695 3.77333
0.093135 0.450534 3.83486
0.110744 0.44571 3.80896
0.0820617 0.46896 3.85056
0.106509 0.631588 3.7251
0.142306 0.646112 3.72846
0.174751 0.648816 3.72661
0.202305 0.643473 3.71706
0.221015 0.630751 3.70357
0.234324 0.583675 3.67059
0.301648 0.50189 3.56765
0.217465 0.554759 3.69003
0.192499 0.549597 3.70428
0.161174 0.550286 3.71319
0.132232 0.555293 3.71703
0.111132 0.562671 3.71849
0.0970976 0.570322 3.71996
0.300296 0.487623 3.48017
0.111285 0.439895 3.79721
0.076948 0.519095 3.81133
0.0758117 0.448797 3.85395
0.0624583 0.435101 3.84458
0.0760468 0.443793 3.84235
0.106519 0.432156 3.78954
0.0581297 0.432663 3.85106
0.0576379 0.424551 3.82247
0.0993643 0.588669 3.70775
0.085959 0.584195 3.72328
0.0786398 0.581382 3.74097
0.206156 0.598126 3.69418
0.218313 0.607716 3.69198
