ply
format ascii 1.0
comment Created by Open3D
element vertex 468
property double x
property double y
property double z
end_header
0.135141 0.292902 3.61529
0.137889 0.393548 3.66954
0.137618 0.357508 3.61002
0.115948 0.473681 3.63423
0.138241 0.41953 3.67519
0.136484 0.452322 3.66272
0.135727 0.529332 3.60181
-0.033798 0.533504 3.50445
0.13477 0.582883 3.58921
0.134331 0.615115 3.59461
0.135038 0.741094 3.56508
0.134546 0.280012 3.61283
0.133853 0.269601 3.60553
0.133745 0.263817 3.59446
0.138142 0.249157 3.58846
0.137875 0.237843 3.5927
0.135708 0.224697 3.5973
0.134904 0.209182 3.59301
0.134805 0.184138 3.57029
0.135359 0.379679 3.65737
0.113176 0.374109 3.62225
-0.146991 0.623839 3.38679
0.0362111 0.516824 3.53255
0.0106587 0.513948 3.53005
-0.0147872 0.513004 3.52243
-0.04674 0.525423 3.49968
0.0580263 0.522543 3.53077
-0.00618108 0.57709 3.53085
0.0223195 0.575665 3.53199
-0.0292686 0.5725 3.5226
-0.0440097 0.563621 3.51332
-0.0687062 0.504872 3.48711
0.041674 0.142621 3.53511
-0.0446221 0.539369 3.49585
-0.151104 0.50583 3.37858
-0.100193 0.518382 3.46128
0.0153984 0.402818 3.54805
0.105762 0.295695 3.61002
0.109092 0.2682 3.60119
0.073958 0.285223 3.59545
0.0544089 0.273248 3.57968
0.0852625 0.265433 3.59195
0.0695818 0.260505 3.57639
0.0222241 0.227886 3.53679
0.116791 0.393469 3.66447
0.113506 0.418369 3.66928
-0.0858491 0.584032 3.51068
0.0615596 0.472477 3.55477
0.0558751 0.393386 3.59936
0.0538486 0.407106 3.59029
-0.0612334 0.404432 3.51955
0.114404 0.44893 3.65582
-0.0233698 0.610059 3.55286
-0.0598866 0.602184 3.5351
-0.119123 0.672786 3.43356
0.085576 0.588073 3.5806
0.0490831 0.567237 3.52823
0.00567432 0.250551 3.53321
-0.130439 0.24258 3.31816
0.0766258 0.376474 3.59344
0.0982008 0.367258 3.59612
0.0342827 0.24901 3.54376
0.0442295 0.251201 3.54884
-0.0739139 0.617367 3.52201
0.0553007 0.38073 3.58565
0.0253385 0.606315 3.5677
0.0200441 0.627621 3.57077
-0.0109645 0.734362 3.52631
-0.0959608 0.646274 3.48231
0.00822783 0.682244 3.55153
-0.102287 0.593553 3.4895
-0.124093 0.607296 3.44105
0.106516 0.280056 3.6091
0.0806752 0.272972 3.59578
0.0624384 0.266412 3.57991
0.0835241 0.370442 3.5897
0.0399111 0.249678 3.54698
0.0491705 0.24531 3.55597
0.0457128 0.253498 3.5489
0.0865243 0.390323 3.62971
0.0730607 0.261627 3.57118
0.0899324 0.263095 3.58261
0.110913 0.263901 3.59166
0.102379 0.184354 3.56516
0.103412 0.210575 3.58857
0.106434 0.226349 3.59301
0.110998 0.240239 3.58935
0.113348 0.249352 3.58534
0.0715382 0.250296 3.56661
0.0677554 0.246396 3.56812
0.0614835 0.239496 3.56798
0.0556659 0.230877 3.56418
0.0353724 0.303144 3.56665
-0.149678 0.374632 3.28542
0.139534 0.367889 3.62806
0.0590899 0.251204 3.55814
0.0551629 0.248692 3.55792
0.106605 0.355541 3.59994
0.0681216 0.360121 3.56997
0.10212 0.361256 3.59885
0.037869 0.45738 3.54634
-0.00104841 0.437953 3.53995
0.0513102 0.39399 3.57734
-0.0758061 0.710848 3.48071
-0.0525191 0.671935 3.5165
-0.0321459 0.629921 3.54726
0.0422342 0.211328 3.54849
0.0770971 0.620756 3.58713
0.0682734 0.683144 3.57198
0.0574802 0.742798 3.55148
-0.0355644 0.516485 3.51067
-0.0977648 0.483649 3.47171
0.0713418 0.527571 3.53018
-0.0718501 0.553408 3.49734
0.0786713 0.488755 3.56469
0.0714807 0.405116 3.62405
-0.128533 0.46281 3.44468
-0.0787916 0.467873 3.49512
-0.0451051 0.460576 3.51778
0.00421908 0.467392 3.53173
0.0387949 0.479737 3.5365
0.0622424 0.491806 3.543
0.112787 0.522544 3.59325
-0.124358 0.407368 3.45396
-0.0965511 0.555351 3.48503
0.121875 0.379964 3.65497
0.063686 0.445563 3.56351
-0.157394 0.499833 3.30334
0.0815482 0.50378 3.54966
0.0534572 0.388593 3.55428
-0.0543221 0.538458 3.49169
0.0693332 0.421913 3.61276
-0.145855 0.309412 3.29406
0.0690517 0.5346 3.52549
0.0908806 0.438718 3.63853
-0.073165 0.189231 3.44332
-0.0768457 0.15347 3.40384
-0.14921 0.388144 3.36886
-0.104562 0.224981 3.41262
-0.137859 0.560896 3.40379
0.0330336 0.110321 3.52207
0.129649 0.368389 3.62499
0.0430286 0.425366 3.55277
-0.124681 0.511264 3.437
-0.00716385 0.526835 3.5208
0.0141174 0.526695 3.52848
0.0423524 0.241146 3.55186
-0.118957 0.350945 3.44397
0.0797827 0.0713636 3.52161
-0.00240818 0.0997626 3.47264
-0.038118 0.121224 3.44318
0.135369 0.680151 3.58156
0.135319 0.071726 3.53204
0.0339117 0.529482 3.52999
0.0532618 0.533876 3.5287
0.0649419 0.534653 3.5265
-0.116359 0.558405 3.45959
0.0435439 0.552456 3.52756
0.0191224 0.559037 3.52693
-0.00272527 0.559067 3.52421
-0.0230723 0.554476 3.51802
-0.0342881 0.548139 3.5109
-0.156114 0.567806 3.33953
-0.0223141 0.529607 3.51265
0.137471 0.336073 3.60622
0.0553607 0.321097 3.57736
0.075679 0.381942 3.60254
0.103549 0.331897 3.60119
0.134852 0.55675 3.5856
-0.0381684 0.155744 3.4671
-0.00418676 0.130969 3.49199
0.0782822 0.0977722 3.54742
-0.106445 0.191213 3.36042
0.0604044 0.541919 3.52815
0.0963356 0.482014 3.59782
0.133409 0.0971195 3.55724
0.0351837 0.0826395 3.50274
-0.143727 0.32821 3.37015
0.0910823 0.249906 3.5773
0.0865243 0.243047 3.58001
0.0809853 0.232547 3.58173
0.0765589 0.218641 3.57879
0.0671292 0.196586 3.56056
0.0540216 0.256622 3.56245
0.046906 0.258666 3.56295
0.0392896 0.262947 3.56184
0.0168374 0.279277 3.55294
-0.0821996 0.34261 3.49173
0.0968823 0.506462 3.5776
0.0892696 0.549413 3.5392
0.0714372 0.549718 3.53181
0.0588274 0.25916 3.55914
-0.0876232 0.27079 3.45704
0.105711 0.55182 3.56902
0.0543797 0.171188 3.54489
0.13645 0.478372 3.64105
0.113205 0.497197 3.61522
0.136321 0.502919 3.62137
0.0782027 0.441766 3.59413
0.133018 0.128783 3.56862
0.13426 0.159892 3.56748
0.0949734 0.159452 3.55923
-0.00358831 0.21478 3.51787
0.032963 0.366556 3.5498
0.0215822 0.189495 3.52913
-0.0226395 0.368856 3.53715
0.011512 0.33809 3.54803
-0.0454372 0.322476 3.5184
0.0842185 0.129404 3.55913
0.0628337 0.426257 3.57494
-0.0271907 0.190364 3.49361
0.00744787 0.162722 3.50931
-0.0219902 0.247604 3.51738
-0.112598 0.302443 3.43424
-0.0574192 0.241503 3.48897
-0.130978 0.273329 3.38031
-0.00902978 0.30036 3.53899
0.0799863 0.464097 3.57969
0.0781764 0.394865 3.63218
0.0642658 0.38438 3.60222
0.091127 0.413122 3.64919
0.0685407 0.570297 3.54565
0.025709 0.584478 3.54606
-0.0103076 0.588171 3.54166
-0.0397667 0.584612 3.53075
-0.0610253 0.573508 3.5169
-0.0746262 0.528708 3.48092
-0.153262 0.447802 3.37328
-0.0533388 0.495335 3.50027
-0.0279518 0.489568 3.51617
0.00654156 0.492225 3.52725
0.0386631 0.499421 3.53107
0.0620363 0.507509 3.53348
0.0786113 0.513751 3.53609
-0.15272 0.436986 3.2886
0.0653783 0.376342 3.59141
0.0970584 0.460202 3.61634
0.0974972 0.395215 3.65146
0.10886 0.381653 3.64213
0.0965255 0.389795 3.64032
0.0736794 0.366566 3.58387
0.113967 0.380454 3.64908
0.119847 0.369819 3.62338
0.0796991 0.532727 3.52821
0.0911023 0.526068 3.54042
0.0964107 0.522229 3.55616
-0.0403114 0.543469 3.50457
-0.0543158 0.552831 3.50105
0.157372 0.472763 3.63293
0.292905 0.529286 3.50443
0.161215 0.37682 3.62802
0.376817 0.597253 3.40279
0.221118 0.511795 3.52202
0.243649 0.508634 3.52183
0.266769 0.507631 3.51849
0.297325 0.520338 3.49896
0.205109 0.518378 3.52298
0.260056 0.56979 3.53278
0.233817 0.569268 3.53464
0.282466 0.565353 3.52663
0.295999 0.556766 3.51853
0.314137 0.49917 3.49261
0.216054 0.156898 3.54236
0.301898 0.534864 3.49765
0.382149 0.491641 3.39083
0.338803 0.511817 3.47129
0.242452 0.403444 3.55668
0.161471 0.297851 3.61184
0.154349 0.26943 3.60059
0.187054 0.28994 3.59723
0.20232 0.277028 3.5789
0.172386 0.267672 3.5898
0.187992 0.262061 3.57372
0.232443 0.235062 3.54243
0.156237 0.395477 3.66885
0.158962 0.419789 3.67385
0.326429 0.576395 3.51954
0.200558 0.470885 3.55658
0.208568 0.397404 3.61027
0.208562 0.410171 3.60073
0.301222 0.403124 3.52603
0.158474 0.448658 3.65621
0.27667 0.604731 3.56526
0.306437 0.595575 3.54617
0.354717 0.646859 3.44986
0.180882 0.585631 3.58293
0.214208 0.561234 3.52804
0.250567 0.256239 3.53578
0.369454 0.255112 3.32982
0.195048 0.381327 3.60391
0.175893 0.371609 3.60942
0.226521 0.249529 3.53888
0.213219 0.252031 3.5448
0.319467 0.609558 3.53535
0.208315 0.384541 3.59839
0.235564 0.602659 3.57822
0.240302 0.623634 3.58366
0.265162 0.71734 3.53781
0.335539 0.63002 3.49812
0.251913 0.672395 3.56295
0.340956 0.583328 3.50027
0.358069 0.589546 3.45583
0.158041 0.281925 3.60924
0.179413 0.276435 3.59484
0.194956 0.269489 3.57863
0.18921 0.375347 3.60191
0.219364 0.250374 3.54301
0.208915 0.248026 3.55681
0.210104 0.254421 3.54472
0.181895 0.393835 3.63276
0.182357 0.262014 3.56789
0.16816 0.263763 3.57931
0.151395 0.263919 3.58903
0.162512 0.18893 3.57041
0.161533 0.213711 3.59211
0.160562 0.228611 3.59447
0.160329 0.241397 3.58897
0.158278 0.250038 3.58437
0.188312 0.252198 3.56586
0.190957 0.249559 3.57013
0.195824 0.244165 3.57291
0.201925 0.236113 3.56946
0.224777 0.307546 3.57293
0.39411 0.368836 3.2958
0.198852 0.251504 3.55344
0.203234 0.250456 3.5565
0.168385 0.357733 3.60653
0.202747 0.364505 3.58599
0.171751 0.364645 3.60931
0.220911 0.454772 3.54728
0.253539 0.435427 3.54369
0.211908 0.397137 3.58889
0.318601 0.688527 3.49812
0.302395 0.658765 3.53294
0.286384 0.623624 3.56135
0.213221 0.219059 3.55236
0.188221 0.61735 3.59329
0.197636 0.677464 3.57906
0.205249 0.734322 3.56167
0.285819 0.511439 3.50931
0.335964 0.47798 3.48148
0.19793 0.523347 3.52112
0.317337 0.54673 3.50189
0.186703 0.486896 3.56462
0.194618 0.408767 3.63241
0.360285 0.45617 3.4544
0.320777 0.46221 3.50087
0.291355 0.455657 3.52219
0.250196 0.462809 3.53074
0.221088 0.476092 3.5342
0.20023 0.489317 3.54179
0.15795 0.52139 3.59278
0.357836 0.404359 3.46117
0.333948 0.547367 3.49283
0.147561 0.380704 3.65616
0.20148 0.44501 3.56714
0.396523 0.479563 3.31429
0.186059 0.501167 3.54702
0.215781 0.391557 3.56673
0.307439 0.533105 3.49276
0.193723 0.424355 3.62128
0.387819 0.313507 3.30771
0.200893 0.530533 3.51555
0.176164 0.439443 3.64232
0.313525 0.210839 3.45552
0.316259 0.177715 3.41562
0.387159 0.385483 3.38067
0.340259 0.24224 3.42423
0.372404 0.543194 3.41734
0.224929 0.127629 3.53053
0.14963 0.369027 3.62748
0.217806 0.425389 3.5592
0.357228 0.502344 3.44753
0.26804 0.521827 3.516
0.246339 0.520944 3.51922
0.215484 0.244166 3.55294
0.353878 0.354085 3.45435
0.187962 0.0816623 3.52741
0.257327 0.121965 3.4816
0.284731 0.14606 3.45298
0.226318 0.524223 3.51997
0.21143 0.528471 3.51671
0.204105 0.529545 3.51441
0.350234 0.547454 3.46974
0.215769 0.547323 3.52039
0.232791 0.554177 3.52457
0.25448 0.555377 3.5246
0.275641 0.551158 3.52097
0.287983 0.544533 3.51454
0.392199 0.542998 3.3545
0.282967 0.524949 3.50997
0.208678 0.325184 3.58655
0.194156 0.387547 3.61463
0.167979 0.334253 3.60571
0.285629 0.179417 3.48062
0.256363 0.153807 3.50411
0.184285 0.107645 3.5526
0.343565 0.210017 3.37015
0.206076 0.537262 3.5176
0.173114 0.481483 3.59932
0.226205 0.099663 3.50899
0.379667 0.333324 3.38467
0.175054 0.251284 3.57621
0.177687 0.245448 3.58061
0.180892 0.236206 3.58415
0.184747 0.22322 3.5821
0.190353 0.202803 3.5637
0.201337 0.25741 3.55853
0.20909 0.259703 3.55862
0.216098 0.264391 3.55797
0.239924 0.283108 3.55448
0.317549 0.346974 3.5014
0.172703 0.505073 3.57747
0.183233 0.547095 3.53755
0.196692 0.54468 3.52482
0.196455 0.259055 3.55378
0.325679 0.282695 3.46816
0.164018 0.550472 3.56891
0.201844 0.182484 3.55054
0.156743 0.497073 3.61704
0.187603 0.442857 3.60017
0.169067 0.165735 3.5633
0.255429 0.228597 3.52907
0.23113 0.36964 3.56292
0.230351 0.203552 3.53889
0.271804 0.372097 3.54809
0.247295 0.341701 3.5579
0.289248 0.329061 3.52876
0.178303 0.136967 3.56246
0.200803 0.4276 3.58301
0.276529 0.209674 3.50682
0.246621 0.181832 3.52125
0.273167 0.257632 3.52436
0.348607 0.311281 3.44706
0.298021 0.256708 3.50103
0.366796 0.284791 3.39308
0.260868 0.305443 3.54616
0.187522 0.463449 3.58153
0.187202 0.399213 3.63805
0.201898 0.389858 3.61511
0.178815 0.415729 3.65458
0.200011 0.566796 3.54384
0.234509 0.580549 3.55002
0.266097 0.582563 3.54837
0.29273 0.576968 3.53793
0.308737 0.565823 3.52277
0.319987 0.523281 3.4862
0.387831 0.438297 3.38288
0.30155 0.48994 3.50339
0.277569 0.484382 3.51774
0.247423 0.487411 3.52413
0.220674 0.495249 3.52546
0.2014 0.504616 3.52986
0.189756 0.511064 3.53211
0.394836 0.42284 3.2964
0.20129 0.381254 3.60457
0.174713 0.459841 3.61734
0.172317 0.398938 3.65738
0.158429 0.385016 3.6479
0.171896 0.393914 3.64556
0.195186 0.371082 3.59845
0.154163 0.38285 3.65386
0.156352 0.372014 3.62852
0.192776 0.529324 3.52138
0.179169 0.523906 3.53751
0.172931 0.52079 3.55541
0.295285 0.539377 3.5079
0.305563 0.547297 3.50598
